ply
format ascii 1.0
comment VCGLIB generated
element vertex 1780
property float x
property float y
property float z
element face 0
property list uchar int vertex_indices
end_header
-0.13928 0.12029 0.01695
0.16578 -0.09548 0.18566
-0.11047 0.27084 -0.06594
-0.18566 0.31982 -0.14827
0.00967 -0.15356 -0.13656
0.14643 -0.05392 -0.11063
0.12746 -0.35868 0.10607
-0.18566 -0.11174 -0.08336
-0.18566 -0.41639 -0.17359
0.17729 -0.15356 0.09418
-0.03742 -0.15356 0.06986
0.15700 -0.36534 0.18566
0.11661 -0.33477 0.18566
-0.18448 -0.33216 -0.11667
0.17460 -0.16202 -0.11667
-0.18566 -0.13404 0.03101
-0.13543 -0.02213 -0.15208
-0.18566 0.24422 0.04202
-0.16663 -0.42551 0.14881
0.16200 -0.34352 0.18566
-0.10936 0.34360 0.03385
-0.11557 -0.30216 -0.17163
0.18566 -0.22669 0.14274
0.17147 -0.22657 -0.11667
-0.11557 0.26980 -0.05064
-0.18566 -0.16889 -0.15402
-0.18566 0.29725 -0.13202
-0.03284 -0.05275 0.15222
-0.14821 0.13884 -0.05277
-0.18566 -0.36438 -0.16648
0.14758 -0.15356 -0.01871
-0.12289 -0.10635 -0.18566
-0.12765 0.42527 0.00289
-0.12441 -0.25956 0.10607
-0.05856 -0.15356 0.14699
-0.18566 -0.21506 0.18538
-0.11557 0.19084 0.00004
-0.18122 -0.04545 -0.05649
-0.16271 -0.15356 -0.10469
-0.18566 0.35227 0.05917
-0.18566 0.19689 0.11877
-0.04998 -0.04545 0.07614
-0.06887 -0.04545 0.05150
-0.05572 -0.15356 -0.16109
-0.15812 -0.15356 -0.11379
-0.13716 0.13367 -0.11026
-0.12195 0.13884 -0.09443
0.17644 -0.22642 0.18566
-0.14236 0.13884 -0.03056
-0.17015 -0.24577 0.18566
-0.10322 -0.07024 -0.17210
-0.16622 -0.32744 -0.11667
-0.10936 0.30943 -0.05911
-0.18566 0.20359 0.06138
0.11383 -0.23796 0.10607
0.18462 -0.31934 0.10607
0.18566 -0.39193 -0.15874
-0.17960 -0.32347 -0.18566
-0.05444 -0.07868 -0.17970
-0.18566 0.26967 -0.00659
0.06576 -0.15356 0.09403
-0.13908 0.36534 -0.14987
-0.11557 -0.42280 -0.14693
0.06766 -0.04545 -0.10742
0.11285 -0.21366 -0.16290
0.07132 -0.04545 -0.07585
-0.11557 -0.29875 -0.14457
-0.18566 0.30341 0.18544
-0.10308 -0.04545 -0.05459
0.14985 -0.29200 -0.18566
-0.11557 0.26922 0.10173
-0.11557 0.39129 0.00454
-0.17219 0.01312 0.01695
0.12812 -0.26465 0.10607
-0.10936 0.37325 0.04318
-0.11557 0.24418 -0.15645
-0.11557 -0.18748 0.15633
-0.11557 -0.31298 -0.16884
-0.18566 0.08996 0.09547
0.11285 -0.16129 0.12251
-0.10936 0.30945 -0.02270
-0.13129 0.23014 -0.18566
-0.02925 -0.15356 -0.10501
-0.00047 -0.15356 -0.00959
-0.12466 -0.42551 -0.12322
-0.11557 -0.41617 0.11031
-0.17817 -0.42551 0.11607
-0.11557 0.26213 0.11224
0.11285 -0.26542 -0.18084
-0.18566 0.33283 -0.16034
-0.11557 0.14050 -0.00786
0.04199 -0.04957 0.14894
-0.18566 0.02252 -0.02261
-0.08785 -0.04545 0.10810
-0.14076 -0.01550 0.09513
-0.18566 -0.28691 -0.12471
-0.06178 -0.15356 -0.01469
-0.00456 -0.10166 -0.18566
-0.00559 -0.06916 0.16908
0.17509 -0.36618 0.10607
-0.15021 -0.02574 -0.02671
-0.16313 -0.15356 0.07956
-0.18566 -0.07163 -0.14718
-0.18566 0.02555 -0.01509
-0.13911 -0.01232 -0.11026
0.02763 -0.04545 0.06902
-0.18566 0.01199 -0.02150
0.11285 -0.42371 0.17169
-0.11557 0.15160 0.02052
-0.18566 0.00408 -0.14227
0.18566 -0.35914 0.13199
0.18566 -0.25667 -0.17998
-0.16675 -0.38560 0.18566
0.18566 -0.16761 -0.12992
-0.11557 -0.26283 -0.12297
0.10297 -0.13627 -0.18566
0.17775 -0.07896 0.05335
-0.10936 0.34222 0.02689
0.18566 -0.14649 -0.06896
-0.18239 -0.04545 0.07271
0.08540 -0.15356 -0.08530
0.15009 -0.26890 -0.11667
-0.18566 -0.04740 0.08771
-0.16366 -0.17635 0.18566
-0.15807 0.06962 0.01695
0.17953 -0.34345 -0.11667
-0.18566 -0.32030 0.11373
-0.11774 0.08075 -0.11026
0.18566 -0.13387 -0.13827
0.05170 -0.05463 0.15415
0.18566 -0.32597 -0.15782
-0.07097 -0.15356 -0.04054
0.18566 -0.36140 -0.12599
-0.14144 -0.02362 -0.11026
-0.18566 -0.24611 0.11601
-0.18027 -0.02869 0.09513
-0.14361 0.39289 0.11401
0.11285 -0.22445 -0.16800
0.18566 -0.10300 0.03325
0.09170 -0.15356 -0.13877
-0.11557 -0.18945 0.18216
-0.11557 0.11566 -0.01997
-0.12862 0.10917 0.14075
-0.01767 -0.15356 0.06463
-0.12616 0.09346 -0.11026
0.18566 -0.17472 0.16887
0.06113 -0.15356 0.08112
-0.01955 -0.15356 0.18552
-0.14374 -0.30616 -0.18566
0.14717 -0.29862 0.10607
0.18566 -0.33762 0.12110
-0.03260 -0.15356 -0.14181
0.15318 -0.19989 -0.11667
0.18566 -0.17520 -0.16801
-0.17454 -0.42172 0.10607
-0.18566 0.19369 -0.04916
-0.17891 0.26121 0.18566
-0.17989 -0.32872 -0.11667
-0.11557 0.22913 -0.12927
-0.17437 -0.36517 0.10607
-0.18566 0.20219 0.09164
-0.11557 0.41825 -0.00393
-0.14370 0.13884 -0.04356
-0.15551 0.26631 0.18566
-0.18566 0.21002 -0.13502
-0.15533 0.11954 0.01695
-0.11557 0.23935 0.14984
-0.06472 -0.15356 0.08438
-0.11557 -0.24957 0.15825
0.14859 -0.18725 -0.18566
-0.18566 0.42170 0.02215
0.18566 -0.22369 -0.16044
-0.12298 0.05739 0.01695
0.02008 -0.04545 -0.11368
-0.14671 0.06123 0.14075
-0.11557 -0.34392 0.11538
-0.13094 -0.15356 -0.08749
-0.15641 -0.29694 0.18566
-0.10936 0.31899 0.08166
-0.18566 0.35443 0.04503
-0.15768 -0.37776 -0.11667
-0.18566 0.32392 -0.14335
0.11285 -0.41939 0.13154
-0.17164 0.13884 0.09211
-0.11557 0.12919 -0.11179
0.05566 -0.15356 -0.07727
-0.18566 -0.37991 0.18225
-0.03774 -0.15356 0.11929
0.09047 -0.07882 -0.17983
0.16539 -0.34100 -0.18566
0.14456 -0.15356 -0.11414
-0.18566 -0.11115 0.07136
-0.18566 0.31890 -0.01579
0.16770 -0.25997 0.18566
-0.18566 -0.12499 0.15397
-0.10559 -0.04545 0.06007
0.16658 -0.07003 0.00928
0.13545 -0.04545 0.10276
-0.13577 0.42086 0.04276
-0.02425 -0.04545 0.04086
-0.07215 -0.06968 -0.17159
-0.06229 -0.06256 0.16229
0.18566 -0.26836 0.15552
0.11403 -0.15905 -0.11667
-0.07114 -0.04545 -0.09619
-0.18566 0.24623 -0.13607
0.16126 -0.42551 0.18378
-0.07767 -0.07985 -0.18076
-0.11557 0.24664 -0.05247
0.11285 -0.18249 -0.16843
-0.15317 -0.34181 0.18566
0.11285 -0.25450 -0.18388
-0.10936 0.35805 -0.03008
-0.14917 -0.27835 -0.18566
-0.11557 0.18410 0.08128
-0.01270 -0.15356 0.00543
-0.17473 -0.33067 0.10607
-0.09407 -0.04545 -0.14587
-0.13977 0.21721 0.18566
-0.18566 -0.04969 -0.13939
-0.11557 -0.19407 -0.16093
-0.11557 0.30369 -0.16133
-0.10936 0.28860 0.01222
-0.18566 0.12599 -0.01506
0.00731 -0.15356 0.17730
0.14308 -0.05124 -0.00485
0.18566 -0.09572 -0.09751
0.12937 -0.04545 -0.04056
0.11285 -0.17410 0.18390
-0.15365 -0.00950 -0.02671
0.00556 -0.04545 -0.08082
-0.18566 0.08246 -0.14765
-0.18156 -0.15356 -0.03316
-0.17377 -0.04545 0.04467
0.18566 -0.22640 -0.17095
0.11285 -0.23822 -0.18444
-0.18566 -0.40125 -0.17872
-0.17624 -0.38488 0.10607
-0.17419 0.32989 0.18056
-0.11557 0.18332 0.14872
0.17290 -0.25764 -0.18566
-0.14505 -0.39570 0.18566
0.14155 -0.22897 0.18566
0.12583 -0.41445 -0.11667
0.01202 -0.15356 -0.08347
0.16298 -0.15356 0.02364
0.11058 -0.13165 0.18566
0.06108 -0.15356 0.05804
0.11934 -0.06028 -0.16311
-0.18566 0.17320 -0.09183
-0.18566 0.39502 0.06257
0.01180 -0.04545 0.00348
0.11491 -0.42148 -0.11667
0.18566 -0.12430 -0.05965
-0.11557 0.09529 0.13087
-0.11557 0.14189 0.09788
0.18226 -0.15356 0.04617
0.02070 -0.11421 -0.18566
-0.11557 -0.21566 0.18014
0.13742 -0.35512 0.18566
-0.18566 0.30110 0.06615
0.11285 -0.28832 -0.12838
0.03586 -0.15356 -0.06239
-0.06465 -0.04545 -0.00979
-0.16962 -0.11049 0.18566
-0.12664 0.03636 0.01695
-0.18566 0.21076 0.10448
0.08096 -0.06955 -0.17147
-0.17727 0.41800 -0.05389
0.18566 -0.13947 -0.15372
-0.04997 -0.05432 -0.15774
-0.11372 0.27084 -0.09847
-0.16185 0.13884 0.03206
0.13479 -0.23992 -0.11667
0.17829 -0.07939 0.13872
-0.09904 -0.04545 -0.09514
-0.12776 -0.34251 0.18566
0.18566 -0.37458 -0.15478
-0.00949 -0.15356 0.17616
-0.09464 -0.15356 0.02209
-0.11510 -0.15356 0.12908
0.18566 -0.36808 0.17594
0.14523 -0.05296 -0.08621
-0.17465 -0.01902 0.01695
0.18566 -0.31199 0.11339
-0.18566 0.21664 -0.18548
-0.18566 0.25611 0.10616
-0.18566 0.21097 -0.17658
-0.09874 -0.15356 0.02862
0.04790 -0.15356 0.14006
-0.11557 0.23262 -0.03690
0.07146 -0.04545 -0.02839
-0.12576 0.13884 -0.17356
-0.11557 0.22067 0.16509
-0.18566 0.14938 -0.14488
0.18566 -0.10543 0.16666
-0.11912 -0.20074 -0.11667
-0.18566 0.02479 0.00269
-0.17920 0.13884 0.02476
0.18566 -0.36260 -0.13132
-0.11557 0.10546 0.09870
-0.04604 -0.15356 -0.03768
-0.04335 -0.12890 -0.18566
-0.18566 -0.37703 -0.14392
-0.18566 0.02411 -0.13530
-0.11557 -0.35227 -0.18452
-0.14631 -0.33979 -0.18566
0.18566 -0.25255 0.11281
-0.11557 -0.37140 -0.11850
-0.18566 -0.13972 -0.10535
-0.17072 -0.03312 0.14075
-0.14527 -0.15356 0.08404
-0.14049 -0.01943 0.14075
0.13242 -0.27827 0.18566
-0.06933 -0.15356 0.10385
-0.08262 -0.15356 -0.04927
-0.18566 -0.20084 0.12523
-0.16496 0.28577 0.18566
0.01715 -0.05506 0.15459
0.00036 -0.04545 0.00226
-0.11557 0.17315 -0.07779
-0.18566 -0.10847 0.10385
-0.15577 0.04627 0.01695
-0.18566 0.23703 0.06197
-0.18566 0.18458 -0.14517
0.13668 -0.11361 0.18566
-0.10132 -0.15356 0.05646
0.17345 -0.23545 -0.18566
-0.18566 0.09889 -0.11063
0.18566 -0.32350 -0.17005
0.15625 -0.30493 0.18566
-0.17524 0.13679 -0.02671
-0.18566 -0.25089 -0.16961
-0.15440 -0.34602 0.10607
0.16757 -0.41395 0.10607
0.02896 -0.15356 -0.14266
-0.11557 0.22105 -0.12111
0.18566 -0.23332 -0.15843
-0.14473 -0.36334 -0.18566
-0.12732 0.02047 0.14075
0.11285 -0.30718 -0.15390
-0.12728 0.41733 -0.05650
-0.12572 -0.01585 0.01695
-0.18566 0.14187 -0.05062
-0.17012 0.08436 0.01695
-0.16884 -0.17869 0.10607
-0.11557 0.19659 -0.04680
-0.16843 0.13884 -0.08346
-0.16781 -0.30263 -0.18566
-0.08560 -0.15356 0.14673
-0.11557 0.38516 -0.08432
0.06044 -0.04545 -0.12270
-0.15740 -0.42551 -0.16978
0.05409 -0.15356 -0.14539
-0.11557 -0.36662 0.18062
-0.14856 -0.34858 0.18566
-0.11557 0.20379 0.03052
0.18566 -0.09171 -0.15953
-0.11557 0.26175 -0.10560
0.16312 -0.32467 0.18566
-0.16738 -0.38808 -0.18566
-0.14863 -0.40362 -0.11667
-0.18566 0.28773 0.15208
0.16738 -0.15356 -0.08242
-0.13286 0.32821 0.18183
0.14565 -0.05330 0.08847
-0.18566 -0.18184 -0.18052
-0.02404 -0.15072 -0.18566
-0.12544 0.07746 0.14075
-0.18173 0.36457 -0.15068
-0.17200 -0.25830 -0.11667
0.15457 -0.06044 0.11324
-0.18566 0.17737 -0.08200
-0.16023 -0.35062 0.18566
-0.15592 -0.20306 0.18566
-0.10936 0.34652 -0.01153
-0.10936 0.32295 0.01296
-0.14642 0.13884 0.17043
-0.16815 0.24060 0.18566
-0.10610 -0.04545 -0.08837
-0.18566 0.28497 0.07351
0.03744 -0.15356 0.11061
-0.11557 0.37854 0.07183
0.11824 -0.04545 0.02255
-0.16489 0.42283 0.03184
-0.06396 -0.07977 0.17999
-0.10936 0.36655 -0.01642
-0.01387 -0.15356 0.13929
-0.18566 0.30307 0.09444
-0.11557 0.01496 0.10542
-0.15382 -0.05273 0.15220
0.17493 -0.33547 0.10607
0.02633 -0.15356 0.11945
-0.17979 0.05601 -0.11026
-0.18566 -0.27554 0.11015
-0.16119 -0.36797 -0.18566
0.12523 -0.04545 0.10508
-0.18566 -0.12332 0.09531
-0.17153 -0.34250 -0.11667
-0.10936 0.27659 -0.05867
-0.05489 -0.15356 -0.06196
0.15111 -0.05767 0.07046
-0.11557 -0.02602 -0.12248
-0.18566 -0.24135 -0.16424
-0.11457 0.27084 0.04618
0.15205 -0.39513 -0.18566
0.18566 -0.12104 -0.06911
-0.13524 -0.15356 -0.09219
-0.18566 -0.14120 0.06888
0.01028 -0.15356 -0.01508
0.18566 -0.14018 -0.12622
0.18282 -0.08302 -0.05827
0.11833 -0.27211 -0.18566
-0.16383 0.36512 -0.15010
-0.01615 -0.06934 -0.17128
0.08252 -0.15356 -0.06286
-0.15162 0.20116 -0.18566
-0.14181 0.03377 -0.11026
-0.17576 0.35658 -0.15916
-0.11557 0.39009 -0.07293
-0.11557 -0.34180 0.10818
-0.13175 -0.37019 -0.18566
-0.14245 -0.14572 0.18566
-0.18566 0.41082 0.00373
-0.11557 -0.35929 0.14746
0.11285 -0.27365 -0.13270
-0.13183 0.24547 -0.18566
-0.11557 0.30753 -0.16756
0.15394 -0.14801 -0.18566
0.11285 -0.27988 0.10650
0.18566 -0.11850 -0.08412
-0.18530 -0.40174 -0.11667
-0.18566 0.36117 -0.02118
-0.12369 0.09110 -0.15208
0.11285 -0.28578 0.14217
-0.05489 -0.15356 -0.03187
-0.17939 -0.38882 -0.11667
-0.18566 0.02087 -0.12645
0.12652 -0.39462 -0.11667
0.17142 -0.32684 -0.18566
-0.11725 -0.07539 0.17549
-0.18566 0.20930 0.09006
-0.11557 0.20423 0.14778
-0.18566 -0.21334 -0.18297
-0.12943 0.14738 0.18566
-0.16684 0.08896 0.01695
0.04372 -0.04545 0.01887
0.15507 -0.41940 0.10607
0.10376 -0.08099 -0.18179
-0.18566 0.21880 0.02101
-0.18446 0.38673 0.12325
-0.15352 -0.29825 0.10607
0.06384 -0.10526 0.18566
0.14479 -0.42551 -0.18098
-0.10936 0.34163 -0.11896
-0.11539 0.38474 0.04693
0.04707 -0.15356 -0.07654
-0.11557 -0.38277 -0.15050
0.18566 -0.23221 0.15921
0.03791 -0.15356 -0.01531
0.18521 -0.42551 -0.16129
0.11285 -0.20573 0.14054
-0.14616 0.40706 0.08623
0.11285 -0.37848 0.17864
0.11482 -0.15356 -0.06504
0.10279 -0.04545 -0.01262
-0.06843 -0.15356 0.15213
0.18566 -0.08960 -0.08683
-0.11557 0.11119 -0.02306
-0.13112 -0.42551 -0.12681
-0.15499 -0.06820 0.16810
-0.11557 0.16551 0.10595
-0.18417 0.11196 -0.15208
0.18566 -0.30076 0.15262
-0.17806 0.00725 -0.02671
0.16747 -0.20930 -0.18566
0.18566 -0.31895 0.18216
-0.09191 -0.15356 -0.04767
-0.15038 -0.11759 -0.18566
-0.18566 0.12873 0.09664
-0.11557 0.20497 -0.05212
0.05824 -0.12804 -0.18566
-0.05275 -0.15356 -0.13440
0.11285 -0.41823 -0.16256
0.16770 -0.17095 0.10607
-0.17496 0.03647 0.09513
-0.13975 -0.42551 0.14619
-0.16834 0.41053 -0.07844
-0.11557 0.29175 -0.16580
0.12291 -0.04545 -0.03966
-0.10936 0.37339 0.03766
0.15504 -0.12785 0.18566
-0.15211 -0.00150 0.09513
0.13604 -0.41337 0.10607
0.18566 -0.14629 0.04626
0.15640 -0.24274 0.10607
0.05193 -0.10681 -0.18566
0.09787 -0.15356 -0.00017
0.16342 -0.42551 0.12676
-0.11557 0.36341 -0.09251
-0.10936 0.32168 -0.11893
-0.11557 0.15630 -0.18207
-0.18566 -0.15279 0.02301
-0.11557 0.20025 0.07030
0.17644 -0.15702 0.18566
-0.11557 -0.36798 -0.13843
0.06638 -0.04545 0.04494
0.11285 -0.28326 -0.18463
0.18566 -0.34962 -0.14776
0.13553 -0.15356 0.03260
-0.18566 -0.17178 0.11490
-0.11607 0.13884 0.09004
0.11285 -0.26759 0.15751
0.03036 -0.04545 -0.07774
-0.18566 0.17492 -0.02930
0.15650 -0.15356 0.01073
-0.17784 0.24874 0.18566
-0.17933 0.19169 -0.18566
-0.06753 -0.15356 -0.13735
0.18566 -0.33488 -0.13578
-0.18566 0.28196 0.09827
-0.10936 0.29603 -0.09813
-0.16182 0.41567 0.06294
0.14903 -0.17220 -0.11667
-0.18561 0.25634 0.18566
-0.15760 -0.24170 0.18566
-0.16821 -0.15356 -0.06818
-0.04584 -0.11841 -0.18566
-0.11557 -0.21458 0.16095
-0.17489 -0.08978 0.18566
-0.17274 0.10990 0.09513
-0.18566 -0.26780 -0.11828
0.16696 -0.17048 0.18566
-0.14891 -0.23000 -0.11667
-0.11557 -0.37808 0.17084
-0.11557 -0.17410 -0.12531
-0.03335 -0.04545 -0.13026
0.10481 -0.04545 -0.10325
-0.11557 -0.41867 -0.11706
-0.08729 -0.15356 -0.14123
0.18566 -0.30642 0.18536
0.12712 -0.15356 0.01403
-0.08286 -0.15356 -0.00119
0.16523 -0.39893 -0.11667
-0.18566 0.27324 0.17612
-0.18566 -0.14566 0.02416
-0.11557 -0.25117 0.12551
-0.16601 -0.15356 0.01357
0.14163 -0.35073 -0.18566
-0.16585 -0.06451 0.16431
-0.11557 -0.04069 0.13938
-0.11557 -0.41759 -0.18043
-0.11557 0.07346 0.12607
-0.16548 -0.22518 0.18566
0.11285 -0.36530 0.17703
0.16484 -0.39050 0.10607
-0.18317 -0.04545 0.05225
0.12805 -0.04545 0.13053
-0.11557 -0.35281 0.14228
-0.06221 -0.04545 -0.09915
0.17455 -0.39839 0.18566
0.11285 -0.29080 -0.15466
0.18566 -0.31875 0.14699
-0.14025 -0.42551 -0.16156
-0.15044 0.13884 0.15317
-0.12687 0.33410 -0.17738
0.11285 -0.31630 0.17273
-0.11557 0.15317 -0.12565
0.11285 -0.21307 0.11625
0.18566 -0.14221 -0.16386
-0.11557 0.15526 -0.16499
-0.17188 -0.39748 0.18566
-0.13173 -0.39679 0.10607
-0.16670 0.08873 0.09513
-0.11743 0.13884 -0.16181
-0.10936 0.31888 -0.07781
-0.18566 0.35881 -0.06795
0.18566 -0.36346 -0.14870
-0.18566 0.41365 0.05835
0.04370 -0.15356 -0.05274
0.12087 -0.04545 0.08119
-0.10936 0.32777 0.06483
-0.04937 -0.15356 0.11366
0.17683 -0.24740 0.18566
0.15117 -0.31336 -0.11667
-0.13404 0.32274 -0.18566
0.12941 -0.39770 -0.18566
-0.18566 -0.38033 0.11609
-0.11557 0.24735 0.16227
0.18566 -0.30563 -0.14013
-0.11557 -0.18181 0.15210
-0.18566 -0.29772 0.18152
0.18566 -0.10878 0.07819
-0.16767 0.42435 0.01381
-0.11557 -0.18422 -0.18313
0.10178 -0.04545 -0.12195
-0.18566 -0.29291 -0.14526
0.14252 -0.15356 0.04485
-0.12181 -0.37645 -0.11667
0.11807 -0.38561 0.18566
-0.16633 0.13884 -0.18297
-0.10936 0.35794 0.08246
0.16265 -0.23087 0.10607
-0.18566 -0.36798 0.17220
0.11505 -0.13862 -0.18566
0.18566 -0.12967 0.07516
-0.15273 0.37861 -0.13543
-0.18566 0.31338 -0.12645
0.17325 -0.15356 0.00934
-0.12871 0.06577 -0.11026
-0.18566 -0.01610 0.12415
-0.13908 0.09057 -0.02671
-0.17187 -0.15644 -0.11667
0.18152 -0.16663 0.10607
-0.16743 0.00076 0.09513
-0.12666 0.42263 -0.03424
-0.11557 0.13108 0.13706
0.03713 -0.05405 0.15355
0.11285 -0.25264 -0.13978
-0.18566 -0.27646 0.16921
-0.18566 -0.05247 -0.14920
-0.18463 -0.21357 0.10607
-0.18566 -0.11388 0.06199
-0.18566 0.27232 -0.08698
-0.11557 0.21658 -0.13744
-0.18566 0.30284 -0.15509
-0.06671 -0.15356 0.06374
-0.18566 -0.06932 0.03801
-0.18566 0.36574 0.04579
-0.18566 -0.25474 0.11290
-0.14886 0.25910 0.18566
-0.18566 0.11560 0.10221
-0.11515 -0.15356 0.13438
0.00448 -0.04545 0.02146
0.16511 -0.33797 -0.11667
0.01951 -0.15356 -0.12678
-0.18566 0.16625 -0.02420
-0.03747 -0.15356 -0.09251
-0.16745 0.32369 0.18524
0.15302 -0.05919 -0.05790
-0.18566 0.24480 -0.00945
-0.07456 -0.05157 -0.15526
-0.13912 -0.28124 -0.18566
-0.18566 -0.02331 0.01474
0.06641 -0.04545 0.03118
-0.18566 -0.09158 -0.17728
0.11285 -0.23806 0.11525
-0.13532 0.40812 0.08384
-0.18566 0.30683 -0.03749
-0.08838 -0.15356 -0.18143
-0.10936 0.33440 -0.07892
-0.18566 0.21418 0.08273
-0.18566 0.24716 -0.16728
-0.12872 -0.36347 0.10607
-0.11557 -0.25533 -0.13531
-0.18566 0.00080 -0.11312
-0.11557 0.33814 -0.16726
-0.06893 -0.08237 0.18266
0.11285 -0.22576 -0.11953
-0.12004 -0.04545 0.08570
-0.18566 0.29142 -0.09009
-0.14440 0.04147 -0.02671
-0.18566 -0.33179 0.13281
-0.18566 -0.00760 -0.00225
-0.10936 0.35746 0.00715
-0.18566 -0.02128 0.00594
-0.17383 -0.27572 0.10607
0.18137 -0.32431 -0.18566
-0.11557 0.17248 -0.11623
-0.18053 -0.16573 -0.11667
-0.18566 0.17944 0.07571
-0.10936 0.31726 0.13274
-0.11557 0.33214 -0.14297
-0.11557 0.17635 -0.06042
-0.15833 0.09278 -0.15208
-0.11557 0.22852 0.01247
0.15426 -0.16121 -0.18566
-0.06642 -0.04545 0.10172
0.11285 -0.15709 0.10880
-0.07227 -0.04545 0.00930
-0.16169 0.13884 0.17574
-0.14905 -0.38817 -0.18566
-0.12975 0.41918 -0.04929
-0.13179 -0.35802 0.18566
0.15622 -0.27338 -0.18566
-0.18566 -0.26594 -0.17024
-0.18566 -0.18998 0.11618
0.05861 -0.04545 -0.05841
-0.18566 0.28538 -0.07402
-0.16949 -0.15356 -0.04968
-0.02519 -0.04545 0.05935
-0.11557 0.36938 -0.12248
-0.08064 -0.04545 0.07207
-0.18566 -0.40620 -0.12176
-0.11557 -0.25777 -0.17913
-0.13890 0.01426 -0.11026
0.11475 -0.04545 -0.07660
0.13204 -0.27097 0.10607
-0.12305 -0.21308 0.10607
-0.11557 -0.38393 0.13148
-0.09992 -0.08265 -0.18328
-0.11557 -0.40723 0.16769
-0.00037 -0.05040 -0.15421
-0.00733 -0.15356 0.08381
-0.02949 -0.13358 0.18566
-0.18566 0.19264 -0.06318
-0.12424 -0.18223 0.18566
-0.18566 -0.29351 0.12771
-0.18566 0.23725 0.08398
-0.11557 0.14387 -0.05897
-0.11557 0.07007 -0.14056
-0.11557 0.22183 0.17067
-0.15127 -0.15356 0.05773
-0.12558 0.20657 0.18566
-0.18566 0.15241 0.13406
-0.17439 -0.04545 -0.07203
0.11285 -0.16453 0.16507
-0.18566 0.31409 -0.08623
-0.10648 -0.04545 0.11170
-0.16694 0.06892 -0.15208
0.18222 -0.39763 -0.11667
0.05767 -0.04545 -0.08953
-0.14883 0.14634 0.18566
-0.13412 0.03427 0.09513
-0.11557 -0.40936 0.18347
-0.12280 -0.03551 0.01695
-0.18566 0.07684 0.01238
-0.09118 -0.15356 0.04454
-0.18566 -0.37648 0.16878
-0.15780 0.10927 -0.15208
0.14213 -0.05048 0.14073
-0.15162 0.23178 -0.18566
-0.10936 0.27748 -0.03822
0.15547 -0.31037 -0.18566
0.07932 -0.04545 -0.05130
0.18566 -0.31415 0.16479
-0.06069 -0.04545 0.03072
0.11511 -0.35992 0.10607
0.16775 -0.42551 0.11360
0.18566 -0.09903 -0.11621
-0.10239 -0.04545 -0.01029
-0.11557 -0.39933 0.18095
-0.11557 -0.29747 0.13829
-0.12314 -0.19408 -0.11667
0.04070 -0.15356 0.07909
0.07293 -0.15356 0.04597
-0.11557 0.22053 0.07845
0.16957 -0.34060 0.18566
-0.11557 0.19766 -0.13053
-0.11557 0.35480 0.13320
-0.15669 -0.00144 -0.02671
0.08996 -0.11934 -0.18566
-0.12272 -0.42551 -0.13200
-0.02263 -0.04545 0.10652
-0.17670 0.13884 -0.16262
-0.13007 0.13884 0.16941
-0.18566 0.35637 -0.13459
-0.11709 -0.32604 -0.18566
0.15544 -0.17515 -0.18566
0.08877 -0.04545 0.10342
0.16924 -0.08723 -0.18566
0.18566 -0.17517 -0.11787
-0.13710 0.22433 -0.18566
-0.17270 0.06629 -0.11026
-0.14125 -0.19852 0.10607
-0.18566 0.10734 0.10109
0.12835 -0.36662 -0.18566
-0.11557 0.35749 -0.11569
-0.09576 -0.15220 0.18566
0.03793 -0.04545 0.09304
0.11285 -0.36034 0.11949
0.15966 -0.15356 -0.10951
-0.13024 -0.39226 0.18566
-0.14931 0.13884 -0.03229
0.18566 -0.35746 0.15584
-0.13926 -0.10690 0.18566
0.18566 -0.27604 -0.17883
0.12971 -0.38729 0.10607
0.18566 -0.11089 -0.02164
-0.18566 -0.12135 0.13975
-0.17575 -0.00527 0.09513
-0.12351 0.14461 -0.18566
0.11285 -0.39641 0.15148
-0.18268 -0.15356 -0.07843
0.18566 -0.40557 -0.12942
0.05003 -0.07572 0.17583
-0.11557 0.16700 0.17117
-0.15222 0.42432 0.01414
0.11285 -0.17739 -0.12495
-0.13367 0.13884 0.17956
0.11285 -0.35215 0.16888
-0.18566 -0.41856 0.11591
-0.11840 0.06915 -0.11026
-0.18566 0.34928 -0.06175
0.18566 -0.27020 0.17511
-0.07392 -0.15356 0.02842
-0.11557 -0.25980 -0.14849
-0.14114 0.01829 0.09513
-0.09037 -0.06519 -0.16754
-0.18566 0.37321 0.12637
0.02870 -0.05988 -0.16275
-0.18208 -0.11971 -0.18566
-0.12875 -0.03075 -0.02671
-0.07932 -0.15356 0.08349
-0.17358 -0.20485 -0.11667
-0.06254 -0.04545 -0.11880
0.18566 -0.14956 -0.04231
-0.12017 0.15814 0.18566
-0.13871 0.08704 -0.11026
-0.14581 -0.15356 -0.07772
-0.11557 0.02688 -0.02082
-0.10936 0.32299 0.12494
-0.14127 -0.15530 0.10607
-0.18566 0.34265 -0.03692
-0.12527 0.07437 -0.02671
-0.11539 -0.08577 -0.18566
-0.11557 0.16275 0.11383
-0.18566 0.07217 0.13810
-0.10078 -0.15356 -0.14910
0.08125 -0.04545 -0.04348
0.16263 -0.21323 -0.18566
0.13413 -0.09585 0.18566
0.18014 -0.15356 -0.05668
-0.18566 0.34616 -0.09660
-0.13813 0.29981 -0.18566
0.13516 -0.33222 -0.18566
-0.18430 0.03389 0.14075
0.00842 -0.13493 0.18566
-0.11557 -0.22409 0.16374
-0.14565 -0.03490 0.01695
-0.18263 -0.04545 -0.04234
0.06073 -0.15356 0.01136
-0.13167 0.13884 -0.02921
-0.10292 -0.04545 0.04638
-0.13973 0.00764 -0.15208
0.11015 -0.10005 -0.18566
0.12325 -0.15356 -0.04618
-0.12700 -0.17598 0.10607
0.13604 -0.21261 -0.18566
-0.18566 0.30611 -0.09524
-0.18566 0.35147 0.08420
-0.13345 0.40812 -0.08385
0.13623 -0.15895 -0.11667
-0.15067 0.13884 0.03937
-0.14912 0.13384 -0.15208
-0.11557 0.26261 0.10359
-0.18566 -0.15471 0.14541
-0.17386 -0.37473 0.18566
0.16184 -0.29582 -0.11667
-0.08806 -0.06117 -0.16391
-0.12032 -0.03246 -0.02671
-0.11557 -0.17142 -0.15215
-0.14934 0.29596 -0.18566
0.05817 -0.15356 -0.15837
0.04883 -0.15356 -0.00170
0.18566 -0.23983 0.13815
-0.12982 -0.22944 0.10607
0.14215 -0.38329 0.18566
0.16204 -0.06640 0.13017
-0.18566 0.40645 -0.05020
-0.18566 -0.30025 0.12363
0.06715 -0.04545 0.00353
-0.13575 -0.04545 -0.04288
0.18566 -0.31138 -0.14801
-0.04027 -0.15356 -0.13117
-0.12301 0.40849 0.08301
-0.18566 -0.37188 0.11052
0.18566 -0.14887 0.16796
-0.09171 -0.15356 0.10085
-0.16216 0.09414 -0.11026
-0.11557 0.42076 0.00232
0.11285 -0.18016 -0.17927
0.11285 -0.26406 0.16291
-0.14167 -0.15356 0.03896
0.02941 -0.15356 -0.09762
-0.11557 0.23894 -0.17504
-0.18566 -0.14843 0.13841
-0.11557 0.30229 0.17858
-0.01093 -0.04805 -0.15208
-0.18566 -0.19446 -0.18388
-0.11948 -0.26908 -0.18566
0.18566 -0.28711 0.13763
-0.06862 -0.11763 0.18566
0.18566 -0.19621 0.12632
0.10777 -0.15356 -0.00531
-0.18566 0.21645 0.11241
-0.18566 -0.40035 -0.12412
-0.16648 0.23461 0.18566
-0.03383 -0.15356 -0.07738
-0.18566 0.03884 -0.12202
0.18566 -0.13751 0.14674
0.12577 -0.05107 0.15049
0.10372 -0.15356 -0.08440
-0.18566 -0.10867 0.12082
-0.17345 0.07108 0.14075
-0.14477 0.11845 0.01695
-0.15792 0.13884 0.04151
-0.10936 0.35097 0.06869
0.09977 -0.04545 -0.05594
0.02584 -0.15356 0.04902
-0.11506 0.27084 -0.10619
-0.18566 0.25993 0.15943
-0.14668 -0.41963 0.10607
-0.18566 0.11843 -0.11977
0.11285 -0.25629 -0.14422
0.18283 -0.25735 -0.18566
-0.18566 0.22322 0.03319
0.16346 -0.06754 0.03540
-0.18557 0.39276 -0.11420
-0.05091 -0.15356 -0.15184
-0.14895 -0.04734 -0.15144
-0.18566 0.33535 -0.00336
-0.14374 0.14838 0.18566
-0.07399 -0.15356 0.12338
-0.18566 -0.10962 0.04031
-0.16332 0.05392 0.14075
-0.16438 0.13884 -0.06360
-0.09682 -0.04545 0.10051
-0.18566 -0.08011 -0.03419
0.17262 -0.22781 0.10607
0.14572 -0.29264 -0.11667
0.16982 -0.38257 0.18566
0.11492 -0.37095 0.10607
0.11285 -0.29070 -0.17132
0.16292 -0.06711 -0.08853
-0.11557 0.38069 -0.05865
-0.18566 0.32648 -0.03703
0.11706 -0.30143 -0.11667
0.06813 -0.15356 0.15350
-0.18566 0.25519 0.15618
-0.08003 -0.04545 0.10258
-0.13132 0.05346 -0.02671
0.14839 -0.17904 -0.11667
0.07490 -0.10462 -0.18566
-0.13810 -0.24093 -0.11667
-0.11557 0.18124 -0.14753
0.14773 -0.07527 0.17537
-0.11557 0.14708 0.13516
-0.11557 -0.36500 0.15899
-0.13576 0.01195 -0.02671
-0.11557 0.22323 0.01203
-0.11733 0.40452 -0.09190
0.11940 -0.37161 -0.11667
-0.18520 0.39920 0.10381
-0.11557 -0.15518 0.16530
-0.18496 -0.09110 -0.18566
-0.11557 0.04980 -0.11913
0.14901 -0.05599 -0.15448
0.10174 -0.15356 0.07015
-0.12873 -0.29668 0.10607
0.16616 -0.25846 0.10607
-0.10370 -0.04545 0.06811
0.10460 -0.04545 0.13098
-0.11557 -0.39638 0.15196
-0.18566 -0.13158 0.05282
-0.17989 -0.37196 0.18566
-0.11557 -0.24382 0.17253
-0.01846 -0.15356 -0.03732
0.17923 -0.37602 -0.11667
-0.12821 0.12088 0.01695
-0.13015 -0.42551 0.14854
0.18566 -0.32333 0.12667
-0.11557 0.24547 -0.01333
-0.15757 -0.33455 -0.11667
-0.17368 -0.27839 -0.11667
-0.15729 -0.15356 -0.06696
-0.17677 -0.11678 -0.18566
-0.18566 0.11429 -0.00592
0.11285 -0.42468 0.14119
-0.14792 -0.40451 0.18566
-0.16726 0.12130 0.09513
-0.12636 0.13884 -0.08641
0.01581 -0.15356 -0.14297
-0.11557 -0.03719 -0.12310
-0.04834 -0.04545 0.11959
-0.11557 0.33485 -0.14779
-0.18566 -0.41091 0.16381
-0.11557 0.14915 0.11924
0.04670 -0.04545 -0.00794
-0.18566 0.13250 -0.14364
-0.18566 0.29392 -0.18524
0.16717 -0.23806 -0.11667
0.11285 -0.19879 0.12403
-0.07020 -0.04545 0.09212
0.10174 -0.04545 -0.13270
0.12237 -0.30626 0.18566
-0.10936 0.30636 0.08541
-0.18566 0.32899 -0.02497
0.11844 -0.15448 0.18566
-0.08774 -0.15356 0.13237
-0.10936 0.31597 -0.12922
-0.18566 -0.36294 0.13960
0.18527 -0.27161 0.18566
-0.11557 0.25819 -0.13258
-0.05732 -0.15356 -0.02336
-0.13795 -0.36570 0.10607
-0.00060 -0.04545 0.03633
-0.15468 -0.40218 -0.11667
-0.16966 -0.04545 -0.04447
-0.16012 -0.09980 0.18566
-0.15523 0.00472 0.01695
-0.18566 0.39575 0.06893
-0.12532 -0.15356 -0.02143
-0.06708 -0.15356 -0.05270
0.12277 -0.27511 -0.11667
-0.07920 -0.04545 -0.03975
-0.18566 0.30541 0.08947
-0.13775 -0.04545 0.06103
-0.13391 0.28037 0.18566
-0.10936 0.28028 -0.15007
-0.11557 0.36041 0.12610
-0.18566 0.07695 -0.01726
-0.11557 -0.03819 -0.14830
-0.14841 -0.24817 0.18566
0.18566 -0.11733 -0.07459
0.18566 -0.14596 0.10007
0.12813 -0.37008 0.10607
0.18275 -0.25631 0.18566
0.18517 -0.36912 -0.11667
0.05261 -0.04545 0.00867
0.18566 -0.39148 0.16736
-0.02649 -0.04545 -0.08153
0.18566 -0.14964 -0.09410
0.01706 -0.06794 -0.17002
-0.11695 0.29938 0.18566
0.13684 -0.04626 0.13562
-0.11314 0.29789 -0.15317
-0.08052 -0.04545 -0.10749
-0.18566 0.13009 -0.12396
-0.11557 -0.31560 -0.13565
-0.12296 0.10408 0.09513
-0.18566 -0.35406 0.17911
-0.12636 0.35068 -0.16485
0.10504 -0.04545 -0.11143
-0.16986 0.08823 -0.11026
0.16691 -0.07030 0.03118
-0.03331 -0.07573 -0.17705
0.16046 -0.37636 -0.11667
0.17556 -0.22166 0.10607
0.14042 -0.06351 -0.16603
-0.11557 -0.00657 -0.00147
0.11795 -0.20944 0.10607
-0.18566 0.34360 -0.04960
-0.10936 0.31098 0.11919
-0.11557 0.40404 0.04903
-0.12579 -0.33965 -0.18566
0.18566 -0.13730 0.12491
0.06639 -0.15356 0.13564
0.08923 -0.04545 -0.04652
-0.15681 0.00625 0.09513
0.18566 -0.10169 -0.07759
-0.18566 0.27307 0.09800
0.11266 -0.05087 0.15028
0.15656 -0.13193 -0.18566
0.04816 -0.11118 0.18566
0.15317 -0.42551 0.11050
-0.17595 0.35218 0.16372
-0.13404 -0.12602 -0.18566
-0.18149 0.13756 0.14075
-0.16375 -0.14491 0.18566
-0.15790 -0.04545 0.06570
0.11285 -0.17061 0.12016
-0.18566 0.38611 0.05308
0.12278 -0.04545 -0.05391
-0.11557 0.38093 0.09438
0.15706 -0.15356 -0.11468
-0.18566 -0.22746 0.11176
-0.12981 -0.06360 -0.16611
0.16992 -0.42551 0.17721
-0.09459 -0.05103 -0.15477
-0.06620 -0.15356 -0.04602
0.11285 -0.39345 -0.13801
0.15792 -0.33061 0.10607
-0.02808 -0.04545 -0.07223
-0.17927 0.04199 0.01695
0.13694 -0.17921 -0.18566
0.15201 -0.42551 -0.17284
-0.18566 -0.14575 -0.01071
0.14913 -0.39209 -0.11667
-0.11557 -0.30488 -0.13974
-0.11999 -0.32913 -0.11667
-0.11557 -0.28871 -0.17786
-0.18566 0.07516 0.10582
-0.18391 -0.15356 -0.09748
-0.18566 0.26866 0.15335
-0.18566 0.15878 -0.11840
-0.18566 -0.13358 0.18213
-0.18566 0.30287 0.12043
-0.11557 -0.19002 -0.15281
0.11285 -0.39517 -0.17943
-0.12058 -0.02944 0.14075
-0.15120 -0.36304 -0.18566
-0.18566 0.10255 0.01548
-0.17855 0.09769 0.09513
0.12405 -0.12127 0.18566
-0.11557 0.38223 -0.07532
-0.12824 -0.39527 -0.11667
0.01550 -0.15356 0.07975
0.03733 -0.08730 0.18566
-0.18566 0.35224 0.13194
-0.13505 0.41351 0.07131
0.01083 -0.04545 0.03654
0.18566 -0.39829 0.11814
0.08494 -0.04545 0.05922
-0.11557 0.22790 0.16315
-0.18566 -0.26373 -0.18383
-0.15190 0.04818 -0.15208
-0.18566 -0.26593 -0.15495
-0.10622 -0.15356 -0.09753
-0.18120 -0.32194 0.10607
0.18032 -0.08101 0.01421
0.17852 -0.33815 0.18566
-0.18566 0.16595 -0.07874
-0.01243 -0.15356 -0.15397
-0.11557 0.21560 -0.03255
-0.13123 0.07319 0.14075
-0.18566 0.21313 -0.00213
0.08756 -0.15356 -0.14935
-0.17263 -0.32242 0.10607
-0.01300 -0.04545 -0.09991
-0.11557 0.17101 0.00425
-0.13159 -0.26520 0.18566
-0.13357 0.28779 0.18566
-0.18566 0.10607 0.10712
-0.18566 -0.27769 0.17849
-0.11719 0.14415 0.18566
-0.11557 -0.22490 -0.15380
-0.04377 -0.04545 0.11485
-0.01167 -0.15356 -0.01575
-0.13463 -0.38716 0.10607
-0.18566 0.21376 0.16179
-0.16707 -0.01111 0.14075
-0.18334 0.11883 -0.11026
0.12051 -0.40094 -0.11667
0.09763 -0.05070 0.15010
-0.11557 -0.37469 0.15365
-0.16600 0.25703 -0.18566
-0.17195 0.29674 -0.18566
0.18566 -0.34327 -0.15575
0.01226 -0.04545 -0.01452
0.01339 -0.04545 0.12073
-0.13351 -0.11221 -0.18566
0.11789 -0.15356 0.04560
-0.11557 0.08293 -0.12761
-0.11557 0.09501 0.09593
-0.10936 0.28941 0.10399
-0.18566 0.25362 0.03231
-0.11557 0.17957 -0.00965
0.00284 -0.15356 0.06082
-0.18566 -0.03374 0.00986
-0.15838 0.37595 -0.13861
-0.14060 -0.22823 -0.11667
-0.15680 -0.00033 0.14075
0.17085 -0.37887 -0.11667
-0.17217 -0.05119 -0.15492
0.18566 -0.37450 0.13010
-0.18566 0.31020 -0.17282
-0.15530 0.42181 0.03909
-0.12362 0.13884 0.18162
-0.18566 -0.01525 -0.11879
-0.14529 0.23114 -0.18566
0.09631 -0.15356 -0.14827
0.18566 -0.41966 -0.15047
0.18566 -0.28747 -0.15528
-0.11557 0.14551 -0.11311
-0.11850 -0.22271 0.10607
-0.18566 0.19927 0.17987
0.02694 -0.04545 -0.05810
-0.10936 0.31340 0.14637
-0.18566 0.23644 -0.00651
-0.11557 0.03779 -0.02192
0.10455 -0.15356 0.17228
0.08171 -0.05344 0.15293
0.11285 -0.29498 0.12618
-0.18566 -0.32750 -0.16833
0.18566 -0.21513 -0.15662
-0.18566 -0.01652 0.11797
-0.13853 -0.00387 -0.11026
-0.18566 0.26672 0.16023
-0.15168 -0.01758 -0.02671
-0.06943 -0.15356 -0.02064
0.11285 -0.40776 0.13341
-0.18566 -0.40120 0.16328
-0.16471 -0.00062 -0.15208
0.11285 -0.35388 -0.15241
-0.17699 -0.15356 0.03359
-0.18566 0.27180 -0.12813
-0.05961 -0.13472 0.18566
0.17403 -0.38081 -0.18566
0.11285 -0.31794 0.11248
-0.18566 -0.20073 0.11111
-0.04836 -0.15356 -0.16843
0.13613 -0.42551 -0.15797
0.15502 -0.15356 0.04426
-0.10936 0.38418 0.02114
0.07916 -0.15356 -0.17129
0.18566 -0.17076 0.13996
-0.11643 -0.27098 0.10607
-0.18566 -0.11782 0.13338
-0.10471 -0.04545 -0.14238
-0.18211 -0.04545 -0.10626
-0.18566 0.37806 0.01452
-0.18566 -0.03866 -0.00627
-0.13698 -0.23732 0.18566
-0.03431 -0.04545 -0.05738
-0.11557 -0.41341 -0.11853
-0.11557 0.19219 0.15567
-0.18566 -0.36840 -0.13428
-0.06147 -0.07226 -0.17392
-0.15844 -0.18340 -0.18566
-0.18566 0.34082 -0.14074
0.02498 -0.15356 0.03824
0.11285 -0.23118 0.11799
-0.16904 0.33487 0.17680
-0.18566 0.23417 -0.13761
-0.18566 0.27316 0.05655
0.18566 -0.14911 -0.11219
-0.18566 0.23206 0.16737
-0.14392 -0.18803 0.10607
0.18566 -0.20106 -0.13794
-0.18566 0.35206 0.03652
-0.11557 0.36973 -0.11566
-0.11764 -0.42551 0.13303
-0.15214 0.30977 0.18566
-0.10200 -0.04591 0.14519
0.00568 -0.08216 0.18245
-0.18566 -0.08910 -0.15945
0.18566 -0.08791 0.11202
-0.18566 0.31738 0.09970
-0.11557 0.07799 0.01370
-0.18566 -0.36004 0.11202
-0.12994 -0.03966 -0.02671
-0.18566 -0.16917 -0.14054
-0.16564 -0.27922 0.10607
0.17547 -0.15184 -0.18566
0.17899 -0.20851 -0.11667
-0.13654 -0.42551 0.11518
-0.18397 -0.41086 0.10607
0.18566 -0.18484 0.13612
0.15143 -0.14513 0.18566
-0.11557 -0.04036 -0.11802
0.03676 -0.04545 0.01734
0.13633 -0.04585 -0.12094
-0.09142 -0.15356 0.17482
-0.18566 0.09111 -0.13995
-0.01983 -0.13594 0.18566
0.15190 -0.40886 0.10607
0.05797 -0.15356 -0.05738
-0.18566 -0.07636 0.17634
0.03325 -0.05018 -0.15401
-0.05323 -0.04545 -0.12481
0.14502 -0.33983 0.10607
-0.11557 0.00925 0.01306
-0.12985 -0.34795 -0.18566
-0.18566 0.33317 0.17226
-0.18566 -0.14636 -0.14331
-0.12169 -0.04542 -0.15208
0.18566 -0.12225 -0.02597
0.11285 -0.22949 0.12957
0.18566 -0.27582 -0.13832
-0.14275 -0.38254 -0.11667
0.17646 -0.36816 0.18566
0.18566 -0.14514 -0.18398
-0.00661 -0.04545 -0.05053
0.03002 -0.15356 0.10692
0.11285 -0.31229 0.16267
0.00515 -0.12680 -0.18566
-0.11557 0.27378 -0.16373
-0.13267 0.09564 0.09513
-0.18566 -0.21710 -0.15867
-0.18566 0.14435 0.06141
0.04548 -0.04545 -0.05784
-0.18566 -0.30439 0.13564
0.11285 -0.18434 -0.11813
0.02220 -0.12133 -0.18566
-0.18186 -0.03423 -0.11026
-0.15031 -0.03642 0.09513
0.11285 -0.30945 0.13887
-0.11557 0.19573 0.05053
-0.12770 -0.38710 -0.11667
0.15147 -0.27026 -0.18566
-0.11557 0.21064 -0.10668
-0.11557 0.16700 -0.00426
-0.01770 -0.15356 -0.02978
0.14918 -0.07495 -0.17634
-0.15819 -0.25100 0.18566
-0.17371 0.02039 0.14075
-0.11659 -0.15356 -0.00479
-0.10936 0.29827 0.07731
0.10586 -0.15356 0.10048
0.18566 -0.12076 0.12270
-0.11557 0.17333 -0.02129
0.11285 -0.26296 0.17310
-0.06286 -0.15356 0.07479
-0.18566 0.29207 0.08330
-0.01559 -0.05543 -0.15874
-0.18566 0.35906 -0.11322
-0.18566 0.37749 -0.03631
0.13597 -0.40394 0.18566
-0.11557 0.38649 0.07011
-0.11557 -0.16229 0.17645
0.11285 -0.18880 -0.15759
-0.08450 -0.15356 -0.16085
-0.18566 -0.04655 -0.08215
0.05645 -0.04545 0.00508
0.12987 -0.17435 -0.18566
-0.08445 -0.15356 0.12343
0.11605 -0.31312 0.10607
-0.15056 -0.19093 -0.18566
0.18566 -0.11242 0.04777
-0.15308 -0.01213 0.09513
-0.15872 -0.04545 -0.07645
-0.18566 0.01725 -0.11260
-0.18566 -0.20749 -0.14676
-0.10936 0.27238 0.11492
-0.18209 -0.01275 0.09513
-0.18566 0.15855 -0.00272
0.17104 -0.42119 0.10607
-0.11557 -0.26738 -0.15854
-0.17262 -0.18498 0.10607
-0.18360 -0.31320 -0.11667
-0.12535 -0.18292 -0.11667
-0.12725 -0.19980 0.10607
-0.11557 -0.39286 -0.15349
-0.03234 -0.15356 0.07655
0.18380 -0.21868 -0.18566
0.07917 -0.04545 0.09240
-0.18566 0.32224 -0.07347
-0.18566 -0.09431 -0.14832
-0.18566 -0.08506 0.00670
-0.11557 -0.19751 -0.12134
0.03649 -0.15356 -0.00839
0.12410 -0.16108 0.10607
-0.16223 0.07568 -0.15208
-0.14526 -0.03337 -0.02671
0.18566 -0.10264 -0.08638
0.07767 -0.15356 0.03561
-0.18566 0.26503 -0.16637
0.07575 -0.04545 0.09673
-0.11557 -0.01673 0.11801
0.14561 -0.38832 0.18566
0.07793 -0.15356 0.14252
0.17778 -0.12917 -0.18566
-0.18566 0.18761 -0.12562
-0.18566 0.04608 -0.11708
-0.14588 0.10349 -0.02671
0.15480 -0.34351 -0.18566
-0.18566 0.38978 0.00560
0.18566 -0.34353 0.11880
-0.11557 0.24127 0.06030
-0.16589 0.35692 0.15880
0.10465 -0.15356 -0.17546
-0.12670 0.30585 -0.18566
-0.13970 -0.26478 0.10607
0.18566 -0.24962 0.13870
0.17986 -0.28753 -0.18566
-0.18553 0.08993 0.14075
-0.11557 0.04643 -0.12961
0.17557 -0.07722 -0.04869
0.14796 -0.15581 0.10607
0.18055 -0.08120 -0.10680
-0.11209 0.27084 0.11052
-0.18566 0.18278 0.12005
0.05799 -0.15356 -0.17884
-0.11557 0.14935 -0.06386
-0.11557 -0.25134 0.13697
-0.18566 -0.07420 0.00332
0.14199 -0.29205 0.10607
0.18566 -0.29869 -0.11841
-0.03805 -0.15356 0.13397
-0.18566 0.24398 -0.05764
-0.03837 -0.11742 0.18566
0.15391 -0.05990 -0.01779
-0.10936 0.27644 0.08410
0.12875 -0.28630 -0.11667
-0.14219 0.35285 -0.16312
-0.18566 0.21487 0.13324
0.06398 -0.15356 -0.05632
-0.15856 0.13884 0.06994
-0.15633 -0.16893 -0.18566
-0.15467 -0.04545 0.09371
-0.18566 -0.04994 0.00790
-0.15958 0.03530 -0.15208
-0.18566 0.38944 0.03219
-0.18566 0.27574 -0.13686
-0.18566 0.00870 0.13814
-0.18566 0.40495 0.02858
-0.11557 -0.04433 0.10135
0.11285 -0.25605 0.17489
0.18566 -0.23939 -0.17745
-0.10936 0.29790 -0.01096
-0.17957 -0.12559 0.18566
-0.11924 0.20213 -0.18566
-0.17572 -0.15356 0.06045
-0.18566 0.36607 0.03320
0.03053 -0.04545 0.04600
0.09784 -0.15274 0.18566
0.16457 -0.15356 0.05414
-0.11557 0.23508 -0.05273
-0.11557 0.11086 -0.00682
-0.11557 0.12987 0.12014
0.16130 -0.06581 0.05630
-0.11557 0.22928 -0.15974
0.01187 -0.07335 0.17339
-0.18566 -0.05457 0.02825
-0.18566 -0.01383 -0.01283
-0.18566 -0.07920 0.13651
-0.11557 -0.00887 0.11011
0.03999 -0.09989 0.18566
-0.18566 -0.03419 -0.01677
-0.15645 0.01865 -0.15208
-0.10936 0.34686 0.07270
-0.14899 -0.01644 -0.15208
-0.18566 0.20623 -0.00852
0.13678 -0.04621 -0.02964
0.11285 -0.22456 0.12541
-0.10936 0.33117 0.11539
0.16753 -0.12144 0.18566
-0.18566 0.16032 0.04114
0.11913 -0.04545 -0.12699
0.17556 -0.07721 0.03458
0.17007 -0.15356 -0.02790
0.14803 -0.42551 -0.14276
-0.18566 -0.07653 0.11800
0.13400 -0.04545 0.09745
-0.11557 0.16299 0.07294
-0.16882 -0.16386 -0.11667
-0.16832 0.04890 -0.02671
0.01629 -0.15356 -0.16088
-0.05342 -0.04545 -0.02982
-0.11557 0.17898 0.06830
0.11285 -0.18339 -0.14899
-0.09369 -0.09182 0.18566
0.06712 -0.15356 0.16334
-0.18566 -0.10939 -0.18453
0.16134 -0.27976 -0.11667
0.18566 -0.14416 -0.14882
-0.10875 -0.15356 -0.18326
0.18566 -0.08646 0.05003
0.18218 -0.08250 0.00093
0.11285 -0.42348 0.12243
-0.11756 -0.39847 -0.11667
-0.16682 -0.04545 0.03382
0.13500 -0.19450 -0.11667
-0.18566 0.33716 0.04795
-0.11557 0.22926 0.08507
-0.15762 -0.30971 -0.18566
0.18560 -0.15356 -0.07023
0.18566 -0.15621 -0.17596
-0.15623 -0.18606 -0.11667
-0.14572 0.00898 0.01695
-0.12173 0.36765 0.14741
-0.14655 -0.15356 -0.03907
-0.18566 -0.41705 -0.16653
-0.17791 0.41639 0.06016
0.13487 -0.15356 0.09337
-0.18566 -0.12576 -0.00512
-0.10936 0.33937 -0.05973
-0.18566 -0.06333 0.07965
0.11285 -0.37196 -0.13370
-0.13729 -0.17345 0.18566
-0.07157 -0.15356 0.05703
-0.18039 -0.07431 -0.17577
0.00362 -0.15356 -0.07590
-0.15083 0.06715 0.14075
0.11285 -0.38522 -0.15741
0.18566 -0.25986 0.16900
-0.17016 -0.36013 0.10607
0.01500 -0.04545 -0.13734
-0.02979 -0.04545 0.02269
0.02796 -0.15356 -0.01661
0.01644 -0.15356 0.14283
-0.11557 -0.21452 0.15364
0.10698 -0.15356 0.13898
0.15141 -0.15356 0.07071
0.03774 -0.14490 0.18566
-0.11557 -0.26762 0.16517
-0.16114 -0.15356 0.06963
-0.18566 0.23175 0.05393
-0.18566 0.33121 0.03755
-0.05567 -0.04545 0.06382
-0.11557 0.08705 0.11330
-0.11557 0.18281 -0.17378
-0.15992 -0.12534 0.18566
-0.18566 -0.23458 -0.15149
-0.10936 0.27516 0.02404
0.16731 -0.31740 0.18566
-0.11557 0.39187 -0.02003
0.18566 -0.27503 0.12390
-0.18566 0.28590 0.08307
-0.16887 0.11409 0.01695
-0.11557 0.18218 0.03056
-0.11557 0.12485 -0.11668
0.18566 -0.36821 0.15265
0.18566 -0.12575 -0.10796
-0.17652 0.41979 -0.04692
-0.00391 -0.04545 -0.08934
0.18121 -0.35548 -0.11667
0.06725 -0.14313 -0.18566
-0.18566 -0.16581 -0.14657
0.09798 -0.05619 -0.15943
-0.13963 -0.22166 -0.11667
0.18566 -0.41245 -0.14613
-0.18566 0.40058 -0.03887
-0.14602 -0.42551 -0.11915
-0.14541 0.27159 -0.18566
-0.05971 -0.04545 0.08152
-0.18224 -0.31710 -0.18566
-0.18566 -0.27585 -0.17958
-0.17804 0.42267 0.03383
0.10545 -0.15356 -0.09548
-0.18518 -0.40859 0.18566
-0.11557 0.14803 0.17518
-0.18566 0.25293 0.16627
-0.18566 -0.07577 -0.15920
0.11285 -0.33552 0.11249
-0.15507 0.02984 -0.02671
-0.11557 0.32931 0.15180
-0.18566 -0.08592 0.05956
-0.18566 0.14304 0.02660
-0.12007 -0.31063 0.18566
0.11285 -0.17739 0.10963
-0.15649 0.05463 -0.02671
-0.11410 -0.15356 -0.07819
-0.18351 -0.29250 -0.11667
-0.17091 -0.02899 -0.15208
-0.07760 -0.12209 0.18566
-0.14399 0.12695 -0.15208
0.14690 -0.40001 -0.18566
-0.14883 -0.42551 -0.15045
-0.11557 -0.01721 0.00514
-0.14602 0.13884 0.04793
0.17005 -0.07281 0.01994
0.11991 -0.23106 0.18566
0.18154 -0.10857 -0.18566
-0.14852 0.13884 -0.17533
0.11285 -0.26059 -0.15324
0.08550 -0.15356 0.09974
-0.11557 -0.41924 0.15901
0.17161 -0.41128 -0.11667
-0.18566 -0.14396 -0.13257
0.11999 -0.42551 0.11741
-0.17109 0.30705 0.18566
-0.11944 -0.15356 0.00998
-0.12392 -0.31601 0.18566
0.12574 -0.07758 0.17774
-0.11557 -0.03428 0.13779
0.15420 -0.06013 -0.15706
-0.18566 0.30988 0.07198
-0.11557 0.24725 0.07864
0.08667 -0.04545 -0.10706
-0.18566 0.01495 0.12587
-0.11557 0.39817 0.01476
0.04228 -0.09326 0.18566
-0.07379 -0.05987 0.15953
-0.08032 -0.13248 -0.18566
-0.12505 0.02133 -0.11026
-0.10259 -0.04545 -0.08372
0.16688 -0.16830 -0.11667
0.04614 -0.04545 0.01398
-0.15253 0.08319 0.09513
-0.11557 0.11739 -0.13680
-0.06230 -0.04545 -0.05908
-0.18566 0.01401 0.10402
-0.00155 -0.14310 -0.18566
-0.16499 -0.03710 0.14075
-0.11557 -0.01113 -0.02449
0.12702 -0.12923 0.18566
-0.06794 -0.04545 0.12873
-0.16640 0.00672 -0.11026
-0.13186 -0.35471 -0.11667
-0.06666 -0.15356 0.09289
-0.18566 0.26718 0.17144
0.18566 -0.08774 0.10361
0.08292 -0.15356 0.04373
-0.15336 -0.41703 -0.18566
0.01527 -0.05729 -0.16042
-0.18566 0.19482 -0.01740
-0.16672 0.29035 -0.18566
0.05707 -0.04545 0.12607
-0.11557 -0.42043 -0.15376
-0.15713 0.42330 -0.02624
-0.11557 0.13747 0.01679
-0.15148 -0.16521 -0.18566
-0.15915 0.04926 -0.15208
-0.11557 -0.40355 -0.13053
0.11285 -0.36666 0.14035
0.18566 -0.34935 0.16513
-0.11166 0.36932 -0.08099
-0.14186 -0.19989 0.18566
0.11285 -0.17080 -0.16874
-0.10023 -0.04545 -0.11028
-0.11925 -0.23736 0.10607
0.18566 -0.09979 -0.12779
0.15677 -0.27059 0.18566
-0.18566 -0.07036 0.01090
-0.18566 0.05928 -0.13158
-0.11557 0.25459 -0.12386
-0.10936 0.36467 0.01825
-0.18083 -0.30301 -0.11667
0.14029 -0.37772 0.10607
-0.18566 -0.23551 0.10773
0.11285 -0.31907 0.17832
-0.18566 0.06663 -0.14805
-0.14878 -0.02202 -0.11026
-0.06130 -0.04545 0.09788
0.07674 -0.04545 -0.09324
-0.18566 -0.18634 -0.12695
-0.11557 -0.22234 0.12265
-0.00304 -0.11628 0.18566
-0.11557 0.16348 0.03746
0.18566 -0.12397 0.09721
-0.18566 -0.10193 0.01528
-0.18566 0.34193 -0.12657
0.08967 -0.10168 -0.18566
-0.13841 0.38846 -0.12066
-0.01912 -0.04545 -0.13194
-0.14898 0.20988 0.18566
0.11978 -0.36744 -0.18566
-0.18566 -0.19820 -0.12587
-0.18566 0.15698 0.06532
-0.16402 0.05334 -0.02671
-0.18566 0.19345 -0.11507
-0.18566 0.29378 -0.04470
-0.16101 0.13884 -0.06850
-0.18421 -0.38975 0.18566
-0.11557 -0.00295 -0.01773
-0.18566 0.21181 -0.05762
0.13099 -0.38866 0.18566
-0.11557 -0.42280 0.12476
0.13635 -0.41800 -0.11667
-0.14975 0.41960 -0.04768
-0.18566 -0.39197 -0.14589
-0.13534 -0.31015 -0.11667
0.01747 -0.15356 -0.02327
-0.18366 0.01957 0.14075
-0.11557 0.12063 0.00206
0.00189 -0.15356 0.01721
-0.17806 -0.24965 -0.18566
-0.18566 -0.12408 -0.07440
-0.18284 0.09262 -0.11026
-0.18566 0.15007 0.13913
-0.12363 0.08298 -0.02671
-0.14956 -0.25563 0.10607
-0.11557 -0.21553 0.10827
-0.00189 -0.15356 -0.07164
-0.10936 0.34223 0.00813
-0.17643 -0.02846 -0.02671
-0.11557 0.20438 0.16580
-0.18566 -0.04789 -0.01298
0.11424 -0.05766 0.15726
-0.17047 0.33146 -0.17937
-0.14507 0.34934 0.16586
-0.16982 0.42104 -0.04208
-0.18566 -0.23505 0.11583
0.01275 -0.04545 -0.10367
0.12650 -0.15356 -0.11464
-0.11557 0.19396 0.16729
0.18566 -0.25668 -0.14195
-0.18196 0.28282 0.18566
-0.15393 0.23147 0.18566
-0.03325 -0.15356 0.03042
-0.18566 -0.36990 -0.11759
-0.12704 0.39955 0.10304
-0.17986 -0.39874 -0.11667
0.18566 -0.14241 0.07441
0.18332 -0.18651 -0.18566
-0.12144 0.13317 0.14075
0.16940 -0.07229 0.13272
-0.18497 -0.00169 -0.02671
-0.17775 -0.07260 0.17262
-0.18566 0.15604 0.01309
0.17077 -0.07338 0.16525
0.18566 -0.16132 0.11376
-0.18566 0.14551 0.18384
0.11128 -0.15356 0.01703
-0.06146 -0.15356 -0.11524
-0.18566 -0.41030 0.12844
-0.18413 -0.15356 -0.04833
-0.18566 0.19635 0.17138
-0.15826 -0.15356 -0.01779
0.11505 -0.15356 0.06109
-0.18566 -0.11973 -0.07039
-0.18566 -0.09420 -0.08171
-0.11557 0.24019 0.04993
-0.07119 -0.09011 -0.18566
0.02477 -0.15356 -0.05642
0.02405 -0.15356 0.12478
0.09771 -0.15356 -0.04215
-0.11557 0.40594 0.07652
-0.18566 0.20760 -0.02312
-0.11557 0.24592 -0.10338
-0.10936 0.32807 -0.10800
-0.18356 -0.28585 -0.11667
0.13642 -0.04592 -0.04246
-0.10936 0.33866 -0.06978
-0.18566 0.21242 -0.12858
-0.18566 0.30797 0.17346
-0.11557 0.37202 -0.07650
-0.11557 0.28357 -0.17982
-0.18025 -0.42551 0.12664
-0.18566 0.33138 0.10082
0.15892 -0.06391 -0.15646
-0.18566 -0.17922 0.14022
-0.06141 -0.04545 0.05873
0.05352 -0.07217 0.17218
0.08887 -0.06199 -0.16465
0.18566 -0.36274 0.12701
0.01379 -0.15356 -0.09106
-0.16598 -0.04545 0.07738
0.14908 -0.27866 -0.18566
0.07340 -0.04545 -0.09769
-0.01925 -0.11385 -0.18566
-0.18566 0.19822 -0.06991
-0.18566 -0.05184 0.07827
-0.18566 0.20693 -0.16909
-0.18566 -0.10350 -0.01748
-0.11557 0.31549 0.16271
-0.11557 -0.22170 -0.12889
-0.14968 0.36869 0.14631
0.11285 -0.24769 0.18243
-0.10936 0.31359 0.01520
-0.14210 0.08255 0.14075
0.11683 -0.36075 -0.18566
0.17255 -0.07480 0.11010
0.08600 -0.15356 0.12167
-0.12008 0.13884 0.14851
0.13341 -0.30237 -0.18566
0.18250 -0.18913 0.18566
-0.10936 0.28583 -0.13609
-0.18566 -0.30446 -0.16708
-0.15838 -0.11304 0.18566
0.18566 -0.34797 0.11594
-0.11557 -0.16197 -0.15318
-0.10052 -0.04545 -0.06351
-0.16215 0.39697 0.10788
-0.15276 -0.31175 -0.18566
-0.11557 0.36709 -0.08840
-0.15628 -0.15356 -0.10582
-0.04508 -0.09452 -0.18566
-0.12762 -0.36657 -0.18566
-0.18566 0.25854 -0.14006
0.16996 -0.10544 -0.18566
-0.11557 -0.31840 -0.17212
-0.11557 -0.17702 0.11596
-0.12756 0.20820 -0.18566
-0.18566 0.05899 0.13341
-0.11557 0.24399 0.01596
-0.17555 -0.21331 -0.18566
-0.18566 0.39454 0.09694
0.08518 -0.15356 0.02618
-0.09276 -0.04545 0.02574
-0.10936 0.37930 -0.00427
-0.18566 -0.13782 -0.04597
-0.16441 -0.42332 0.10607
0.08188 -0.04545 -0.13295
-0.18566 0.37038 -0.03629
-0.18566 0.18004 -0.10618
0.15494 -0.23165 -0.11667
0.01195 -0.11513 0.18566
-0.00888 -0.15356 0.18488
0.18566 -0.10803 -0.18063
-0.03249 -0.15356 -0.09734
-0.10936 0.27885 0.00150
-0.14894 0.00367 -0.15208
0.17786 -0.25703 0.10607
0.12850 -0.15356 0.04711
0.18566 -0.10691 0.00263
-0.13392 -0.15356 -0.04240
-0.09639 -0.07734 -0.17850
-0.11234 -0.15356 0.09627
-0.17717 0.01775 -0.15208
-0.17503 0.10540 -0.15208
0.08244 -0.04545 -0.06107
-0.18218 0.09347 -0.02671
0.11285 -0.21031 -0.15655
-0.18566 0.32349 0.01721
0.09811 -0.15356 -0.11936
-0.06675 -0.04545 -0.07833
-0.11059 0.28449 -0.15660
