ply
format ascii 1.0
comment VCGLIB generated
element vertex 1783
property float x
property float y
property float z
element face 0
property list uchar int vertex_indices
end_header
-0.16126 0.01897 -0.10451
-0.20453 -0.07967 0.14333
-0.14158 -0.11588 -0.17726
-0.17198 -0.19087 0.14369
0.08321 -0.02535 -0.08008
-0.11713 0.33677 0.16191
-0.15303 0.16359 -0.15339
-0.13554 0.34476 0.09956
-0.02217 -0.07967 0.12970
-0.10795 -0.07967 -0.09223
-0.20452 0.35210 0.09945
-0.18336 -0.10724 -0.13960
0.03161 -0.02535 0.11886
-0.14692 0.37528 -0.06399
0.20586 -0.05156 0.18624
-0.16240 -0.01034 0.06420
-0.19136 -0.03665 0.12570
0.24492 -0.07650 -0.03442
-0.20498 -0.00830 0.01114
-0.14755 0.34594 0.07000
-0.20491 0.31160 -0.05098
-0.00456 -0.07967 -0.13381
-0.18806 0.00025 0.08913
0.20342 -0.02535 0.08026
-0.18905 0.32358 -0.00396
-0.10475 0.38045 -0.16974
-0.12143 0.34333 -0.11630
-0.10433 -0.07967 0.01719
0.21159 -0.03168 -0.02800
-0.09481 -0.07967 -0.01789
-0.14383 0.38746 -0.11274
-0.13648 0.14967 -0.16604
-0.23007 -0.07967 -0.00667
0.19034 -0.34957 -0.14863
0.01736 -0.07967 -0.11960
0.20258 -0.07967 -0.05287
-0.19272 0.29240 -0.08727
-0.20026 -0.02535 0.04919
0.19034 -0.26084 -0.14943
-0.18336 -0.11530 0.16917
0.11789 -0.02535 -0.13953
-0.10870 -0.04422 0.17890
-0.15373 0.18903 -0.14956
0.17880 -0.11588 0.19180
-0.10649 0.36370 0.14415
0.18310 -0.21784 0.16992
-0.12175 0.22537 -0.13688
-0.14406 0.06674 -0.13201
-0.14639 -0.16733 -0.14513
0.16114 -0.05775 -0.19137
-0.15394 -0.32623 -0.15419
-0.08751 -0.07967 0.12689
-0.16942 0.30974 -0.04545
-0.17363 -0.18653 -0.18002
0.04255 -0.07967 0.15629
-0.16672 0.38746 -0.00203
-0.06120 -0.07967 -0.10439
-0.17625 0.37166 -0.15053
-0.14249 0.38076 0.19095
-0.17581 0.23053 -0.03379
-0.19438 0.30645 -0.06413
-0.02365 -0.07907 -0.19864
-0.12224 -0.07967 0.09520
-0.19333 0.12414 -0.03074
-0.15553 -0.12106 0.14513
-0.20145 0.21855 -0.03669
-0.17860 -0.02535 0.04711
-0.10750 -0.02535 -0.07468
-0.17799 0.20317 0.05757
0.08595 -0.02535 -0.12884
0.20098 -0.31776 0.15856
-0.15178 0.36440 0.05508
-0.19349 -0.06839 -0.18210
-0.13077 0.17228 -0.16536
-0.17437 0.38364 0.15412
-0.11287 -0.07346 -0.19864
0.17321 -0.11721 -0.16994
-0.20513 0.00086 0.01225
-0.13531 0.33677 -0.10537
0.07844 -0.02535 -0.10446
-0.14230 -0.00111 0.13369
0.11537 -0.02535 -0.13411
-0.22427 0.35373 0.00130
-0.18737 0.20566 -0.06574
-0.16736 -0.22222 0.14806
-0.19735 -0.04589 -0.13375
-0.02706 -0.07967 0.15283
-0.19135 -0.02544 -0.09195
-0.15534 0.33677 0.05337
0.21717 -0.32561 -0.16484
0.22074 -0.19555 -0.18777
-0.13940 0.09428 -0.16566
0.19034 -0.22462 0.16478
0.01304 -0.07967 0.06104
-0.13329 -0.36078 -0.14513
-0.06750 -0.07967 -0.16972
0.24492 -0.07204 0.12873
0.01152 -0.07967 -0.14134
0.19889 -0.02535 -0.03731
0.20901 -0.02910 0.09553
-0.14373 0.08550 -0.13187
-0.12833 0.37439 0.11348
-0.19219 0.19993 0.06674
-0.12351 0.21985 0.15822
0.16866 -0.02535 -0.02519
-0.16025 -0.11721 0.18654
-0.16293 0.16202 -0.08276
0.18310 -0.19865 -0.18138
-0.15169 -0.18283 0.18161
-0.18861 0.06983 0.08870
0.11241 -0.04852 -0.18215
-0.20095 0.38746 -0.05528
0.23406 -0.19178 -0.16508
-0.16639 -0.26676 -0.17661
0.22527 -0.28276 0.14435
0.01633 -0.02535 -0.15662
-0.14922 0.38746 -0.07239
-0.13065 0.33677 0.17661
0.12397 -0.07967 0.04626
-0.11498 -0.11588 0.13008
-0.21050 -0.03308 -0.03707
0.08365 -0.07967 0.10941
-0.13483 0.31528 0.13429
0.22917 -0.04926 -0.04676
-0.22204 -0.07967 0.07855
-0.15897 -0.02535 -0.10566
-0.13849 0.16446 0.13363
-0.15266 0.04450 -0.14178
-0.16179 0.38746 0.12867
0.07485 -0.07967 -0.11627
0.13644 -0.07967 0.14734
-0.17234 0.33677 -0.12418
-0.17370 0.19588 0.02575
-0.09223 -0.02535 -0.00559
-0.16474 -0.24555 0.15308
-0.18929 0.20472 0.08812
-0.13501 0.18935 0.16881
-0.18776 0.33677 -0.02261
-0.10372 -0.07967 0.05902
-0.12861 0.28767 0.16528
-0.11597 -0.07967 -0.02046
-0.18497 -0.01979 0.05960
-0.17255 0.22820 0.05787
-0.14554 -0.29002 -0.17791
-0.15931 0.37631 -0.17296
0.01074 -0.02535 0.12060
-0.15807 0.33860 0.00064
0.19034 -0.38305 0.15426
-0.17357 0.38746 0.05752
0.13255 -0.02535 0.14095
0.04656 -0.04014 -0.17377
0.07158 -0.04637 0.18105
0.05765 -0.06669 -0.19864
0.17433 -0.05434 0.18902
0.23219 -0.11588 0.19756
0.04365 -0.07967 -0.04968
-0.13409 0.35034 0.10236
0.22803 -0.04812 0.17899
0.19414 -0.10866 0.12727
0.23359 -0.05368 -0.03275
0.22682 -0.25395 -0.16280
-0.15282 -0.36998 0.14513
-0.17641 0.33677 -0.00283
0.03084 -0.07967 -0.09547
-0.13610 -0.02535 0.00405
0.18702 -0.19498 0.13710
0.19234 -0.22329 0.18082
-0.14881 -0.33651 0.17621
-0.16933 0.33677 0.12858
-0.16286 0.38746 -0.09818
0.03835 -0.07967 0.06655
-0.12385 0.17801 -0.13458
-0.15195 0.05913 -0.14005
-0.04873 -0.02535 -0.14402
-0.20260 0.19153 0.00444
-0.20500 0.14249 0.01651
-0.14461 -0.33655 -0.14971
-0.19835 0.33677 0.11257
-0.14516 0.24323 0.16887
-0.13579 -0.02535 0.03605
-0.12923 -0.02535 -0.05916
-0.10709 -0.02535 0.03243
-0.16979 -0.07967 -0.09039
0.15780 -0.07967 -0.18839
-0.20331 0.27746 0.00581
0.21740 -0.03749 0.06915
0.17270 -0.07752 0.19969
-0.03233 -0.07967 -0.10702
-0.01699 -0.07967 -0.05675
-0.18942 -0.03257 0.11910
-0.16639 -0.37026 -0.16131
-0.17153 0.07801 -0.07731
-0.14521 0.38434 -0.18715
-0.17392 0.15490 0.00177
0.20549 -0.15475 -0.14405
-0.20307 -0.03946 -0.10071
-0.14278 0.33844 -0.07567
-0.17938 0.26561 -0.03148
-0.24323 -0.07523 -0.03329
0.23406 -0.18908 0.17895
-0.17732 0.05343 0.09345
-0.17250 0.32823 -0.05793
-0.07121 -0.02535 0.02834
-0.09436 0.38295 -0.15940
0.24492 -0.07075 -0.07171
-0.00580 -0.02535 -0.10219
-0.11481 0.33677 -0.13848
-0.16639 -0.27164 -0.16544
-0.21079 0.38746 -0.02242
0.22682 -0.13419 0.17604
-0.22578 -0.04926 -0.04425
-0.11736 -0.02535 -0.14458
-0.15914 0.07575 0.07017
-0.10489 0.38746 0.15925
0.21621 -0.30972 0.15211
0.06966 -0.07967 -0.13518
-0.12652 0.19882 0.16322
0.08151 -0.07967 0.00532
-0.13683 0.37042 -0.08928
0.05788 -0.02535 -0.08368
-0.14773 0.12133 -0.16151
-0.15572 0.38746 -0.15340
-0.16926 0.19264 -0.04863
0.20104 -0.22089 0.13855
-0.24472 -0.06796 0.00449
-0.13559 -0.08071 -0.19864
-0.16639 -0.25151 -0.14524
-0.18735 -0.01265 0.03200
-0.14978 -0.13486 0.14513
-0.12995 0.07611 -0.13103
-0.19151 0.22886 0.03145
-0.11921 0.03891 -0.14123
0.21659 -0.17445 0.14435
-0.15077 0.27572 -0.13801
0.21729 -0.03738 0.09207
-0.08942 -0.02535 0.05678
-0.22407 0.37741 -0.00306
-0.14777 -0.11588 0.19703
0.01290 -0.07967 -0.15147
-0.11785 -0.02535 0.14575
-0.22169 -0.05423 -0.08945
0.19034 -0.17447 0.17676
0.21944 -0.38260 -0.18053
0.10872 -0.02535 0.10784
-0.02916 -0.02535 0.15787
0.19745 -0.07967 -0.11545
-0.17230 0.01966 0.09304
0.01430 -0.02535 -0.07333
-0.19378 0.33677 0.05408
-0.11495 -0.11588 0.15878
-0.03702 -0.07967 -0.10368
0.08108 -0.07967 0.03024
-0.12211 0.33522 0.15115
0.17224 -0.08033 -0.19144
-0.12102 -0.21809 0.16811
-0.20506 0.13109 -0.04983
-0.17206 0.06826 0.02361
-0.16639 -0.36387 -0.14616
-0.16308 0.13074 0.08762
-0.20507 0.36214 0.09796
0.19588 -0.07967 -0.01707
0.18310 -0.18904 0.14120
-0.13489 -0.07967 -0.08744
-0.15010 -0.16018 -0.18161
-0.16020 -0.00061 -0.08687
-0.14176 0.26488 -0.16499
-0.17874 -0.09154 0.12727
-0.05230 -0.03331 -0.16693
-0.15437 -0.24457 0.14513
0.12165 -0.07967 -0.03757
-0.14589 0.25998 0.13445
-0.20428 0.28754 0.01969
0.19490 -0.07967 -0.05170
-0.15192 -0.23319 0.14513
-0.11252 -0.08379 -0.12621
-0.14675 0.01464 0.13481
0.06185 -0.07967 0.02563
-0.12223 0.00637 0.15282
-0.00545 -0.02535 -0.05989
-0.16474 -0.38175 0.16543
-0.13595 -0.17357 -0.18161
-0.18487 0.27605 0.05955
0.18891 -0.02535 -0.12254
-0.16595 0.19809 0.09009
-0.08239 -0.05189 0.18657
0.05720 -0.02535 0.02053
-0.22487 -0.07967 -0.09155
0.20604 -0.38107 -0.14405
-0.19804 0.27266 0.02825
0.13808 -0.07967 -0.08487
-0.19415 0.21885 -0.09218
-0.20534 -0.07967 -0.15396
0.22682 -0.35506 -0.15685
0.22790 -0.18468 0.15572
0.20887 -0.11484 -0.19864
0.15536 -0.02535 -0.14141
-0.11844 -0.02535 -0.04645
0.19034 -0.27227 0.17231
0.24492 -0.06877 0.11223
-0.17397 0.09921 -0.03546
0.19455 -0.08600 0.19969
-0.02351 -0.07967 0.18931
-0.15846 -0.18179 0.18161
0.19178 -0.24080 -0.18053
-0.11094 -0.08825 -0.17168
-0.14809 0.38189 -0.06071
0.02190 -0.07967 -0.07314
0.10207 -0.07967 -0.01578
-0.17415 0.18199 0.02634
0.22636 -0.04645 0.01928
-0.12102 -0.19065 0.15439
-0.03162 -0.07967 0.15730
0.19034 -0.28170 -0.14875
-0.18132 0.05297 -0.11211
-0.15334 -0.30869 0.15543
-0.12477 -0.02535 -0.12807
0.15227 -0.02535 0.15884
-0.15649 0.30006 0.14402
-0.12827 -0.18213 0.16461
0.09475 -0.02535 0.15696
-0.19123 0.32923 -0.08459
0.05633 -0.07967 -0.12283
-0.20198 0.15804 0.02418
-0.13143 0.05787 0.13570
-0.16255 0.32526 0.08693
0.19034 -0.13286 -0.17834
0.04775 -0.07967 -0.06311
0.24294 -0.07967 -0.05800
-0.13165 -0.29082 0.16596
-0.12827 -0.35675 0.16503
0.20551 -0.22089 0.18219
-0.15869 -0.02179 0.07226
0.14926 -0.02535 -0.15125
-0.16433 -0.35320 0.18161
-0.13038 0.04497 0.13640
-0.19285 0.30467 0.08260
-0.15734 -0.02535 0.06597
-0.15181 -0.11721 0.19080
-0.12548 -0.07967 0.06395
0.18536 -0.18601 -0.13866
0.03638 -0.02535 -0.05950
0.20755 -0.02764 0.03988
-0.11243 0.38746 -0.13361
-0.19251 0.11184 -0.10270
0.20683 -0.20140 0.13710
-0.12827 -0.27489 0.16765
-0.03032 -0.05027 -0.18390
-0.07623 -0.07967 0.18102
-0.19632 0.14308 -0.00175
-0.11094 -0.11575 -0.13090
-0.06621 -0.02535 0.13121
-0.15373 0.16662 -0.14951
-0.11999 -0.02535 0.10347
0.15092 -0.02535 0.08001
-0.16880 0.13527 -0.07843
0.10487 -0.07967 -0.04698
-0.20523 0.28147 0.01476
0.04706 -0.02535 -0.13999
-0.18336 -0.09759 -0.15200
-0.19581 0.34636 0.11880
-0.11614 -0.02535 0.13989
-0.15670 -0.02535 0.01258
-0.10226 -0.02535 0.00263
-0.15574 -0.31761 -0.16553
-0.02880 -0.02535 0.12637
-0.03845 -0.05518 0.18986
0.16045 -0.07967 0.11143
-0.17492 0.25767 0.00073
-0.12635 -0.02535 0.13758
-0.01426 -0.04201 0.17670
0.14745 -0.03630 -0.16992
-0.19344 0.00147 -0.03079
0.24053 -0.06062 0.00754
-0.01908 -0.07967 -0.00390
0.24258 -0.06266 0.12179
-0.16897 0.37739 0.16136
0.10277 -0.03615 -0.16977
-0.13794 -0.08199 0.19969
-0.19113 0.13924 0.06520
0.20035 -0.02535 0.08923
-0.12976 0.18158 0.13687
-0.14719 0.38746 -0.16908
-0.15389 -0.35167 0.18161
0.18245 -0.03482 -0.16844
0.23237 -0.11588 0.15991
0.17224 -0.09078 -0.16196
0.16270 -0.07967 0.06319
0.24174 -0.11588 0.16091
-0.08562 -0.07967 -0.15833
-0.04638 -0.07967 0.11832
-0.16166 0.08716 0.06516
-0.19226 0.26087 -0.00344
-0.13424 0.13812 -0.16592
-0.08383 -0.02535 0.03248
0.13516 -0.02535 -0.02799
-0.00064 -0.05235 -0.18597
-0.08612 -0.02535 0.15153
-0.09522 -0.07967 0.03480
-0.21307 0.33677 -0.00725
0.24313 -0.06322 0.16536
0.19034 -0.23226 -0.17232
0.02515 -0.02535 0.06711
-0.15668 0.00109 0.15854
-0.14114 0.28223 0.13353
-0.16595 -0.18468 -0.18651
0.22010 -0.07967 0.01535
-0.17129 0.12672 -0.05606
-0.14214 -0.16862 0.14513
-0.17958 0.23009 -0.07704
-0.02574 -0.03092 -0.16454
-0.11648 -0.04860 -0.18222
-0.16973 0.11717 -0.05221
-0.07642 -0.07967 -0.07067
0.18803 -0.02535 0.13353
0.06741 -0.07967 0.15024
-0.13815 -0.35883 0.18161
-0.19718 0.26905 -0.06265
0.05133 -0.07967 -0.12262
0.06662 -0.07967 0.06236
0.17250 -0.10348 0.17799
0.23406 -0.21688 0.17446
0.21155 -0.16056 0.18082
-0.17721 -0.00790 0.02884
-0.20584 0.36757 -0.09484
0.11049 -0.07967 0.13125
-0.08032 -0.02535 0.08232
-0.16950 0.27333 -0.11131
0.08142 -0.02535 -0.02265
-0.16651 0.33677 0.11874
-0.17348 0.17591 0.05774
-0.13803 -0.29874 -0.18122
-0.17944 0.08586 -0.03145
0.19034 -0.18049 0.16662
-0.18835 0.35220 -0.13146
-0.18492 0.17648 0.03171
-0.14162 0.16194 -0.16505
0.22682 -0.15624 -0.15577
0.18954 -0.02535 -0.04768
-0.16639 -0.22137 -0.16610
-0.06448 -0.07967 0.17364
0.16133 -0.07967 -0.17269
0.19034 -0.18021 0.17477
-0.13987 0.24791 0.16958
0.24492 -0.06596 0.19850
0.17074 -0.07967 0.16641
-0.04060 -0.02535 0.13299
-0.16143 0.33677 -0.07661
-0.16215 0.27578 0.06451
-0.19041 0.38636 -0.12767
0.06656 -0.02535 -0.14811
-0.17296 -0.01843 -0.03677
-0.15372 -0.08826 -0.19864
0.23734 -0.07967 0.04296
-0.18433 -0.11588 -0.16379
0.21854 -0.25284 0.14435
0.13458 -0.07967 0.10160
-0.13565 0.34224 0.19783
-0.19851 0.07602 -0.03368
-0.04335 -0.05011 -0.18374
-0.15595 0.15714 0.16031
-0.19646 0.38080 0.11760
-0.20281 0.15263 0.00471
-0.16474 -0.36595 0.17632
-0.11061 -0.07967 -0.00386
0.21168 -0.07967 -0.07356
-0.13503 -0.02535 0.12984
-0.16474 -0.15055 0.17723
-0.12604 0.31777 0.14043
-0.15466 -0.32320 0.15970
0.07405 -0.07967 0.08459
0.24409 -0.06418 0.09447
-0.15361 0.33045 -0.14564
0.20031 -0.16250 0.18082
-0.16986 0.05472 -0.07799
0.22874 -0.07967 0.04326
-0.20309 0.07485 -0.05629
0.24176 -0.06184 0.08188
0.17398 -0.02535 -0.10153
0.00250 -0.07967 0.12328
-0.17157 -0.22089 -0.15992
-0.15781 -0.12569 0.14513
0.07010 -0.07967 0.04792
0.18470 -0.02535 0.07366
0.07276 -0.07967 -0.07537
0.21906 -0.38517 0.18082
-0.16179 0.31697 -0.08424
-0.17244 -0.02327 -0.05785
0.19389 -0.38746 -0.16217
0.16090 -0.02535 -0.00960
0.13312 -0.07967 0.11348
0.06665 -0.07614 -0.19864
-0.13037 0.19471 0.13640
-0.16418 -0.35809 -0.14513
-0.16482 0.30109 -0.10849
-0.15722 0.28970 0.15724
0.19680 -0.13681 0.18082
-0.11829 0.29496 -0.14367
0.06795 -0.07967 -0.04568
-0.00924 -0.07967 0.07571
-0.19140 0.17290 -0.00365
-0.21126 0.33677 0.06483
0.23854 -0.05863 -0.05820
0.13098 -0.02535 -0.05650
0.20577 -0.05994 -0.19356
0.11617 -0.07967 0.18522
-0.17026 0.10186 -0.11163
-0.00386 -0.07967 0.15800
-0.16177 0.31674 -0.10519
0.16639 -0.07967 0.10468
0.03763 -0.02535 -0.15279
-0.15821 -0.07967 0.05795
-0.20090 0.38746 0.07965
0.16285 -0.07967 0.01937
-0.13663 0.14619 -0.13002
-0.04460 -0.02927 -0.16290
0.08101 -0.02535 0.10787
-0.11336 0.33677 -0.14928
0.03981 -0.02535 0.08364
-0.12992 -0.12724 -0.16624
0.13222 -0.07967 0.06836
0.18450 -0.02535 -0.00626
0.19021 -0.18468 0.17178
0.03647 -0.02535 -0.09828
-0.17137 0.03224 -0.03905
-0.19306 -0.02535 -0.06656
-0.18732 0.38746 0.02420
-0.18798 0.11656 0.08919
0.01864 -0.02535 -0.06620
-0.00555 -0.07967 -0.14341
-0.15824 0.14399 0.15126
-0.14055 -0.13803 -0.14513
-0.15831 0.02977 -0.09443
-0.06474 -0.07967 0.04561
0.17250 -0.09557 0.17977
-0.17859 0.38746 0.12640
-0.16639 -0.28409 -0.18040
0.19504 -0.21842 0.13710
0.17381 -0.07967 -0.10714
-0.16808 0.38746 0.01278
-0.17019 0.38746 -0.14251
0.22131 -0.23387 0.14435
-0.21550 0.33677 -0.03499
-0.21616 0.34825 -0.06235
-0.15662 -0.11588 0.13887
-0.20000 0.32367 -0.03482
-0.15188 0.17386 -0.13989
-0.16639 -0.13406 -0.15921
0.19737 -0.07967 0.08704
0.21420 -0.11721 -0.13237
0.19034 -0.24682 -0.16831
-0.12699 0.30589 0.16384
-0.16639 -0.15467 -0.17776
0.18500 -0.20593 0.18806
0.00777 -0.02921 0.16389
-0.18336 -0.08115 0.16249
-0.12811 0.33677 -0.18832
-0.01021 -0.07967 -0.17892
0.20092 -0.23193 -0.14405
0.05883 -0.02535 0.10465
0.07315 -0.02535 -0.10429
0.17117 -0.02535 0.12417
0.22532 -0.04541 -0.15920
-0.15106 0.11574 0.16578
-0.11816 -0.02535 0.00988
-0.15060 0.02134 0.16613
-0.17852 0.38746 0.03526
-0.18679 0.21161 -0.08009
-0.23419 -0.06320 -0.07674
-0.15648 -0.30365 -0.17198
0.12190 -0.07967 0.17066
0.18310 -0.20878 -0.18094
0.02011 -0.02535 0.11677
0.08984 -0.02535 0.04250
-0.16484 0.07169 0.06169
-0.15911 0.01708 0.08069
0.17747 -0.07967 -0.00913
-0.14045 0.26571 -0.13053
0.10757 -0.02535 -0.03665
-0.19173 0.00947 0.03142
-0.15794 0.04095 0.14898
0.24492 -0.07382 -0.08853
-0.16931 0.00622 0.01523
0.22133 -0.33636 -0.15543
-0.18664 0.19925 0.09022
-0.11881 -0.01750 -0.14219
-0.18889 0.28949 0.06244
0.21977 -0.03986 -0.11948
-0.11881 -0.07967 0.03063
0.21806 -0.03815 0.00932
-0.15251 -0.27782 0.14513
0.13876 -0.05458 0.18927
-0.11892 -0.02535 -0.06882
-0.13090 0.25391 0.13600
0.22682 -0.24111 -0.15627
0.24492 -0.07134 0.07659
-0.13393 0.27819 0.16836
-0.21483 -0.04007 -0.05524
-0.19399 -0.07967 0.03460
0.19699 -0.11588 0.17165
-0.15137 -0.07621 -0.19864
-0.13844 -0.02535 -0.08389
-0.19955 0.12805 0.00073
-0.13560 -0.07967 -0.06546
-0.17491 -0.02206 0.00074
0.07076 -0.07967 0.11240
-0.15236 -0.23917 0.14513
-0.16474 -0.22596 0.17561
0.21855 -0.16086 -0.14405
0.05818 -0.02535 0.15091
-0.19753 -0.01639 0.02864
-0.16474 -0.35489 0.15393
-0.15005 -0.36959 -0.14513
-0.09980 0.33677 -0.14819
-0.13914 -0.14292 -0.18161
-0.18336 -0.08378 -0.17022
-0.02905 -0.02535 0.00940
-0.18421 0.17222 -0.06536
-0.17464 0.23999 -0.06061
-0.08686 -0.07967 0.04751
-0.19016 0.22441 -0.08320
-0.11274 -0.11588 -0.13598
-0.17275 -0.10863 -0.12621
-0.13861 -0.21744 0.13789
-0.13253 -0.13746 -0.18161
0.05242 -0.07967 0.09137
0.18676 -0.21726 0.18806
0.19034 -0.24647 0.16002
-0.12746 0.33677 0.17210
0.22682 -0.14244 0.15099
-0.22921 -0.04963 -0.00564
0.01217 -0.02535 -0.02194
-0.16505 0.38746 0.15295
-0.16524 -0.02535 0.14887
-0.18197 0.15348 -0.03041
-0.23539 -0.05878 0.04548
-0.15227 0.24753 0.13817
-0.17460 -0.07967 0.11275
-0.16995 0.30072 -0.05283
-0.19409 0.16578 0.07841
-0.14989 -0.19309 0.18885
0.10440 -0.03742 0.17210
-0.14230 0.23103 -0.16477
-0.16173 -0.15668 0.14513
-0.21150 -0.07967 -0.10114
0.19512 -0.11588 0.15226
-0.15500 0.08427 0.16166
-0.16015 0.20068 -0.08700
-0.19530 0.00112 -0.00218
0.11830 -0.07967 0.06276
-0.18732 0.31654 -0.08050
-0.05190 -0.07967 0.09220
-0.19317 -0.05810 -0.16940
-0.12396 -0.02535 -0.11216
-0.15932 0.03114 -0.10047
-0.16060 0.18689 0.06665
-0.15165 0.32075 -0.15672
-0.22350 0.34501 0.01216
-0.18944 -0.01917 -0.08227
-0.17733 0.04135 0.09345
0.21590 -0.26158 0.14435
0.16415 -0.07967 0.13642
-0.17039 0.10790 -0.05388
0.22101 -0.04110 -0.10128
-0.18928 0.12702 0.08813
-0.18006 0.20185 0.03036
-0.18076 0.26097 -0.00284
0.21304 -0.21155 0.13710
-0.21390 0.38740 0.07384
-0.00630 -0.02535 -0.03976
-0.02656 -0.02535 0.14654
-0.22302 0.36330 0.01889
-0.16949 0.00671 -0.05038
-0.16139 -0.18977 0.18885
-0.18300 0.38746 0.11156
0.01138 -0.02535 0.02925
0.00608 -0.02535 -0.11515
-0.09681 -0.07967 -0.17212
-0.13685 0.23902 0.13384
-0.20515 0.15895 0.01242
-0.05638 -0.04538 0.18006
-0.14075 0.14434 0.16954
-0.14100 -0.02535 0.00427
0.22682 -0.23458 -0.17004
0.08897 -0.02535 0.12149
-0.18336 -0.09738 0.16986
-0.13895 0.38135 -0.08519
0.18002 -0.02535 -0.07242
-0.22008 0.35789 0.04531
-0.16474 -0.13687 0.16631
-0.14196 0.06898 0.16938
-0.02621 -0.02535 0.15266
0.18310 -0.20107 -0.18590
-0.13725 0.38746 0.18154
-0.03791 -0.04934 0.18402
0.23406 -0.19697 -0.15814
-0.12057 0.13355 -0.15764
-0.20888 0.37489 0.08771
0.16199 -0.05249 0.18717
-0.13780 -0.30465 0.15238
-0.10259 -0.07967 0.18521
0.11418 -0.07967 -0.01365
-0.18398 0.28096 -0.00377
-0.20361 0.27720 -0.04026
-0.16152 0.00497 -0.08460
0.24492 -0.09470 -0.15276
0.04337 -0.02535 -0.15356
-0.17353 0.28956 -0.07700
0.20121 -0.12413 -0.18053
0.20095 -0.30981 0.16543
-0.13972 0.20582 -0.13043
-0.15741 -0.18521 -0.13789
-0.19162 0.24284 0.08509
-0.20340 0.33645 -0.03975
-0.16046 0.07106 0.06698
-0.17142 0.08407 -0.03893
-0.15370 0.21180 0.16336
-0.17702 -0.00094 -0.07671
-0.13175 0.35403 0.19797
-0.20477 0.21729 -0.04330
-0.17177 0.10969 0.02323
-0.14254 0.33773 0.08411
-0.13803 -0.28004 -0.18161
-0.09268 -0.07967 0.01505
0.09423 -0.07967 -0.02299
-0.12318 0.30627 -0.13509
-0.18673 -0.07967 -0.01856
-0.15849 0.26163 -0.09308
-0.17325 0.15846 -0.07703
-0.15277 0.30464 -0.14203
0.21735 -0.32491 0.14654
-0.24400 -0.07667 -0.01781
-0.08750 -0.02535 0.03651
-0.19899 0.16009 0.02752
-0.14636 -0.31021 0.17105
0.20806 -0.34788 0.18082
-0.10626 -0.07967 0.03305
0.05262 -0.04868 -0.18230
0.17883 -0.11721 -0.14652
-0.15911 0.16364 -0.09995
-0.22001 -0.05876 -0.11060
-0.09179 -0.02535 0.07806
-0.21250 0.33677 0.01744
0.14839 -0.02535 -0.10966
0.09413 -0.06302 0.19770
-0.20099 0.33677 -0.00246
-0.18102 0.14128 -0.00294
-0.17966 0.13876 -0.06394
-0.14897 -0.38613 -0.17344
-0.14178 0.35657 -0.19061
0.17224 -0.09138 -0.19181
0.14021 -0.02535 -0.03697
-0.12876 -0.19541 0.13789
-0.20427 0.11072 -0.05345
-0.00697 -0.02535 0.05831
-0.22434 -0.07797 0.11802
-0.15748 0.35509 0.17586
-0.10046 -0.07967 -0.03180
0.15049 -0.07967 0.08104
-0.20176 0.38746 0.10556
-0.18439 -0.06986 -0.19695
-0.18978 0.05781 0.08749
-0.01532 -0.07967 0.03305
0.21435 -0.03444 -0.13269
-0.16946 0.04711 0.01142
0.20563 -0.11588 0.13143
0.10230 -0.07967 -0.17791
0.18177 -0.07967 0.01878
-0.14891 -0.18948 0.13789
-0.20190 -0.07967 0.01263
-0.20030 0.23599 -0.06012
-0.14576 -0.11588 0.16758
-0.18317 -0.10093 -0.12621
-0.12567 0.07237 0.14091
0.07359 -0.02535 0.06130
-0.12031 0.08060 -0.15730
0.19015 -0.10690 0.19969
-0.07887 -0.07967 0.18651
0.17250 -0.08168 0.13858
-0.14709 0.25975 -0.13404
-0.20997 -0.07967 0.07679
-0.16474 -0.27951 0.14745
0.23427 -0.07967 0.07869
-0.12426 0.13311 0.14300
-0.21344 0.38746 0.04796
-0.13274 0.35927 -0.09717
-0.17496 0.18775 0.02711
0.19488 -0.19542 -0.13681
-0.18719 0.08014 0.03201
0.10192 -0.07967 -0.19100
0.01486 -0.02535 -0.01683
-0.13400 -0.23261 -0.18161
0.09680 -0.02535 -0.08005
-0.12510 0.03118 0.16137
-0.17463 -0.07967 -0.07053
-0.06139 -0.02535 -0.10980
-0.17524 0.24802 -0.11268
-0.13617 -0.19117 0.13789
-0.14735 -0.07849 0.19969
-0.17283 -0.07967 -0.00540
-0.12005 0.25730 -0.15684
-0.12945 0.33677 -0.11036
-0.12268 -0.21161 -0.17711
-0.19541 0.07303 -0.00214
-0.02980 -0.02535 -0.11442
0.03961 -0.02535 -0.04440
-0.15336 0.24948 -0.15236
-0.14361 -0.02535 -0.06515
-0.02606 -0.07967 -0.16576
-0.15152 -0.31656 0.15592
0.22682 -0.37092 0.17262
0.01298 -0.02535 0.10387
-0.16447 -0.15552 -0.14513
-0.03338 -0.07967 -0.12833
0.19312 -0.07967 -0.12012
0.22682 -0.22748 0.16622
0.21219 -0.10010 0.12727
-0.12401 -0.02535 -0.03458
-0.19070 0.29671 0.06465
-0.17137 0.17385 0.00532
-0.12992 -0.36986 -0.17709
-0.17345 0.32720 0.02542
-0.14568 0.19229 -0.13296
-0.17164 -0.18601 0.17898
0.19034 -0.16171 -0.16194
-0.14530 -0.26037 -0.14513
-0.13060 0.27495 0.16680
0.21457 -0.03466 0.13105
-0.12102 -0.18947 0.16218
-0.14592 -0.07967 0.07036
0.12904 -0.02535 0.10671
0.19111 -0.19905 -0.18777
-0.12954 0.28373 -0.13120
0.08871 -0.07967 -0.19028
0.22917 -0.22089 0.14356
-0.13900 -0.19656 0.13789
-0.17454 0.06397 0.05760
0.15641 -0.07967 -0.15278
-0.16300 0.11939 0.08752
-0.19355 0.18460 0.08091
-0.05728 -0.02535 0.11256
-0.12208 -0.00791 -0.13644
-0.18160 0.38746 -0.07346
-0.14712 0.09998 0.16806
-0.16249 0.26053 -0.08334
0.20710 -0.02719 -0.11107
-0.13553 0.38746 -0.18676
0.18779 -0.07967 0.01752
0.24492 -0.08736 -0.18724
-0.11587 -0.02535 -0.13759
-0.17294 -0.07967 0.05322
-0.16639 -0.14103 -0.15484
-0.20683 -0.04903 0.11941
-0.13350 0.05362 -0.13022
-0.22038 0.35292 -0.04286
0.13557 -0.07967 0.13579
-0.22161 -0.07217 0.12552
0.13628 -0.02535 0.10572
0.15407 -0.04470 -0.17833
-0.20262 0.18548 -0.05709
0.21581 -0.07359 -0.19864
-0.15368 0.08342 -0.14613
-0.12811 0.35050 -0.10612
-0.19147 0.33108 -0.10455
-0.18628 -0.04222 0.14930
-0.15905 -0.23405 0.18161
0.20677 -0.33828 0.14788
0.19034 -0.14257 -0.15945
-0.17123 0.01706 0.02217
0.24465 -0.06474 0.04725
-0.01415 -0.02535 -0.08112
-0.17935 0.25922 0.09318
-0.12298 0.12396 0.15693
-0.16655 0.33677 -0.16323
-0.15973 -0.28998 -0.14881
-0.14263 -0.35753 0.14513
0.10568 -0.07967 -0.18664
0.12750 -0.02535 -0.08513
-0.17171 0.11173 -0.05691
-0.19489 0.38065 -0.11943
0.03409 -0.07967 0.07710
0.01655 -0.04298 -0.17660
-0.17084 0.38746 0.10391
0.19410 -0.07967 -0.06054
-0.19340 0.17988 -0.10053
0.19955 -0.03849 -0.17211
-0.08235 -0.02535 0.09937
-0.06702 -0.07967 0.13001
0.24492 -0.06668 0.03197
-0.16474 -0.26016 0.15856
-0.16963 0.38746 -0.13279
0.20017 -0.02535 -0.06498
-0.09811 0.38746 0.16592
-0.20157 0.24984 0.00310
0.09200 -0.07967 0.03244
0.05204 -0.07967 -0.02345
-0.15245 -0.16204 -0.14513
0.19197 -0.15044 -0.14405
-0.12216 0.30618 0.15227
0.22682 -0.23333 0.14760
0.19034 -0.35531 0.16692
-0.05180 -0.07967 -0.01171
-0.02836 -0.02535 0.09053
0.06739 -0.07967 0.01133
-0.18217 0.23774 0.09250
0.05059 -0.02535 0.02711
-0.17362 0.12662 -0.11247
0.15823 -0.07967 -0.16367
-0.04724 -0.07967 0.18039
-0.03394 -0.02535 0.07586
0.01083 -0.02535 0.04311
-0.13956 0.24935 -0.16564
0.22682 -0.25477 0.17327
-0.16699 -0.11721 0.15293
0.18946 -0.08329 -0.19864
-0.18299 0.03769 -0.11142
-0.11094 -0.08498 -0.19294
-0.09588 0.35031 -0.14773
-0.18548 0.25529 -0.07909
-0.13541 0.09943 -0.16608
0.00781 -0.07967 0.01632
-0.15700 0.36148 0.02288
-0.15836 0.03453 0.07615
0.19684 -0.22089 0.18669
-0.11652 0.33677 -0.16319
0.01850 -0.07967 0.03969
0.22324 -0.04333 -0.13867
-0.02789 -0.07967 0.11525
-0.15300 -0.08801 -0.12621
0.19323 -0.37284 0.18082
0.11981 -0.07967 -0.16599
0.20333 -0.22787 0.18082
-0.11968 -0.07967 -0.05989
-0.03197 -0.02535 -0.06943
-0.12827 -0.13141 0.16703
-0.14705 -0.27413 0.18161
-0.20723 -0.07967 0.01841
-0.14761 -0.02535 -0.05680
0.02849 -0.07967 0.15464
0.05082 -0.02535 0.06725
0.22607 -0.11588 0.15795
-0.19192 -0.07967 -0.15481
0.24492 -0.10173 0.18871
-0.15847 0.28448 0.07397
-0.19411 0.11986 -0.09189
-0.19886 -0.07967 -0.11711
0.03085 -0.07967 -0.00803
-0.22367 0.36856 0.00982
-0.20497 0.18288 0.01675
0.22256 -0.27469 -0.18053
-0.14069 0.13041 -0.16544
-0.17092 0.05055 0.05830
-0.14420 0.33161 0.16909
-0.14033 -0.07967 -0.05383
-0.15297 -0.00926 -0.15354
0.21495 -0.06139 0.19607
0.23406 -0.20356 -0.14895
-0.15907 -0.25008 0.14513
0.23545 -0.09277 0.12727
-0.16842 0.25825 -0.07859
-0.14564 -0.07967 -0.03106
-0.12643 0.32520 0.13993
-0.11775 0.22215 -0.14831
-0.19632 0.00901 -0.03199
0.01371 -0.07967 0.02180
-0.16926 0.31939 -0.04667
-0.12685 0.21917 -0.16374
-0.12552 0.16251 -0.16275
-0.12363 0.24568 -0.16129
-0.11423 -0.07967 -0.09558
-0.20104 0.00185 0.02541
0.15070 -0.02535 -0.07429
-0.11683 -0.07967 0.04808
0.11937 -0.07967 0.11922
-0.16030 -0.38613 -0.17394
-0.13211 0.26705 0.13542
-0.20056 -0.05344 -0.14447
-0.01015 -0.07967 -0.04771
-0.20519 -0.05569 -0.14006
-0.13887 -0.10934 -0.12621
-0.09648 -0.02535 -0.15661
-0.16457 -0.34410 0.17506
-0.21207 -0.07967 -0.02768
-0.15550 -0.14921 0.18161
-0.17976 0.03498 0.03024
-0.11875 -0.02535 0.03111
-0.01939 -0.02535 -0.05827
-0.15865 0.28048 -0.09757
0.17797 -0.07984 0.19969
-0.15540 -0.37584 -0.14513
0.20847 -0.24477 -0.14405
0.20379 -0.24868 0.14435
0.22682 -0.15604 0.17067
0.07801 -0.02830 0.16298
-0.15843 0.12678 -0.09596
0.24492 -0.07469 -0.03985
-0.15874 -0.00539 0.07908
-0.14341 0.29776 -0.13174
0.20424 -0.18601 -0.18740
0.20379 -0.07967 -0.10044
-0.01348 -0.02535 -0.09006
0.19645 -0.07444 -0.19864
0.07374 -0.07967 0.06267
0.01988 -0.07967 0.06185
-0.14242 0.38505 0.08446
-0.18975 0.27012 -0.10679
-0.01224 -0.07967 -0.08388
0.23168 -0.07967 -0.04656
-0.16829 0.33677 -0.04518
-0.12855 -0.08484 0.12727
-0.17993 0.19951 -0.06406
-0.15794 0.07266 0.14899
-0.13355 -0.19315 0.18885
-0.18336 -0.11546 0.15520
-0.23152 -0.05662 -0.05559
-0.15953 0.23177 -0.08849
-0.06089 -0.02535 -0.15247
0.22682 -0.26716 0.14662
-0.14873 -0.38746 0.17186
0.11525 -0.02712 -0.16074
-0.14804 -0.24065 0.18161
-0.13989 -0.33343 0.17471
-0.19359 0.25639 -0.10006
-0.01005 -0.07967 -0.19764
-0.03819 -0.02535 -0.12605
-0.22158 0.35939 -0.03731
-0.11293 0.37231 -0.12834
0.17250 -0.09715 0.14389
-0.19428 0.30727 0.07704
0.19519 -0.13347 -0.18053
0.17075 -0.05889 -0.19252
0.21399 -0.10663 -0.12595
0.20501 -0.18601 -0.14234
-0.09907 -0.07967 -0.13750
-0.12383 0.02752 0.14405
0.12402 -0.02535 0.02086
0.07993 -0.02535 0.15700
-0.17264 -0.07967 -0.01697
0.18891 -0.11721 -0.14028
-0.15878 0.20702 0.07936
0.19043 -0.07967 0.03511
-0.19209 0.22454 -0.03023
0.20482 -0.05496 0.18965
-0.09940 -0.07967 0.07554
-0.15146 0.32397 -0.13892
0.13969 -0.05987 -0.19349
0.18882 -0.07967 -0.08986
-0.05472 -0.03668 -0.17031
0.19235 -0.28765 0.15164
-0.06368 -0.05651 -0.19014
-0.17146 0.38746 0.07808
-0.15741 -0.11699 -0.14513
-0.24408 -0.07805 0.01739
-0.14054 0.11517 -0.16550
0.04436 -0.02535 0.03157
-0.16903 -0.11588 -0.16468
-0.18146 0.34730 -0.14353
0.21686 -0.32252 0.17081
0.21779 -0.07967 -0.02572
0.18460 -0.07967 0.05278
0.10105 -0.02535 -0.11789
-0.11094 -0.10074 -0.15298
0.23577 -0.05586 0.17831
0.13793 -0.07152 0.19969
0.00059 -0.07293 -0.19864
0.14186 -0.04160 -0.17522
-0.19480 0.14798 0.03021
-0.18759 -0.07967 -0.02734
-0.12268 -0.18667 -0.16520
0.19426 -0.29171 -0.16184
0.08170 -0.07967 -0.04539
-0.15219 0.37227 -0.04530
-0.19029 -0.04223 0.14102
-0.16417 -0.02535 0.05768
0.06407 -0.07967 -0.03869
-0.17681 0.38746 -0.05242
-0.01534 -0.07967 -0.11211
-0.11503 0.36687 0.18387
-0.15306 0.06699 0.16420
0.06953 -0.02535 0.08603
0.21701 -0.18887 -0.13681
0.18344 -0.02535 0.05769
-0.21769 -0.07967 -0.04063
-0.18424 0.21631 0.03162
-0.06605 -0.07967 -0.18714
-0.16028 0.02659 -0.10277
-0.20484 0.31993 0.01011
-0.02684 -0.07967 0.02577
-0.03691 -0.02535 -0.02569
-0.16875 0.29881 0.09174
-0.00586 -0.07967 -0.00997
-0.19061 0.10260 -0.08379
0.18080 -0.11588 0.17651
-0.12671 0.07521 -0.16365
-0.15211 0.36314 -0.04571
-0.03448 -0.07967 0.08314
-0.12827 -0.13844 0.15240
-0.16952 0.26937 0.09206
-0.16639 -0.37491 -0.16353
0.24492 -0.06567 0.06244
-0.11893 0.15531 -0.15415
0.07426 -0.02535 0.02846
-0.01302 -0.02535 -0.13166
0.21780 -0.37725 -0.14405
0.09172 -0.07967 -0.15348
-0.18139 0.36411 0.14468
-0.11915 0.31657 -0.15468
-0.17164 0.31008 0.00475
-0.16182 0.38746 0.10086
-0.14101 -0.23106 0.14513
-0.18058 -0.05474 0.18457
0.23927 -0.11588 0.18417
-0.18151 0.24026 0.03096
-0.08035 -0.07967 -0.06655
-0.12827 -0.24276 0.16384
0.15781 -0.02535 0.00027
-0.13772 -0.37167 0.14513
-0.17529 0.15080 -0.07677
-0.15644 0.01662 0.15913
-0.18187 0.04416 -0.07757
0.22729 -0.04738 0.09377
0.02969 -0.02535 0.14879
0.11173 -0.02535 -0.11374
0.22682 -0.35425 0.17491
-0.17176 0.09058 0.00459
-0.22883 -0.07967 -0.08317
-0.21545 0.38155 -0.06561
0.16794 -0.02746 0.16214
0.24492 -0.11276 -0.14300
-0.18149 0.09213 -0.06470
-0.12914 -0.11588 0.19133
0.17258 -0.02535 0.06341
-0.15021 0.07961 -0.15876
-0.15409 0.07765 0.14017
-0.12992 -0.37816 -0.15904
0.05570 -0.02535 -0.05340
-0.17032 -0.11588 -0.14480
-0.15679 -0.03921 -0.17283
0.11929 -0.03298 0.16766
-0.20465 0.08593 0.01878
-0.12817 0.38746 0.18338
-0.08885 -0.02535 0.12157
0.19034 -0.12946 0.16389
-0.09283 -0.02535 -0.09957
-0.14072 -0.20717 -0.13789
-0.19289 0.15246 -0.10178
-0.16686 -0.02535 0.13877
0.21612 -0.31125 0.15784
-0.20271 0.38746 0.06766
-0.15670 0.24343 0.14452
-0.14428 0.25021 0.13395
-0.17274 -0.03807 -0.16440
-0.12992 -0.37976 -0.17602
-0.10000 0.33677 0.16490
-0.19698 0.33677 -0.10986
0.16432 -0.02535 -0.14876
-0.13366 0.09283 0.13478
-0.19447 0.23633 -0.06409
-0.16297 0.16542 -0.10675
0.21962 -0.11588 0.17160
0.22607 -0.34202 0.15768
-0.02236 -0.02535 0.12956
0.21479 -0.03488 -0.06871
0.20553 -0.07587 0.19969
-0.19629 -0.07967 -0.01701
0.13331 -0.07967 0.09458
-0.12327 0.18826 0.15764
-0.18752 0.04453 -0.10880
-0.11094 -0.08967 0.15884
-0.16182 0.33677 -0.13593
0.20442 -0.38746 -0.14791
-0.13667 0.15289 -0.13003
-0.23258 -0.05848 -0.06102
-0.12608 0.10239 0.16264
0.19777 -0.38613 0.17050
0.24492 -0.08123 -0.17379
-0.17687 0.05096 -0.11277
-0.15922 -0.29440 0.16373
-0.15227 0.06298 0.13817
0.07237 -0.02535 -0.08075
0.03899 -0.05884 -0.19246
0.01828 -0.02535 0.05102
-0.12027 0.04530 -0.15725
-0.12565 0.08311 -0.16284
0.18266 -0.11721 -0.13418
0.15086 -0.02535 -0.01760
-0.15566 -0.02535 0.13427
-0.14842 -0.11588 0.15507
-0.23303 -0.06542 -0.08863
0.23117 -0.07967 0.01507
0.22439 -0.04447 0.02983
-0.14576 -0.00492 0.16862
0.18969 -0.07967 0.06056
0.24492 -0.06869 0.19297
-0.19357 -0.05161 -0.15474
-0.20364 -0.04916 0.12850
0.08803 -0.02535 0.05763
0.02687 -0.07967 0.09873
-0.15977 0.33677 0.03155
-0.17326 0.33660 0.09316
0.14087 -0.07967 0.11282
-0.18692 0.13184 -0.02959
-0.24213 -0.07890 -0.04152
-0.13339 -0.29374 0.14931
0.16940 -0.02535 -0.07733
0.20684 -0.35329 -0.18053
-0.19299 -0.00554 0.08227
0.21513 -0.25956 -0.14405
-0.18924 0.10792 -0.06549
-0.18336 -0.08547 -0.15678
0.20217 -0.15771 -0.18053
-0.13396 -0.11767 0.18161
-0.08528 -0.03892 -0.17255
0.00083 -0.07967 -0.08063
0.20053 -0.37877 0.14435
0.21000 -0.30761 -0.15415
0.19153 -0.24047 0.14435
-0.15807 0.21244 0.15303
-0.19701 0.35966 0.11658
-0.05292 -0.06964 -0.19864
-0.14934 0.14971 0.13592
0.22494 -0.07967 0.11220
-0.18903 -0.02535 0.04405
-0.18399 -0.02535 -0.06748
0.19961 -0.02535 -0.00992
-0.02415 -0.07967 0.00792
-0.05375 -0.02535 -0.13000
0.00860 -0.07967 0.07801
-0.11915 0.15049 -0.14136
-0.15042 0.17621 -0.15848
-0.01332 -0.02535 0.03311
-0.20485 0.15288 -0.05140
0.21768 -0.07967 0.09081
-0.20527 0.06045 -0.04824
-0.14539 0.18329 0.13425
0.21379 -0.03388 0.08073
-0.13562 0.18016 0.16902
-0.13975 -0.05941 0.19409
-0.14858 0.22276 -0.13519
0.08721 -0.07967 0.01912
0.07514 -0.02535 0.07891
-0.15661 0.05825 0.15871
0.18449 -0.02535 -0.03876
-0.17518 0.09655 -0.11268
0.19349 -0.11221 -0.12595
-0.12328 -0.11721 0.15468
0.19034 -0.25332 -0.16081
0.20969 -0.31462 0.15517
-0.15924 0.38584 0.17409
0.15639 -0.03884 -0.17246
0.18310 -0.19757 0.15934
0.22313 -0.16051 -0.18053
-0.10663 -0.05414 0.18882
-0.16144 0.12428 0.08549
0.19679 -0.02535 0.02846
0.19439 -0.07967 0.00325
0.22200 -0.11588 0.12827
-0.20437 0.33915 -0.09880
0.23406 -0.22090 -0.16275
-0.15298 0.27998 -0.14254
-0.14131 0.32723 -0.13087
-0.07159 -0.07967 0.00660
-0.09741 0.33677 0.15739
-0.18755 -0.07967 -0.07670
-0.15757 0.25176 0.14663
0.22682 -0.24746 0.16521
0.20691 -0.11876 -0.18053
-0.15207 -0.11800 -0.18161
-0.15810 0.38004 0.00110
-0.17331 0.12445 0.00258
-0.16579 -0.02086 -0.10923
-0.02015 -0.07967 -0.09152
-0.18849 0.10461 0.03185
0.17224 -0.11063 -0.15230
-0.21591 -0.05313 0.10648
0.24492 -0.08050 0.16355
-0.15593 -0.11477 0.19969
-0.06571 -0.02535 0.06861
-0.15570 -0.02535 -0.05240
-0.13847 0.08572 0.16939
-0.18336 -0.09471 -0.17863
-0.02313 -0.04139 0.17607
-0.17984 -0.11721 0.16434
-0.20376 0.06880 0.02093
-0.06268 -0.02535 -0.08822
0.12446 -0.05710 -0.19073
-0.01567 -0.07967 -0.16242
-0.12888 -0.02535 -0.09709
-0.01525 -0.07967 0.00724
-0.14297 0.38746 0.16875
0.10216 -0.07967 0.00784
0.06046 -0.02535 0.04418
-0.11545 0.38746 0.16119
0.24492 -0.09157 0.19384
-0.13105 0.24198 -0.13057
-0.11094 -0.10350 0.14417
-0.15842 0.06328 -0.09588
-0.13359 -0.24025 0.14513
0.22682 -0.12339 -0.15671
-0.19154 0.32958 0.08520
-0.17344 0.02733 -0.03615
0.20020 -0.07967 0.10265
-0.19433 0.19964 -0.09590
-0.16520 0.20012 -0.08067
0.24036 -0.06044 0.00183
-0.13586 0.28348 0.13397
-0.12832 -0.22222 0.14140
-0.09624 -0.07967 0.13944
-0.08305 -0.07967 -0.07521
0.23406 -0.19107 0.14680
-0.11792 0.04707 -0.14646
-0.12992 -0.13402 -0.16365
0.11061 -0.07967 0.04949
0.07304 -0.07493 -0.19864
-0.13314 -0.14204 0.14513
-0.15722 -0.33507 0.17544
-0.00237 -0.02535 -0.07212
-0.12827 -0.36521 0.14690
0.23570 -0.05579 -0.06210
-0.17161 0.12851 0.05801
-0.07852 -0.07967 -0.05668
-0.11935 -0.11107 -0.19864
-0.12330 0.16009 -0.13500
-0.23408 -0.05549 0.02663
0.24492 -0.06946 0.06818
-0.12541 -0.19955 0.18885
0.18136 -0.07967 0.12581
-0.02224 -0.07967 -0.07673
-0.19499 -0.02738 -0.08550
0.19188 -0.15042 0.18082
-0.18823 0.00834 -0.02968
-0.04209 -0.07967 0.12531
-0.15853 0.26528 0.07746
-0.19052 0.04689 -0.10577
-0.11659 0.36018 -0.18152
-0.15359 -0.02535 0.11609
-0.20475 0.36279 -0.09776
0.22609 -0.17974 0.14435
-0.16015 -0.02213 0.08320
-0.17356 0.03498 -0.05931
-0.13366 0.03470 -0.16584
0.13410 -0.02535 0.08728
0.19034 -0.16272 0.14475
-0.16639 -0.13020 -0.14718
-0.19824 0.33677 0.04629
0.23406 -0.21969 0.16944
0.19034 -0.25163 0.17110
-0.17363 -0.19664 -0.14682
-0.15895 -0.21116 0.18885
-0.15337 0.28440 -0.15228
0.21400 -0.22823 -0.18053
-0.15647 0.33677 -0.09226
-0.12915 0.02076 0.13733
-0.20828 -0.04015 0.08611
0.23406 -0.20034 -0.18373
-0.15864 0.31810 -0.09191
0.24435 -0.06444 -0.10987
-0.23110 -0.05199 -0.01529
0.19034 -0.35575 0.17798
0.24492 -0.06944 -0.01935
-0.08725 -0.02535 -0.14475
-0.15914 -0.11588 -0.19115
-0.04106 -0.07967 0.17990
0.22347 -0.11721 -0.13151
0.21714 -0.03723 -0.03790
-0.17399 0.10518 0.00168
0.23781 -0.05790 -0.16057
-0.08396 -0.07967 -0.11907
-0.11945 0.19195 -0.15541
-0.04600 -0.07967 -0.10396
0.24492 -0.11218 0.18478
0.23255 -0.11721 -0.16189
0.22455 -0.12709 -0.14405
0.24473 -0.06482 -0.18058
-0.17648 0.32920 0.05738
-0.03874 -0.07086 -0.19864
0.12593 -0.02535 0.00933
0.10848 -0.02535 0.00161
-0.18669 0.00164 -0.08002
-0.16624 -0.12486 -0.18161
-0.15831 0.29409 -0.09442
-0.16083 0.31117 0.06624
-0.08958 -0.06956 0.19969
0.24492 -0.06604 0.18744
-0.11094 -0.09497 0.13601
-0.01572 -0.07967 0.18212
-0.19323 0.08243 -0.08850
0.22518 -0.20480 0.18806
-0.20705 0.38746 0.02809
0.00635 -0.07967 -0.05357
-0.20809 -0.07967 -0.00232
0.15992 -0.05689 0.19158
-0.17751 0.27988 0.02907
-0.22359 -0.04695 0.04434
0.09452 -0.07967 0.02442
0.14133 -0.03298 -0.16660
-0.12701 0.32121 0.16386
-0.15792 -0.07156 0.19969
-0.13877 -0.32086 0.15662
-0.14125 0.04207 0.13355
0.01001 -0.07967 0.03794
-0.22214 0.35383 -0.03022
-0.15073 -0.30372 0.17236
-0.15795 0.09660 0.15397
-0.03722 -0.02535 -0.15823
-0.19774 -0.04470 0.13126
-0.17735 0.15088 -0.11270
0.17764 -0.02535 0.08019
-0.11467 0.36882 0.13367
-0.16130 0.19379 0.08531
-0.04991 -0.02535 -0.11234
0.21374 -0.06648 -0.19864
0.24004 -0.11721 -0.13950
-0.12698 0.05034 0.13920
-0.19396 0.21261 0.07147
-0.17955 0.09434 -0.03141
-0.14153 0.19494 0.16944
0.23603 -0.07118 0.19969
-0.14302 -0.17191 -0.18161
-0.20325 0.21034 -0.03940
-0.11887 0.35004 0.18712
-0.06650 -0.07967 0.09876
-0.17008 0.11353 0.01940
-0.11802 0.33643 -0.14569
-0.06387 -0.07967 -0.11955
-0.11818 0.18880 -0.14447
0.20758 -0.18448 0.18082
0.14952 -0.02535 -0.04221
0.20745 -0.07967 0.08292
0.20671 -0.38512 -0.18053
0.23121 -0.05130 0.08383
0.12924 -0.02535 0.04253
-0.18804 0.22870 -0.00409
-0.11285 0.37140 0.18204
0.21771 -0.11588 0.19189
-0.14317 -0.30157 -0.15412
0.02854 -0.07967 -0.10546
0.20236 -0.02535 -0.14791
0.20128 -0.07967 -0.01465
-0.10336 0.35471 -0.16835
0.17751 -0.11588 0.17156
-0.22402 0.34080 -0.00386
-0.17061 -0.02392 0.00714
0.08884 -0.07967 0.08259
-0.17347 0.32421 -0.03611
-0.16573 0.21429 0.08992
0.11716 -0.07967 -0.11098
-0.20137 -0.01664 -0.03658
-0.15780 -0.32776 -0.16835
-0.19252 0.20760 -0.03041
-0.18562 0.08802 0.05993
0.14852 -0.07967 0.15974
-0.21492 0.35790 0.06911
-0.12074 -0.02535 0.15966
-0.12261 0.15347 0.15569
-0.15839 0.24515 -0.09379
0.11037 -0.02535 0.01068
0.23406 -0.18910 -0.15816
0.19245 -0.21574 0.18806
0.21151 -0.17439 -0.14405
0.21362 -0.06698 0.19969
-0.00051 -0.07967 -0.18300
-0.16298 0.33677 -0.05716
-0.17716 0.18332 -0.00099
0.04095 -0.07967 -0.10750
-0.16334 0.33677 0.13660
-0.16639 0.00015 -0.07976
-0.05505 -0.02535 0.06907
0.07670 -0.02535 -0.02104
0.15682 -0.07967 0.03779
0.16559 -0.07967 -0.17768
0.07147 -0.02535 0.10618
-0.12859 0.38746 -0.10556
-0.16799 0.38746 0.02994
-0.18059 0.18704 0.09302
-0.12854 -0.18468 -0.15481
-0.18120 0.18902 -0.07729
0.24492 -0.10944 0.15398
-0.22214 0.37095 -0.03026
-0.12827 -0.34887 0.17249
-0.20491 0.13552 0.01724
-0.17518 0.19128 0.00054
-0.12992 -0.26173 -0.16277
0.22682 -0.37324 0.14608
-0.12963 0.34496 0.19617
-0.05989 -0.07967 0.07278
-0.13454 0.08034 -0.16596
0.22978 -0.06030 -0.19392
-0.12827 -0.28286 0.14952
-0.08746 -0.07967 0.03540
0.04073 -0.07967 0.02233
-0.16474 -0.23679 0.15637
-0.18148 0.01181 0.09278
-0.14810 0.19056 -0.16123
0.10075 -0.02535 -0.02400
0.21563 -0.07967 -0.00616
-0.13046 0.07531 0.13633
0.02691 -0.02535 -0.06681
-0.05988 -0.02535 0.08096
-0.17887 -0.07967 0.06727
0.01351 -0.07967 0.07631
0.19233 -0.34345 0.14435
-0.12477 0.09184 -0.16217
0.22682 -0.12081 -0.17188
0.21100 -0.07967 0.12327
-0.09053 -0.07967 -0.08978
-0.07062 -0.04899 0.18367
-0.02138 -0.07967 0.13556
0.03267 -0.07967 -0.04618
0.02483 -0.02535 0.00113
-0.11270 -0.11588 0.18058
-0.20693 -0.03445 -0.06731
-0.18425 0.10416 -0.02994
-0.17756 0.03455 -0.03245
-0.19676 0.18697 0.02923
-0.18994 0.16904 -0.02990
-0.15955 -0.03971 0.17440
-0.17553 0.07310 0.09346
0.23167 -0.07967 0.12585
-0.17986 0.03187 0.05782
-0.18286 0.30770 -0.00362
0.22532 -0.04541 -0.02704
-0.19438 0.30598 -0.09547
-0.16607 0.23403 -0.08001
-0.11788 0.28929 -0.14926
-0.18386 0.26034 -0.06531
0.20026 -0.11588 0.12906
-0.12827 -0.13782 0.16507
0.17341 -0.06305 0.19774
0.19420 -0.29162 -0.15357
0.23171 -0.05180 -0.02691
-0.13367 0.38746 -0.11756
-0.19831 0.38746 -0.01575
0.18310 -0.19524 0.17332
-0.13422 0.06464 0.13454
-0.13175 0.33961 -0.19660
-0.17126 -0.22222 0.16102
-0.16695 0.11500 0.06007
-0.16474 -0.15381 0.15029
0.07121 -0.05756 0.19224
0.07223 -0.07967 -0.01544
-0.13509 0.02480 0.13418
-0.11926 0.16906 -0.14109
-0.04122 -0.05414 -0.18777
-0.06547 -0.02535 -0.07279
-0.13963 -0.34488 -0.14513
0.13909 -0.07967 -0.02253
-0.07476 -0.02535 0.06653
0.22725 -0.18468 0.16361
-0.01490 -0.07967 0.15868
-0.19281 0.00964 -0.08749
-0.19619 0.02918 0.02963
-0.18632 0.18226 0.09046
0.24492 -0.09309 -0.14049
0.01267 -0.07967 0.16531
0.20089 -0.08623 -0.12595
-0.11545 0.38746 0.16932
0.22627 -0.07967 0.03226
0.17224 -0.08456 -0.16948
0.22598 -0.22497 -0.18053
-0.22215 -0.05462 0.09027
-0.23009 -0.05188 -0.03332
0.05780 -0.03690 0.17158
-0.16142 -0.11588 -0.13118
0.14311 -0.02535 0.04889
-0.17198 -0.20758 0.15680
-0.14320 -0.17513 -0.14513
0.19034 -0.24314 -0.16012
0.10878 -0.07967 -0.07218
0.22682 -0.26939 0.16445
-0.15066 -0.18468 -0.14220
-0.17828 0.25232 -0.06337
0.24492 -0.10397 -0.16489
0.09972 -0.07967 -0.13150
-0.02193 -0.07967 0.10606
-0.17897 0.16395 0.05770
0.24468 -0.06477 -0.07736
0.17250 -0.08338 0.13237
-0.11094 -0.11583 -0.15483
-0.18838 0.08721 -0.08131
-0.17245 -0.18468 -0.15778
0.19475 -0.22547 0.14435
0.12365 -0.02535 0.08330
0.12521 -0.05906 0.19374
-0.18726 0.09410 -0.08045
0.08782 -0.07967 -0.10236
-0.12334 -0.11588 -0.14035
-0.07007 -0.02728 -0.16091
-0.24276 -0.06767 -0.03736
0.06088 -0.04000 -0.17362
0.24492 -0.10916 0.16048
0.22168 -0.11852 0.18082
-0.20506 0.17709 0.01173
-0.20489 0.09621 -0.05108
0.20606 -0.26458 -0.14405
-0.19496 0.25606 -0.00232
-0.21626 0.38746 -0.04879
-0.11449 -0.02535 -0.15675
0.19931 -0.38613 0.14996
-0.15897 -0.14513 0.14513
-0.17363 -0.20316 -0.16228
0.12712 -0.04950 0.18419
0.20436 -0.30576 -0.15382
-0.15317 0.31376 -0.14299
-0.19410 0.33376 -0.09760
-0.19747 0.22072 -0.03288
-0.15130 0.28533 -0.15734
-0.17673 -0.07792 -0.19864
-0.15575 0.37856 -0.17654
-0.12298 0.31020 0.14610
0.05367 -0.07967 0.16759
0.19619 -0.28060 0.18082
-0.20085 0.38746 -0.03884
-0.16465 -0.11981 -0.14513
0.12955 -0.02535 -0.04648
-0.03867 -0.02535 0.02070
-0.15819 0.37347 0.00550
0.01578 -0.07967 0.03181
-0.12239 0.03172 0.14902
0.22557 -0.26841 0.18082
-0.11991 -0.09264 0.19969
0.11529 -0.02535 -0.14522
0.01542 -0.07967 0.00081
0.15290 -0.07967 -0.12578
-0.16043 -0.02535 0.02962
0.04448 -0.07967 -0.02083
-0.13717 -0.38401 0.18161
-0.01288 -0.02535 0.13247
0.20553 -0.07967 -0.08839
-0.15449 -0.02535 -0.01041
0.13476 -0.02535 -0.01295
-0.15087 -0.27905 0.18161
0.21660 -0.03669 0.03426
-0.17240 0.09531 0.02406
-0.14295 -0.03442 0.16911
-0.20075 0.09294 0.00202
-0.19321 0.05866 0.08174
-0.19168 0.14124 0.08502
-0.16251 -0.28927 0.15938
0.06014 -0.02904 0.16373
-0.14145 -0.31876 0.17095
-0.17117 -0.03182 0.15604
-0.12696 -0.11588 -0.16105
-0.09806 0.37549 -0.14539
-0.15600 0.33677 -0.03435
0.22529 -0.08054 0.12727
-0.12261 0.33901 0.12241
-0.16604 -0.11588 0.18392
-0.11789 -0.01964 -0.14934
0.21928 -0.15748 0.14435
0.08481 -0.07967 0.15400
0.22612 -0.04621 -0.09699
0.19175 -0.17500 -0.14405
-0.12992 -0.36525 -0.16744
-0.00946 -0.02535 0.11270
0.19455 -0.07967 -0.00281
0.22299 -0.06142 -0.19504
0.19459 -0.25760 -0.18053
-0.17672 0.30357 -0.07667
0.11288 -0.02535 -0.12561
0.22682 -0.17718 0.17989
0.07426 -0.04770 -0.18132
-0.15771 0.38746 -0.00606
-0.19897 0.33677 0.05518
0.12052 -0.02535 0.09511
-0.10145 -0.02535 0.08821
-0.19811 0.17383 -0.03337
-0.17071 0.01117 -0.04064
-0.07451 -0.03514 0.16982
-0.18222 0.38746 -0.14201
-0.19710 -0.07480 0.17727
-0.23730 -0.07967 0.03348
0.24492 -0.10147 0.15363
0.21618 -0.31150 -0.15821
0.08971 -0.07967 -0.03008
-0.20861 -0.02874 0.00049
-0.13433 -0.35144 0.18161
0.02699 -0.07967 0.02549
-0.19434 0.08429 -0.09583
-0.12425 -0.05901 0.19369
0.19246 -0.14141 -0.14405
-0.19328 0.38746 0.03917
-0.15783 0.00490 0.14820
-0.18932 -0.06499 0.18993
-0.18871 0.06339 0.03182
-0.09018 0.35930 -0.15525
-0.20386 0.04635 -0.05444
-0.20955 -0.06000 -0.14093
-0.14054 0.24104 -0.13055
0.17414 -0.09999 -0.19864
-0.13667 0.20620 -0.16602
0.20253 -0.35768 -0.18053
-0.20238 0.16469 -0.03789
0.20193 -0.08578 0.12727
0.01547 -0.07967 -0.09911
-0.16591 0.10144 -0.08013
-0.15107 -0.31555 -0.15590
-0.15973 0.06270 0.08219
-0.20408 0.10154 0.00764
0.13059 -0.07967 -0.02920
0.05823 -0.07490 0.19969
-0.15240 0.38238 -0.04430
-0.17729 0.00801 0.02890
-0.19293 0.25639 0.06852
-0.09952 -0.02535 0.02731
0.22682 -0.24272 0.16670
0.05917 -0.07967 -0.14173
-0.17463 0.01289 -0.11260
-0.13945 -0.22267 -0.14513
0.23311 -0.18601 -0.16762
-0.15069 -0.02535 -0.12216
0.22779 -0.04788 0.16745
-0.17444 0.24171 0.09332
-0.16182 -0.07967 -0.03197
-0.12992 -0.26951 -0.15873
0.11192 -0.07967 0.03131
-0.06139 -0.07967 -0.19534
0.11805 -0.07967 0.17672
-0.21909 0.37227 -0.04881
-0.07789 -0.02535 0.01348
0.21326 -0.15548 -0.18053
0.21193 -0.07967 -0.08872
-0.12992 -0.25924 -0.14733
-0.13558 0.33677 0.19020
-0.18672 0.03926 -0.00413
0.22682 -0.27934 0.15490
0.00776 -0.07967 -0.07604
-0.10103 -0.07285 0.19969
-0.19975 0.30334 0.00088
-0.19116 -0.01441 0.06524
0.23420 -0.11007 0.12727
-0.16992 0.24818 0.00882
0.22682 -0.36089 -0.16201
0.24249 -0.07967 0.07500
-0.16474 -0.25744 0.16464
-0.11094 -0.09120 0.18035
-0.18593 0.33677 0.12677
-0.16639 -0.24749 -0.15690
-0.20268 -0.07967 -0.00065
-0.22232 0.34133 -0.02774
-0.18890 0.29934 -0.10774
-0.15308 0.05357 0.13886
-0.19880 0.31136 -0.06141
-0.17036 0.28049 0.00774
-0.16100 -0.38746 0.17928
-0.20334 0.01249 0.00588
-0.14550 -0.34865 -0.18161
-0.17198 -0.19151 0.16937
-0.12992 -0.15942 -0.16148
-0.20314 -0.07967 -0.00841
-0.19401 0.22539 0.07186
-0.10746 -0.02535 0.14034
-0.15888 0.23195 -0.09938
0.19987 -0.14752 0.14435
-0.18722 0.28246 -0.02955
-0.21845 0.38431 0.05281
0.22682 -0.26369 -0.17880
0.19067 -0.06837 0.19969
-0.13684 -0.33204 -0.16281
-0.09728 -0.07967 0.04108
0.24444 -0.11588 0.18927
0.20718 -0.37365 0.14435
-0.13738 0.22856 -0.13012
-0.11844 -0.02535 -0.10835
0.02526 -0.02535 0.01007
0.08950 -0.02535 0.03516
0.23331 -0.11588 0.12996
0.22811 -0.08196 -0.12595
0.11530 -0.07936 0.19969
0.05565 -0.07967 -0.19729
0.21278 -0.21081 -0.13681
0.19031 -0.11588 0.16756
-0.14958 -0.11588 -0.19571
-0.13262 0.00623 0.16782
-0.14225 0.02074 0.16934
0.19558 -0.07967 0.09184
-0.15653 0.05038 0.14410
0.09709 -0.04575 -0.17937
0.12516 -0.07967 0.05752
0.23406 -0.20211 0.15742
-0.08654 -0.07967 -0.01395
-0.16847 0.03017 0.05931
0.13408 -0.07967 0.08115
-0.15112 0.33677 0.10435
