ply
format ascii 1.0
comment VCGLIB generated
element vertex 1782
property float x
property float y
property float z
element face 0
property list uchar int vertex_indices
end_header
0.00738 -0.12576 0.13037
0.15792 -0.12576 -0.03822
0.10148 -0.13534 0.14246
0.12148 -0.06824 0.12806
-0.10925 -0.06824 -0.09306
0.20863 -0.22458 0.14616
-0.13801 -0.16546 0.05705
-0.13858 0.12907 0.04197
0.10034 -0.12576 0.05801
-0.10609 -0.12576 0.03899
0.04867 -0.13534 0.04634
0.23060 -0.08214 -0.13589
0.11915 -0.06824 -0.16410
0.14341 -0.12576 0.01183
-0.00001 -0.06824 -0.11220
-0.11449 -0.11247 0.04380
0.15029 -0.12576 -0.07302
0.08111 -0.06824 -0.17009
-0.04803 -0.06824 -0.10953
0.02252 -0.13534 -0.01416
-0.17055 -0.37459 0.01688
0.19041 -0.16079 0.15494
0.20881 -0.06824 0.03708
0.11530 -0.06824 0.15669
0.13705 -0.12576 0.02700
-0.05441 -0.06824 -0.03454
0.22506 -0.12576 0.03410
0.21354 -0.12576 0.06797
0.01902 -0.12576 0.08641
0.19073 -0.16960 -0.16297
0.06948 -0.12576 -0.12141
0.07264 -0.11540 -0.17078
-0.18341 0.25810 0.03616
0.10489 -0.12303 0.17622
0.15592 -0.06824 -0.12286
0.15327 -0.12576 0.03772
-0.13590 -0.19876 0.03616
-0.08276 -0.13534 -0.09780
-0.03660 -0.13534 -0.09021
-0.03153 -0.13534 0.04955
-0.12524 -0.21233 -0.06289
0.20111 -0.19592 0.14514
-0.14213 -0.26736 0.07451
0.07116 -0.13534 -0.05118
0.13599 -0.12576 0.17816
-0.16056 0.17546 0.07451
-0.04201 -0.12576 0.11779
-0.10427 -0.08839 -0.04372
0.02083 -0.13534 -0.05165
-0.16829 0.20659 -0.07887
0.17948 -0.12576 -0.04832
0.20105 -0.12576 -0.10527
-0.11449 -0.11818 0.04238
-0.03498 -0.12576 -0.09667
0.13197 -0.12576 0.00656
0.21826 -0.38639 -0.16431
-0.17363 -0.39435 0.00135
-0.09194 -0.08061 0.10379
0.15805 -0.10109 0.18046
0.16328 -0.13534 0.16870
0.09103 -0.13534 -0.01998
0.13030 -0.08007 -0.17894
-0.14527 -0.32580 0.04633
-0.07850 -0.12576 0.06151
-0.15537 -0.27701 0.04377
-0.01675 -0.13534 0.00571
0.15845 -0.12576 0.16316
0.02111 -0.08608 0.15721
-0.07231 -0.10854 0.11557
-0.03045 -0.12576 -0.09596
0.18858 -0.12576 0.13070
0.20478 -0.13534 -0.14292
-0.02702 -0.12576 -0.11488
0.09292 -0.12576 0.04136
0.02343 -0.06824 -0.12616
0.21004 -0.07495 0.17911
-0.10745 -0.12576 -0.01494
-0.15541 -0.33988 0.07451
0.07791 -0.06824 0.17082
0.07513 -0.12576 -0.05870
0.19833 -0.06824 0.12938
-0.21143 0.34153 -0.04052
-0.11437 -0.15074 -0.07032
0.20299 -0.12576 0.04482
-0.21084 0.37630 0.05132
0.05462 -0.12576 0.11646
-0.22513 0.38514 0.07451
0.04167 -0.06824 -0.12650
0.12517 -0.13534 0.08778
0.07234 -0.13534 0.02883
0.22465 -0.12576 0.04737
-0.12026 -0.16314 -0.04052
-0.15614 -0.28200 -0.04823
0.23060 -0.11169 -0.11136
-0.01063 -0.13534 -0.02116
0.01424 -0.13534 0.09450
-0.11756 0.05713 -0.06864
0.21249 -0.06824 0.16233
-0.17178 0.24266 -0.04439
0.05733 -0.06824 0.03975
0.03452 -0.12576 0.03428
0.05960 -0.12576 -0.03462
0.18540 -0.12576 0.04535
-0.14550 -0.32708 0.05433
0.23060 -0.09609 -0.05107
0.16882 -0.06824 0.02879
-0.12659 0.02714 -0.04052
0.16403 -0.13534 0.14233
-0.22476 0.38316 -0.00595
0.08183 -0.06824 0.06893
0.00826 -0.08698 0.15263
-0.05302 -0.06824 -0.09849
-0.18413 0.28491 -0.04838
0.23060 -0.11852 0.03601
0.19924 -0.16291 0.14396
0.19477 -0.22607 -0.16756
-0.15489 -0.27396 0.06834
0.23060 -0.07070 0.04457
-0.12350 -0.01623 0.05964
0.19280 -0.22773 -0.16370
0.08834 -0.12576 0.10993
0.08344 -0.12576 0.05769
0.06846 -0.13534 0.04595
0.13205 -0.13534 0.08341
-0.12300 -0.10194 -0.07887
-0.11449 0.04663 -0.07760
-0.03596 -0.06824 0.05206
0.03601 -0.13534 -0.14299
-0.10119 -0.13534 0.01727
-0.11672 0.05428 -0.04347
-0.13168 -0.23851 0.03616
-0.10363 0.00819 0.07451
0.21826 -0.36100 0.16620
0.13437 -0.06824 0.13598
0.04225 -0.06824 0.12641
-0.05408 -0.12576 0.01420
0.12367 -0.12576 0.07450
-0.08802 -0.13534 -0.07404
-0.19046 0.25415 0.06482
-0.16196 0.14699 -0.07459
-0.07805 -0.13534 -0.03150
0.19867 -0.31849 0.14951
0.13189 -0.13534 -0.05577
-0.09416 -0.13534 0.00248
-0.14342 0.07726 -0.05479
-0.16196 -0.35168 -0.07887
-0.01595 -0.12576 0.06878
-0.06139 -0.12576 -0.07344
-0.17210 0.18512 -0.04442
0.15044 -0.10997 0.18021
0.08708 -0.12576 0.08331
0.02509 -0.06824 0.11425
0.02681 -0.12576 0.06986
0.19157 -0.19315 0.14988
-0.12298 -0.02282 -0.04326
0.21088 -0.29917 -0.16756
-0.17820 0.26462 -0.07465
0.20126 -0.28612 0.17173
-0.04485 -0.13534 0.00024
0.16398 -0.06824 -0.05119
0.20726 -0.08214 0.17936
-0.15639 -0.32383 -0.04052
-0.05556 -0.06824 0.10854
-0.13599 0.05384 -0.04052
-0.00288 -0.06824 -0.04734
-0.17411 0.23966 0.07451
-0.13167 -0.21112 0.07451
0.20392 -0.38046 -0.16756
-0.09325 -0.12576 -0.06134
0.07152 -0.12576 -0.15357
0.07044 -0.06824 0.04476
-0.02025 -0.12576 -0.02562
0.15199 -0.12576 0.05512
0.00403 -0.06824 -0.07334
-0.08291 -0.12576 -0.10269
0.18416 -0.06824 -0.13805
-0.18088 0.24059 -0.07887
0.07815 -0.13534 0.04614
-0.00840 -0.06824 -0.11868
0.01175 -0.12007 -0.15442
0.20841 -0.06824 0.16753
-0.15399 -0.36407 -0.07887
-0.03128 -0.12576 0.02956
0.01672 -0.12576 -0.00273
0.09152 -0.06824 0.06715
-0.07013 -0.07549 -0.11845
0.21826 -0.16702 -0.15160
0.22989 -0.06824 -0.03842
-0.10494 -0.12576 -0.02364
0.10835 -0.13534 0.09109
-0.10746 -0.12576 -0.07743
0.06592 -0.12576 -0.10680
0.00944 -0.06824 -0.09748
-0.12579 -0.13985 -0.07887
0.12772 -0.12576 0.11012
0.23060 -0.10422 0.07279
-0.01951 -0.12576 -0.03825
0.19683 -0.06852 0.18010
0.11358 -0.06824 -0.08397
0.05743 -0.10908 -0.16746
0.11543 -0.06824 -0.07980
-0.02327 -0.06824 -0.06305
-0.12397 0.06294 0.03616
-0.01617 -0.13534 -0.05267
-0.20120 0.34330 -0.04746
0.21824 -0.13016 -0.13085
0.03470 -0.06824 0.09095
-0.12181 0.05805 0.07451
-0.18802 0.26391 -0.04052
-0.09245 -0.06824 0.03805
0.20388 -0.13534 0.08454
-0.16848 -0.36129 -0.07768
0.01989 -0.12576 0.04079
0.16388 -0.13534 -0.11104
0.03850 -0.12576 -0.10263
-0.01937 -0.12576 0.12720
-0.15218 -0.25654 -0.05661
0.19997 -0.31472 0.17173
0.22936 -0.06824 0.08755
-0.05513 -0.12576 0.03770
0.08487 -0.06824 0.12851
-0.11025 -0.06824 0.08718
-0.15918 0.19952 0.06314
0.21826 -0.14501 0.15355
0.18207 -0.06824 0.03469
0.07787 -0.12576 -0.00508
0.17413 -0.12576 0.15967
-0.04380 -0.06824 0.11833
-0.03848 -0.07355 0.13347
0.02163 -0.06824 0.14579
-0.10389 -0.08018 0.07451
-0.12468 -0.00538 -0.04635
0.02248 -0.12576 -0.01118
-0.00674 -0.07995 0.14725
-0.01808 -0.06824 -0.05024
-0.06934 -0.10605 -0.11890
0.13640 -0.13534 -0.11830
0.17530 -0.06824 -0.00839
0.04984 -0.12939 0.15742
-0.09423 -0.06824 -0.07981
0.13401 -0.13534 0.02171
0.00035 -0.12576 0.13949
-0.22957 0.40125 0.07061
0.03125 -0.06824 0.10275
0.00024 -0.12576 0.01266
0.23060 -0.09941 -0.01839
0.07592 -0.13534 -0.14926
0.19671 -0.33716 0.17014
-0.13038 0.08516 -0.07887
-0.06987 -0.12576 -0.11227
-0.11449 -0.07813 0.03448
0.14373 -0.13101 0.17157
-0.13334 -0.13779 0.07072
0.21603 -0.06824 0.15498
-0.10595 0.01744 0.05213
0.20664 -0.12576 0.02705
-0.11112 -0.13068 -0.04323
0.19101 -0.17756 -0.14830
0.11713 -0.06824 0.12348
0.20161 -0.06824 0.12623
-0.14895 0.16453 -0.05730
-0.14340 -0.20012 0.06532
0.21826 -0.16515 0.16713
-0.14372 0.07837 -0.06303
-0.07729 -0.12576 0.05677
0.10765 -0.12576 0.02253
0.15129 -0.13534 -0.11910
0.06727 -0.12576 0.16069
-0.17342 -0.39300 -0.03610
0.06834 -0.10464 -0.16984
-0.21473 0.38960 -0.05725
-0.15763 0.19424 -0.06001
0.13324 -0.10416 0.17923
-0.11838 -0.07502 0.07451
-0.11206 -0.11329 0.03616
0.19178 -0.19913 -0.15150
-0.11203 -0.13627 -0.04921
-0.15280 -0.36849 0.07093
0.14900 -0.12576 0.15832
-0.03393 -0.13534 0.07594
0.13593 -0.12576 -0.15313
-0.01685 -0.12576 -0.06845
0.14369 -0.12576 0.05407
-0.10574 -0.13534 0.05710
0.21824 -0.13126 0.01641
-0.06637 -0.06824 0.00921
-0.10934 -0.11965 0.05652
-0.15295 0.11308 0.04615
0.06754 -0.06824 -0.15268
-0.00066 -0.12576 -0.13459
0.10299 -0.12576 -0.00364
-0.09702 -0.02555 -0.05616
0.20638 -0.22294 -0.16756
-0.10904 0.00702 -0.07887
-0.21535 0.39172 0.07167
0.15647 -0.06824 0.11945
0.14546 -0.06824 -0.05100
-0.12551 -0.09253 0.06120
0.13456 -0.06824 -0.17249
0.20921 -0.23149 0.17173
0.20792 -0.20916 0.14561
0.11110 -0.12576 0.00292
-0.11452 0.02285 -0.07887
-0.18452 0.28622 0.04409
-0.09323 -0.06824 -0.09725
0.17510 -0.13534 0.06334
-0.00309 -0.12576 -0.11401
0.14906 -0.12576 0.06951
0.23060 -0.09531 0.10620
-0.04405 -0.13534 0.06139
0.13475 -0.13534 0.13312
-0.21037 0.32903 0.06603
0.03721 -0.06824 -0.13707
0.11393 -0.12576 -0.17290
0.10108 -0.13534 0.06729
0.19079 -0.17139 -0.15607
-0.17307 0.19792 0.07451
-0.12317 -0.20060 -0.04128
0.18035 -0.12576 0.09894
0.10470 -0.12576 0.15733
-0.12455 -0.00643 0.04827
0.06208 -0.12576 0.03449
-0.15603 -0.28127 -0.07881
0.09977 -0.06824 0.12463
0.23060 -0.07184 -0.12867
0.20639 -0.06824 -0.05211
0.19515 -0.12576 0.10880
-0.14875 0.10629 -0.04052
-0.02763 -0.12576 0.09085
0.07271 -0.13534 0.03655
0.13264 -0.12576 -0.06138
-0.02361 -0.06824 -0.10313
0.14292 -0.12576 -0.12199
0.21430 -0.29888 0.14881
0.19273 -0.22567 -0.14415
-0.21748 0.37402 -0.07887
0.13776 -0.06824 0.16450
-0.10383 -0.08569 -0.06890
-0.14940 -0.34920 -0.07398
-0.17344 -0.39317 0.01265
-0.14679 -0.33441 -0.04889
0.22755 -0.06824 -0.08642
-0.12557 0.02710 0.07451
0.05230 -0.12576 -0.06072
-0.06239 -0.13534 0.08604
0.23060 -0.11497 -0.15816
-0.12891 -0.11217 -0.04883
0.02234 -0.06912 -0.15802
0.02232 -0.13534 0.14079
-0.03389 -0.11133 0.13564
0.18352 -0.12576 0.07504
-0.13265 -0.25432 -0.07554
0.23060 -0.07910 0.15118
-0.09546 -0.13534 -0.02076
0.08807 -0.13534 0.00238
0.03447 -0.13534 0.13100
-0.01966 -0.12576 0.02763
-0.17588 0.25668 -0.04493
0.16266 -0.13534 0.03631
-0.13027 0.05507 0.07451
0.00437 -0.06824 -0.05141
0.13242 -0.12039 0.17915
-0.16348 0.15268 0.06323
-0.11449 -0.07043 -0.03872
-0.10028 -0.00964 -0.04052
-0.22295 0.37637 0.01079
0.16041 -0.06824 -0.04808
-0.12720 -0.16448 0.03616
0.09658 -0.12576 0.01050
0.19445 -0.13534 0.15198
-0.16998 -0.37093 0.04114
0.14851 -0.06824 0.17782
-0.10768 -0.13032 -0.08462
0.16368 -0.10225 0.18065
0.00002 -0.06824 -0.04468
-0.14236 0.09373 -0.04052
0.21826 -0.29095 0.14973
0.13737 -0.13534 -0.09854
0.21808 -0.13534 -0.05245
0.20190 -0.06824 0.03753
-0.16893 0.18608 -0.07887
0.19319 -0.06824 -0.00443
0.23060 -0.11340 0.12494
-0.11449 -0.07077 0.01426
0.05807 -0.12576 -0.01239
-0.13596 -0.27305 -0.05428
-0.15910 -0.40417 -0.05143
0.06439 -0.13534 -0.12845
0.18863 -0.13534 -0.02802
-0.12897 0.02062 -0.04578
-0.04791 -0.06824 0.07072
0.07347 -0.13534 -0.16014
0.06056 -0.13534 -0.07195
0.12578 -0.10939 -0.17851
-0.20514 0.31244 0.03616
0.00829 -0.06824 0.02847
0.21824 -0.12985 -0.08934
0.07928 -0.12576 0.03918
-0.11392 -0.01890 -0.07887
-0.12148 0.07056 -0.04582
0.12278 -0.06824 -0.00650
0.01641 -0.12576 0.11268
0.03777 -0.06824 -0.08426
-0.08802 -0.12576 0.02815
-0.11449 -0.07002 -0.02731
0.06321 -0.13534 0.06224
-0.02910 -0.13534 -0.01412
-0.12220 -0.05041 -0.07503
0.01045 -0.12909 -0.14369
-0.06510 -0.12576 -0.01887
0.17334 -0.09153 0.18077
0.04603 -0.12576 -0.08282
0.10572 -0.13534 0.02552
-0.04941 -0.13534 -0.09668
-0.13755 -0.28205 -0.06475
0.05313 -0.08053 -0.16652
-0.16577 -0.34382 0.07236
0.14414 -0.13534 0.06431
-0.03367 -0.13534 0.05245
-0.06558 -0.12576 0.00864
-0.12928 0.02217 -0.06804
-0.13787 -0.17869 0.03616
-0.12236 -0.05650 -0.06893
0.05631 -0.06824 0.14174
-0.09419 -0.06824 0.04632
0.23060 -0.09447 -0.17148
0.00714 -0.12576 0.03111
0.14264 -0.06824 0.10290
-0.12966 -0.23736 -0.04098
0.04583 -0.12576 -0.07637
-0.17910 0.26770 0.04203
-0.00933 -0.06824 0.09694
0.01124 -0.06824 0.12658
0.18718 -0.13534 0.01815
0.23060 -0.07746 -0.03264
0.21461 -0.13534 0.15366
-0.03362 -0.13534 0.07172
0.06057 -0.13534 0.12161
0.16609 -0.06824 0.16173
-0.17181 0.19982 0.03616
0.20678 -0.13534 0.13187
-0.12245 0.07388 -0.06427
0.13876 -0.12576 -0.02971
0.10593 -0.12576 -0.07479
-0.12028 0.06645 -0.06949
0.02927 -0.06824 0.04556
0.08804 -0.12576 -0.01885
-0.05953 -0.12576 -0.01413
0.21199 -0.40374 -0.15900
-0.11449 -0.11962 0.01463
-0.03351 -0.12576 -0.07049
0.21826 -0.22891 -0.14305
-0.17019 0.23720 -0.04153
0.11460 -0.10409 -0.17746
-0.15293 0.11303 0.05310
-0.21763 0.37235 0.07451
0.15027 -0.13534 0.10865
-0.12913 0.09672 -0.04978
0.08745 -0.12576 0.03157
0.09061 -0.13534 0.16356
0.17105 -0.08852 -0.18084
-0.20239 0.34736 0.06968
-0.14506 -0.21077 0.05997
-0.11750 -0.09575 0.03616
-0.09688 -0.12576 -0.06815
0.00695 -0.06824 0.00420
0.04372 -0.06824 0.15008
0.09397 -0.12576 0.09945
-0.19893 0.31416 0.07451
0.13351 -0.13534 -0.09708
0.05092 -0.06824 0.07719
-0.01205 -0.06824 -0.00420
0.00803 -0.12576 0.12066
-0.06313 -0.12576 0.09418
0.21696 -0.25834 0.17143
0.05120 -0.06824 0.08653
-0.13933 -0.17394 -0.07772
0.04612 -0.13534 -0.01081
0.10464 -0.13534 -0.15057
-0.11113 -0.05948 -0.04052
-0.09905 -0.06824 0.03075
0.23060 -0.11163 -0.08534
-0.14950 -0.23932 -0.06408
-0.10096 0.00020 -0.04826
0.20039 -0.14700 0.17173
0.19071 -0.12576 0.04492
-0.13562 -0.15099 0.04711
-0.00654 -0.13534 -0.00180
-0.12265 -0.06332 0.07004
0.10154 -0.06842 -0.17572
-0.18787 0.24440 -0.04239
0.21811 -0.35145 -0.16592
-0.18958 0.25085 0.06599
0.08149 -0.12576 -0.01456
0.08687 -0.06824 0.16137
-0.11449 -0.10581 -0.03636
-0.10275 -0.05647 -0.07887
0.12840 -0.13534 -0.07096
-0.15717 0.12896 -0.06068
0.05731 -0.12576 -0.01868
0.04388 -0.06824 -0.13982
-0.06100 -0.07013 0.12205
-0.09746 -0.13534 -0.07157
-0.00957 -0.12576 -0.08936
0.19808 -0.37550 -0.15129
-0.17015 0.23706 0.04053
-0.12222 -0.19525 0.06019
0.04901 -0.12576 -0.09843
0.03483 -0.06824 0.06801
-0.11116 -0.11789 0.09082
0.08821 -0.13534 -0.07487
-0.03463 -0.06824 -0.01118
0.21721 -0.12576 -0.11669
0.16928 -0.09837 -0.18083
0.20428 -0.06824 0.06725
-0.15393 0.18158 0.06403
0.21648 -0.17074 -0.14006
-0.04735 -0.12576 0.01196
0.04770 -0.12576 0.02590
-0.04431 -0.12576 0.06928
0.18288 -0.07529 -0.18053
0.21186 -0.16571 -0.13988
-0.16900 0.23314 -0.05287
0.21790 -0.19770 -0.16637
0.21514 -0.30497 0.17173
-0.21432 0.38819 -0.07472
0.06488 -0.12576 -0.01084
0.19783 -0.06824 -0.15885
0.14444 -0.12576 -0.06416
0.17988 -0.06824 -0.05505
0.02132 -0.12576 -0.02891
-0.09692 -0.03687 -0.04260
-0.14815 -0.28980 -0.04052
0.06756 -0.06824 0.12669
-0.20012 0.29049 0.04233
0.04319 -0.12576 -0.06452
0.09347 -0.12576 0.17018
0.20122 -0.06824 -0.15363
0.10710 -0.06824 0.07771
0.09567 -0.13534 0.08668
0.14401 -0.06824 -0.10903
0.04231 -0.12576 -0.08753
-0.10813 0.02489 -0.04141
-0.17471 0.19492 -0.05411
-0.10582 -0.12576 0.03532
0.23060 -0.11260 -0.10486
0.12758 -0.12576 0.12578
-0.15488 -0.38026 0.06150
-0.16594 0.21488 0.03616
0.13490 -0.13534 -0.11331
0.12149 -0.06824 0.04537
-0.11449 -0.09851 0.08632
0.13810 -0.12576 0.07141
0.12175 -0.12576 -0.11278
0.19282 -0.22830 -0.15519
-0.12482 -0.00423 0.07154
-0.07466 -0.06824 0.02456
0.21698 -0.13534 0.02701
-0.07896 -0.12576 -0.03467
0.12389 -0.13534 -0.13513
0.08067 -0.12576 0.13334
-0.05959 -0.12576 -0.10329
-0.17117 -0.37856 0.04024
0.21826 -0.32021 -0.14938
-0.11638 -0.16213 -0.04198
0.05642 -0.12576 -0.05517
0.17510 -0.13534 -0.14664
0.02622 -0.06824 0.06504
-0.13329 -0.23290 -0.07887
-0.04181 -0.13534 -0.10795
0.08105 -0.13534 -0.14756
0.19286 -0.22935 0.16419
0.11555 -0.12576 -0.02861
0.18142 -0.12576 0.05014
0.19045 -0.16192 -0.14733
0.20575 -0.38962 0.15205
-0.22313 0.37703 -0.03920
-0.21631 0.39499 -0.07199
0.07675 -0.06824 -0.16375
0.13264 -0.12576 -0.09300
-0.12842 -0.22066 -0.04052
-0.13119 0.05692 -0.07887
-0.12456 -0.08498 -0.04789
-0.04315 -0.06824 -0.08689
0.02693 -0.06824 -0.01601
-0.10768 -0.13330 -0.01634
-0.18862 0.27260 0.07451
0.13388 -0.13534 -0.08916
-0.12455 -0.00648 0.03782
-0.14167 0.07067 -0.05846
0.00939 -0.07499 0.15304
-0.09769 -0.04047 -0.07887
0.20465 -0.19743 -0.16756
0.03453 -0.06824 0.03982
-0.15750 -0.39509 -0.01358
-0.10746 0.02258 0.03931
-0.20967 0.37228 0.02046
0.13529 -0.06824 -0.12905
0.21826 -0.24694 -0.15267
-0.09712 -0.04067 0.07022
-0.13922 -0.17325 -0.06966
-0.11449 -0.09389 0.01597
0.03333 -0.06824 -0.07007
-0.06654 -0.13534 -0.03184
0.08011 -0.12576 0.10649
-0.14909 0.16500 -0.07715
0.12789 -0.12576 0.16826
0.20393 -0.32964 -0.14574
-0.14616 -0.31951 -0.04052
0.04348 -0.12576 -0.03026
-0.14923 0.09909 -0.05015
0.05103 -0.12576 -0.13131
0.21746 -0.29095 -0.14436
-0.14135 -0.30358 -0.07315
-0.02949 -0.12576 -0.04619
0.09480 -0.06824 0.08187
0.07604 -0.12576 -0.01529
0.17120 -0.13534 0.13811
0.05423 -0.06824 0.03546
-0.01817 -0.13534 0.10511
0.10115 -0.06824 -0.14745
-0.19389 0.31828 0.04664
0.13134 -0.06824 0.06246
0.09619 -0.12576 0.09657
0.15479 -0.12576 -0.13956
0.19492 -0.13534 -0.15180
0.08076 -0.12576 0.06033
0.10907 -0.07429 -0.17690
-0.14868 0.09703 0.04008
0.10627 -0.12576 -0.08442
-0.18835 0.24622 0.03633
0.01118 -0.12576 -0.12409
0.02432 -0.12576 0.04082
0.03528 -0.12731 -0.15141
0.06432 -0.06824 0.11288
0.16527 -0.13534 0.04621
0.19818 -0.17607 0.14443
-0.11449 -0.08030 0.00967
-0.00235 -0.13534 -0.00042
-0.15891 -0.40305 0.02596
-0.18267 0.22488 -0.05503
-0.14902 -0.23622 0.07156
0.05187 -0.12576 0.01570
0.23060 -0.12547 -0.02081
-0.12804 0.09301 -0.05133
0.01595 -0.06824 -0.08963
0.07069 -0.06824 -0.04959
0.08978 -0.12576 0.09782
-0.15272 -0.36802 0.02054
-0.11391 -0.12576 0.01088
-0.13697 -0.27879 -0.04897
-0.22147 0.37078 0.02136
-0.11984 0.06494 0.04412
0.09771 -0.12576 -0.05066
-0.02469 -0.13534 -0.06054
0.14924 -0.08508 0.18017
0.19241 -0.10548 -0.18027
0.03767 -0.12576 0.06515
0.23060 -0.08963 -0.04603
-0.09516 -0.13534 -0.05169
0.02785 -0.12576 0.14565
-0.03374 -0.06824 -0.04028
-0.19349 0.26555 -0.04714
-0.15597 0.12445 -0.05017
0.12175 -0.12576 0.03489
0.14416 -0.12576 -0.11453
0.01485 -0.13534 -0.00467
0.08802 -0.12576 0.01740
-0.00974 -0.12576 0.11501
0.09545 -0.13534 0.03343
0.16686 -0.12576 -0.07154
-0.06147 -0.13534 -0.02944
-0.03904 -0.10603 -0.13428
-0.17468 -0.40109 -0.00208
0.00889 -0.13438 0.14476
0.06182 -0.12182 0.16822
-0.01620 -0.06824 -0.13439
0.00270 -0.13534 0.03616
-0.00623 -0.06824 -0.10809
0.09145 -0.12576 -0.12491
-0.10139 -0.12576 0.03767
0.22496 -0.12576 0.07811
0.20510 -0.12576 0.00693
-0.11449 -0.12090 0.07290
-0.09897 -0.13534 0.00562
-0.12698 0.01024 -0.07458
0.17624 -0.12576 0.15539
-0.12833 0.01747 0.06139
-0.09654 -0.07837 0.10069
0.23060 -0.08108 -0.12254
0.03341 -0.10915 -0.16115
-0.21435 0.34400 0.06880
-0.06644 -0.08648 -0.12055
0.18038 -0.13534 0.00946
0.20921 -0.13534 -0.01682
-0.02596 -0.12576 0.07005
0.19512 -0.12576 0.03628
-0.10781 -0.06385 -0.07887
-0.18814 0.29861 -0.04864
-0.15187 -0.29911 0.03616
0.23060 -0.07930 0.15844
0.16958 -0.12576 0.04546
-0.00107 -0.13534 -0.11959
-0.04021 -0.13534 0.05909
0.21407 -0.32309 -0.16756
-0.06435 -0.13534 0.03486
-0.15328 -0.36464 0.03616
0.19080 -0.17151 -0.14545
-0.22645 0.38952 0.00366
0.01591 -0.12576 -0.08364
-0.17703 0.25144 0.03616
0.15198 -0.06824 0.08408
-0.14970 0.10941 -0.07887
0.07885 -0.06824 -0.07985
-0.01906 -0.13534 -0.13166
0.21826 -0.17439 -0.16127
-0.00523 -0.12576 0.12869
0.13697 -0.06824 -0.07682
-0.15383 -0.31609 -0.07887
-0.04338 -0.06824 0.03794
0.10779 -0.12576 0.01444
-0.04881 -0.12576 0.04660
0.21849 -0.06824 -0.17621
0.21610 -0.06824 0.07314
-0.10768 -0.13356 0.06913
0.06553 -0.12576 -0.04164
-0.10635 -0.08487 -0.09646
-0.12406 -0.15828 -0.04052
-0.10414 -0.06824 -0.07591
-0.14568 -0.21474 0.04395
0.20090 -0.22552 -0.14202
-0.18253 0.24356 0.07451
0.17339 -0.13534 0.02565
0.19682 -0.12576 -0.12693
0.04161 -0.13534 -0.10317
-0.06767 -0.12576 -0.02565
0.11173 -0.12576 -0.07257
-0.05497 -0.13534 0.04755
-0.10693 -0.09053 -0.09608
0.22261 -0.10523 0.17797
0.12580 -0.12388 -0.17851
0.05985 -0.12576 -0.04547
0.01178 -0.12576 -0.13478
0.02557 -0.12576 0.00490
-0.12220 -0.04620 -0.04936
-0.11449 -0.11731 0.01078
0.07306 -0.12576 0.08774
0.14012 -0.13534 0.10155
0.00602 -0.12576 -0.05399
0.14449 -0.12576 0.16324
0.21826 -0.17922 -0.14408
0.10779 -0.13534 -0.02260
-0.22583 0.38717 0.02058
0.18655 -0.12576 0.06814
0.13677 -0.13534 0.06099
0.00102 -0.12576 -0.10139
0.16400 -0.13534 -0.13968
-0.20944 0.37150 0.06921
0.12560 -0.12576 -0.11109
-0.06677 -0.12576 -0.06136
0.14707 -0.12576 -0.13348
0.20065 -0.12576 -0.14093
-0.05638 -0.13534 -0.09496
-0.14412 -0.31928 0.05897
0.01599 -0.09236 -0.15589
0.14044 -0.12576 0.02834
-0.14841 0.09600 -0.04122
0.19234 -0.16168 0.17173
0.20658 -0.13534 -0.15857
0.23060 -0.08628 -0.02461
0.04411 -0.13534 -0.00416
-0.17482 0.23547 -0.04052
-0.13409 -0.14213 -0.06122
-0.18880 0.24791 -0.05484
0.21824 -0.13505 0.12069
0.21826 -0.21971 -0.15059
0.01921 -0.12576 -0.07579
0.04964 -0.12576 -0.10229
0.23060 -0.07207 -0.08085
0.11492 -0.13534 0.15192
0.14762 -0.06824 -0.07102
-0.03963 -0.13366 0.12463
0.07633 -0.06824 0.13682
-0.22235 0.37408 0.00250
0.12150 -0.06824 0.05843
0.21826 -0.26827 -0.15921
0.03913 -0.06824 -0.00094
-0.05518 -0.12576 0.06471
-0.00100 -0.12576 -0.04959
-0.12416 0.07973 0.05536
0.06535 -0.06824 0.05436
-0.10909 0.02011 -0.07887
-0.13262 -0.25417 -0.05439
-0.21309 0.33927 -0.07581
0.09193 -0.06824 -0.15133
-0.17355 0.19056 -0.06038
-0.14471 -0.32264 -0.04324
0.11236 -0.13534 0.02290
0.23060 -0.09603 -0.06601
-0.22506 0.38429 0.03495
0.07850 -0.13534 0.12878
0.22621 -0.11919 -0.17782
-0.21775 0.35679 0.05839
0.14018 -0.06824 0.07418
0.04222 -0.08861 0.16334
-0.12122 0.04036 -0.07887
-0.12861 -0.20746 -0.07887
-0.22919 0.40511 0.05805
-0.12419 -0.08197 -0.07505
0.15745 -0.12576 0.07828
0.02023 -0.12576 0.01913
0.23060 -0.11099 0.10229
-0.07662 -0.06824 -0.11379
0.08272 -0.06824 -0.11530
0.21791 -0.12576 -0.00431
0.19024 -0.06824 -0.08374
0.15937 -0.06824 0.13202
0.16978 -0.06824 0.06726
0.14933 -0.06824 -0.17615
0.07209 -0.06824 -0.07658
-0.21720 0.39805 0.02343
0.06565 -0.06824 0.03453
0.03591 -0.06824 -0.00455
-0.10475 -0.02582 0.07451
0.23060 -0.11420 0.14525
-0.14216 0.07252 -0.06150
0.21790 -0.12576 0.02551
0.21826 -0.36066 0.15477
0.16509 -0.06824 0.01712
0.11362 -0.06824 0.13189
-0.08131 -0.06824 0.07976
0.00614 -0.12576 0.09792
0.18353 -0.12576 -0.15166
-0.15660 -0.28489 -0.05759
0.12475 -0.13534 0.12078
0.03888 -0.13534 0.09861
0.18332 -0.13534 -0.00288
0.21826 -0.23526 -0.15076
0.03249 -0.10042 0.16051
0.19778 -0.36707 0.17141
-0.12865 -0.19245 0.07451
-0.11320 -0.14354 0.06609
0.04173 -0.10553 0.16320
0.07470 -0.06824 -0.12426
0.07874 -0.06824 -0.01080
0.14958 -0.12576 0.01297
0.21307 -0.37756 -0.14745
0.22170 -0.07226 0.17805
-0.02465 -0.13534 0.08273
-0.22662 0.39016 -0.03641
-0.08275 -0.13534 -0.01230
0.22836 -0.06824 -0.17081
0.14848 -0.13534 -0.13122
-0.16722 -0.40511 0.04934
0.15354 -0.13534 -0.03912
-0.14282 -0.31194 0.06190
-0.03292 -0.12576 0.05001
0.15686 -0.13534 -0.00754
-0.17108 0.18129 0.06927
0.16613 -0.12576 -0.17639
-0.22304 0.37668 -0.02442
0.15578 -0.12576 0.09414
0.07230 -0.12576 -0.00685
0.19309 -0.23589 0.16718
0.05037 -0.12576 -0.01729
-0.10018 -0.06922 -0.10047
-0.18912 0.24914 -0.05029
0.21013 -0.12576 -0.06968
0.20358 -0.12576 -0.13087
-0.11449 -0.09545 0.06794
-0.03987 -0.13534 -0.09524
0.01548 -0.06824 -0.13972
0.02037 -0.06824 -0.08069
-0.07856 -0.12576 0.08448
-0.11449 -0.11841 0.08834
-0.12219 -0.04287 0.04681
0.18538 -0.06824 -0.06404
-0.16157 0.19634 0.07451
-0.08429 -0.12576 0.07373
-0.09371 -0.06824 -0.04032
0.23060 -0.07777 -0.02677
0.21335 -0.12576 -0.13628
0.20633 -0.32528 0.14976
-0.04966 -0.11401 0.12780
0.22934 -0.06824 -0.14687
0.23060 -0.12144 0.00157
-0.03887 -0.12576 -0.11026
-0.15463 -0.37883 0.02413
0.11452 -0.12576 0.10133
0.20717 -0.39390 -0.16756
-0.13607 -0.27367 -0.07523
0.13324 -0.13534 -0.02820
-0.07086 -0.06824 -0.07516
0.15882 -0.12576 0.00042
-0.11449 -0.11585 -0.01056
0.15415 -0.12576 0.00357
-0.10338 -0.07151 -0.07887
-0.10000 -0.06824 0.06498
0.07509 -0.07891 -0.17131
-0.04512 -0.12576 -0.02636
-0.13228 0.03508 0.04981
-0.10058 -0.06557 -0.04712
0.05924 -0.13534 -0.06731
-0.13326 0.11086 0.05274
0.14591 -0.06824 -0.03564
-0.06197 -0.12576 0.06199
0.21644 -0.15389 0.14364
0.20787 -0.06824 -0.07362
0.05286 -0.12576 -0.07096
-0.06207 -0.06824 -0.09240
-0.02117 -0.13534 -0.11793
-0.07100 -0.13534 -0.04157
-0.21789 0.36212 0.03616
-0.18812 0.24537 -0.06889
0.23060 -0.07701 -0.07329
-0.14060 -0.18210 -0.05988
-0.18201 0.27763 0.04790
-0.15925 -0.40500 -0.04055
-0.04149 -0.06824 -0.01436
-0.13697 -0.21277 0.03616
-0.04822 -0.06824 -0.12117
0.12969 -0.12576 0.06179
0.08115 -0.13534 0.10334
-0.15392 -0.37480 -0.06372
0.20967 -0.13534 0.15243
-0.02375 -0.06824 0.02528
-0.11497 0.01409 -0.07887
-0.11684 -0.14819 0.07451
-0.22408 0.40511 0.02449
0.07537 -0.06824 -0.02005
-0.13346 0.03978 0.06994
-0.07927 -0.12576 -0.05020
-0.04451 -0.13534 0.09758
-0.12880 -0.21558 0.07451
0.05558 -0.12576 -0.03774
0.08141 -0.06824 -0.06947
0.16474 -0.06824 -0.10241
0.08037 -0.13534 0.02690
-0.12247 -0.19665 -0.05725
-0.08434 -0.12576 0.02594
-0.02121 -0.12576 -0.10556
0.20726 -0.25268 0.14716
0.06432 -0.12576 0.05975
0.22238 -0.06824 -0.17334
-0.15159 0.10797 0.06879
-0.00696 -0.06824 -0.02079
-0.15423 -0.37658 0.01803
0.20779 -0.06824 0.06134
-0.15190 -0.25472 -0.04494
0.21010 -0.34009 0.17173
-0.10407 -0.12576 -0.00861
0.21826 -0.34861 -0.15947
-0.15401 -0.37532 -0.03490
-0.08009 -0.12576 -0.01558
0.16638 -0.12576 0.13948
-0.23003 0.40299 0.02976
-0.11624 -0.16132 -0.07459
-0.16559 0.16063 0.06636
-0.01422 -0.12576 -0.02340
-0.00872 -0.13534 -0.08307
-0.20840 0.36677 0.02861
-0.14922 0.09908 -0.04627
-0.09023 -0.12576 -0.04308
-0.12694 -0.10082 0.05905
-0.14602 -0.27972 -0.04052
-0.23017 0.40351 0.05079
-0.20360 0.30356 0.06010
0.11573 -0.12576 -0.00483
0.10086 -0.12576 0.03624
-0.07686 -0.12576 0.06955
0.19412 -0.20764 0.14555
-0.11345 -0.07088 0.07451
0.11299 -0.06824 -0.13488
-0.13817 -0.18044 -0.04052
-0.15765 -0.35200 -0.07887
-0.14938 0.16601 0.06215
-0.18265 0.22481 -0.04871
0.17460 -0.11316 -0.18074
-0.00881 -0.08439 0.14645
0.09475 -0.12576 0.06361
-0.21224 0.38107 0.05670
0.07489 -0.06824 -0.09114
0.00639 -0.06824 0.14577
0.10937 -0.12576 0.00748
0.12155 -0.12576 0.11971
0.19553 -0.12576 -0.07480
0.19530 -0.28896 -0.16756
0.16823 -0.13534 0.15756
-0.17102 -0.37756 -0.01665
0.04542 -0.12576 0.08507
0.01524 -0.12576 -0.11832
-0.09917 -0.00775 -0.06603
-0.10834 0.02561 0.04152
0.19611 -0.06824 0.16810
0.07152 -0.12576 -0.01193
0.17688 -0.06824 -0.08712
-0.08124 -0.12576 -0.07252
0.10766 -0.13534 0.01423
0.20175 -0.22073 -0.16756
0.19195 -0.20381 -0.15940
-0.16272 0.14984 0.05161
0.15107 -0.12576 0.02974
-0.00309 -0.12576 0.11401
-0.16437 -0.33482 -0.07813
0.23060 -0.12334 0.00997
-0.15288 -0.36894 -0.03377
0.03023 -0.13534 -0.11160
0.11760 -0.06824 -0.06188
0.09884 -0.12576 -0.04394
-0.17999 0.27075 0.06776
-0.16338 0.18300 -0.04052
-0.17447 -0.39972 -0.07695
-0.06272 -0.12576 -0.09742
-0.11788 -0.17064 0.04498
-0.02283 -0.13534 0.05563
0.20459 -0.38643 -0.16756
-0.16957 -0.36827 0.06812
-0.10405 -0.12576 0.00862
-0.01160 -0.12576 0.10594
-0.15000 -0.24252 0.03955
0.09711 -0.13534 -0.13080
0.23060 -0.08370 0.10787
0.20308 -0.32257 0.14966
0.11263 -0.13534 -0.09958
0.19125 -0.14516 -0.13915
-0.12786 -0.13244 -0.04052
0.12648 -0.13534 -0.04739
0.23060 -0.07057 0.01654
-0.13531 -0.17406 -0.04052
0.10664 -0.06824 0.06282
-0.06094 -0.13534 -0.07914
-0.03637 -0.12576 -0.13154
-0.04745 -0.13534 -0.08043
-0.03825 -0.09838 -0.13467
0.19392 -0.25896 -0.15789
-0.17400 -0.39671 0.06634
0.15241 -0.06824 -0.15732
0.14102 -0.13534 -0.00796
0.10881 -0.12576 -0.16739
0.15479 -0.13534 -0.16294
-0.12126 -0.08178 -0.07887
-0.03251 -0.13534 -0.08584
0.19579 -0.15598 0.17173
-0.16338 0.15230 0.07097
-0.09522 -0.12576 0.06812
0.19664 -0.33515 -0.15143
-0.07294 -0.06824 -0.02564
0.21826 -0.20749 -0.15546
-0.10748 -0.12576 -0.07242
0.15801 -0.12576 -0.12022
-0.17480 -0.40511 0.04620
-0.05070 -0.12576 0.02918
0.20559 -0.07064 -0.17961
0.17935 -0.12576 0.12830
-0.14797 0.09438 0.04233
0.01279 -0.13534 0.01514
-0.11113 -0.13073 0.07331
0.04719 -0.12576 0.02184
0.19128 -0.18494 0.15655
-0.06247 -0.11993 -0.12278
0.18494 -0.12576 0.06101
-0.22336 0.39745 -0.07887
0.11267 -0.12700 0.16898
0.19844 -0.13534 0.00532
0.21129 -0.13534 -0.14821
0.01098 -0.06824 0.04417
0.23060 -0.07077 -0.00159
0.21826 -0.14966 -0.13943
0.06626 -0.06824 -0.03609
0.08031 -0.13534 -0.09383
0.00421 -0.12576 0.03331
0.21727 -0.12576 0.03107
0.02982 -0.06824 -0.11849
0.00417 -0.09798 0.15116
0.00958 -0.12576 0.14816
0.10854 -0.12576 0.09995
-0.12709 -0.10167 -0.05963
0.17773 -0.12576 0.15052
0.21596 -0.16728 0.14411
-0.13371 -0.17118 0.07451
-0.02386 -0.06824 0.13088
0.10644 -0.12576 0.05508
-0.10912 -0.12576 0.06729
0.07869 -0.12576 0.14637
-0.13158 -0.12764 -0.06065
0.19531 -0.13534 0.00062
-0.11435 -0.15063 0.07320
0.00603 -0.06824 0.04358
-0.13019 0.02652 -0.07396
0.13358 -0.12576 -0.00012
0.09206 -0.12576 -0.10789
0.12743 -0.13534 -0.12540
0.20247 -0.06824 -0.10474
0.03709 -0.13534 -0.02377
0.00273 -0.12576 -0.03077
0.19617 -0.21912 0.17173
0.16286 -0.13534 -0.07811
0.06499 -0.12576 -0.14258
-0.14467 0.10307 -0.07887
0.22887 -0.12174 -0.17758
0.20489 -0.13534 -0.05405
-0.21952 0.36345 0.04500
-0.21255 0.33724 0.03954
0.21151 -0.31488 0.14938
0.15235 -0.11487 0.18027
0.22057 -0.12576 -0.10984
0.01998 -0.12576 0.13256
-0.01377 -0.13534 0.02450
0.23048 -0.06824 0.16034
0.00746 -0.13534 -0.13144
0.19010 -0.15215 -0.14178
0.20864 -0.12576 0.17889
-0.17682 0.20286 -0.06205
-0.15057 -0.35581 -0.05642
0.16510 -0.13034 -0.17011
-0.00880 -0.12576 0.02118
-0.10879 0.02714 -0.05015
-0.15474 -0.27298 0.04602
-0.15271 -0.25991 0.06415
0.18035 -0.12576 0.06132
0.09482 -0.13534 -0.08435
0.07315 -0.13534 -0.01186
-0.09313 -0.13534 0.01917
-0.07774 -0.06824 -0.06524
-0.09735 -0.02092 -0.07877
0.08304 -0.06824 0.05162
0.10883 -0.06824 0.08479
0.06858 -0.12576 0.10957
-0.05737 -0.12576 -0.12419
0.15790 -0.13534 0.15628
0.09686 -0.06824 0.15027
0.15779 -0.12576 0.04004
0.03796 -0.12420 0.16210
-0.08832 -0.12576 -0.00294
-0.21047 0.37502 -0.01129
0.23060 -0.06986 0.13055
0.19235 -0.21496 0.16078
-0.01141 -0.12576 -0.00214
0.07581 -0.12576 0.04517
-0.15574 -0.38510 -0.02587
-0.08686 -0.13534 -0.01180
-0.09851 -0.06824 0.01050
0.21824 -0.12743 0.11295
0.05413 -0.13411 0.15838
-0.15484 -0.38003 -0.06894
-0.16089 -0.36677 0.00892
-0.10780 -0.11016 -0.07328
-0.11449 -0.06892 -0.07331
0.18983 -0.14453 0.16398
0.01049 -0.12576 -0.11630
-0.16317 -0.32716 -0.04601
0.00991 -0.13534 0.04266
-0.20941 0.32542 -0.05979
0.19830 -0.12576 -0.10833
-0.16337 0.17303 0.07451
-0.13807 0.11659 0.07451
0.12171 -0.12576 -0.07644
0.23060 -0.11108 -0.13956
-0.03238 -0.06824 0.04553
-0.00159 -0.06824 -0.02466
0.20704 -0.12576 -0.16384
0.21813 -0.15516 -0.16585
-0.16473 0.16390 -0.07887
0.16117 -0.12576 -0.05884
0.22072 -0.12576 0.10802
-0.15451 -0.31147 0.03616
0.16997 -0.12576 -0.16256
-0.17301 -0.39040 -0.05556
0.11977 -0.13534 -0.03322
0.05737 -0.12576 -0.08277
-0.19117 0.25683 0.04751
0.19862 -0.12576 0.16274
0.19418 -0.26625 0.16926
-0.00539 -0.12576 0.13389
0.18840 -0.06824 -0.14151
-0.08112 -0.06824 -0.00637
0.03637 -0.06824 0.13285
-0.05843 -0.07511 -0.12477
0.12006 -0.12576 -0.06868
-0.06651 -0.10318 0.11898
-0.06598 -0.13534 -0.02207
0.13620 -0.06824 -0.14736
-0.14336 0.14542 0.04403
-0.17936 0.26860 0.06096
0.11343 -0.13534 -0.06103
0.09786 -0.06824 -0.02224
-0.10624 -0.05838 0.03616
0.11952 -0.13534 -0.06233
-0.11043 -0.12641 0.04024
0.18286 -0.12576 0.12555
-0.19954 0.28830 -0.04949
-0.11449 -0.11527 0.01708
-0.23024 0.40511 -0.02379
-0.18804 0.28820 0.03616
-0.05468 -0.12576 -0.10888
0.20756 -0.31581 -0.14525
-0.12874 -0.11120 0.06777
-0.03618 -0.12576 0.00490
0.19697 -0.12576 -0.03416
0.22296 -0.06824 -0.00677
0.05948 -0.08747 0.16770
0.07820 -0.12576 -0.14747
-0.08735 -0.12576 -0.03006
0.12631 -0.12576 0.06004
0.19902 -0.40194 -0.15739
-0.21275 0.38281 0.02269
-0.13225 -0.13150 -0.06280
0.14577 -0.13534 0.03516
0.14193 -0.09650 -0.17991
0.14216 -0.12576 0.11152
-0.14921 -0.23744 -0.04599
-0.11449 -0.10490 0.07861
0.19997 -0.12576 -0.05148
0.06958 -0.12576 0.01147
-0.12470 -0.20927 0.03709
0.21826 -0.40165 0.15455
-0.14472 -0.32268 -0.05755
-0.07833 -0.13534 -0.02298
0.17974 -0.06824 0.06428
-0.12189 -0.19335 0.04806
-0.14013 0.07705 -0.07887
-0.22328 0.40511 0.06307
0.04577 -0.12576 -0.02556
-0.12411 -0.08131 0.07254
-0.02518 -0.10290 0.13939
0.10226 -0.13534 0.02130
-0.15282 -0.26061 -0.04466
0.20606 -0.27594 -0.14382
-0.08024 -0.12576 -0.02988
0.03217 -0.12576 0.04172
-0.13736 -0.28101 0.05962
0.21635 -0.38478 -0.14771
0.08407 -0.13534 0.07021
0.06135 -0.06824 0.15101
-0.11814 -0.17212 0.05017
-0.20976 0.37258 -0.00573
0.02395 -0.12576 -0.05101
-0.16540 0.22083 0.07089
-0.06638 -0.13534 0.04289
-0.21382 0.36677 -0.01487
0.19527 -0.29692 0.16549
0.17074 -0.12576 0.05688
-0.06622 -0.12576 -0.00816
-0.00161 -0.12576 -0.07410
-0.04389 -0.13534 -0.11863
0.01708 -0.13534 0.02053
0.07068 -0.13534 -0.02004
-0.06113 -0.12576 -0.00275
0.18043 -0.12576 0.07751
0.13674 -0.12576 0.14558
-0.05715 -0.12257 0.12400
0.01550 -0.12576 0.09221
-0.14765 -0.22742 -0.05429
0.19189 -0.13534 0.04119
-0.19693 0.27851 0.06447
0.05054 -0.12576 -0.05420
-0.20384 0.33487 -0.07887
0.07160 -0.12576 0.09556
0.23060 -0.11939 -0.14970
0.19943 -0.12576 -0.14771
0.08952 -0.06824 -0.08195
-0.16932 -0.39868 0.07451
-0.11188 -0.12576 -0.06344
0.14118 -0.12576 0.02119
0.03857 -0.12576 -0.07505
0.09578 -0.12576 -0.12947
-0.08631 -0.12576 -0.01979
-0.13990 -0.20622 -0.04052
-0.14515 -0.21940 -0.04052
0.18913 -0.12576 0.06082
-0.04543 -0.12576 -0.03427
-0.01673 -0.13534 -0.01721
0.10440 -0.07336 0.17614
0.23060 -0.06974 0.11110
0.15813 -0.12576 0.17185
0.04532 -0.12576 0.01843
-0.14411 0.12762 0.03616
-0.16080 -0.31191 0.06804
-0.20995 0.37326 -0.05177
-0.04679 -0.06824 0.09165
0.02789 -0.06824 0.09616
0.20681 -0.13534 -0.10483
0.03443 -0.08896 -0.16143
-0.17911 0.21147 0.07159
0.22051 -0.12576 0.15853
-0.17093 -0.37702 -0.04885
0.09348 -0.12576 -0.07629
0.14126 -0.13534 0.00034
0.09235 -0.12576 -0.08646
0.09900 -0.12576 -0.06022
0.22461 -0.12576 -0.07845
-0.18519 0.28852 -0.07084
0.14417 -0.06824 0.11129
0.19885 -0.06824 0.05664
0.01159 -0.12576 -0.05656
-0.12844 -0.23047 0.04565
-0.22151 0.37093 0.05475
0.16123 -0.10415 -0.18056
0.16548 -0.12576 -0.08429
-0.19719 0.29183 -0.07887
0.07891 -0.12576 0.09371
0.09210 -0.12576 0.10617
-0.17186 0.22758 -0.07887
-0.21544 0.39203 0.03598
0.12151 -0.13534 0.08671
-0.14229 0.07301 0.03937
0.15480 -0.13534 0.16817
-0.19419 0.26820 0.03857
-0.15760 0.13058 -0.07445
0.21518 -0.13534 -0.14533
0.04728 -0.06824 0.12477
-0.22936 0.40046 -0.01398
0.15869 -0.06824 -0.13057
0.19220 -0.06824 -0.01921
-0.12679 0.07858 0.07451
0.15808 -0.13534 -0.10742
0.19680 -0.28407 -0.14411
0.19490 -0.28634 0.15724
0.08895 -0.12576 -0.08844
-0.02345 -0.12576 -0.01545
0.21477 -0.13894 0.17173
-0.12249 -0.03179 -0.05835
0.07450 -0.12576 -0.02185
-0.17119 -0.37869 -0.00530
-0.10732 0.02212 0.04333
-0.11341 -0.08772 -0.07887
0.08703 -0.13534 -0.16236
-0.12249 -0.05949 0.05668
0.05543 -0.12576 0.10784
0.03163 -0.12576 -0.05400
0.22059 -0.06824 0.03516
-0.21524 0.39133 -0.06654
0.13631 -0.12576 0.03163
-0.10115 0.00097 0.05194
0.21826 -0.38387 -0.15565
-0.15022 -0.24393 -0.04763
-0.15157 -0.36149 -0.04737
-0.12905 -0.23393 0.04303
0.15193 -0.06824 0.03981
0.23060 -0.10984 0.08491
-0.02829 -0.13534 0.01282
0.16247 -0.12576 0.13076
-0.15548 -0.38365 -0.01856
0.05675 -0.12576 0.15332
-0.16624 -0.34688 -0.07848
-0.12948 -0.12856 0.03616
-0.09067 -0.13534 -0.03448
0.11299 -0.12576 0.02761
0.23060 -0.11334 -0.01478
-0.05611 -0.13534 0.05948
-0.05403 -0.12576 -0.03626
0.21824 -0.13527 0.15181
0.00128 -0.06824 0.07898
-0.09040 -0.13534 -0.02412
-0.19681 0.32830 -0.05974
0.15116 -0.12576 0.09725
-0.01769 -0.12576 0.00365
-0.02467 -0.10942 -0.14054
0.19182 -0.12576 -0.03715
-0.20584 0.35918 0.04580
-0.11276 -0.06824 0.03495
0.21826 -0.21172 0.14863
0.19277 -0.22678 0.15102
-0.13380 -0.14045 0.04648
0.06777 -0.12576 0.11506
0.20088 -0.09453 0.17994
0.06553 -0.12576 -0.08126
-0.03086 -0.12576 0.11770
0.04430 -0.12576 -0.01848
-0.16465 -0.33662 0.04265
-0.19645 0.27669 -0.06416
-0.07241 -0.12220 -0.11716
-0.02081 -0.10895 -0.14215
0.17853 -0.12576 -0.09885
0.13040 -0.12576 0.04195
0.12599 -0.12576 0.13936
0.21084 -0.12576 -0.09652
0.15890 -0.13534 -0.07381
-0.10369 -0.12576 -0.03432
0.18646 -0.12576 0.10097
-0.12122 -0.10904 -0.04052
-0.07893 -0.06824 0.00425
-0.06096 -0.06824 0.04500
-0.12807 0.09311 0.04477
0.21616 -0.06824 0.04297
0.12312 -0.06824 -0.08412
-0.07201 -0.12576 -0.00800
0.12507 -0.12576 0.08605
0.13507 -0.06824 -0.17734
-0.16991 0.23624 0.06831
0.15509 -0.13534 -0.14087
-0.12730 -0.10287 -0.04832
-0.15581 0.15938 -0.04052
-0.14842 0.10938 0.07451
0.01026 -0.12576 -0.00033
-0.01916 -0.08715 -0.14284
0.18147 -0.13534 -0.16696
0.02805 -0.12576 -0.03154
-0.11449 -0.06958 0.07992
0.15252 -0.12576 -0.15112
-0.22336 0.40511 -0.04535
0.09429 -0.12576 0.12563
0.17219 -0.13534 -0.05921
-0.13029 0.10070 0.04840
0.02301 -0.12576 -0.07016
0.08494 -0.13534 0.15943
-0.17534 0.25482 -0.04835
0.03183 -0.06824 0.13622
0.11168 -0.12576 0.14169
0.11836 -0.13534 -0.14999
-0.17766 0.26278 -0.06622
-0.15748 -0.29058 0.04999
0.21826 -0.35253 -0.15321
0.09092 -0.06824 -0.04639
0.21791 -0.13534 -0.03686
0.17399 -0.12576 0.06347
-0.17332 -0.39236 0.05564
0.20367 -0.27159 0.14784
0.05699 -0.12576 0.03905
-0.02988 -0.12576 0.08052
-0.13552 -0.15580 0.03616
0.07038 -0.12576 0.06826
-0.14945 -0.28848 -0.07887
0.05297 -0.12576 -0.00039
0.06426 -0.13534 0.11777
-0.06481 -0.06824 0.02064
0.11222 -0.09383 -0.17723
0.18747 -0.07207 0.18036
-0.12688 0.08904 -0.05736
0.02901 -0.06824 -0.05617
-0.16189 0.14669 -0.05481
0.23060 -0.09132 0.12430
0.19277 -0.12576 0.13542
0.03760 -0.12576 -0.00135
-0.20732 0.31757 0.06005
-0.01955 -0.12576 -0.09179
0.03747 -0.12576 -0.09410
-0.17450 0.19415 0.06105
0.11479 -0.12576 0.07949
-0.12227 -0.05420 -0.07860
0.08396 -0.12576 -0.03656
0.00430 -0.06824 0.08669
-0.11876 -0.02532 0.07451
-0.20874 0.36910 -0.03501
0.07870 -0.07612 0.17200
0.08759 -0.12576 -0.07850
0.21702 -0.06824 -0.08361
0.21826 -0.24200 -0.14602
0.21826 -0.13993 0.15022
-0.05146 -0.06824 0.03938
0.19509 -0.29170 0.16440
0.12801 -0.06824 -0.11933
-0.11449 -0.09495 -0.03264
-0.15152 -0.25231 0.05960
0.19461 -0.12576 -0.02108
-0.02718 -0.06824 -0.01368
0.18826 -0.12576 0.14474
0.15031 -0.12576 0.16240
0.01967 -0.12576 -0.04761
-0.10746 -0.10808 -0.07619
-0.09706 -0.02493 -0.04298
0.03852 -0.12576 -0.11315
-0.19184 0.30030 0.03616
0.10288 -0.13534 -0.12355
0.20767 -0.17212 -0.14011
0.23060 -0.09309 0.03729
-0.13696 0.05295 0.04386
0.12569 -0.08509 0.17850
0.12817 -0.13534 -0.08217
0.09251 -0.06824 -0.01629
0.20166 -0.12576 0.05912
-0.00862 -0.06824 0.05724
-0.18056 0.21694 0.04148
0.19911 -0.12637 -0.16922
0.19724 -0.35191 0.15982
-0.05308 -0.12576 0.12523
-0.15641 -0.38892 -0.00161
0.16646 -0.06824 0.08297
0.20139 -0.17327 0.14433
-0.21443 0.38856 0.03795
0.21826 -0.29678 0.15655
0.19750 -0.35924 0.16192
0.21577 -0.27984 -0.14396
0.23060 -0.10146 -0.11291
-0.19641 0.27653 -0.05031
-0.12286 0.04114 -0.04052
0.14314 -0.12576 -0.02343
-0.00701 -0.12576 0.05194
-0.04567 -0.12576 -0.06396
-0.13570 0.11919 0.06131
0.05246 -0.12576 -0.07782
-0.20802 0.36664 0.04859
-0.17413 0.25070 -0.07720
-0.08558 -0.06824 0.05730
-0.14233 0.07529 -0.04052
0.12738 -0.12576 -0.11856
0.21670 -0.10502 0.17850
-0.15237 0.17622 0.06628
0.07499 -0.06824 -0.11785
-0.06983 -0.06824 0.00851
-0.15960 -0.37169 0.07451
0.21346 -0.13503 0.17001
-0.16641 -0.34797 -0.04593
-0.11449 -0.10561 -0.02197
-0.19032 0.25364 0.05144
-0.03775 -0.06824 0.07161
0.19584 -0.13534 0.14326
0.02765 -0.12576 0.12837
-0.21811 0.40114 0.05611
0.20733 -0.12576 -0.14780
0.09502 -0.12576 -0.04549
0.04944 -0.12576 -0.14222
-0.11595 0.05162 0.03716
-0.17092 0.18155 0.07451
-0.16049 -0.34207 -0.04052
0.19385 -0.25707 -0.14554
0.21006 -0.27508 -0.14379
-0.06414 -0.13534 0.05723
-0.02368 -0.12576 0.02656
-0.12414 -0.00989 -0.05169
-0.00342 -0.13534 -0.03736
0.07934 -0.12576 0.15579
-0.13618 0.12083 -0.04361
-0.07723 -0.13534 -0.08412
0.20456 -0.12576 0.13268
0.15736 -0.06824 -0.06391
0.18168 -0.13534 -0.11123
0.02237 -0.06824 0.00840
0.11102 -0.12576 -0.16100
0.19678 -0.33912 0.15162
0.05285 -0.06824 -0.00547
0.15811 -0.06824 -0.16303
0.07511 -0.06824 -0.01414
-0.14157 -0.23521 -0.07887
-0.12389 -0.20471 0.05092
-0.01554 -0.13534 0.12239
0.18985 -0.13534 0.06910
-0.04388 -0.12576 0.04263
-0.00563 -0.08997 -0.14836
0.04221 -0.12576 -0.05493
0.21793 -0.08302 0.17839
0.22396 -0.06824 0.00650
0.05493 -0.12576 -0.11957
0.03140 -0.10737 0.16020
-0.13207 -0.14102 0.07451
-0.09512 -0.12206 -0.10376
-0.09374 -0.12753 0.09397
-0.09505 -0.06824 0.02748
-0.14162 -0.30512 0.04704
0.18264 -0.11985 0.18050
-0.20016 0.29065 -0.04391
0.17113 -0.13534 -0.10764
-0.02629 -0.12576 0.02975
-0.12697 -0.22215 -0.05202
-0.12405 -0.09045 -0.04052
-0.11120 -0.13118 -0.05874
0.03193 -0.12576 -0.04911
0.13339 -0.12576 -0.08105
0.19808 -0.28420 0.14829
0.20137 -0.12576 0.11197
-0.05980 -0.06824 -0.10983
-0.14645 -0.21970 -0.05592
0.18209 -0.13534 0.06513
0.23060 -0.09319 0.09587
0.05157 -0.06824 -0.11772
0.23060 -0.11187 0.03592
0.21826 -0.29475 0.16315
0.22099 -0.12576 0.13860
0.16062 -0.12576 -0.06275
-0.20928 0.32493 -0.07656
0.14350 -0.12576 0.07923
0.17606 -0.12576 -0.00728
-0.00595 -0.10303 0.14753
0.09982 -0.12576 0.14948
0.23060 -0.10158 0.06351
0.21687 -0.17232 -0.16730
0.20278 -0.17923 0.17173
0.03412 -0.12576 0.07928
-0.12354 -0.07550 0.04097
0.14086 -0.06824 -0.06376
-0.09711 -0.04050 0.04143
-0.14957 -0.23972 -0.05968
-0.00532 -0.13534 0.11833
0.14570 -0.12576 0.13916
0.18612 -0.06824 -0.11209
0.00177 -0.06824 0.14014
-0.15697 -0.29090 0.03616
0.19682 -0.24318 -0.16756
-0.14993 -0.24204 0.05470
0.22257 -0.12576 -0.08571
0.07064 -0.12576 0.03782
-0.02606 -0.12576 0.00219
0.21592 -0.06824 0.11878
-0.09040 -0.12576 0.09319
-0.11449 -0.07510 0.05269
0.13143 -0.06824 -0.13496
-0.08046 -0.09950 0.11078
0.23060 -0.11332 -0.09107
0.14600 -0.13534 0.12092
0.23060 -0.12376 -0.17151
-0.01900 -0.13534 0.07661
0.07890 -0.12576 0.03088
0.03549 -0.06824 -0.12504
-0.14987 0.16770 0.03786
-0.04876 -0.12576 -0.09973
0.02719 -0.13534 0.11946
0.12945 -0.12576 0.03794
0.18825 -0.12576 0.03965
0.03006 -0.12576 0.14039
-0.18669 0.29366 0.03964
0.04117 -0.08950 -0.16334
0.16279 -0.13534 0.08635
-0.20768 0.35237 -0.04052
0.19239 -0.12576 0.05255
0.00635 -0.12576 -0.01831
0.09247 -0.12576 0.11458
-0.15629 -0.38825 0.05773
0.11320 -0.12576 0.01888
-0.05996 -0.13525 -0.11361
0.20288 -0.12576 0.16058
0.04936 -0.12576 0.13359
-0.06103 -0.13534 0.01345
-0.01882 -0.06824 0.13554
-0.22657 0.38995 0.03601
0.01186 -0.12576 0.03780
-0.12382 -0.19804 0.07451
-0.11424 -0.00673 0.07451
0.22740 -0.12576 -0.04713
0.01418 -0.13534 -0.04897
-0.17482 -0.40201 0.00667
-0.17521 0.24584 0.03616
0.16451 -0.08976 -0.18067
0.16653 -0.12576 -0.07945
-0.08411 -0.13534 0.03362
-0.13554 0.06319 -0.07887
0.18196 -0.06824 -0.01291
-0.15624 -0.38793 -0.00601
0.12429 -0.12576 -0.02090
-0.13151 -0.24788 -0.07762
0.11333 -0.06824 -0.05247
0.15865 -0.12576 -0.00994
-0.07207 -0.06824 -0.10213
0.06581 -0.13464 -0.15899
0.16944 -0.13534 -0.12269
-0.14363 -0.20155 -0.05999
-0.16201 -0.36677 -0.03563
-0.17920 0.21180 0.04806
0.23060 -0.12440 -0.06080
-0.05920 -0.12576 0.09200
0.07675 -0.12576 -0.02701
-0.10696 -0.12576 0.04288
-0.13084 -0.12336 -0.07441
-0.11096 0.03458 0.04822
-0.11923 -0.16628 0.07451
0.03846 -0.12576 -0.12163
0.21092 -0.36731 -0.16756
0.02893 -0.12373 -0.15988
0.17222 -0.06824 0.03019
-0.14331 0.09702 0.07451
-0.15192 -0.36348 0.04927
-0.18142 0.22015 0.07059
-0.11404 -0.06824 0.05398
-0.02977 -0.12576 -0.10018
-0.11449 -0.11726 0.07988
0.21821 -0.21894 0.16973
0.05884 -0.12152 -0.16777
-0.14493 -0.30074 -0.04052
-0.11236 -0.07560 -0.04052
-0.00376 -0.12576 -0.12632
-0.04547 -0.12576 -0.01140
-0.15889 -0.29966 -0.07045
0.19020 -0.15490 -0.16442
-0.16577 0.19023 -0.04052
0.04972 -0.12229 -0.16575
0.21788 -0.12576 -0.06247
0.22793 -0.12576 0.10577
-0.11672 0.05426 0.04758
0.09071 -0.12845 -0.16368
-0.01553 -0.12576 -0.00137
0.12367 -0.12576 0.14616
0.23060 -0.12416 -0.09964
-0.03503 -0.12576 0.00954
-0.08142 -0.08946 0.11021
0.18007 -0.06824 -0.04972
0.23060 -0.11218 -0.02932
0.20527 -0.09816 -0.17964
0.20778 -0.06824 0.08435
0.03356 -0.12576 0.08965
0.20140 -0.06824 -0.11831
-0.12180 -0.08074 0.03616
-0.03184 -0.12576 -0.01772
-0.04422 -0.12576 0.00803
0.10645 -0.12576 0.09212
0.17126 -0.12576 0.16215
0.06485 -0.13534 -0.05021
0.01007 -0.06824 -0.14320
-0.15673 -0.28575 0.04726
-0.10399 -0.05969 -0.04052
0.12050 -0.13534 -0.07097
-0.07303 -0.06824 -0.00017
-0.16716 0.16652 -0.06529
0.06822 -0.06824 -0.10634
-0.09993 -0.06159 0.04144
0.19940 -0.06824 -0.14068
-0.21224 0.38106 0.00994
-0.12582 0.08541 -0.06166
0.19450 -0.27531 0.14835
-0.13427 0.11432 -0.06568
0.20365 -0.12576 -0.11678
0.05214 -0.06824 -0.14826
0.05270 -0.13534 0.05451
0.13805 -0.06824 -0.05412
0.05197 -0.07211 0.16602
-0.09883 -0.00967 0.05956
0.23060 -0.10160 0.00052
0.09817 -0.13534 -0.11393
-0.01221 -0.12576 -0.11997
0.12436 -0.06824 0.16153
0.05334 -0.12576 -0.08417
-0.09048 -0.08375 0.10478
0.19940 -0.13534 -0.11099
-0.01955 -0.09820 0.14182
0.20642 -0.13534 0.16409
-0.16281 -0.32480 0.05310
-0.15318 0.16522 -0.04052
-0.22453 0.38230 0.05879
-0.15745 -0.29041 -0.05302
-0.15782 -0.29274 0.06990
-0.14592 -0.32949 -0.04857
0.09986 -0.13534 0.01564
-0.03598 -0.12576 -0.08875
0.01681 -0.06824 0.05281
0.07355 -0.13534 0.15301
-0.10711 -0.06824 -0.03194
0.15352 -0.12576 -0.06165
-0.14894 -0.34657 -0.05331
0.12621 -0.11418 -0.17855
-0.12542 -0.21335 -0.07696
-0.11690 -0.05292 0.03616
0.21414 -0.13534 -0.13800
-0.03923 -0.12576 -0.11468
-0.16543 0.17724 -0.04052
-0.08059 -0.12394 0.11070
-0.09693 -0.03717 -0.07012
0.21826 -0.23583 0.15335
0.23060 -0.08884 -0.01911
0.20098 -0.29559 0.17173
0.17493 -0.12576 0.03888
0.11185 -0.12465 0.17717
-0.12773 -0.10539 0.05324
-0.01418 -0.11599 -0.14492
0.04816 -0.12576 -0.13388
0.09674 -0.12576 -0.15029
-0.01296 -0.12576 0.01860
-0.03372 -0.13534 0.10432
0.12823 -0.12576 -0.06283
0.05563 -0.12576 0.02349
0.06237 -0.13534 -0.12116
0.08031 -0.13534 0.15213
0.17052 -0.13534 0.01987
0.14229 -0.06824 0.04938
0.20159 -0.36079 -0.16756
-0.03897 -0.12576 -0.06227
0.03354 -0.06824 -0.09708
0.21796 -0.34041 -0.16625
0.19812 -0.06824 -0.08532
0.01756 -0.12576 0.13938
0.21128 -0.40164 0.15248
-0.11317 -0.06824 0.08473
-0.19513 0.27173 -0.07366
-0.05886 -0.12576 -0.02234
-0.09197 -0.06824 0.06116
0.21405 -0.28959 -0.14431
0.08274 -0.12576 0.11612
0.10850 -0.12576 0.15842
0.04639 -0.13534 -0.08383
0.04451 -0.11472 0.16400
0.11739 -0.12576 -0.10902
-0.10549 -0.12576 -0.02817
0.21396 -0.40322 -0.14837
0.22291 -0.12576 -0.14122
0.09288 -0.12576 -0.00441
