ply
format ascii 1.0
comment VCGLIB generated
element vertex 1790
property float x
property float y
property float z
element face 0
property list uchar int vertex_indices
end_header
-0.14306 0.09425 0.00701
-0.11717 0.01130 -0.08603
0.07637 -0.18645 -0.24826
0.05889 -0.10172 0.24863
-0.12398 0.30041 0.20765
0.14669 0.01130 0.07133
0.22097 0.01036 -0.15039
0.22616 -0.14689 -0.18506
-0.16462 0.36549 -0.07096
-0.06572 -0.06552 0.23794
-0.06805 -0.13941 -0.19574
-0.23356 -0.20426 0.00310
-0.22783 0.01820 0.11455
-0.05705 -0.01631 0.23938
-0.12501 0.25371 -0.20207
-0.00798 -0.20724 -0.21200
-0.14542 -0.20724 -0.06262
0.21663 -0.09717 0.11306
-0.23354 0.31869 -0.00416
0.23124 -0.02455 -0.22664
0.00238 -0.03421 0.24651
0.12683 -0.20724 0.19146
0.22089 -0.13362 -0.14971
-0.18487 0.36549 0.03385
0.07187 0.01130 -0.11893
-0.16071 -0.28590 0.15734
-0.12763 -0.20724 0.16921
-0.15497 0.12478 0.22608
-0.21951 0.00868 0.17805
-0.21554 -0.16145 0.20156
-0.10020 0.01130 0.16987
0.02759 -0.20724 0.19193
0.08678 -0.20724 0.13860
-0.19451 0.36549 0.01220
-0.02559 -0.20724 0.08767
-0.14749 -0.19584 0.22608
-0.19035 0.02285 0.22608
-0.23315 0.19249 -0.02789
-0.02933 -0.13482 0.24337
-0.11395 -0.20724 0.20005
-0.02349 0.01130 -0.07770
0.18307 0.01130 0.09160
0.16248 0.01130 -0.18999
0.15247 -0.15037 -0.24201
0.21787 0.01130 -0.17699
0.23076 -0.03894 0.21065
0.21271 -0.10908 -0.05950
0.16877 -0.29632 0.15631
-0.12181 0.30615 0.21937
-0.16602 0.21064 0.22608
-0.20317 0.22788 -0.22608
0.21866 -0.15805 -0.13067
0.08992 -0.13941 -0.12910
-0.14953 -0.19704 -0.22608
0.09644 -0.13941 -0.21308
0.21998 0.00633 -0.14194
-0.22902 0.28946 0.10065
-0.23121 -0.19852 -0.07337
-0.14271 0.15568 0.02828
-0.19111 -0.15882 0.22608
-0.08992 -0.13941 0.03601
-0.23147 0.26687 -0.06825
-0.14304 0.12112 0.00826
0.18473 0.01130 0.14538
-0.22701 0.25989 0.12161
-0.22869 0.30961 0.10468
-0.15979 0.36549 0.04320
-0.18590 0.33620 -0.22608
-0.23275 -0.20306 0.04247
-0.08540 -0.16394 -0.23414
0.22638 -0.08673 0.18650
-0.03926 -0.02837 0.24204
-0.14444 0.16413 0.22608
-0.22631 0.05557 -0.12758
0.09100 0.01130 0.11578
0.04349 -0.12928 0.24841
0.21154 -0.05254 0.03212
0.15003 -0.13941 -0.09275
-0.21215 0.06548 -0.21988
0.04885 0.01130 -0.00685
-0.03686 -0.13941 -0.05365
-0.19099 -0.20724 0.14080
0.14939 0.01130 0.04150
0.18421 -0.26009 -0.18788
-0.14150 0.15978 0.05905
-0.07453 0.01130 -0.00293
-0.17284 -0.35011 0.15472
0.21534 -0.16253 -0.09766
0.21153 -0.03248 0.03138
-0.19757 -0.07176 -0.22608
0.00950 -0.19460 -0.24696
0.03600 0.01130 -0.19355
-0.13049 0.12508 0.16871
-0.14178 0.11861 0.05334
0.18558 0.01130 0.00925
-0.21157 0.05327 0.22304
-0.02522 -0.06305 0.24381
-0.01564 0.01130 0.01699
-0.12130 0.34589 -0.22217
-0.13179 0.19409 0.16004
-0.22852 0.27388 -0.10670
0.01839 -0.13941 -0.02429
0.18904 -0.23597 -0.15987
-0.13791 -0.16177 -0.10884
-0.23293 0.27597 0.03901
0.12965 -0.13941 -0.17569
0.14743 -0.14904 0.24276
-0.01526 -0.20724 -0.12239
-0.00273 -0.05304 -0.24618
0.00124 0.01130 0.07403
0.15782 -0.13941 -0.07137
-0.14314 0.28447 0.00222
0.21939 -0.07343 -0.22945
-0.13243 0.03189 0.15581
-0.14148 0.33985 0.05947
0.10453 -0.13941 -0.00985
-0.14313 0.11224 -0.00321
-0.01222 -0.11648 -0.24519
-0.13812 0.35336 0.10631
0.21103 -0.17031 -0.00151
0.01342 -0.20724 0.06323
-0.20686 0.01024 -0.22608
-0.03592 -0.20724 -0.21659
-0.22789 -0.20724 -0.05067
-0.04390 -0.20724 0.00034
0.11206 -0.13941 -0.10548
0.01916 -0.11302 0.24757
-0.21941 0.24666 -0.17873
-0.12855 0.27187 -0.18155
0.17305 -0.20724 0.14848
0.15136 -0.28638 -0.17578
-0.23297 -0.18602 -0.03825
-0.18443 -0.24193 0.15146
-0.13781 0.13281 0.11006
0.11847 0.01130 -0.23322
0.14581 -0.13941 0.06380
-0.12811 -0.05259 -0.22608
-0.07026 -0.13941 0.10507
0.21138 -0.17870 0.02266
-0.14261 0.16146 -0.03414
0.15136 -0.24900 0.18802
0.00799 -0.17633 0.24686
-0.14104 0.21659 0.06823
-0.12032 -0.13941 -0.05826
0.01367 -0.20724 -0.00115
-0.13036 -0.19300 0.16954
-0.15916 -0.20724 0.04911
-0.22570 0.28626 -0.13282
-0.04891 -0.13941 -0.10360
0.19400 -0.13941 -0.21451
-0.07814 0.01130 0.12737
-0.14207 0.30920 0.04765
-0.13313 0.24071 -0.15111
0.05387 0.01130 -0.02306
0.14163 -0.14030 -0.24345
-0.02817 0.01130 -0.21227
0.22807 0.01130 -0.22480
-0.12494 -0.13941 0.11446
-0.23126 -0.03266 0.07243
-0.13875 0.30703 0.09883
0.10015 -0.20724 0.17829
0.16562 -0.08194 -0.24005
-0.17251 -0.20724 0.10335
-0.09735 0.01130 -0.11760
0.15136 -0.31101 -0.15841
0.15838 -0.06541 0.24113
0.06667 -0.20724 -0.16185
0.04530 -0.05262 0.24845
0.13439 -0.13941 -0.16805
-0.14209 0.11423 0.04725
-0.05879 -0.20724 0.06013
0.16919 0.00815 -0.23952
-0.11770 -0.15469 0.22676
-0.23244 0.19130 -0.04884
-0.21490 0.36549 -0.04779
-0.23301 -0.07537 0.03645
-0.12676 0.36549 0.20602
-0.12081 0.32704 0.22478
-0.12874 0.32939 0.18030
0.09054 0.01130 0.09759
-0.23144 0.30872 0.06877
-0.16529 0.36549 0.17572
0.21690 -0.18255 0.11554
0.01301 -0.13941 0.15751
-0.01886 -0.20724 -0.05344
-0.14058 0.16229 -0.07679
-0.18837 -0.27425 -0.15514
0.22086 -0.16109 -0.14950
-0.00901 -0.20724 0.12370
0.21423 -0.14128 -0.23067
-0.14313 0.34653 0.00326
0.07233 0.01130 0.06296
-0.19282 -0.26278 -0.15224
-0.13860 0.18362 -0.10058
0.17100 -0.13941 -0.15264
-0.13550 0.15809 -0.13085
-0.16831 -0.20724 -0.11267
-0.00468 0.01130 0.21465
-0.02013 0.01130 -0.02932
0.21142 -0.12240 -0.02480
-0.21967 0.36549 0.13649
-0.19529 -0.27519 -0.17060
-0.23342 0.12109 0.01124
0.08493 -0.13941 0.21623
0.16706 -0.21568 0.15687
0.22250 -0.20233 0.16074
-0.21123 0.36549 0.04325
0.07399 -0.13941 -0.12799
0.21482 -0.12199 -0.09140
-0.22863 -0.14752 -0.10536
-0.22281 -0.05788 0.15613
0.21299 -0.01648 0.06511
-0.17505 -0.35743 0.15715
0.20953 -0.13941 0.02094
0.21569 -0.19028 0.10178
0.06218 -0.13941 -0.08412
-0.02276 -0.13941 -0.01525
-0.13019 0.14642 -0.17067
-0.19486 -0.25877 0.15214
-0.21731 -0.14413 -0.19193
-0.23297 -0.12680 -0.03820
-0.03298 -0.20724 0.17604
-0.23253 0.04474 0.04701
-0.14243 0.24790 -0.04035
-0.21491 -0.11220 0.20495
-0.16128 -0.35045 -0.15428
-0.22747 -0.13985 -0.11763
-0.21477 0.12862 -0.20572
0.13570 0.01130 -0.00638
-0.23306 0.20803 -0.03313
-0.23066 0.17337 -0.08099
-0.08891 0.01130 0.15190
0.18551 -0.15710 -0.23664
-0.21520 0.04661 0.20339
0.21425 -0.08575 -0.08452
0.11109 -0.08373 -0.24648
-0.12817 0.08685 0.18411
0.16772 -0.33056 -0.15141
0.01908 0.01130 0.04145
-0.14080 0.36549 -0.20462
0.13213 -0.20724 0.16390
0.03277 -0.20724 0.04962
0.18904 -0.23052 0.17762
0.15136 -0.32217 -0.16308
-0.14110 -0.13941 -0.01857
-0.10408 0.01130 -0.02258
-0.04529 -0.13941 0.05499
-0.13975 0.27741 0.08682
-0.09263 -0.19531 -0.23270
-0.19053 -0.08045 -0.22608
0.05313 0.01130 0.10582
0.10243 -0.05804 -0.24703
0.19311 -0.01392 -0.23517
0.16492 -0.13941 -0.01095
-0.12201 0.01946 -0.22608
0.04637 -0.20724 0.20491
0.12322 -0.13941 -0.21634
-0.18587 -0.20724 -0.08988
0.15869 -0.20724 0.23613
-0.04402 0.01130 -0.02770
-0.22572 -0.17530 -0.13262
0.18256 -0.32903 0.15122
-0.13050 0.15496 0.16865
-0.17958 0.09677 -0.22608
0.19295 -0.20724 -0.21796
-0.12241 0.01848 -0.21615
-0.02840 -0.20724 0.13090
-0.19380 0.28833 -0.22608
-0.23134 -0.13530 0.07083
0.23051 -0.09985 0.20930
-0.14274 0.16974 -0.02631
-0.01674 -0.20724 0.03087
-0.21868 -0.04924 -0.18355
-0.13370 0.22446 -0.14623
-0.18247 -0.28915 0.18271
-0.08932 -0.20724 0.05712
-0.22611 -0.16616 0.12931
0.10601 -0.20724 -0.11622
0.00579 -0.13941 0.04753
-0.17086 -0.30647 0.15348
-0.07741 -0.13941 0.07650
-0.18577 0.36549 0.05450
-0.17317 -0.32235 0.18864
0.04719 -0.13941 0.02094
0.08048 0.01130 -0.10273
0.15803 0.01130 0.22230
-0.23131 0.35221 -0.07143
0.21316 -0.12425 -0.06856
0.06837 0.01130 -0.07617
0.05837 -0.13941 -0.20399
0.20903 -0.13941 -0.05653
-0.10185 -0.20724 -0.03079
-0.19529 -0.21385 0.17542
0.14547 -0.20724 -0.17934
-0.13155 0.15031 -0.16164
-0.12881 0.06712 0.17983
0.13195 -0.13941 0.08306
-0.21671 0.05558 0.19519
-0.13800 0.32678 0.10780
0.14072 -0.13941 0.18195
-0.13276 0.07483 -0.15359
-0.13702 -0.17346 0.11782
0.21310 -0.17417 -0.06722
-0.01403 0.01130 0.20499
-0.21745 -0.14538 0.19118
-0.23314 0.14031 -0.02869
0.08122 0.01130 0.03659
-0.19529 -0.26018 -0.15851
-0.22493 0.18323 0.13939
-0.23298 0.04499 0.03802
-0.13749 0.16107 -0.11378
0.06088 0.01130 -0.18489
0.20109 0.01130 -0.10218
-0.16384 -0.28021 0.18271
-0.14603 0.36432 0.22608
0.03580 -0.19079 0.24824
0.12247 0.01130 0.21605
0.19506 -0.20724 0.09065
-0.08554 0.01130 0.18686
0.14862 -0.16698 0.24259
-0.00576 -0.20110 0.24588
0.07831 0.01130 0.13589
-0.13648 0.15883 -0.12248
-0.13297 0.22773 -0.15223
-0.00613 -0.20724 -0.09414
-0.14089 -0.17929 -0.07114
-0.23127 0.08100 0.07222
-0.13850 0.36081 -0.10179
-0.17858 -0.20724 -0.20406
-0.02805 -0.20724 0.07687
-0.19555 0.36549 0.19430
0.18804 -0.20724 0.01106
-0.23073 0.25948 -0.08014
-0.23076 0.08200 -0.07979
-0.17305 -0.04368 0.22608
0.23251 -0.11297 -0.22010
-0.23357 0.24442 -0.00278
-0.14313 0.35791 -0.00316
-0.13400 0.01130 0.02051
-0.12816 0.25361 0.18418
-0.13403 -0.20724 0.02161
-0.06361 -0.13941 0.20479
-0.23324 -0.06929 0.02262
0.15136 -0.33172 0.15947
0.21505 -0.08545 0.09414
-0.21771 0.22319 -0.18977
-0.13965 0.35351 0.08799
-0.14288 -0.16076 0.01791
0.04666 -0.05763 -0.24847
0.11112 -0.20724 0.16644
-0.12328 -0.19187 -0.21142
-0.11871 0.01130 0.06582
-0.00915 0.01130 0.01586
-0.23311 -0.20366 -0.03012
-0.23344 0.09154 0.01034
-0.20097 -0.20724 0.16553
0.21730 -0.14536 -0.11898
0.18370 -0.12894 -0.23698
0.14764 -0.13941 -0.11697
-0.12544 0.17377 0.19974
-0.20799 -0.20724 -0.13245
0.11961 -0.20724 -0.01654
-0.04127 0.01130 -0.19450
-0.23304 0.25224 -0.03446
-0.22479 -0.06790 -0.14058
-0.23225 0.21794 0.05257
0.01172 -0.20724 0.03507
-0.20613 0.16248 0.22608
-0.11144 -0.20724 -0.00407
-0.09755 -0.13941 0.17146
-0.13857 0.03163 0.10089
0.13204 -0.20724 -0.06451
0.17517 -0.27883 0.17971
-0.19248 -0.20724 -0.12879
-0.11224 0.01130 -0.16226
-0.15926 0.36549 0.09283
0.21305 0.01130 -0.14068
-0.12131 0.11689 0.22208
0.13885 0.01130 -0.17825
-0.12752 0.19490 0.18841
-0.12425 -0.20724 0.11282
0.08788 0.01130 -0.06887
0.18555 -0.13941 -0.10804
0.18559 -0.35120 -0.15499
-0.23142 -0.19046 0.06916
0.16126 -0.20724 0.05518
0.18904 -0.25446 -0.16804
-0.14277 0.19342 -0.02459
0.21282 -0.02236 -0.23101
-0.12162 -0.14282 0.22039
-0.09215 0.01130 0.00248
0.12541 -0.15602 -0.24517
-0.12850 0.31050 -0.18192
0.18536 -0.13941 -0.00983
-0.14182 0.22403 0.22608
0.17232 -0.30334 0.18576
-0.20842 -0.10318 -0.22608
0.14861 0.01130 0.20790
0.04052 -0.13941 0.02657
-0.01248 -0.20724 0.16062
0.15249 0.01130 -0.05576
-0.14312 0.32345 0.00355
-0.12640 0.31799 0.19457
0.23028 -0.17804 0.20807
0.12002 -0.13941 -0.15884
-0.21654 -0.01845 -0.19614
0.10594 -0.14418 0.24681
0.01693 0.01130 -0.18070
-0.21677 0.20461 -0.19485
-0.07065 -0.13941 -0.02932
0.22458 -0.09569 -0.17454
0.13470 -0.05780 -0.24419
0.04603 -0.13941 0.03828
0.00131 -0.10230 -0.24644
0.07593 -0.20724 -0.02403
-0.13634 0.03097 0.12368
0.17121 -0.11096 0.23921
-0.05852 -0.20724 -0.05238
0.11428 0.01130 0.06958
-0.23197 -0.03616 -0.05818
-0.13492 0.06416 -0.13580
-0.19529 -0.30856 0.15919
-0.13962 -0.19024 -0.08826
-0.19529 -0.32342 0.16603
-0.23235 -0.03156 0.05051
0.22434 -0.04605 0.17294
0.22773 -0.09529 -0.19422
-0.13382 -0.16748 -0.14525
0.18814 -0.20724 -0.14698
-0.23109 0.29266 -0.07579
0.16643 -0.12697 0.23993
-0.23329 0.19488 -0.01959
-0.20506 0.05689 -0.22608
-0.00126 0.01130 0.02402
-0.13756 0.14088 -0.11309
-0.11128 -0.00564 -0.22828
-0.10882 -0.13941 -0.13002
0.15812 -0.20724 -0.23900
-0.14123 0.06943 -0.06438
-0.21536 -0.19923 -0.20250
-0.09415 -0.13941 -0.20295
0.00865 0.01130 0.07966
-0.05512 -0.13941 0.10713
0.21564 -0.11414 -0.10118
0.07422 -0.20724 -0.21281
-0.16059 -0.20724 0.19442
-0.23108 0.14949 0.07590
-0.14088 0.11568 -0.07136
-0.13978 0.04548 -0.08635
0.07437 0.01130 -0.13916
-0.12811 -0.14963 0.18447
-0.02901 -0.13941 0.10519
-0.19163 -0.36544 0.17065
-0.23298 0.12012 -0.03801
-0.02692 -0.20724 0.14435
0.22005 -0.07926 -0.14252
-0.19529 -0.28688 0.17337
-0.14308 0.24370 -0.00596
0.04422 -0.20724 -0.19958
0.11436 -0.13941 0.12448
-0.05176 -0.13941 -0.03406
-0.21929 0.14716 -0.17952
-0.12377 -0.18128 0.22608
0.16454 -0.13941 -0.20192
0.18167 -0.20724 0.00295
-0.16519 0.36549 -0.10678
-0.23169 -0.16259 0.06388
-0.23305 0.24676 0.03372
-0.00329 -0.20724 -0.06447
-0.23336 0.34829 -0.01533
-0.13920 0.22688 0.09335
-0.09563 -0.10955 0.23199
-0.21633 -0.19360 0.19726
-0.08518 -0.20724 0.22334
-0.13285 -0.13941 -0.06338
-0.23197 0.25235 -0.05812
0.15946 0.01130 -0.13343
-0.20717 -0.01553 -0.22608
-0.23344 0.28642 0.01024
0.08200 -0.02167 0.24814
-0.06204 -0.15095 0.23864
-0.00267 -0.17570 0.24619
-0.13584 0.22606 0.12793
-0.18180 0.01515 0.22608
-0.15664 -0.06746 -0.22608
-0.12488 -0.13941 0.07821
0.19315 -0.13941 0.13777
0.01580 -0.13941 0.22322
0.21137 -0.16769 0.02212
-0.09240 -0.20724 0.19059
0.18904 -0.33691 0.16967
0.11278 0.01130 0.19860
-0.10084 -0.13941 -0.20216
-0.11963 -0.20724 0.01386
-0.18780 -0.21219 0.15840
0.21185 -0.08110 -0.04215
0.19648 0.01130 0.10068
-0.23349 -0.15386 0.00709
-0.13777 0.35266 -0.11055
-0.14099 0.05312 -0.06920
-0.18873 -0.13106 0.22608
0.02785 0.01130 0.05453
-0.17873 0.29545 -0.22608
-0.22933 -0.11602 0.09698
-0.08996 -0.13941 0.13324
-0.23318 0.26565 -0.02605
0.01436 -0.20724 -0.06687
0.21197 -0.19188 0.04461
-0.13444 0.22090 0.13992
-0.22085 -0.12665 0.16916
0.11733 -0.07502 0.24603
0.12347 0.01130 0.14865
0.00892 -0.13941 0.01610
0.11968 -0.20724 0.19556
-0.22496 0.28967 -0.13912
-0.09215 -0.20724 -0.09236
-0.18821 -0.20724 -0.09543
-0.14265 0.22875 0.03219
0.21345 -0.18897 0.07427
0.00958 -0.20724 -0.03515
-0.18518 0.36549 -0.11387
0.10657 -0.13941 -0.00304
0.08977 -0.13941 0.11177
-0.12442 0.01130 0.15406
0.04810 -0.13941 0.20570
-0.23144 -0.12764 0.06892
0.04369 0.01130 0.19044
-0.14254 0.18546 0.03819
0.14865 -0.20724 0.06503
-0.01203 -0.20724 -0.10403
0.13620 -0.00064 -0.24403
0.18702 -0.36274 0.17863
-0.16018 -0.25137 -0.18822
0.05229 0.00249 -0.24859
-0.16324 0.13076 -0.22608
-0.23236 -0.16601 -0.05030
-0.13134 0.29700 -0.22608
-0.02919 0.01130 -0.15867
0.14192 -0.20724 0.11503
-0.13628 0.17809 -0.12413
-0.09867 -0.13941 -0.07532
-0.15549 0.36549 0.17943
0.21129 -0.09187 0.01714
-0.12958 0.11226 0.17474
0.11622 0.01130 0.17516
-0.13489 0.24428 0.22608
0.21222 -0.20165 -0.04967
-0.10161 -0.20724 0.17153
-0.14268 0.24057 0.02989
0.21109 -0.06532 0.00508
0.21141 -0.03901 -0.02456
0.19655 0.01130 -0.20703
-0.13562 0.33419 -0.12982
-0.21192 0.01085 0.22112
-0.13683 0.34058 0.11951
-0.15761 -0.23096 0.16620
-0.12109 0.20675 -0.22329
-0.22159 0.23247 -0.16426
-0.20386 0.26477 -0.22608
0.10331 -0.13941 -0.14133
0.21511 -0.15174 0.09487
-0.01777 -0.18526 0.24460
0.06975 -0.04478 0.24840
0.08775 0.01130 0.06152
-0.18699 -0.10491 0.22608
0.10772 -0.13941 -0.19016
-0.22594 0.12234 -0.13076
-0.22814 0.03974 -0.11126
-0.03381 -0.20724 0.05712
-0.00545 -0.13941 0.07681
-0.11172 -0.20724 -0.07100
0.04860 -0.20724 0.18229
-0.17027 -0.12385 -0.22608
-0.22605 0.30786 -0.12979
-0.14191 -0.17533 -0.05087
-0.20834 -0.09048 0.22608
-0.21266 0.05214 -0.21710
0.06816 0.01130 0.15886
-0.13223 0.34009 -0.15713
0.19999 -0.13941 0.07592
0.00944 -0.20724 0.10817
-0.22389 -0.14913 -0.14828
-0.21139 0.19264 -0.22399
-0.16815 -0.20724 0.17785
0.13954 -0.20724 0.07609
-0.14044 0.17694 -0.07846
-0.04469 0.01130 -0.13544
-0.02342 0.01130 0.01973
-0.19529 -0.31337 -0.18515
0.22601 -0.12144 0.18410
-0.13384 0.24207 0.14503
0.18834 -0.34723 0.18612
-0.23072 0.25760 0.08027
-0.23300 -0.15974 0.03658
0.04129 -0.20724 0.08640
-0.23089 0.00721 -0.07825
-0.23085 -0.02769 -0.07869
-0.15664 -0.02134 0.22608
-0.15342 -0.14284 0.22608
-0.22911 -0.15157 0.09964
-0.12351 0.14949 0.21018
0.15874 -0.16175 -0.24108
-0.22646 0.15477 0.12632
-0.16939 -0.20724 0.19533
-0.23314 -0.12990 -0.02808
0.15486 0.01130 -0.18051
-0.22696 0.11614 -0.12202
0.21735 -0.05352 -0.11943
0.06268 0.01130 0.22873
-0.01723 0.01130 0.23265
-0.22188 -0.06223 0.16234
0.03577 0.01130 0.20599
-0.02369 -0.00720 -0.24397
0.16685 -0.27883 -0.15932
0.22224 -0.19437 0.15907
0.08596 -0.01518 0.24806
0.16993 0.01130 0.04668
-0.20354 -0.08026 -0.22608
0.19581 -0.13941 -0.22412
-0.06359 0.01130 0.03660
-0.13664 0.22695 0.22608
-0.16972 0.36549 0.16370
-0.14910 -0.20724 -0.16014
0.01873 -0.20724 -0.01429
0.19293 0.01130 -0.04266
-0.16622 -0.06775 0.22608
0.17702 -0.27309 0.18473
0.06759 -0.13941 -0.01151
0.00861 -0.13941 0.13460
-0.13341 0.14259 0.14877
-0.22130 0.02917 -0.16620
0.01746 -0.13941 0.03187
0.03615 -0.13941 -0.03488
-0.16073 -0.28882 -0.18230
-0.13751 0.35426 -0.22608
0.22945 -0.17958 0.22706
-0.20434 -0.08201 0.22608
-0.11324 -0.06228 -0.22781
0.01558 -0.02219 -0.24735
0.05163 -0.20724 -0.22299
0.19200 0.01130 -0.06113
-0.00126 -0.13941 -0.07327
-0.22648 0.10571 -0.12612
-0.13365 -0.17883 -0.14673
-0.21649 -0.00974 0.19636
0.17935 -0.36015 0.15843
-0.16675 -0.01907 0.22608
-0.19179 -0.22138 -0.18459
-0.22476 0.17804 -0.14086
0.04708 0.01130 0.13014
-0.14048 -0.20724 0.11783
0.16446 -0.24515 0.15116
-0.15539 -0.11593 -0.22608
-0.15225 0.13370 -0.22608
0.03127 -0.13941 0.09737
-0.21275 0.03837 -0.21661
-0.23324 -0.17735 -0.02216
0.01448 0.01130 0.16476
-0.13456 0.13536 0.13886
0.12646 -0.20724 -0.16678
-0.12866 0.10940 -0.18083
-0.23240 0.12687 0.04955
0.04925 -0.20724 0.05955
-0.13939 0.07691 0.09106
-0.20315 0.36549 -0.02525
-0.15761 -0.33950 -0.17344
0.15676 -0.21752 -0.15632
0.01744 -0.15427 -0.24746
0.20857 -0.13941 -0.11693
-0.14288 -0.19318 0.01825
0.18075 -0.20724 -0.13835
-0.22835 -0.11040 0.10869
-0.21499 0.22829 -0.20449
0.15136 -0.25708 -0.17441
0.02151 -0.00203 -0.24772
0.08714 0.01130 -0.01734
0.08001 -0.20724 0.15715
-0.22844 0.01801 0.10764
-0.16843 -0.20724 -0.05184
-0.22773 0.18434 -0.11545
0.15136 -0.22226 -0.17094
-0.21641 -0.11709 0.19681
-0.01233 -0.20724 -0.19277
-0.02294 0.01130 0.09459
-0.15784 0.27398 0.22608
-0.14868 0.36549 -0.08208
-0.20346 -0.20724 -0.14613
-0.23351 0.33910 -0.00593
0.21242 -0.14431 0.05360
0.07878 -0.20724 0.12459
-0.13482 -0.20724 0.13060
0.07756 0.01130 0.01377
0.05766 -0.13941 -0.17555
-0.13640 0.21550 -0.12310
-0.23093 0.03510 0.07771
-0.13498 0.31267 0.13535
-0.23335 -0.13945 0.01598
0.21555 -0.20724 -0.22816
-0.03728 -0.12319 0.24233
-0.23174 0.13739 0.06288
-0.14075 0.20489 0.07414
-0.00139 -0.20724 -0.18249
-0.21571 -0.08686 -0.20059
-0.23347 0.24001 0.00882
-0.22957 -0.14990 -0.09403
0.14044 -0.20724 0.02353
0.21139 -0.00164 -0.02352
0.02019 -0.20724 0.11414
0.17503 -0.20724 -0.19836
-0.05640 -0.13873 -0.23948
-0.22837 -0.18372 0.10846
0.08279 -0.20724 0.21535
-0.20283 -0.20724 0.06072
0.17171 -0.32274 0.18866
0.22088 0.01130 -0.16695
0.16924 -0.18895 -0.23951
-0.13502 -0.20724 0.05067
0.15136 -0.23168 -0.15530
0.13589 -0.13941 0.16727
0.15136 -0.27965 -0.17649
-0.13069 -0.20724 -0.09779
-0.22266 0.16754 0.15713
-0.14213 0.11785 -0.04639
0.20560 -0.13941 0.09623
-0.14087 0.08199 0.07154
-0.03687 0.01130 0.18131
0.21185 -0.13941 -0.18531
0.12838 -0.16971 0.24486
-0.22248 0.36549 -0.13643
0.17693 -0.00654 0.23829
-0.12565 0.30049 -0.19861
-0.22075 -0.17483 -0.16983
-0.09055 -0.07107 -0.23315
0.23127 -0.04141 -0.21340
0.01181 0.01130 0.14975
0.03462 0.01130 0.14789
0.15136 -0.24935 -0.17284
-0.10912 0.01130 0.04582
0.22372 -0.08917 -0.16887
-0.22591 0.24593 0.13101
-0.10926 -0.12538 0.22876
-0.03032 -0.13941 0.01679
-0.13107 0.23615 -0.16482
-0.13280 0.30679 0.15334
-0.13405 -0.20303 0.14326
0.07467 -0.13941 -0.18847
0.04838 -0.13941 -0.03738
0.05691 -0.13941 -0.11602
-0.22798 -0.18923 -0.11315
0.02895 -0.13941 -0.07541
0.06655 0.01130 -0.16744
-0.01690 -0.20724 0.16390
-0.00636 -0.11359 -0.24581
0.09982 -0.09369 0.24720
-0.08006 -0.13941 -0.16957
-0.08717 -0.06763 0.23380
-0.01174 -0.20724 0.08934
0.00287 -0.13941 0.21832
0.14280 0.01130 0.06226
0.15049 -0.20724 0.17444
-0.19534 -0.20724 -0.02108
-0.23310 -0.05353 -0.03086
-0.12588 0.07539 0.19735
0.22357 -0.08106 0.16786
-0.11370 -0.18608 0.22771
-0.00573 -0.13941 -0.08699
-0.13209 -0.13941 -0.05530
-0.09802 -0.17494 0.23142
-0.14229 0.07162 0.04310
-0.22492 -0.11181 -0.13947
0.21201 -0.20673 0.04550
-0.03358 0.01130 0.21445
0.22043 -0.14373 0.14577
-0.08683 -0.01259 0.23387
0.09779 0.01130 -0.07881
0.03032 0.01130 -0.06008
-0.13872 -0.18632 0.09919
0.22506 -0.05935 0.17775
-0.17697 -0.21953 -0.15507
-0.15154 0.19977 -0.22608
-0.21777 0.04990 -0.18948
-0.07606 -0.20724 -0.05087
-0.02901 -0.13941 0.20353
0.21349 -0.13850 0.07504
-0.19408 0.31891 -0.22608
0.02363 -0.13941 -0.11205
-0.14270 0.32075 -0.02921
-0.11194 -0.20724 0.09578
-0.15761 -0.32746 -0.16711
0.11309 -0.20724 -0.11125
-0.21944 0.32181 0.17852
0.11846 0.01130 -0.20376
0.06222 -0.20724 -0.16926
-0.20350 0.36549 0.14114
-0.14339 0.06408 0.22608
-0.14050 -0.14392 0.07776
-0.16695 -0.29494 0.18309
-0.23048 -0.04210 -0.08314
-0.11225 -0.20724 0.08642
-0.17118 -0.20555 0.22608
0.03305 -0.20724 0.03389
-0.17787 0.05135 -0.22608
-0.22890 -0.00060 -0.10209
0.22796 -0.11232 0.22742
-0.13529 -0.09946 -0.22608
-0.23282 -0.16491 -0.04121
-0.00812 -0.19168 0.24563
0.21135 -0.08993 -0.02069
0.21885 -0.10403 0.13223
0.03497 -0.20724 -0.04317
-0.23077 -0.12860 -0.07966
0.15136 -0.23945 -0.18289
-0.22601 0.26223 -0.13016
-0.06925 -0.20724 -0.02823
-0.09603 0.01130 -0.08891
0.14814 0.01130 0.19426
-0.23264 0.32403 0.04470
-0.22927 0.01883 0.09773
-0.13330 -0.13941 -0.10736
-0.05858 -0.13941 0.19390
-0.12106 0.13914 -0.22346
-0.23049 0.02982 0.08307
0.00398 -0.20724 0.06068
0.10146 -0.20724 -0.22948
-0.22892 -0.02578 -0.10189
-0.23200 0.14914 -0.05764
0.04181 0.01130 -0.09688
-0.22673 0.04600 0.12400
-0.11260 -0.20259 0.22797
0.04777 -0.20724 -0.02653
-0.03759 -0.13997 0.24229
-0.22800 -0.19122 0.11295
-0.13621 0.23801 0.12476
0.13791 -0.20724 -0.03776
-0.07884 -0.15841 0.23541
-0.01232 -0.13941 -0.21928
-0.23004 -0.11221 -0.08845
-0.14300 0.02798 0.01074
-0.12154 0.32770 -0.22608
-0.04935 -0.20724 0.22584
0.21129 -0.03875 0.01722
-0.23332 0.06569 0.01766
-0.14281 0.23512 0.02227
-0.23272 0.32243 -0.04319
-0.13118 -0.06345 0.22608
-0.13947 0.11868 -0.09011
-0.19315 -0.20724 0.12421
0.05977 -0.13941 0.15904
0.22042 -0.02371 -0.14572
0.07562 -0.10278 -0.24828
-0.22499 0.10315 0.13890
-0.22128 -0.15893 0.16632
-0.12762 0.13983 -0.18778
0.06498 -0.20405 -0.24850
0.06458 -0.02072 -0.24851
-0.16337 -0.19434 0.22608
0.20686 -0.13941 -0.13026
-0.22634 -0.01486 0.12732
-0.18582 -0.20724 0.16278
0.04454 -0.13941 -0.11920
0.14688 -0.13941 -0.19343
-0.13649 0.29756 0.12240
-0.16220 -0.20724 0.19987
0.06906 -0.20724 0.18099
-0.13909 0.19810 -0.22608
-0.20741 0.07631 -0.22608
-0.22581 0.33973 0.13192
0.15136 -0.22001 0.15615
-0.06382 -0.13941 -0.11812
-0.20870 0.36549 -0.16629
0.17074 -0.00058 0.23928
-0.05601 -0.13941 0.21810
0.19351 -0.20724 -0.20116
0.03096 -0.18507 -0.24814
-0.16427 0.34090 -0.22608
-0.22329 0.14781 0.15298
-0.02765 -0.20724 0.18874
-0.06651 -0.20724 0.22270
0.23159 -0.18719 0.21513
0.19537 0.01130 -0.10981
0.21077 -0.20724 -0.22409
0.09106 -0.13941 0.00638
0.00862 -0.20724 -0.16303
-0.23100 -0.09102 -0.07690
0.14778 -0.13941 0.19267
0.21108 -0.08421 -0.00488
0.22555 -0.20134 -0.22799
-0.23356 -0.15190 -0.00345
-0.04402 -0.12914 -0.24133
0.01015 -0.13941 0.07196
-0.12085 0.15152 0.22457
-0.21859 -0.09591 0.18421
-0.21377 -0.12689 0.21108
-0.12488 0.14545 -0.20276
-0.23125 -0.04197 0.07271
-0.22022 0.26609 -0.17335
-0.12728 0.31571 -0.22608
-0.22801 0.30232 -0.11279
-0.09832 -0.20724 -0.05516
0.23270 -0.14369 -0.22112
-0.15364 0.11081 0.22608
0.17070 -0.21122 -0.18131
0.02502 -0.13941 -0.08387
0.01451 -0.13941 0.09363
-0.05051 -0.20724 0.08281
-0.06542 -0.12492 -0.23799
0.18904 -0.28211 -0.16844
-0.00518 0.01130 0.10447
0.18904 -0.25903 -0.15280
0.04428 -0.06629 0.24842
-0.14255 0.20625 -0.03780
0.13211 -0.20724 -0.13934
0.22989 -0.00843 -0.20591
-0.13601 0.03611 -0.12649
-0.09894 0.01130 -0.22903
-0.11353 -0.13941 0.05879
-0.14088 0.24092 0.07149
0.15136 -0.35600 -0.16140
-0.14092 0.28447 0.07061
-0.14139 -0.16471 -0.06122
-0.04773 -0.20724 0.06064
-0.03427 -0.20724 0.22411
0.19945 0.01130 0.14046
0.17197 -0.20724 0.01164
0.09711 0.00315 -0.24737
-0.04915 -0.20724 -0.15364
-0.15438 0.07898 0.22608
0.10078 0.01130 -0.14996
-0.13845 -0.07740 0.22608
0.21184 -0.10057 0.04197
-0.18544 0.29168 -0.22608
-0.18639 -0.20724 -0.02363
-0.08993 -0.20724 0.21503
0.10509 -0.20724 -0.21336
0.07381 -0.18210 0.24832
-0.20582 0.36549 -0.20670
-0.17496 -0.26406 0.15305
0.01617 0.01130 0.21558
0.16519 0.01130 -0.03408
-0.23122 0.33297 -0.07322
0.05436 0.01130 0.00556
0.01883 -0.20724 -0.07244
-0.13463 0.15463 -0.13831
0.21248 -0.05506 -0.05489
-0.15201 -0.18215 -0.22608
-0.14774 -0.17289 0.22608
-0.22870 -0.07380 -0.10459
-0.13695 0.07869 -0.11847
-0.17014 -0.27263 0.15518
0.21330 -0.10434 0.07130
-0.11531 -0.13941 0.18344
-0.07092 -0.02892 0.23693
-0.20462 0.19048 -0.22608
-0.15741 -0.20724 -0.14065
-0.14069 0.19484 0.07515
-0.18668 -0.20724 0.04106
-0.22462 0.34021 -0.14207
-0.21247 -0.16612 0.21815
-0.22467 -0.18835 -0.14164
0.21109 -0.10951 -0.00530
-0.12778 -0.09429 0.22608
0.09713 -0.20724 0.00216
0.17979 -0.20724 -0.11933
-0.13391 -0.13941 -0.08466
0.20256 -0.20724 0.17222
-0.13362 0.06360 -0.14691
-0.18889 0.09012 0.22608
0.16690 -0.13941 -0.02691
-0.12430 0.27161 -0.20592
0.16762 -0.13941 0.15609
-0.13901 0.14125 -0.09567
-0.14106 0.35667 -0.06776
-0.14644 0.32639 -0.22608
0.16931 0.01130 -0.13377
-0.19529 -0.24070 0.15878
0.20166 0.01130 0.20062
-0.13879 -0.17364 -0.09824
-0.07021 -0.20724 -0.13849
-0.18936 -0.10612 -0.22608
-0.21784 0.20546 0.18909
0.22506 -0.15537 0.17778
0.23107 -0.09470 -0.21231
-0.22247 -0.12970 -0.15842
0.05201 -0.13941 0.03245
0.06406 -0.13941 0.12998
-0.07660 0.01130 0.19813
0.01212 0.00054 0.24713
-0.23299 0.28528 0.03721
-0.16898 0.27419 0.22608
0.04769 0.01130 -0.17888
0.15248 -0.33251 -0.15148
-0.15831 -0.22686 0.15357
0.03814 0.01130 -0.13121
-0.20679 -0.20001 -0.22608
0.23277 -0.20455 -0.22151
0.04193 -0.13941 -0.16978
-0.04285 -0.01950 0.24150
-0.23114 0.16728 0.07484
0.03270 -0.13941 -0.16820
-0.05116 -0.20724 -0.11853
-0.23324 0.27557 0.02232
-0.13939 0.23471 0.09105
-0.16622 0.36549 -0.06562
0.17818 -0.20724 -0.08456
-0.13374 -0.18522 0.22608
0.19855 -0.20724 -0.03294
0.21146 -0.16366 -0.02756
0.19527 -0.12059 -0.23475
0.19270 -0.13941 -0.15266
-0.14262 0.15302 0.03402
0.21854 -0.17075 -0.12956
-0.21999 -0.02438 -0.17491
0.06830 -0.13941 -0.13873
0.22282 -0.11336 -0.16286
-0.17032 0.07052 -0.22608
0.18876 -0.24768 0.18875
-0.23356 0.09142 -0.00331
-0.21548 0.19335 0.20187
-0.06815 -0.20724 0.16628
0.21048 -0.07650 -0.23156
-0.19529 -0.23040 -0.16908
-0.00783 -0.20724 0.11796
0.14596 -0.20724 -0.11966
0.09686 -0.20724 0.02659
-0.16601 -0.29793 -0.18377
-0.13903 -0.20724 -0.10040
0.21277 -0.16318 -0.06064
-0.07944 -0.13941 -0.09900
-0.15761 -0.32177 0.15332
0.23283 -0.20633 0.22184
-0.19017 -0.04781 -0.22608
-0.07104 -0.19688 0.23691
-0.12127 0.02664 -0.22231
-0.16939 -0.20724 0.03042
0.13401 0.01130 -0.19603
-0.01505 -0.13941 0.20672
-0.16877 -0.20724 -0.21865
0.23236 -0.05105 0.22637
0.08637 -0.20724 -0.01356
-0.22547 0.07636 0.13477
-0.20381 0.19744 0.22608
-0.13117 0.12621 -0.16418
-0.08606 -0.13941 -0.08949
-0.11614 0.01130 0.10949
-0.05125 -0.20724 -0.12829
-0.09348 -0.20724 -0.05988
0.00588 0.01130 -0.04629
-0.17790 0.16598 0.22608
-0.23143 -0.10899 -0.06910
-0.22319 0.23431 -0.15362
-0.13172 0.17616 0.22608
-0.12950 0.35319 0.17527
-0.23081 -0.05483 0.07914
-0.17329 0.36549 0.14576
-0.00394 -0.15772 -0.24607
0.11420 -0.14868 -0.24628
0.12869 0.01130 -0.07562
-0.23312 0.29156 0.02976
-0.21305 0.28450 0.21499
-0.19529 -0.29177 -0.16616
-0.14297 -0.14099 -0.01242
0.04515 0.01130 -0.16865
-0.18886 -0.03942 0.22608
-0.06573 0.01130 0.08560
-0.06310 -0.06811 -0.23844
0.17181 -0.04458 -0.23913
-0.20570 0.17719 0.22608
0.18451 -0.21703 0.15637
-0.12334 0.01130 -0.11117
-0.15178 0.09969 0.22608
-0.13297 0.05186 0.15221
0.21768 -0.03794 0.12228
0.16931 -0.13941 -0.01870
0.15136 -0.36255 0.17837
0.21110 -0.15655 0.00569
-0.22021 0.07414 -0.17340
0.05142 -0.20724 0.04957
-0.13449 -0.14252 0.13949
0.08906 -0.13941 0.01312
-0.23337 0.22754 -0.01431
-0.22928 0.32379 -0.09763
0.11939 -0.20724 -0.17181
-0.21766 -0.00654 -0.19005
0.18263 -0.07158 -0.23719
0.21244 -0.12213 -0.05411
-0.17365 0.36549 -0.03798
0.19913 -0.13941 0.06264
0.18706 -0.13941 -0.16044
-0.21584 0.07682 -0.19989
0.21355 -0.04259 0.07605
-0.05719 -0.20724 -0.08339
0.13894 -0.20724 0.13624
0.04734 -0.13941 0.08747
-0.09229 -0.12841 -0.23278
-0.11923 0.01130 0.17487
-0.21496 -0.12716 0.20468
0.15921 -0.03361 -0.24100
-0.15952 0.06567 -0.22608
0.01658 0.01130 0.22157
-0.14112 0.02191 0.22608
0.20431 -0.16906 -0.23301
-0.22425 -0.20724 0.06256
-0.08955 0.01130 -0.09819
-0.18754 0.36549 0.02656
-0.22313 -0.13785 -0.15404
-0.17322 0.19948 -0.22608
-0.19451 -0.24914 0.18869
0.16112 -0.28038 0.18268
-0.16565 0.16966 -0.22608
0.18904 -0.24381 -0.16496
-0.23357 -0.13562 -0.00229
0.09513 -0.00040 0.24749
-0.14497 -0.20724 0.13826
0.18228 -0.34703 -0.18630
-0.21345 0.33664 -0.21284
0.21776 -0.09752 0.12295
0.00219 -0.20724 0.18765
0.14444 -0.19925 -0.24315
-0.22582 -0.06015 -0.13175
-0.12300 0.21978 0.21294
0.17006 -0.20724 0.07429
0.08788 0.00519 -0.24796
0.00648 -0.06982 0.24677
0.07458 -0.03675 0.24830
0.09134 -0.20679 0.24774
-0.00628 0.01130 0.12120
0.02440 0.01130 -0.05936
0.13275 -0.13941 0.20537
-0.23332 0.31930 -0.01757
-0.22533 0.31115 -0.13601
-0.23213 -0.18674 -0.05496
0.22317 -0.18052 0.22855
0.20395 -0.13954 0.23308
-0.22920 0.19405 -0.09854
-0.22945 0.09381 0.09552
-0.03484 0.01130 0.05349
-0.12669 -0.13941 0.16457
0.05605 0.01130 -0.22581
-0.22142 0.17409 -0.16536
-0.02047 -0.20724 0.10708
0.19089 0.01130 0.21449
0.04406 0.00963 -0.24842
0.12557 -0.20724 -0.12307
-0.13001 0.11909 0.17189
-0.02499 -0.20724 0.15063
0.14910 -0.13941 -0.04001
-0.18393 -0.16023 0.22608
0.10454 -0.20724 -0.07906
0.19309 -0.20724 0.21951
-0.04292 -0.20724 0.02345
-0.01894 -0.20724 -0.08264
-0.15808 0.10420 0.22608
0.18011 -0.36013 -0.15854
-0.21962 -0.20001 0.17734
-0.10743 -0.01236 0.22919
-0.16310 -0.12064 0.22608
-0.14151 0.10270 0.22608
0.22454 -0.07477 -0.17430
-0.21127 -0.00878 -0.22466
-0.22646 0.22671 0.12627
-0.07910 -0.05875 0.23536
-0.09450 0.00996 -0.23226
0.13660 -0.20724 0.15195
0.14190 -0.20724 -0.18973
-0.22958 0.34324 -0.09392
-0.20896 -0.20724 0.07892
0.17590 -0.15206 0.23849
-0.14256 0.30991 0.03749
-0.17727 0.36549 0.11204
-0.21346 -0.06458 0.21281
-0.23311 0.19750 -0.02996
-0.00504 -0.13941 -0.09486
0.15113 0.00006 0.24221
0.01473 -0.20724 -0.15303
-0.22006 0.36549 -0.16546
-0.03314 -0.20724 -0.10941
0.03907 -0.13941 0.11583
0.00536 0.01130 -0.11585
-0.12425 0.11210 -0.20616
0.17414 -0.20724 -0.13299
-0.20432 -0.20724 -0.02687
-0.22969 0.03516 0.09263
-0.22475 0.24368 -0.14094
-0.12741 0.29444 -0.18907
-0.01971 -0.14150 -0.24439
-0.23009 0.21742 0.08790
0.07938 0.01130 0.13054
-0.13221 0.31570 0.15730
0.06602 -0.13941 -0.10591
-0.12290 0.05556 -0.21348
0.00435 -0.20724 0.09439
0.23102 -0.08262 0.22669
-0.13656 0.16776 0.12176
-0.17086 -0.20724 0.00032
-0.20062 -0.04018 -0.22608
-0.13995 0.28591 0.08430
0.15167 -0.20724 -0.23336
-0.21171 0.24971 -0.22223
0.07168 -0.20724 -0.11071
-0.03830 -0.13825 -0.24218
-0.12542 0.31671 -0.19983
-0.23359 0.09535 0.00134
0.18951 -0.20724 -0.02425
0.09743 -0.13941 -0.06550
-0.10665 -0.20724 -0.14871
-0.13937 0.15017 -0.09136
0.20323 -0.08334 -0.23322
0.14533 -0.12351 -0.24306
-0.20006 -0.20724 0.01455
0.15804 -0.27340 -0.15537
0.13417 -0.20724 0.23793
0.04050 -0.13941 -0.14884
0.05251 -0.11679 -0.24860
0.12004 -0.05752 -0.24574
0.21647 -0.05212 0.11120
-0.21586 0.00536 -0.19979
-0.22086 -0.20181 -0.16909
-0.12350 0.35544 -0.22608
-0.23133 0.27464 -0.07095
-0.12253 0.13134 0.22608
0.18666 -0.04401 0.23641
0.04600 0.01130 0.05128
0.06110 -0.18090 0.24859
0.01393 -0.17069 -0.24724
-0.12526 0.21743 0.20071
0.15136 -0.32629 0.15484
0.08867 0.01130 -0.00952
-0.18824 0.02437 -0.22608
-0.14268 0.12504 -0.02996
-0.13904 0.03526 0.09528
-0.16841 0.36549 -0.19316
-0.23208 0.33956 0.05593
-0.11597 -0.13941 0.07585
0.12533 0.01130 0.17677
-0.19956 0.36549 -0.11531
-0.22403 0.23027 0.14716
0.12325 -0.20724 0.18087
-0.14298 0.34792 0.01211
-0.19529 -0.35718 -0.16905
-0.22715 0.12061 0.12041
0.03198 -0.20724 0.10936
0.18336 -0.13511 -0.23705
-0.20365 -0.20724 -0.21319
0.16713 -0.02614 0.23982
0.07559 -0.13941 -0.13679
-0.22954 0.36549 0.08274
-0.00686 -0.13941 -0.03752
-0.17889 0.36549 -0.19523
-0.03926 0.01130 0.17652
0.14306 -0.20724 -0.07251
-0.14273 0.17848 -0.02705
-0.13214 0.18379 -0.22608
-0.21717 -0.06516 -0.19271
-0.20437 0.09655 -0.22608
-0.22579 0.16363 0.13201
-0.22718 -0.09227 0.12012
0.12472 -0.13941 -0.08079
0.05440 -0.17362 0.24864
-0.02108 -0.13941 0.05572
-0.21682 0.11369 -0.19462
-0.16757 0.18925 0.22608
-0.13376 0.01130 0.04354
-0.17535 0.24315 -0.22608
0.02795 0.01130 0.15310
0.12069 -0.20724 -0.11882
0.04672 -0.20701 -0.24848
-0.11840 -0.13941 -0.06746
-0.22526 0.25180 -0.13655
0.15899 -0.35016 0.18530
0.23302 -0.14150 0.22287
-0.21814 0.36368 0.18714
-0.14213 -0.18906 -0.04634
-0.15136 0.10813 -0.22608
-0.13553 0.33084 0.13063
-0.19529 -0.26217 -0.18412
-0.14105 0.28703 -0.06810
-0.13638 0.26681 -0.12328
-0.14044 0.14411 0.07850
-0.08918 0.01130 0.18093
-0.22057 0.13841 0.17104
0.15630 -0.20724 0.22499
-0.03916 0.01130 -0.20873
-0.04683 0.01130 0.21010
-0.13833 -0.14693 -0.10384
-0.14225 0.27379 -0.04401
0.15236 -0.35210 -0.15525
-0.22286 0.19049 -0.15583
-0.16602 0.36549 0.19454
-0.23317 -0.10783 0.02647
0.16108 -0.20724 -0.20744
0.03076 -0.16672 -0.24814
0.08959 -0.20724 -0.15121
0.14721 -0.13941 0.13368
-0.00836 0.00303 0.24560
-0.04106 -0.13941 0.01361
-0.16043 -0.03690 -0.22608
0.21277 -0.08507 0.06075
0.03658 -0.05965 0.24826
-0.12656 0.27272 0.19368
-0.10295 -0.13941 0.18674
0.16216 -0.20724 -0.18716
-0.22278 0.08625 -0.15634
-0.12227 0.07275 0.21689
-0.15761 -0.28007 -0.16365
-0.12684 0.05754 -0.19215
0.17498 -0.06648 -0.23865
-0.23176 0.07575 0.06231
0.10918 0.01130 0.12378
-0.23014 0.25357 -0.08720
0.13607 0.01130 -0.02681
-0.14223 0.14026 0.04431
0.05530 -0.13941 0.05938
-0.03348 0.01130 0.11723
-0.18641 -0.23772 -0.15125
0.21145 -0.13972 0.02668
-0.13853 -0.16911 0.22608
0.19752 0.01130 -0.02936
0.00043 -0.14679 -0.24638
-0.20393 -0.20724 0.18703
0.03958 -0.13941 0.21348
0.15631 -0.13941 0.12923
-0.00884 -0.12628 0.24555
-0.06035 -0.13941 0.00456
-0.22405 0.27364 0.14691
-0.23082 -0.09744 0.07906
-0.12565 0.19000 -0.19861
-0.09470 0.01130 0.07026
-0.05544 0.01130 0.20208
0.01136 0.01130 -0.20517
-0.07454 -0.04793 -0.23624
-0.18355 0.20105 -0.22608
0.22701 -0.02445 0.19035
0.05875 -0.11889 0.24864
-0.18327 -0.28228 0.15734
-0.11724 -0.13941 -0.18531
-0.17357 0.36549 -0.17730
0.07362 -0.13941 0.02116
-0.17419 0.26766 -0.22608
0.15136 -0.33965 -0.17684
0.02323 -0.13941 0.14031
-0.04472 0.01130 -0.21899
-0.13108 0.13351 -0.22608
0.17226 -0.13941 -0.00240
0.14729 -0.02527 -0.24278
-0.22358 0.03722 -0.15097
-0.22830 0.20750 0.10929
-0.22826 0.17295 -0.10985
0.16814 0.01130 0.07494
0.08589 0.01130 0.21639
0.18590 -0.27883 -0.18098
0.22010 -0.06597 -0.14296
-0.02476 0.01130 -0.17520
-0.17417 -0.22287 0.18540
-0.13958 -0.17342 0.08883
-0.22350 0.21659 -0.15156
-0.16590 0.36549 0.01491
-0.12607 0.34753 0.19631
-0.23225 0.02805 0.05259
-0.12487 -0.13941 0.05376
-0.02447 0.01130 -0.12581
-0.17280 -0.23754 0.18823
0.12903 -0.19120 0.24479
-0.14291 0.15556 0.01625
-0.19590 -0.14947 0.22608
-0.07005 0.01130 -0.21693
-0.12749 -0.20724 0.21302
0.15875 -0.19460 -0.24107
-0.11097 -0.13941 0.04472
-0.12578 0.14724 -0.22608
-0.16164 0.36549 0.06456
-0.14306 0.29467 -0.00749
-0.14297 0.21978 -0.01296
0.05263 0.01130 -0.24263
-0.22096 0.36549 -0.00509
0.12566 0.01130 0.19722
-0.10794 -0.10020 -0.22907
0.22245 -0.18068 -0.16042
-0.23306 -0.07581 -0.03301
-0.12813 0.31943 0.18434
-0.15090 0.36549 0.12338
0.22022 -0.06749 0.22925
-0.19278 -0.34289 0.15299
-0.18319 -0.08286 0.22608
0.17076 -0.20724 0.17664
0.16213 0.01130 -0.08875
0.20885 0.01130 -0.20917
0.20502 -0.20724 -0.08765
-0.21311 -0.20724 0.08322
-0.21114 -0.07756 -0.22534
0.03525 -0.13941 0.01084
0.16286 0.01130 -0.15383
-0.18156 -0.20724 0.16648
-0.23314 -0.10955 -0.02853
0.09002 0.01130 0.16624
-0.14070 0.34527 -0.07506
-0.23157 0.23043 0.06622
-0.12267 0.15180 -0.21475
0.18549 0.01130 0.22843
-0.07806 -0.20724 -0.11001
0.04183 -0.13941 0.14827
-0.18748 -0.22574 -0.18580
-0.06164 -0.13001 -0.23870
-0.22238 0.13564 -0.15903
0.17841 -0.25161 -0.15141
0.23135 -0.07041 -0.21384
-0.12281 -0.20289 0.21395
0.01431 0.01130 -0.16634
-0.15051 -0.16440 0.22608
0.21163 -0.03746 -0.03734
-0.22812 -0.13170 0.11154
-0.13772 0.01130 -0.05753
-0.08130 -0.13941 -0.06835
-0.11223 0.01130 0.09837
-0.21568 0.23273 -0.20078
-0.21504 0.36109 -0.20422
-0.14108 0.29239 -0.06744
-0.18934 -0.36378 -0.17654
0.04948 -0.01983 -0.24853
0.15679 -0.05345 0.24137
0.03112 0.01130 -0.16964
0.19244 -0.01437 0.23530
0.16377 -0.13941 -0.10287
-0.22382 0.34191 -0.14890
-0.19232 0.14183 -0.22608
-0.19529 -0.35973 0.16688
-0.23345 0.27063 0.00991
-0.14082 0.12259 0.07258
0.10755 0.01130 -0.00841
-0.04510 -0.20724 0.09331
-0.22185 -0.08086 -0.16254
-0.17586 -0.31181 0.15243
-0.14042 -0.13941 -0.05581
-0.21977 0.27276 0.17634
-0.10411 -0.11298 0.22998
-0.19529 -0.26634 0.17579
0.22918 -0.18995 -0.20210
-0.14088 -0.13952 -0.07143
0.18794 -0.36146 -0.15982
-0.02597 -0.13041 -0.24373
-0.21435 0.25762 -0.20797
0.10907 -0.02326 0.24661
-0.03690 -0.13941 0.08880
0.14694 -0.09918 0.24284
-0.00056 0.01130 -0.02933
-0.18271 -0.20724 -0.13815
-0.13039 0.02889 0.16936
0.09128 0.01130 -0.02476
0.14474 -0.17669 -0.24312
-0.06819 0.01130 0.03380
0.17759 -0.30916 0.15278
0.22567 -0.20724 0.19918
-0.02602 -0.13941 -0.02950
-0.22664 0.13720 -0.12478
-0.10864 -0.20724 0.10582
0.21105 -0.05726 0.00254
0.21392 -0.08746 0.08054
-0.22816 0.33118 0.11106
-0.23346 0.18363 0.00914
-0.18140 0.07640 -0.22608
0.03924 -0.13941 0.16862
-0.23266 0.19083 0.04441
0.04693 -0.20724 0.08731
-0.16709 -0.20724 0.01794
-0.13633 0.19464 -0.12377
-0.04130 -0.19045 -0.24173
-0.23270 0.00806 -0.04352
-0.13417 0.23169 -0.14221
-0.23225 0.09559 -0.05266
0.22953 -0.15937 -0.20400
-0.15761 -0.25869 0.15243
-0.22102 0.31947 0.16801
0.15005 0.01130 0.10168
0.05927 -0.13941 0.10329
0.00618 -0.13941 0.12271
0.18660 0.01130 0.23641
-0.13340 0.12278 -0.14886
0.13856 0.01130 0.02920
-0.11726 -0.18724 -0.22686
-0.15512 -0.20724 0.07699
-0.21429 -0.13897 0.20827
0.10705 -0.13941 0.19210
-0.16535 0.06848 0.22608
-0.01059 0.01130 -0.22895
-0.16064 -0.20724 0.17704
0.04603 -0.13941 -0.18156
-0.21203 0.05971 0.22054
-0.12550 0.18144 -0.19940
-0.13739 0.19328 -0.11466
-0.08718 -0.20724 -0.22803
-0.14090 -0.14839 0.07111
-0.22197 -0.20315 -0.16171
0.03436 -0.13941 -0.13553
-0.21458 -0.14425 -0.20672
-0.13356 -0.05732 0.22608
-0.22352 0.10956 0.15142
0.21298 -0.11425 -0.06497
0.01244 0.01130 -0.04483
-0.22236 0.26049 -0.15916
-0.22519 -0.20724 0.08349
0.21958 -0.13629 0.13848
-0.11109 -0.03745 -0.22832
0.21148 -0.07228 0.02862
0.14843 0.01130 -0.14701
-0.22897 0.22501 -0.10133
0.04184 -0.13941 -0.07343
-0.21714 0.23036 0.19288
0.01281 0.01130 0.22542
-0.15761 -0.23229 -0.16673
-0.12080 -0.20724 -0.17919
0.10749 0.01130 -0.19832
-0.02684 -0.13941 0.13773
0.00413 -0.13941 0.04034
0.06735 -0.06607 -0.24845
0.21116 -0.20610 0.00959
-0.17083 -0.20724 0.03723
-0.14082 0.35075 0.07267
-0.21156 0.14322 -0.22307
-0.00410 -0.19428 -0.24605
-0.23150 0.24522 -0.06769
-0.21259 0.23753 0.21749
-0.23229 0.24172 -0.05183
0.22387 -0.13703 0.16987
-0.16696 -0.36118 0.18056
0.15923 -0.13941 -0.19965
0.13289 0.01130 0.02151
-0.22801 -0.20724 -0.09695
-0.14262 0.15243 -0.03400
0.10005 -0.13941 0.14899
-0.22801 0.27510 -0.11280
-0.14261 0.05271 -0.03454
0.21638 -0.01721 0.11015
-0.16947 0.36549 -0.21686
0.21570 0.00308 0.10194
0.15330 -0.12050 0.24189
0.18904 -0.32691 -0.15229
-0.22217 -0.20316 0.16039
0.15136 -0.23765 -0.17740
-0.13836 -0.16599 0.10347
0.17277 -0.30716 0.15318
-0.21784 0.08577 -0.18907
-0.00859 0.01130 0.08582
-0.22591 -0.15641 -0.13105
-0.22860 0.24238 -0.10571
-0.05090 0.01130 -0.16063
-0.12204 -0.19420 0.21816
-0.14299 0.21370 0.01157
0.09457 0.01130 0.20183
0.14937 -0.20724 0.11706
-0.05848 0.01130 0.04941
-0.14279 0.35896 -0.02336
-0.15761 -0.34504 -0.15848
-0.23344 0.28239 -0.01042
-0.23309 0.23221 0.03133
-0.13200 0.10462 0.22608
-0.21988 -0.20724 0.14951
0.18183 -0.22150 0.18500
-0.14069 0.05720 -0.07530
0.01884 -0.13941 0.03821
-0.22133 -0.17899 0.16595
-0.13989 0.02481 0.08506
-0.22191 0.27283 0.16213
-0.22804 0.35953 0.11249
-0.05077 -0.01227 -0.24032
-0.19049 0.36549 -0.04499
0.08672 -0.06697 0.24803
-0.23205 0.15313 0.05670
0.23076 -0.04580 0.21063
0.15136 -0.35610 -0.18065
-0.21246 0.36549 -0.01315
-0.13479 -0.18651 -0.13689
0.19032 -0.20724 -0.12273
-0.02958 0.01130 -0.00595
0.02237 -0.20724 -0.15551
-0.12423 0.35008 -0.20631
-0.21361 -0.08588 0.21197
-0.11849 -0.10517 -0.22657
-0.23057 0.28754 0.08209
-0.03221 -0.13941 -0.01280
-0.23119 -0.06168 0.07375
0.08370 0.01130 -0.21532
-0.14501 0.36549 0.00112
-0.23332 -0.13780 -0.01747
0.16112 0.01130 -0.22981
-0.06393 0.01130 -0.15259
0.21595 -0.13946 0.10491
-0.09361 -0.20724 -0.14831
-0.06736 -0.13941 -0.17822
-0.22923 0.21201 0.09815
-0.02824 0.01130 0.07928
0.15446 -0.29043 -0.15732
0.02934 -0.20724 -0.06783
-0.23304 0.03190 -0.03444
-0.12164 0.06271 0.22608
0.22115 -0.13941 0.20149
0.22954 -0.07015 0.20406
-0.23324 0.10765 -0.02242
0.16313 0.01130 -0.19573
0.12032 -0.20724 0.13831
-0.04495 -0.18375 -0.24119
0.06683 -0.13941 -0.02397
0.12095 -0.13941 0.14948
-0.13634 0.21415 0.12364
-0.03176 -0.13941 0.22158
0.03551 -0.13941 0.19791
-0.22417 0.17134 -0.14591
0.11557 -0.20724 0.11424
-0.21611 0.25186 0.19846
-0.00931 -0.20724 0.00111
-0.22124 0.36549 0.12822
0.21104 -0.10049 -0.00197
-0.14268 0.10926 -0.03032
-0.22167 0.32874 -0.16371
-0.14309 0.08383 0.00547
-0.21827 0.10992 -0.18631
-0.20491 -0.20724 0.20192
-0.18832 -0.22091 0.15520
0.14982 -0.13941 0.05168
-0.21887 0.17100 -0.18229
0.01089 0.01130 0.10393
0.21594 -0.03810 0.10483
-0.19392 0.31948 0.22608
-0.22224 0.10822 0.15990
-0.21805 0.30160 -0.18774
-0.21856 0.01290 0.18435
-0.12436 -0.18799 0.20558
-0.12757 0.02920 -0.18806
0.08113 -0.13941 0.16310
-0.17407 0.03604 0.22608
0.14017 -0.02137 0.24361
-0.19529 -0.35270 0.17870
-0.14145 0.15172 -0.05997
0.03391 -0.03849 -0.24821
-0.22128 0.19368 0.16630
-0.13405 0.14572 -0.14326
-0.23138 0.12950 0.06995
-0.05995 -0.09736 0.23895
-0.19529 -0.35805 0.17281
-0.10351 0.00265 0.23012
-0.14075 0.20082 -0.07410
-0.14033 0.27780 0.22608
0.04028 -0.16182 0.24834
-0.06293 -0.07288 0.23847
0.13935 -0.13941 -0.08820
-0.08634 0.01130 0.19788
-0.17185 0.36549 0.15340
-0.21174 -0.18049 -0.22210
0.15451 -0.33985 -0.18778
0.21157 -0.16633 0.03414
0.17142 0.01130 -0.12734
-0.14506 0.36549 0.20296
-0.23342 0.10264 0.01168
-0.19212 -0.04904 0.22608
-0.13803 0.09734 -0.10743
-0.22782 0.24042 0.11468
0.05979 -0.13941 0.17631
-0.07796 -0.20724 -0.03905
-0.16829 0.05958 -0.22608
-0.14620 -0.14227 0.22608
0.16016 0.00114 -0.24086
0.15922 -0.20724 -0.15898
-0.23239 -0.14411 0.04984
0.14161 -0.13941 0.09713
0.21142 -0.10843 -0.02478
0.04373 0.01130 0.10242
0.10121 -0.10548 0.24711
0.12627 -0.14777 0.24508
-0.22255 0.09674 0.15786
-0.14263 0.06739 0.03329
0.11131 -0.20724 0.22091
0.19024 -0.02043 -0.23572
-0.16115 -0.16100 -0.22608
-0.21890 0.25990 0.18211
-0.13865 0.13491 -0.09994
-0.09347 -0.20724 -0.01712
0.01187 -0.16025 0.24711
-0.23323 0.12220 0.02276
-0.05977 -0.20724 0.10484
0.16052 -0.35667 -0.18328
-0.05316 -0.03040 0.23996
-0.16669 -0.10913 -0.22608
-0.12709 0.07949 0.19079
-0.22265 -0.01740 0.15721
0.12568 -0.12520 -0.24514
-0.13994 0.03791 -0.22608
0.01769 0.01130 -0.05125
0.16594 0.01130 -0.10743
-0.23020 0.19137 0.08646
-0.01293 -0.13941 -0.10173
-0.09543 0.01130 -0.19536
-0.23339 -0.20394 -0.01356
0.21435 -0.13941 -0.11632
-0.18616 0.25237 -0.22608
0.14240 0.01130 -0.22765
-0.14228 0.21328 0.04339
-0.14285 0.04758 0.01983
-0.12093 0.24632 0.22416
-0.00471 -0.12107 -0.24599
-0.23248 -0.01059 -0.04806
0.22484 -0.00371 0.17627
-0.23061 0.02688 -0.08157
-0.07608 -0.12183 -0.23594
-0.02904 -0.01214 -0.24340
0.12564 -0.20724 -0.24511
0.22670 -0.17337 0.18865
0.15659 -0.20724 -0.09777
-0.20928 -0.20724 -0.21765
-0.07138 -0.20724 0.01575
-0.15375 -0.04686 0.22608
-0.13582 0.18975 -0.12807
-0.23338 -0.09270 -0.01372
-0.11837 -0.13941 -0.00356
-0.22143 0.35911 -0.16529
-0.22191 -0.20724 0.05555
0.21438 -0.05616 0.08613
-0.20249 0.36549 0.19582
0.21527 -0.12806 0.09671
0.20486 0.01130 0.17501
-0.21679 0.05133 -0.19475
-0.22052 0.03967 0.17137
0.03734 -0.20724 0.07118
-0.12509 0.16745 0.20164
-0.13301 0.31764 0.15198
0.21404 -0.01033 -0.08204
0.20673 -0.12775 0.23245
-0.23208 0.24447 0.05603
-0.22398 -0.16297 -0.14752
0.16961 -0.29594 -0.15658
-0.09007 -0.13941 -0.14092
0.05686 -0.20724 0.04347
0.15136 -0.34614 0.16862
-0.10576 -0.13941 -0.00181
-0.23214 0.16593 -0.05471
0.07406 -0.09319 0.24831
0.11357 0.01130 -0.12226
0.05230 -0.13941 0.15875
0.22224 -0.07981 -0.15906
-0.07257 -0.13941 0.16217
-0.12750 0.16968 0.18854
0.18035 0.01130 0.00829
-0.23276 0.22629 -0.04229
-0.14192 0.25023 -0.05053
-0.06701 -0.20724 -0.18344
-0.16519 0.36549 0.14684
0.18255 -0.13941 0.15942
0.20580 -0.20724 -0.00429
-0.22765 0.19620 0.11611
-0.23275 0.01779 -0.04263
-0.21648 0.33898 -0.19644
0.21188 -0.13184 0.04287
0.17003 -0.07206 -0.23939
-0.16680 -0.26997 -0.15390
-0.13056 0.29083 0.16820
0.17370 0.01130 0.15051
0.07338 -0.20724 -0.06616
-0.14022 0.10962 0.08109
-0.23014 0.22817 -0.08725
-0.22693 0.34664 0.12229
-0.23310 0.02370 0.03063
0.05945 -0.15776 -0.24862
-0.07188 -0.00591 -0.23675
0.18061 -0.13941 -0.10011
-0.22030 -0.00526 0.17283
-0.21919 0.10181 -0.18017
-0.09564 -0.13941 -0.05086
-0.22985 -0.03807 0.09069
-0.22452 -0.17623 0.14294
-0.23304 0.17517 -0.03441
-0.13891 0.11461 0.09684
0.21047 0.01130 0.18658
0.08494 -0.20724 0.07846
-0.18310 0.33115 0.22608
-0.13039 0.26666 -0.16939
0.15841 -0.20724 -0.19127
-0.12473 0.01130 0.14604
0.14131 -0.20724 0.14447
-0.14252 0.04256 0.03850
-0.02381 -0.13941 0.00125
0.22977 -0.00750 0.20527
0.15136 -0.32139 -0.18558
-0.08100 -0.18713 -0.23499
-0.17150 0.01107 -0.22608
0.15783 -0.20724 -0.17686
0.16944 -0.20724 0.10808
0.12068 -0.20724 -0.23547
-0.22454 0.09653 -0.14278
-0.23160 0.12550 -0.06553
-0.19529 -0.28662 0.15747
-0.08529 -0.12644 -0.23416
-0.20889 -0.20724 0.15451
0.11911 -0.13941 -0.10806
