ply
format ascii 1.0
comment VCGLIB generated
element vertex 1803
property float x
property float y
property float z
element face 0
property list uchar int vertex_indices
end_header
0.07613 0.14410 0.06927
0.14114 0.11679 0.00778
0.09071 0.15788 0.18247
-0.18247 -0.20838 0.15209
-0.08976 0.13283 0.01758
-0.09850 0.20228 0.18247
-0.18247 0.28574 0.08711
0.09589 0.14410 0.17860
-0.08780 0.37843 -0.03678
0.14114 -0.18839 -0.13399
-0.18247 0.26465 0.01421
0.14547 0.18749 0.04536
0.07607 0.14410 -0.05630
-0.18247 0.23581 0.13242
-0.00300 0.15733 0.18247
-0.08780 0.29776 -0.02990
-0.08780 0.27249 -0.06599
0.14114 -0.27066 0.15928
-0.01925 0.18749 -0.13385
0.14114 -0.32769 -0.16006
-0.08780 0.21215 -0.14854
0.10545 0.18749 -0.14484
-0.18247 0.21909 0.06397
-0.18247 0.22418 -0.02536
-0.18247 0.14399 -0.02130
-0.17017 -0.25181 0.13437
0.14218 0.10664 0.07671
-0.08976 -0.27931 -0.14237
-0.03043 0.18749 0.01990
-0.10564 -0.07960 -0.13455
-0.18247 0.15195 0.16332
-0.08976 -0.01519 0.14919
0.14114 0.13226 -0.14698
0.08476 0.18749 0.05817
-0.12064 -0.12549 0.18247
-0.15054 -0.23139 -0.18247
-0.18247 0.26603 0.15671
-0.14617 0.39286 0.12437
-0.09620 0.03184 0.18247
-0.11031 -0.05488 0.18247
-0.14958 0.00022 0.18247
-0.09436 -0.20256 0.13437
-0.18247 -0.19910 0.17564
0.15391 -0.02391 -0.18247
0.00321 0.14410 -0.08062
-0.03840 0.18749 -0.15916
-0.16562 0.19486 -0.18247
0.17847 -0.42827 0.13550
-0.18247 0.38202 -0.11125
-0.10831 0.40190 -0.10809
0.05776 0.14410 0.02063
0.13930 0.14410 -0.10157
-0.17572 0.20139 -0.18247
-0.15857 0.02114 -0.13455
-0.15064 0.12276 -0.18247
0.07283 0.14410 -0.15991
-0.18247 0.24455 -0.12590
0.05133 0.14410 0.03796
-0.15769 -0.13320 -0.18247
-0.18247 0.24829 0.08303
-0.18140 0.12589 0.18247
-0.08780 0.39551 -0.01706
0.17683 0.00967 0.18247
-0.05662 0.18749 0.04061
0.15189 -0.13285 0.13389
-0.14917 0.06128 -0.18247
-0.08976 -0.09846 0.13998
-0.16557 0.10556 -0.06370
0.17680 0.10664 -0.11906
0.14114 0.01693 0.14509
0.14114 0.11570 -0.00187
-0.08780 0.36332 -0.07368
-0.18247 0.37505 0.09722
0.15498 -0.03937 0.18247
-0.18247 -0.05841 -0.14088
0.14114 0.05340 0.15750
-0.08976 -0.24621 -0.16975
0.14114 -0.00444 -0.16980
-0.18247 -0.09016 0.17727
0.18247 -0.35834 0.16365
0.15248 0.05911 0.13389
0.17250 0.10664 -0.10685
-0.14390 0.09586 -0.18247
0.12844 0.18749 -0.08981
0.15773 -0.42827 0.14304
0.05740 0.18749 -0.04408
0.16646 -0.39410 0.13389
0.18247 -0.37881 0.16336
0.13783 0.14410 -0.11544
0.14114 -0.03940 -0.15812
0.09642 0.18749 -0.04064
-0.18247 0.13182 0.15519
0.18247 -0.27177 -0.14063
-0.18247 -0.39487 0.15881
0.07582 0.18749 -0.14441
0.11252 0.18749 -0.15090
0.16384 -0.41670 0.18247
-0.08976 -0.28514 0.15244
-0.18247 0.10829 0.08684
-0.18247 0.31765 -0.14670
-0.18247 -0.07335 -0.18142
0.18247 0.17181 0.00558
-0.11975 -0.10987 -0.18247
0.18247 0.18425 -0.02771
-0.11571 0.34082 -0.18247
0.16842 0.08696 -0.18247
-0.08780 0.25211 -0.02433
0.00998 0.14410 -0.06293
-0.13594 -0.42827 0.17783
-0.18247 -0.41437 -0.15285
0.18247 -0.17917 0.17712
0.14355 -0.07338 -0.12990
0.16108 -0.32888 0.18247
-0.18247 -0.14307 -0.16429
-0.12511 -0.36821 0.13437
-0.08780 0.28254 -0.13238
0.17301 -0.39474 -0.12990
-0.03017 0.18427 -0.18247
-0.02603 0.14410 0.08020
0.15475 -0.09550 -0.18247
0.05585 0.14410 -0.15657
0.14114 0.12103 -0.06327
-0.10613 -0.27703 -0.18247
0.16815 -0.37586 -0.18247
-0.15471 0.06526 0.13387
-0.07861 0.18749 -0.14806
-0.18247 0.25199 -0.02327
0.18247 0.04169 0.14269
-0.08976 0.02578 -0.16656
0.15842 0.01498 -0.18247
-0.18247 0.09762 0.16367
0.18247 0.15519 -0.07737
0.17019 -0.08163 -0.18247
-0.03627 0.14410 -0.07488
-0.08976 0.10686 -0.06551
-0.18247 -0.36319 -0.16468
-0.08780 0.30947 0.02052
-0.08976 -0.28789 0.14422
0.16903 0.18749 -0.16007
-0.01946 0.14410 -0.17203
0.18247 -0.20243 0.16807
-0.18247 0.15947 -0.00454
0.11487 0.18749 -0.01979
-0.08401 0.14410 0.05188
0.16215 -0.10187 0.18247
0.04888 0.18406 -0.18247
-0.18247 -0.11367 -0.13927
0.15322 -0.10447 0.13389
-0.06527 0.18749 0.04202
0.18247 -0.18702 0.14154
-0.10443 0.10556 -0.13222
-0.11923 0.00704 0.13437
-0.10771 0.01259 -0.13455
0.13434 0.14410 0.09789
0.02540 0.14410 0.05524
-0.12558 -0.36126 0.13437
-0.08780 0.24869 -0.00683
-0.10407 0.02473 0.18247
0.12388 0.18749 0.13212
-0.18247 0.20922 0.11949
0.03915 0.14410 0.09782
0.14663 -0.00165 -0.18247
0.14865 -0.06521 -0.18247
0.05672 0.18749 -0.11890
-0.18247 0.08885 0.13848
-0.05686 0.18749 -0.04313
0.02623 0.14410 -0.09270
-0.08780 0.40215 -0.03724
-0.09401 -0.17828 0.13437
-0.18247 -0.04167 0.16819
0.18247 -0.01773 -0.16273
-0.11899 -0.07404 0.18247
-0.13031 0.41625 0.07370
0.15398 -0.42827 0.18063
0.17406 0.04801 0.18247
0.04154 0.18749 -0.13723
0.18247 0.01699 -0.14339
-0.13767 -0.21992 -0.18247
-0.16533 -0.36722 -0.18247
-0.10323 -0.04271 0.13437
-0.05856 0.14410 0.08914
-0.18247 0.06393 0.14478
-0.08437 0.18749 -0.16432
0.17352 -0.30574 -0.18247
-0.18247 -0.19587 0.15239
0.14387 0.18749 0.12350
-0.16446 -0.04852 0.18247
0.14114 -0.19134 -0.14884
-0.15667 0.41156 -0.08609
-0.10819 0.36595 0.16062
-0.17863 -0.36412 -0.13455
0.14114 0.11907 0.06343
-0.13847 0.02291 -0.13455
-0.18247 0.14312 0.01482
0.15593 0.03982 0.13389
0.14114 0.11044 0.06222
-0.18247 0.15645 -0.04587
-0.18247 -0.14639 0.17476
-0.15462 -0.36822 0.13437
-0.18247 0.13961 0.02145
0.14114 -0.25551 -0.15748
-0.15912 -0.36997 0.18247
0.18247 -0.15933 0.14611
-0.12531 -0.21835 0.13437
-0.18247 -0.05763 0.13489
-0.14273 -0.08465 -0.13455
-0.08780 0.24736 0.10561
-0.09738 0.15379 -0.18247
0.18247 -0.28094 -0.14172
0.18247 0.11281 -0.11081
0.18247 0.16353 -0.14543
-0.17242 -0.21344 0.13437
-0.17667 -0.42827 -0.17680
-0.18247 0.33891 0.01222
-0.08976 0.12785 0.08416
-0.09892 -0.21935 -0.18247
-0.17373 -0.24963 0.18247
0.18247 -0.39491 -0.17196
0.15189 -0.40611 -0.12990
-0.06072 0.15662 0.18247
-0.18247 0.31094 0.16826
-0.17765 -0.40343 0.13437
-0.16165 -0.27737 -0.18247
0.14114 0.13114 -0.00820
-0.18247 0.00513 0.17793
-0.18247 0.19837 -0.14007
0.05008 0.18749 -0.00123
-0.09730 0.00282 -0.18247
0.04108 0.14410 0.01207
0.13924 0.18749 0.07039
-0.16395 -0.10237 0.13437
-0.08780 0.31529 0.08106
0.18247 -0.12245 -0.15820
-0.08780 0.30310 -0.04830
-0.13140 0.18999 -0.18247
0.14114 -0.42641 0.17302
0.13099 0.18749 -0.05199
-0.08780 0.23312 0.07912
-0.08780 0.19481 0.08155
-0.18247 0.05013 0.15250
-0.06337 0.14410 0.18039
-0.07030 0.18749 0.16079
-0.08780 0.33112 0.16385
0.16945 -0.25190 0.18247
-0.18247 0.28492 -0.03201
0.14114 -0.33450 -0.13671
-0.08780 0.24940 0.03916
-0.18247 0.41465 0.04459
0.18247 -0.03292 0.17595
0.14536 0.18749 -0.17740
0.17719 -0.00079 0.18247
-0.08990 -0.27552 0.18247
0.18101 0.18749 0.13660
0.18247 0.02657 0.16772
-0.08780 0.22199 0.03884
-0.04687 0.18749 -0.04735
-0.15111 -0.39948 -0.13455
-0.15486 -0.11749 0.18247
0.14114 -0.13659 -0.17537
-0.16972 0.28241 0.18247
-0.13412 0.38984 -0.12983
0.14160 -0.04359 -0.12990
-0.08780 0.28799 -0.09982
-0.18247 -0.30552 -0.13530
-0.12366 0.21815 -0.18247
-0.08408 0.18749 0.13607
0.06878 0.14410 0.13923
-0.08780 0.28366 0.08368
0.15355 0.06453 -0.12990
-0.03241 0.18749 -0.09280
-0.13526 0.36394 0.16259
0.14114 -0.33893 0.16437
0.16175 -0.19949 0.18247
-0.15854 0.01580 0.18247
0.17988 -0.17961 -0.18247
-0.11936 0.34171 0.18247
-0.08494 0.18185 0.18247
0.03125 0.18749 0.16199
0.11502 0.18749 0.17398
-0.07236 0.18749 -0.10528
-0.05740 0.14410 0.02822
-0.08976 -0.27019 -0.16852
0.07633 0.18749 0.03867
-0.08780 0.18860 -0.08034
-0.18247 0.34921 -0.04315
0.14114 0.12316 -0.10645
-0.11980 -0.23422 -0.13455
-0.08976 -0.38622 0.16983
0.16895 0.18749 0.02667
-0.08780 0.33619 0.04663
-0.15733 0.10556 -0.05877
-0.18247 0.33080 -0.00570
0.17777 -0.00031 -0.12990
0.18247 -0.37341 0.17599
-0.09860 -0.33357 0.13437
-0.13823 0.42501 0.03788
-0.18247 -0.22672 -0.17987
-0.08780 0.36926 0.14670
-0.11674 0.42297 0.04713
0.14114 -0.14882 -0.14803
-0.08780 0.40410 0.04810
-0.18247 -0.05767 -0.16835
-0.18247 0.01781 -0.15043
-0.08976 -0.27324 -0.14125
-0.08780 0.24408 0.00678
0.18247 -0.22237 0.18190
0.18247 0.05417 -0.17964
-0.17254 0.09877 0.13387
-0.16463 -0.42800 0.18247
-0.15946 0.36895 -0.15748
0.16468 -0.31068 0.18247
-0.16261 -0.40551 0.18247
-0.18247 0.31498 0.06503
0.14114 -0.22570 -0.17792
-0.18247 0.31510 -0.05357
-0.08780 0.41841 -0.02149
-0.08780 0.37394 -0.01476
-0.00421 0.18749 0.05382
-0.02027 0.18749 -0.00742
0.15174 -0.19053 -0.12990
0.05867 0.15459 -0.18247
-0.11578 0.25028 0.18247
-0.08976 0.01673 0.16875
0.03880 0.18749 0.00048
-0.14243 -0.11708 -0.18247
-0.08780 0.41364 0.02471
0.14970 0.06646 0.18247
-0.15236 -0.19955 -0.13455
0.10523 0.14410 0.01911
0.17268 0.13519 0.18247
-0.18247 -0.26960 -0.18180
0.18247 0.18716 -0.06015
-0.13658 -0.02095 -0.13455
-0.08976 0.11798 -0.12861
-0.12734 -0.05427 -0.18247
0.08776 0.18749 -0.09662
-0.18247 0.30457 -0.04613
-0.15399 0.13955 -0.18247
-0.11600 -0.41316 0.18247
0.04157 0.18749 -0.05072
-0.12091 -0.05297 0.13437
-0.01527 0.18749 -0.08121
0.14114 0.00470 0.16085
-0.18055 -0.11470 0.13437
-0.18247 0.27865 -0.13340
-0.18247 0.31664 0.16251
0.08898 0.14410 0.01548
0.14114 0.11458 0.14054
0.12195 0.14410 -0.08402
-0.04732 0.18749 0.09184
-0.08976 -0.07454 -0.15075
0.18247 -0.33106 -0.17617
-0.10429 0.10556 0.10207
0.03232 0.18749 0.12538
-0.08780 0.32132 -0.04264
0.07548 0.18749 0.05312
0.18247 0.17417 -0.06566
-0.14563 0.28628 0.18247
-0.17746 -0.25871 -0.18247
-0.18247 0.20695 0.05671
0.18247 0.03181 0.16160
0.11035 0.18749 0.14024
0.06741 0.14410 0.17861
-0.18247 0.13928 0.16461
0.03892 0.14410 0.00349
-0.03433 0.14410 0.05962
0.04428 0.14410 -0.14772
-0.09621 -0.28667 0.18247
-0.14711 -0.38399 -0.13455
-0.12591 -0.17455 0.18247
0.00394 0.18749 -0.14932
-0.17312 -0.39133 0.18247
-0.01707 0.14410 -0.04571
-0.08983 -0.40560 0.13437
-0.11818 0.10316 -0.18247
-0.18247 0.39613 -0.02919
-0.08780 0.37688 0.01100
0.18247 0.12110 -0.14533
-0.14450 -0.21045 -0.18247
0.14114 -0.22304 0.16450
0.14774 -0.07646 0.18247
-0.08976 -0.14720 0.14083
0.03057 0.14410 0.01447
-0.18247 0.12443 0.15201
-0.18247 0.24919 0.16820
-0.18247 0.10716 -0.07812
0.18247 0.14553 0.09923
0.16103 -0.36292 0.18247
-0.16083 0.38315 0.13886
-0.11618 0.01678 0.18247
0.17536 -0.18432 -0.18247
-0.02360 0.14410 -0.08307
-0.08976 -0.16275 0.15427
-0.09249 -0.03245 -0.13455
-0.12326 -0.33592 0.13437
-0.14165 0.24908 -0.18247
-0.09188 -0.12141 -0.18247
-0.09844 -0.17241 -0.13455
-0.16129 -0.42827 0.17175
-0.18247 0.17264 0.03721
0.14903 0.18749 0.00563
-0.18247 0.36767 0.01426
-0.17413 -0.10806 -0.18247
0.03523 0.16582 0.18247
0.18247 -0.21500 -0.15656
-0.08976 -0.34214 0.16620
-0.16390 -0.22412 -0.18247
0.15006 0.09971 0.13389
0.14114 -0.00659 0.13630
-0.13097 0.10556 -0.11877
-0.08780 0.34621 0.11789
0.12071 0.14410 0.01276
-0.11275 -0.23830 0.18247
-0.08780 0.38564 -0.08921
0.11276 0.17570 -0.18247
0.14114 -0.32917 0.15235
0.13738 0.18749 0.10622
0.10972 0.18749 -0.18063
0.18247 0.15244 0.11820
0.17951 -0.26842 0.18247
0.09285 0.14410 0.11249
-0.07420 0.14410 -0.10074
-0.18247 0.41164 -0.07984
-0.08976 0.12272 -0.17339
0.18247 0.18592 -0.00702
0.01277 0.14410 0.03231
0.14114 -0.19568 -0.17856
-0.11899 -0.33677 -0.18247
-0.18247 0.15507 0.07139
0.14298 0.10664 0.12221
0.17345 -0.16188 0.18247
-0.15234 -0.21709 0.13437
-0.17128 -0.27643 -0.18247
-0.12839 -0.10583 -0.13455
0.05217 0.14410 0.01575
-0.18202 0.26696 0.18247
0.15331 -0.38356 -0.18247
-0.18247 0.12836 0.00824
0.18247 0.13061 0.17939
-0.08976 0.09847 0.13925
0.16513 -0.12222 0.18247
-0.02350 0.18749 -0.11619
0.02543 0.18749 -0.03267
0.01489 0.16979 0.18247
0.14114 -0.05091 -0.15715
0.18247 0.14561 -0.07742
-0.15008 -0.12763 0.13437
-0.18247 0.31710 -0.10243
0.14156 0.16526 0.18247
-0.08780 0.23302 -0.06295
-0.08780 0.19096 0.10993
-0.15934 0.21549 0.18247
0.17013 0.05705 0.18247
0.18247 0.17239 -0.10911
-0.18247 0.04066 -0.17753
-0.18247 -0.08520 0.16342
-0.08780 0.35463 0.07451
-0.07051 0.14410 0.14344
0.06963 0.18749 0.17257
0.02357 0.14410 -0.15432
-0.13598 -0.25016 0.18247
-0.08976 0.01082 -0.16632
-0.12382 0.40820 0.09496
-0.18247 0.00494 -0.14965
-0.09339 -0.42827 -0.15136
-0.15551 -0.07915 -0.13455
0.01936 0.14410 -0.07033
-0.08780 0.35135 0.09237
-0.08780 0.32825 0.13795
-0.18247 0.26223 -0.10431
-0.08976 0.12167 -0.08602
-0.16022 0.37657 0.14749
-0.13035 -0.26412 -0.18247
0.14114 -0.03076 0.16559
-0.16444 0.04000 0.18247
-0.18247 0.32236 -0.10869
0.02998 0.14410 -0.07863
-0.17305 0.00553 -0.18247
-0.17200 0.08850 -0.13455
0.03594 0.18749 -0.15933
0.16458 -0.37961 -0.12990
0.00048 0.14410 0.05952
-0.08780 0.36731 0.02797
0.14114 0.03951 -0.14168
-0.14166 -0.22788 0.13437
0.14797 0.05639 -0.18247
-0.05948 0.14410 -0.16668
-0.18247 0.37540 0.05406
-0.15371 -0.21321 -0.13455
0.00278 0.14410 -0.01495
-0.16200 -0.26065 -0.18247
-0.17979 -0.04223 0.18247
-0.11647 0.42581 0.03381
-0.18247 0.11016 -0.14925
0.18247 -0.12848 -0.14158
-0.11862 -0.23669 0.18247
-0.08780 0.23015 -0.16275
-0.08780 0.22505 -0.03323
-0.15390 -0.07547 0.13437
0.04082 0.14410 0.07722
-0.18247 -0.37610 -0.15606
0.18247 -0.42180 -0.15727
-0.18247 0.32904 0.01876
0.18247 0.09124 0.15628
0.15373 0.04336 -0.18247
0.15272 -0.34499 -0.12990
-0.18247 0.17564 -0.09731
0.11042 0.15075 -0.18247
0.18247 0.11317 -0.07821
-0.08976 -0.42355 -0.13959
-0.14517 0.08426 0.13387
0.14114 -0.33545 0.16921
0.18247 -0.22550 0.13753
-0.08976 0.08991 -0.16845
-0.17513 0.10556 -0.02522
0.15961 -0.16147 -0.12990
0.15175 0.18749 0.02944
-0.08780 0.26740 0.01374
-0.15656 0.10556 0.00232
-0.08780 0.26923 -0.15235
-0.18247 -0.22005 -0.17644
0.09912 0.14410 0.07405
0.18247 0.05475 0.15337
-0.10754 0.14950 -0.18247
-0.17958 0.09573 -0.13455
-0.08780 0.22727 0.11421
-0.11890 -0.30211 0.13437
0.16330 -0.38814 -0.18247
-0.18247 -0.23626 -0.16234
-0.05319 0.14410 -0.03503
0.14114 -0.39325 -0.16748
0.15567 -0.19322 -0.18247
-0.12206 -0.32809 0.13437
-0.01220 0.14410 0.11855
-0.15541 0.35310 -0.17320
0.12082 0.18749 0.04225
-0.13179 0.01890 -0.18247
-0.10995 0.09800 0.13387
-0.18247 -0.10411 -0.16796
-0.18247 -0.28043 0.17103
0.14114 -0.16962 -0.18096
0.14114 -0.30933 0.15099
-0.08780 0.38713 -0.03229
0.04907 0.14410 -0.05720
-0.12947 -0.08006 -0.18247
-0.05732 0.14410 -0.01268
-0.14286 -0.02778 -0.13455
-0.08780 0.33109 -0.16629
-0.14235 0.06081 0.13387
0.12467 0.14410 0.07708
-0.08780 0.36649 0.14172
-0.01929 0.14410 0.11370
-0.18247 0.11882 -0.08706
-0.14600 -0.01364 0.18247
-0.18247 0.23877 -0.17120
-0.10039 -0.24832 -0.18247
-0.16686 -0.42477 0.13437
0.14867 -0.28226 0.18247
-0.00266 0.14410 -0.13961
-0.04214 0.18749 -0.07025
0.18247 0.13281 -0.06071
0.17864 -0.15010 -0.18247
-0.11974 0.37905 0.14424
0.15752 0.18749 0.08952
-0.13150 -0.28055 0.18247
-0.13841 -0.31100 0.18247
-0.18247 0.29172 -0.10603
0.16277 0.06494 0.13389
-0.11567 0.09948 0.18247
0.18247 0.15675 0.04038
-0.09889 -0.35856 0.18247
-0.11607 0.26319 -0.18247
0.14114 0.14300 -0.05208
-0.18247 0.25091 0.15657
-0.16759 0.08720 0.18247
-0.06415 0.14410 0.10770
0.07775 0.18749 -0.05432
-0.18247 0.24128 0.11617
-0.17933 -0.42827 0.16629
0.17617 0.07228 -0.18247
0.18247 0.10858 -0.16437
-0.08976 -0.09794 0.15343
-0.18247 -0.13448 -0.16513
-0.16205 0.02259 -0.18247
0.17053 -0.03745 0.18247
0.17869 0.02184 0.18247
-0.18247 -0.21965 -0.14451
-0.18247 -0.40486 -0.17323
-0.17989 0.24219 0.18247
-0.18247 0.16264 -0.00972
0.14114 -0.41512 -0.17011
-0.10923 0.10556 0.12301
0.07792 0.18695 -0.18247
0.17670 -0.39100 0.18247
-0.18247 -0.15082 0.16662
-0.08780 0.23616 0.13175
-0.13052 -0.28342 -0.18247
-0.08976 0.12338 0.12252
-0.00537 0.18749 -0.11098
0.18247 -0.02866 -0.17167
0.18247 0.13335 -0.16687
-0.11522 -0.13336 0.13437
0.18147 -0.42827 0.14913
-0.18247 0.12366 -0.06570
-0.18247 0.36572 -0.08541
-0.18247 0.11111 -0.04659
0.17575 0.10664 0.03244
-0.08780 0.24096 0.02213
0.18247 -0.00143 -0.17562
-0.18247 -0.00984 -0.15487
0.18106 0.14484 0.18247
-0.18247 0.20098 0.18171
0.14114 -0.14534 0.16904
-0.08780 0.42620 0.01654
0.14114 0.11091 -0.04053
-0.06615 0.18749 0.06255
0.18247 -0.30154 0.17638
-0.08976 -0.26562 0.18151
-0.18247 0.29881 -0.01522
-0.13131 0.10556 -0.05308
-0.15110 0.41417 0.07919
-0.04603 0.18749 -0.12824
-0.08780 0.41210 0.01208
-0.12238 -0.24710 -0.18247
0.07777 0.18749 -0.00423
-0.18247 -0.14576 0.13473
-0.12058 0.34886 -0.17735
-0.00071 0.18749 0.08764
0.14114 -0.07966 0.14290
0.18247 0.18405 -0.16706
-0.16173 -0.28641 0.13437
0.14114 -0.33262 -0.18118
-0.15187 -0.03857 0.13437
-0.13679 -0.34491 0.13437
-0.04961 0.16842 0.18247
-0.18247 0.32214 0.02983
0.16533 -0.12988 0.13389
-0.18247 -0.27456 -0.15050
0.10862 0.14410 0.12002
-0.16035 0.10556 0.13348
-0.18247 0.05990 0.16578
-0.08780 0.19517 0.05505
-0.10674 0.27905 -0.18247
0.18247 0.12816 -0.01613
-0.08780 0.19021 0.16396
-0.17470 -0.04297 0.13437
-0.18247 0.21515 0.04409
0.17279 -0.42707 0.13389
-0.04482 0.14410 0.12922
-0.16476 0.39266 0.12474
0.01233 0.18749 -0.08586
0.14114 -0.28728 0.17087
0.14311 -0.42212 0.18247
-0.18247 0.31534 0.10112
-0.12735 0.09968 -0.13455
-0.14297 0.11027 0.18247
-0.08976 -0.41117 -0.13968
-0.08780 0.28166 0.09903
0.05509 0.14410 -0.10663
-0.08780 0.19865 0.01796
0.18247 -0.03973 0.14402
0.06693 0.18749 -0.04760
0.18247 -0.32930 -0.16545
0.18247 -0.00913 -0.17754
0.04133 0.14410 0.08889
-0.14335 -0.18434 -0.13455
-0.15095 -0.15703 0.13437
-0.16425 0.42719 -0.01479
-0.00800 0.14410 0.15847
-0.08780 0.36278 -0.03282
-0.18247 0.28799 -0.04655
0.00116 0.18749 0.16004
-0.08976 -0.08893 -0.15030
-0.11938 0.10556 -0.02055
-0.18247 0.22346 0.16163
0.07007 0.14410 -0.04258
-0.15289 -0.37083 -0.13455
0.18247 -0.11982 0.13769
0.04579 0.18749 0.07836
-0.16438 0.07881 0.13387
0.13221 0.14410 0.00074
0.18247 -0.29229 0.15470
0.18247 -0.06875 -0.13728
-0.08780 0.36320 -0.05823
-0.17461 -0.17684 -0.18247
-0.16064 -0.29442 -0.13455
0.16606 -0.21367 0.13389
0.15527 0.05908 0.18247
-0.08780 0.32623 -0.06645
0.17716 -0.19407 -0.12990
-0.14008 -0.42827 0.15808
-0.10939 -0.22313 -0.13455
-0.18247 -0.02693 -0.14613
-0.17864 0.41538 -0.07599
0.14856 -0.29824 -0.12990
-0.09983 0.42004 0.06045
-0.18247 0.10618 0.17244
-0.17220 0.42070 -0.05743
-0.18185 0.20997 0.18247
-0.18247 0.32153 -0.17647
-0.01425 0.18749 0.15225
-0.07469 0.14410 0.17907
-0.18247 0.17649 -0.01158
0.14114 -0.23820 -0.17125
-0.18247 0.26909 -0.08686
-0.18247 0.10829 0.14660
0.17093 0.10664 -0.00684
-0.00485 0.18749 0.09109
-0.18247 0.05616 -0.15720
-0.08976 -0.22597 -0.16555
-0.18247 0.34874 0.10540
-0.10870 -0.20263 0.18247
-0.17367 -0.38536 0.18247
-0.18247 0.42294 -0.04115
-0.18247 0.17688 0.00477
-0.08780 0.37889 0.10275
-0.14783 -0.05200 -0.18247
-0.01755 0.18749 0.00878
-0.12835 -0.10779 -0.18247
-0.17144 0.04507 -0.13455
-0.18247 0.31860 0.11237
-0.16128 0.06131 0.13387
-0.05782 0.18749 0.10421
-0.09876 -0.00881 -0.18247
-0.13811 -0.08823 -0.13455
-0.18247 -0.26961 0.15691
-0.18247 0.28249 -0.17007
-0.18247 0.23403 -0.00662
-0.08780 0.21756 0.07847
-0.18247 0.15294 0.12378
0.14114 -0.09718 0.15410
-0.08780 0.33342 0.06721
0.14753 -0.35844 -0.18247
-0.13091 -0.24151 -0.18247
0.14938 -0.13445 -0.12990
-0.08780 0.19206 -0.14326
0.17860 -0.36149 0.18247
-0.17591 -0.30843 -0.18247
-0.17513 0.09234 -0.18247
0.17564 0.10664 0.01247
0.16566 -0.10846 -0.18247
0.15543 -0.41534 -0.12990
-0.11993 0.07796 0.18247
0.14114 -0.04026 -0.17664
-0.04390 0.18749 0.15997
-0.11647 0.10556 -0.11298
-0.18247 0.00538 0.14654
-0.13204 0.25086 0.18247
0.18247 0.15735 0.10833
0.14114 0.12008 -0.04347
0.14114 -0.13196 -0.16845
0.14217 -0.23345 0.18247
-0.18247 -0.08202 0.17463
-0.03979 0.14621 -0.18247
-0.15914 0.27470 -0.18247
-0.00977 0.18749 -0.09313
-0.06289 0.18749 0.09530
-0.08976 -0.09309 0.13943
0.02264 0.18749 -0.05971
-0.11741 0.22838 0.18247
-0.12787 0.17821 0.18247
-0.10737 0.10556 -0.11719
-0.18247 0.38801 0.03452
0.17568 -0.25900 -0.18247
-0.13310 0.29554 -0.18247
-0.17408 -0.42622 0.18247
-0.18247 -0.40584 -0.18009
-0.01924 0.14410 -0.03262
-0.13975 0.19597 -0.18247
0.12780 0.18749 -0.11272
0.07430 0.17195 0.18247
0.14114 -0.14603 -0.16088
-0.17384 -0.35482 0.18247
-0.09181 -0.24381 0.18247
-0.16153 -0.23326 0.18247
-0.18247 0.13499 -0.10857
0.17527 0.08502 0.13389
-0.18247 -0.33934 -0.15526
0.17188 0.01073 0.13389
-0.13024 0.38186 0.14055
-0.08976 0.10340 0.16899
0.14114 -0.05010 0.14619
-0.11178 -0.39017 -0.18247
-0.08976 -0.08407 0.14415
0.17308 -0.39664 0.18247
-0.10747 0.05949 -0.13455
-0.16126 0.35656 0.16981
-0.10717 0.38300 0.13906
-0.18247 -0.14989 -0.15465
0.01480 0.14410 -0.14861
-0.18247 0.20648 -0.09252
-0.00609 0.18749 -0.04810
-0.18247 0.38348 -0.01719
-0.13392 -0.31502 -0.18247
-0.18247 0.39837 -0.10299
-0.12680 0.05100 0.18247
-0.11172 -0.28590 -0.18247
0.18247 -0.14561 -0.15278
0.12244 0.14410 0.00638
-0.12585 -0.12886 -0.13455
0.14114 -0.09761 0.13491
-0.00210 0.14410 0.07776
-0.18247 0.37079 -0.02244
-0.18247 -0.32461 -0.16016
0.14932 0.18749 0.12203
-0.18247 0.36889 -0.06257
0.16722 0.10664 -0.07408
0.13545 0.16552 0.18247
-0.08910 0.42186 -0.05220
-0.17544 0.42649 0.02446
0.17721 -0.05138 0.18247
-0.14127 0.42729 0.01343
-0.13827 -0.35235 0.13437
-0.08976 -0.31924 -0.13632
-0.08976 0.10859 0.00862
-0.08976 -0.41943 -0.16849
-0.16601 -0.17793 0.18247
0.18247 0.15857 0.13988
0.14114 -0.13844 -0.15514
0.16162 0.18749 -0.16198
0.16232 0.18749 0.01152
-0.17575 0.36033 0.16612
0.15399 0.10747 -0.18247
-0.08780 0.35147 -0.04533
0.15983 -0.11926 -0.18247
-0.05217 0.14410 -0.15468
-0.18247 0.30538 -0.13884
-0.18247 -0.22066 -0.13815
0.18247 -0.29855 0.14312
0.18247 0.09297 0.13676
-0.09854 -0.30943 0.18247
-0.12514 0.15737 0.18247
0.11141 0.14410 -0.08124
-0.09595 0.31575 -0.18247
0.11476 0.18749 -0.06297
0.15137 0.08040 -0.18247
-0.17270 0.14042 0.18247
-0.18247 0.16529 -0.08853
0.18247 -0.09917 -0.16482
0.18247 0.15745 -0.15739
-0.08780 0.19135 0.12574
0.16606 -0.28682 0.13389
-0.08780 0.31732 -0.11300
0.18247 0.10710 0.10478
-0.18247 0.12720 0.17050
-0.12237 -0.34310 0.13437
0.04380 0.14410 -0.17321
-0.14816 -0.42827 -0.17593
-0.08976 0.07515 -0.16008
0.15680 0.11252 0.18247
-0.17011 -0.26180 -0.13455
0.18247 -0.10260 0.17694
0.18247 -0.12201 -0.14882
0.15696 0.18512 -0.18247
0.16426 -0.01434 -0.18247
-0.08780 0.30622 -0.07762
-0.16934 -0.03345 0.18247
-0.15054 -0.30911 -0.18247
-0.18247 0.08794 -0.13691
-0.18247 0.12937 -0.05560
-0.13971 -0.08984 0.13437
0.18247 0.07116 -0.13665
-0.12507 -0.41389 -0.13455
0.01047 0.14410 -0.00952
-0.10670 -0.28300 0.18247
0.14114 0.09407 -0.15672
0.02413 0.14410 0.01308
-0.17515 0.10556 0.06451
-0.17555 0.07667 0.18247
-0.12623 -0.02334 0.18247
-0.15184 0.40227 -0.10744
-0.18247 0.29280 -0.05709
0.04856 0.14410 0.15493
0.18247 -0.34813 0.15065
-0.09262 0.35914 0.16729
0.14114 -0.07420 0.14238
0.15944 -0.39414 0.18247
-0.15390 -0.24358 0.13437
-0.11441 -0.25943 -0.18247
0.02473 0.14410 0.09323
-0.15093 0.04864 -0.18247
0.02032 0.18749 -0.15614
-0.14059 0.01095 0.18247
-0.05448 0.18749 -0.10305
-0.17597 0.17601 -0.18247
-0.18247 0.24244 0.02807
0.14114 -0.22011 0.15338
-0.07889 0.15249 -0.18247
-0.09937 0.30689 -0.18247
0.18247 -0.05763 -0.17730
0.11887 0.18749 -0.03286
-0.09981 -0.15252 -0.13455
0.16826 0.10664 0.04615
-0.06382 0.14410 -0.17264
0.18247 0.17980 -0.09143
-0.08780 0.27616 -0.00997
-0.03518 0.14758 0.18247
-0.08780 0.42499 -0.00038
-0.18247 0.35428 -0.14396
-0.08780 0.41148 0.07703
-0.16328 0.29788 0.18247
-0.14721 0.04223 -0.13455
-0.09770 -0.12189 0.13437
-0.18247 0.39740 -0.07796
-0.18247 0.09191 -0.17713
-0.02697 0.18749 -0.12420
-0.08780 0.30625 -0.00805
-0.08976 -0.01669 0.15468
-0.08976 -0.17165 0.18004
-0.18247 -0.29004 0.17618
-0.18247 0.36034 -0.00897
-0.08780 0.25773 0.07821
-0.08780 0.31157 -0.13341
-0.08780 0.22248 -0.06893
-0.08780 0.32322 -0.03517
-0.08976 -0.41281 -0.14716
-0.12544 0.42137 0.05440
0.16318 -0.29503 -0.12990
-0.16703 0.14737 -0.18247
0.14114 0.05729 -0.13506
0.12584 0.18749 0.09121
-0.07489 0.14410 -0.12099
-0.08780 0.23897 -0.15562
0.18247 0.09999 0.17449
0.18247 0.07795 -0.13621
-0.12437 0.10556 -0.12495
-0.18247 0.23606 0.09383
0.15539 0.01466 0.13389
0.14114 0.12532 0.12038
-0.15145 -0.22644 0.18247
0.18247 0.17141 -0.01858
0.16149 0.18749 0.13998
0.14114 0.13584 -0.11577
0.09096 0.17882 -0.18247
-0.18247 -0.20810 -0.13964
-0.08976 -0.35960 0.17039
-0.08976 0.11273 -0.08188
0.15456 -0.19501 -0.12990
-0.08780 0.27998 -0.17714
0.14114 -0.24163 -0.13363
-0.08976 -0.34591 -0.18025
-0.02706 0.14410 0.13107
-0.08780 0.34685 0.15219
0.09085 0.14410 0.09521
-0.18247 0.16778 -0.17777
-0.09496 0.14450 0.18247
0.02433 0.18749 0.07313
0.15604 0.18749 -0.14495
-0.10316 -0.14084 -0.18247
0.13425 0.18749 0.13770
-0.14237 0.11480 -0.18247
-0.12291 0.01608 -0.18247
-0.17058 -0.34948 0.18247
-0.07135 0.14410 0.10514
-0.08976 0.01920 -0.16525
0.12955 0.14410 -0.10975
0.17606 -0.32579 0.18247
-0.08976 -0.03774 -0.13851
-0.10756 0.06020 0.13387
-0.05537 0.14410 -0.11948
0.16730 -0.34127 0.18247
-0.17576 0.42170 0.05291
-0.18247 0.20974 0.10554
-0.18247 0.12889 -0.12924
0.11503 0.18749 0.15439
0.16699 -0.21291 -0.12990
0.01496 0.14410 0.06188
-0.17416 0.10556 -0.03940
-0.08780 0.23371 -0.03950
-0.14602 0.26493 -0.18247
-0.08780 0.29394 -0.00036
-0.08976 0.12176 0.03114
0.17554 -0.17321 -0.12990
0.14114 0.09994 -0.16193
-0.10982 0.42817 -0.00139
-0.18247 0.01382 0.17498
0.14114 -0.21610 0.15682
0.02426 0.18749 -0.16932
-0.05567 0.18258 -0.18247
0.14114 0.11379 0.02681
0.14114 0.13388 -0.12612
-0.12222 0.40663 -0.09911
0.11562 0.14410 -0.02891
-0.06662 0.18749 0.09950
0.18247 -0.09344 -0.14776
-0.12756 -0.36614 0.18247
-0.13500 -0.00950 -0.18247
0.14114 -0.30698 0.16682
-0.18247 0.08633 -0.15581
0.16837 0.18749 -0.16675
-0.10146 -0.22532 0.18247
0.14050 0.14410 0.08708
0.13724 0.18564 -0.18247
-0.08976 0.11457 -0.06227
0.16014 -0.36059 -0.12990
-0.12382 -0.37379 -0.13455
-0.08780 0.31900 0.15160
-0.18247 0.11565 0.01055
-0.08976 0.12951 0.14834
-0.14438 0.10556 -0.05344
-0.08780 0.18953 -0.14968
0.15927 -0.38063 0.13389
-0.17652 0.27806 -0.18247
-0.14940 0.20056 0.18247
-0.18247 -0.13155 0.17765
0.18247 0.10998 0.00924
0.15968 0.06165 -0.12990
-0.10495 -0.39921 -0.13455
-0.18247 0.38593 -0.12206
0.14114 -0.05184 -0.14637
0.14114 -0.33578 0.17510
-0.18169 -0.40910 0.18247
-0.18247 -0.21877 0.15939
-0.11036 -0.14865 -0.13455
-0.08780 0.24495 0.14550
-0.08976 0.14107 0.13379
0.04962 0.14410 -0.12183
-0.09171 0.10556 0.08728
-0.12302 0.24049 -0.18247
0.14114 -0.12967 -0.15490
0.09611 0.18749 -0.16553
-0.15309 0.17423 -0.18247
-0.14425 -0.04501 0.18247
-0.10874 -0.15251 -0.18247
0.18247 0.18144 0.01865
0.18101 -0.31691 -0.12990
0.15351 -0.30541 -0.12990
0.18247 -0.29246 -0.16666
-0.00865 0.14410 0.10038
0.14114 0.13428 -0.17322
0.17962 -0.39848 0.18247
0.08099 0.18749 0.01844
-0.13791 -0.29821 -0.13455
-0.08780 0.22376 0.10636
0.04486 0.16660 0.18247
0.17221 -0.27743 0.18247
-0.18247 0.13177 0.08625
-0.17871 0.09087 0.18247
-0.00736 0.14410 0.05269
-0.18247 0.24355 -0.02403
-0.08780 0.34001 0.16611
-0.09925 0.19314 -0.18247
0.14114 -0.11932 -0.15755
-0.15134 0.04532 0.18247
0.15639 -0.12393 -0.12990
0.14114 0.02560 -0.14241
-0.18247 0.32915 0.04593
0.17440 -0.05859 0.13389
0.10577 0.18749 0.13584
0.08380 0.18749 0.08775
-0.10926 -0.24403 0.18247
-0.17185 -0.15921 0.18247
0.14404 0.10664 0.04520
-0.18247 0.21754 -0.12282
-0.08780 0.25563 -0.14227
-0.18247 -0.38349 -0.15613
-0.01154 0.18749 0.02337
-0.08976 -0.35816 -0.15031
-0.02246 0.18749 0.17367
-0.18247 0.28236 -0.01633
0.14114 -0.36509 0.14894
0.15411 0.14799 0.18247
-0.08976 -0.38750 -0.16364
-0.17472 -0.13882 0.18247
0.17551 -0.30273 -0.12990
0.14114 0.10808 -0.07050
-0.14879 0.10556 0.10931
0.15887 -0.37367 0.13389
-0.18247 0.11388 0.12256
-0.16585 -0.24349 -0.13455
-0.14474 -0.37618 -0.18247
-0.08780 0.31022 0.05767
-0.02526 0.18749 0.13810
-0.15353 -0.38874 0.18247
0.14114 0.02006 0.17738
-0.18247 -0.26905 -0.16966
-0.18247 0.34754 -0.02410
-0.13434 0.42251 -0.04925
-0.18247 0.33119 0.08096
-0.11786 -0.36001 0.13437
-0.14161 -0.24667 0.13437
-0.13186 0.42280 0.04790
-0.16855 0.05047 -0.18247
0.11097 0.18749 -0.10214
-0.08780 0.40170 0.00881
-0.08783 0.25191 -0.18247
-0.08976 0.13118 0.05893
0.03765 0.18749 -0.07904
-0.10985 -0.39388 -0.13455
0.11805 0.15772 -0.18247
-0.08976 0.10791 0.17214
0.08421 0.18749 0.09859
0.18247 -0.06860 -0.17397
0.01175 0.14410 0.13999
0.18247 -0.05146 0.17061
-0.18247 -0.10491 0.15919
0.04053 0.18749 0.15346
-0.14065 -0.41026 0.18247
-0.01141 0.18518 -0.18247
0.00326 0.18749 0.06228
0.01051 0.16364 -0.18247
-0.08976 0.12397 -0.15076
-0.17002 -0.32350 0.13437
0.14114 -0.24661 0.17546
-0.14873 0.41858 -0.06707
-0.12532 0.10556 -0.06577
0.16595 -0.06294 -0.12990
0.18247 -0.21319 0.16254
-0.01981 0.14410 0.12987
-0.18247 0.27379 -0.07084
0.18247 -0.17049 0.18169
-0.18247 -0.34910 -0.17133
0.15806 -0.39591 -0.12990
0.08375 0.14410 -0.13583
-0.18247 0.32502 0.09703
0.18247 -0.29334 0.13425
-0.17457 -0.23470 0.18247
-0.18247 -0.20427 0.14518
-0.08976 -0.19875 0.18071
-0.12557 0.27783 0.18247
-0.18247 0.37747 -0.13125
-0.08976 -0.23926 0.16409
-0.08976 -0.10133 -0.15052
-0.11675 0.11103 -0.18247
0.14606 -0.25293 -0.18247
-0.18247 -0.36651 -0.14604
-0.09840 0.41860 -0.06698
-0.15458 0.32956 0.18247
0.01870 0.14410 -0.07749
-0.18247 0.27230 0.07522
-0.08976 0.00680 -0.15154
0.14202 0.00629 0.13389
-0.18247 0.38979 -0.10864
0.08335 0.14410 -0.15461
0.16285 -0.36635 0.13389
-0.18247 0.23879 -0.15075
0.14198 0.18749 -0.02302
0.11967 0.14410 0.12130
0.15862 -0.06364 -0.18247
-0.10569 0.39423 0.12192
-0.02923 0.14410 0.10944
0.18247 -0.29776 -0.17024
0.18247 0.13607 0.06137
-0.08780 0.34783 -0.10730
-0.18247 0.33459 -0.06916
0.18247 -0.20603 -0.16272
0.17923 -0.07539 0.13389
0.16014 -0.26941 -0.12990
-0.17971 0.38643 -0.13456
0.18247 0.13028 0.03499
-0.11394 -0.08438 -0.18247
-0.02912 0.18749 0.04363
-0.10898 -0.18530 -0.18247
-0.18247 0.31884 -0.12094
0.16575 -0.28538 -0.18247
-0.08976 -0.12642 0.17952
-0.08976 0.12339 -0.09115
0.16494 -0.16814 -0.18247
0.18247 0.09157 0.17652
0.18247 0.11466 -0.05470
-0.18247 0.31412 0.08433
0.03095 0.18749 0.14281
0.08203 0.14410 -0.13078
-0.04674 0.14410 -0.04361
-0.18247 -0.05436 0.16212
-0.08976 -0.11974 -0.15342
0.01251 0.14410 -0.03677
0.15665 0.18749 0.15558
-0.14978 -0.38091 -0.18247
0.14114 0.13026 -0.09084
-0.08780 0.37738 0.11908
-0.18131 -0.15791 0.13437
-0.13251 0.04247 0.13437
-0.09949 -0.26254 0.13437
-0.18036 0.18952 0.18247
-0.16523 -0.27537 0.13437
-0.13651 -0.33942 -0.13455
-0.13386 -0.16016 0.18247
0.14114 -0.00187 0.18013
0.14605 -0.05917 -0.18247
0.18247 -0.34141 0.16626
-0.18247 0.11233 0.11713
-0.12700 0.11782 0.18247
-0.18247 0.31103 0.12996
-0.10012 -0.27503 0.13437
-0.16880 -0.38509 -0.18247
-0.08976 0.08099 0.15029
-0.18247 0.13109 -0.03563
0.17470 -0.25369 -0.12990
-0.07754 0.18749 -0.03343
-0.18247 0.25743 -0.10845
0.15621 -0.42827 -0.16745
-0.11792 -0.25350 0.13437
-0.10479 -0.11241 -0.18247
-0.15549 0.04478 0.13437
-0.08780 0.24161 0.06324
0.01951 0.18749 -0.04503
0.12688 0.18749 0.16891
0.18247 0.13784 -0.04587
-0.18247 0.23886 -0.01749
0.03322 0.18749 0.06391
-0.03733 0.14410 -0.05624
-0.18247 -0.30796 0.15937
0.14114 0.03019 -0.17294
-0.02799 0.14410 0.12244
-0.08780 0.35023 0.02061
-0.10804 0.20399 0.18247
-0.04714 0.18749 -0.06825
-0.18247 -0.21374 -0.17039
-0.18247 0.32664 0.10388
-0.08976 -0.28066 -0.17411
0.03311 0.18749 -0.06185
-0.18247 0.26740 0.15157
0.14114 0.12142 -0.17741
-0.12554 -0.11981 0.18247
-0.15036 -0.42827 -0.14847
-0.16961 0.09629 -0.18247
0.18247 -0.32304 -0.15931
-0.08780 0.19080 0.04974
-0.11716 -0.27940 0.18247
0.14114 -0.09736 -0.16358
-0.08976 0.08935 -0.13495
-0.08976 -0.26088 0.17214
-0.11223 0.01235 0.18247
-0.15349 -0.36075 0.18247
-0.14701 0.42797 -0.00414
-0.10339 0.00879 0.18247
0.15571 -0.05177 -0.12990
-0.04568 0.18749 -0.08618
0.18247 0.08991 -0.15854
-0.18247 0.24102 0.03881
-0.15762 -0.15312 0.13437
-0.11452 -0.37284 0.18247
-0.16785 0.35951 0.16692
-0.13452 -0.29331 -0.18247
0.15309 -0.00758 -0.12990
-0.16898 -0.31759 0.13437
-0.16889 0.10556 -0.10163
-0.08976 0.12815 0.06432
0.11021 0.14410 0.04708
0.14114 -0.27409 0.13518
0.14114 -0.17787 0.13448
0.02370 0.18749 0.01228
0.02095 0.14410 0.05869
-0.16489 -0.00533 -0.18247
-0.15190 -0.02759 -0.18247
0.03044 0.14410 0.17397
0.05707 0.14410 -0.12294
-0.08780 0.24707 -0.05244
-0.16072 0.01027 -0.18247
-0.16705 -0.41439 -0.13455
0.15053 -0.15392 -0.18247
-0.08976 0.08698 0.13864
-0.08976 -0.02775 -0.18097
-0.08976 -0.11073 0.15790
-0.02233 0.14410 0.13673
0.18144 -0.03521 -0.12990
0.11686 0.14410 -0.07303
0.16349 0.02709 -0.18247
0.18247 0.14897 -0.14653
-0.08976 -0.33237 -0.13898
0.16131 -0.23972 0.18247
-0.12778 0.22762 -0.18247
-0.08976 -0.24929 0.16556
-0.18247 0.22527 0.11627
-0.11936 -0.32605 -0.18247
-0.12728 0.20329 0.18247
-0.10604 0.10811 -0.18247
-0.11178 0.37498 -0.14958
0.17710 -0.11280 0.18247
-0.11396 -0.18306 -0.13455
0.02223 0.15414 0.18247
-0.17377 -0.27730 -0.13455
-0.08976 0.11980 0.04224
-0.18247 0.09510 -0.15376
-0.13948 0.41933 0.06367
-0.08976 0.03648 -0.17466
-0.08976 -0.12599 0.16995
0.16032 0.05330 0.13389
-0.05417 0.14410 -0.16609
-0.00955 0.14410 0.01749
0.18247 0.05725 -0.14622
-0.09935 -0.32688 -0.13455
-0.18247 0.10928 -0.16290
-0.08780 0.32721 -0.15101
0.14114 -0.34548 0.13974
-0.18247 0.26593 0.03357
-0.18247 0.39957 0.06354
-0.18247 0.26332 -0.10996
-0.16648 -0.34243 0.13437
-0.18247 -0.33543 -0.17000
0.14260 0.12218 -0.18247
-0.12573 -0.41232 0.13437
0.14114 -0.36286 -0.15993
-0.14514 -0.06299 -0.13455
-0.12661 -0.05307 0.13437
-0.08083 0.18749 -0.17277
0.14553 -0.42827 -0.13485
0.18247 -0.41755 -0.17301
-0.18247 0.40574 -0.00698
-0.08976 0.14339 0.00635
-0.18247 -0.17426 -0.17969
-0.11797 0.10556 0.07045
-0.10648 -0.27067 -0.13455
-0.09902 -0.27588 -0.13455
-0.09594 -0.14723 0.13437
0.03175 0.18749 0.03530
0.05569 0.18749 0.15832
-0.11433 0.04879 -0.13455
0.17193 0.10664 0.09034
-0.18247 0.29865 0.03178
-0.08976 -0.36999 -0.17836
-0.15068 0.10556 0.04889
0.18247 -0.04395 0.17685
0.17888 -0.30052 0.18247
-0.05233 0.18749 -0.08964
0.18247 0.11658 0.08931
-0.16523 0.10556 -0.01404
-0.08976 0.13223 -0.03071
0.18187 0.18749 -0.01351
-0.08976 0.10368 -0.15178
-0.08976 -0.25848 0.13811
0.18247 0.10783 -0.05705
-0.13651 -0.42827 0.16533
-0.16386 -0.34185 0.18247
-0.15906 -0.06144 -0.18247
0.17433 -0.42524 0.18247
-0.14983 -0.36079 -0.18247
0.18247 -0.33150 -0.15061
-0.02815 0.14410 -0.02648
-0.08780 0.18898 -0.12335
0.09871 0.16917 -0.18247
0.14638 -0.06809 0.18247
0.18247 -0.18351 0.14559
0.08688 0.18749 -0.07351
-0.14557 0.14607 -0.18247
0.14114 -0.29135 0.16071
-0.08780 0.21380 -0.04093
0.12303 0.14410 -0.13441
-0.14295 -0.03929 -0.13455
0.15438 -0.28608 0.18247
0.18247 0.14580 0.08670
-0.18247 0.29536 -0.09438
-0.16834 0.35780 -0.16860
0.16406 -0.14186 -0.12990
-0.16849 -0.31015 0.18247
-0.16275 -0.29927 0.18247
0.18247 -0.04495 0.13647
-0.08780 0.25137 0.05400
-0.08780 0.40094 -0.07525
0.18247 0.12541 0.05804
-0.11245 0.30321 -0.18247
0.03954 0.18749 -0.01644
-0.18247 0.40553 -0.02358
-0.09912 -0.35997 -0.13455
-0.09505 0.10556 0.12684
0.18247 0.15348 0.15098
0.18247 0.10770 0.13378
-0.14095 0.32157 0.18247
-0.08780 0.27625 0.12205
-0.12320 -0.00627 -0.18247
0.18247 -0.40325 -0.18133
-0.08976 -0.39830 0.13670
-0.15605 0.10556 0.11748
0.18247 -0.39019 0.16926
-0.15438 -0.31767 -0.13455
-0.17558 0.10556 0.11362
-0.08780 0.27734 -0.11977
-0.14863 -0.42827 0.15251
-0.09227 0.12067 0.18247
0.14382 0.10664 -0.10234
-0.12174 0.10556 -0.10789
-0.15592 -0.33375 -0.13455
0.17296 -0.13348 -0.12990
0.14333 0.10363 0.13389
-0.11338 -0.11285 0.13437
0.14114 -0.17122 0.17106
0.13309 0.18749 0.10210
-0.17212 0.12172 -0.18247
0.08721 0.18749 -0.06638
-0.18247 0.34795 0.02092
0.14114 0.11435 0.09272
-0.18247 0.26651 0.08694
0.00680 0.14410 0.00063
0.04416 0.18749 0.15944
0.16753 -0.42827 -0.14854
-0.01587 0.14410 -0.03833
0.13642 0.18749 -0.14142
-0.18247 0.32710 -0.01675
0.12541 0.14410 0.18003
0.14114 -0.10632 0.14672
-0.18247 0.30057 0.06937
-0.18247 0.10073 0.13601
0.14779 -0.20079 -0.12990
-0.18088 0.06436 -0.13455
-0.11750 0.27239 -0.18247
0.02402 0.14410 0.11520
-0.13568 -0.42827 -0.14595
-0.08780 0.35667 0.11015
0.14114 -0.04097 -0.13986
0.15041 0.03484 -0.18247
-0.18247 0.39665 -0.01152
0.14114 0.02093 -0.16917
-0.18247 0.18513 0.03777
0.18247 -0.21171 0.14013
-0.18247 0.26066 0.01029
-0.06751 0.14410 -0.04420
0.08433 0.14410 0.07212
0.18049 0.03044 0.18247
-0.16584 0.11019 0.18247
0.16165 -0.03897 -0.18247
-0.08976 -0.32139 -0.15923
-0.18247 0.22035 -0.08651
-0.11869 0.01851 -0.13455
-0.18247 0.35837 0.04490
0.17973 0.04302 -0.12990
0.16048 -0.39037 0.13389
0.07512 0.18749 0.00448
0.18247 -0.03088 -0.15367
-0.14938 -0.21431 0.18247
0.10558 0.18749 0.14778
-0.09685 -0.34215 0.13437
0.14572 -0.35365 0.18247
0.14114 -0.06164 0.16107
0.14311 -0.19621 0.18247
0.14114 -0.02382 -0.17220
0.09786 0.15044 -0.18247
-0.16240 -0.05490 0.18247
-0.13341 -0.20073 0.18247
-0.08780 0.30682 -0.13070
-0.08780 0.39385 0.06747
-0.17635 -0.38250 -0.18247
0.07987 0.14410 -0.03260
-0.08976 -0.39233 -0.17225
-0.08780 0.23308 -0.05172
0.14114 -0.12453 0.16839
0.15399 0.03768 -0.12990
-0.16289 -0.38586 0.18247
0.16841 -0.18936 -0.12990
-0.08976 -0.34706 0.15857
-0.18247 0.34673 0.17298
0.18247 0.12155 0.11385
-0.13933 0.01174 0.13437
-0.00371 0.14410 -0.08949
-0.08780 0.38639 -0.07385
0.18247 -0.27457 0.15420
-0.08976 -0.17546 -0.16392
-0.18247 -0.14410 0.14696
-0.10682 0.29641 0.18247
0.18247 0.12029 0.14836
-0.12482 0.03453 0.13437
0.14114 -0.39471 -0.15349
-0.08780 0.25741 -0.11728
-0.15492 -0.05503 0.18247
-0.17193 -0.26528 0.13437
-0.16670 -0.01008 0.18247
-0.18247 0.23221 -0.11714
0.03166 0.18749 0.11284
-0.18247 0.22004 -0.13465
0.01754 0.18063 0.18247
0.18247 -0.11694 0.15209
0.18247 -0.06995 0.13684
0.15607 -0.01931 0.18247
-0.00564 0.18749 0.04008
-0.08780 0.35540 -0.06729
-0.17275 0.03989 -0.18247
-0.08079 0.14410 -0.12653
0.18023 0.10664 0.11177
0.16253 0.18749 0.04588
0.15762 -0.05195 0.18247
0.18247 0.10041 -0.16084
0.06865 0.14410 -0.02549
0.12811 0.14410 -0.00463
-0.12442 0.06671 0.18247
-0.18247 0.14729 0.13295
-0.18247 0.39350 0.06803
-0.09562 -0.21210 -0.18247
0.14114 -0.10255 0.17158
-0.10911 0.21715 -0.18247
-0.13498 -0.35580 -0.18247
0.14114 0.11980 -0.00747
0.14114 0.04390 0.14638
-0.17887 -0.42827 0.17646
-0.08976 -0.13692 -0.17764
0.14114 -0.39515 0.17583
-0.09641 0.10556 -0.04662
-0.18247 0.05262 -0.14067
0.01517 0.15394 0.18247
0.14114 -0.32495 -0.13098
-0.18247 0.05358 -0.17179
-0.18247 0.06988 0.16246
0.05714 0.18749 0.03042
0.18247 -0.30806 -0.15717
-0.13571 -0.19512 -0.18247
-0.09320 0.40993 -0.09039
-0.12690 0.09205 0.18247
-0.08976 -0.20969 0.15125
0.03288 0.14410 -0.08708
-0.10096 -0.12288 -0.18247
0.17983 0.02357 -0.12990
-0.11661 -0.37096 0.13437
0.02999 0.18749 -0.09818
0.14925 0.18749 0.13701
-0.09403 -0.42827 -0.17409
-0.16960 0.42803 -0.00329
-0.18247 0.25459 -0.03074
-0.15997 -0.31155 0.13437
-0.00204 0.18749 0.07055
-0.15113 0.33612 -0.18247
-0.09384 0.18945 -0.18247
-0.17614 0.10556 -0.07350
-0.11114 0.05961 -0.18247
0.00609 0.18749 -0.03490
-0.02056 0.14410 0.17980
-0.13961 -0.41501 -0.13455
-0.18247 0.20702 -0.01418
-0.02235 0.18749 0.06193
-0.08780 0.34255 -0.05731
-0.10625 -0.35519 0.18247
-0.18247 0.13209 0.12092
0.09081 0.18749 0.16929
-0.14019 -0.42138 -0.18247
-0.18247 0.17654 0.09060
-0.10401 -0.20565 -0.18247
0.18247 0.11394 0.16315
-0.08780 0.40816 -0.03828
-0.08780 0.40602 -0.01273
-0.18247 0.16456 -0.13288
-0.16708 0.07333 0.13387
0.14458 0.10664 0.11558
-0.18247 -0.35825 0.14712
-0.18247 0.35119 0.00441
-0.08780 0.31128 0.09215
0.14114 0.13877 -0.04563
0.17379 0.18749 0.14102
0.18247 -0.17434 0.16293
-0.11374 -0.35938 -0.18247
0.18247 0.16972 0.11876
0.18199 -0.42739 0.18247
-0.16883 -0.42827 0.14694
-0.18247 0.34388 0.03511
0.17944 -0.15762 -0.12990
-0.08780 0.26416 -0.09384
0.17493 0.18749 -0.00647
-0.08780 0.34764 0.08333
-0.14169 -0.20794 0.18247
-0.18247 0.28262 -0.14890
-0.08758 0.18749 0.01460
-0.10620 0.05775 -0.18247
-0.11365 -0.41295 -0.18247
-0.08780 0.25187 -0.08361
-0.17481 -0.39850 0.13437
0.18247 -0.39478 -0.17878
-0.18247 0.36871 0.00292
-0.11680 -0.39839 -0.13455
-0.16010 0.17221 -0.18247
0.15275 -0.09047 -0.18247
0.04917 0.14410 -0.00616
-0.08976 0.13721 -0.11550
-0.04607 0.18749 -0.11906
-0.15998 -0.38756 -0.13455
-0.08976 0.00212 -0.16115
-0.11301 -0.42827 -0.17116
0.11188 0.18749 0.08979
-0.16302 -0.16243 -0.13455
0.15056 -0.10781 -0.12990
-0.15788 -0.02228 0.18247
0.18247 0.12307 -0.07097
-0.10529 0.41925 0.06402
-0.12683 -0.13854 0.18247
-0.18247 -0.15993 -0.14429
-0.09880 -0.23282 0.13437
-0.18247 0.11683 0.03322
-0.18247 0.20188 -0.02339
-0.18247 0.23367 -0.13621
0.07529 0.15462 -0.18247
-0.09024 -0.06219 -0.13455
0.11015 0.18749 0.02955
0.14853 -0.39575 -0.18247
0.07403 0.14410 -0.14943
-0.08266 0.18749 0.10743
-0.18247 0.18211 0.11312
0.14114 0.12363 -0.09077
-0.04401 0.18749 -0.10165
0.05799 0.14952 0.18247
-0.08780 0.20756 0.05558
-0.10448 0.26529 0.18247
0.08321 0.18004 0.18247
-0.10300 -0.31357 0.18247
-0.05163 0.14410 -0.10076
0.14114 -0.30915 -0.14267
-0.07596 0.18749 0.13742
-0.08780 0.28378 -0.01981
-0.06496 0.18749 -0.00226
0.14114 -0.22928 0.13749
0.18247 0.03322 0.17612
-0.09262 -0.11432 -0.13455
0.14114 -0.01356 -0.18129
0.14817 -0.38556 -0.12990
-0.11494 -0.05805 -0.13455
-0.10270 0.18807 -0.18247
0.17615 -0.18668 0.13389
0.07089 0.14410 -0.07808
-0.18247 0.14709 -0.01323
-0.09070 -0.15444 0.18247
-0.18021 0.42626 -0.02771
-0.09427 0.35390 0.17241
-0.11313 -0.09072 0.13437
0.14894 0.07338 -0.12990
-0.15131 -0.09948 0.13437
0.18247 0.18154 -0.03564
-0.08976 -0.19502 -0.17136
0.14114 0.12930 0.07657
-0.18247 -0.31291 -0.15556
-0.18247 0.20742 -0.17357
-0.17997 0.41070 0.08835
-0.08924 0.14410 0.08830
-0.08976 -0.20294 0.15665
-0.11432 -0.26786 0.13437
0.17064 -0.42827 0.16042
-0.13596 0.04304 0.18247
0.18247 0.00489 0.14764
-0.17182 0.36870 -0.15781
-0.11095 0.36615 -0.16043
-0.16165 -0.11987 0.13437
-0.08976 0.04757 0.15008
-0.18247 -0.33185 0.13714
-0.08780 0.41762 0.04481
0.17662 0.18749 -0.05327
-0.01545 0.14410 0.08920
0.11697 0.14410 0.17092
0.17948 -0.27012 -0.18247
-0.11776 0.41344 -0.08113
0.02683 0.18749 -0.09376
0.01935 0.18749 0.03842
-0.12907 -0.33889 -0.13455
-0.15640 -0.41078 0.18247
-0.18247 -0.19324 0.16739
0.08835 0.18749 -0.16556
0.07220 0.18749 0.09902
-0.18247 0.23335 0.17064
-0.08780 0.35572 -0.14121
0.13212 0.14410 0.16094
0.18108 0.07423 0.13389
0.14114 -0.21863 -0.14526
-0.18247 0.33216 0.03846
0.18247 0.15348 -0.01911
-0.08976 0.12455 -0.07439
-0.18247 0.20294 -0.03936
0.07872 0.14410 -0.11678
-0.08976 0.04248 -0.17705
-0.15935 0.10556 -0.04185
0.18247 0.13672 -0.17849
0.16050 0.16060 -0.18247
-0.09640 0.42801 0.00347
-0.08976 0.10874 -0.16666
0.14114 -0.25951 0.17588
-0.08976 -0.39559 0.14491
0.14114 0.00092 -0.17449
-0.18247 0.23086 -0.04366
0.16452 -0.07959 -0.12990
-0.18247 0.12595 0.14091
-0.18247 0.03640 -0.16081
-0.02922 0.18749 -0.06188
-0.08780 0.32045 0.17670
-0.17302 -0.02582 -0.18247
-0.18247 0.15218 -0.03104
-0.08780 0.23361 0.17491
-0.14287 0.23113 0.18247
-0.16371 -0.18617 0.13437
-0.09015 -0.28056 -0.13455
0.18247 0.17933 -0.07092
-0.17693 -0.32363 -0.13455
-0.18247 0.24631 -0.17437
-0.12810 -0.01937 -0.13455
0.18247 -0.35946 0.17877
0.12627 0.14410 0.04209
0.01988 0.14410 0.10873
-0.02071 0.14410 0.00744
-0.12173 -0.25565 0.18247
0.08945 0.18749 -0.04335
-0.00993 0.18749 0.13726
-0.11074 0.40997 -0.09029
0.16056 -0.06104 0.13389
0.16173 -0.13670 0.18247
-0.07153 0.18749 -0.04110
0.14209 -0.27741 -0.18247
-0.11344 -0.12905 -0.13455
-0.18127 0.15926 0.18247
-0.18247 -0.42439 -0.13834
-0.08976 -0.39360 0.17778
-0.18247 0.15013 -0.11439
0.14114 -0.22986 0.15290
-0.18247 0.12215 -0.03992
-0.18247 -0.38238 0.17374
-0.08976 -0.00987 0.15827
-0.18247 0.34050 0.03946
0.18247 -0.29614 -0.14118
-0.13904 -0.21843 -0.13455
0.15045 -0.32470 0.13389
-0.08976 -0.33566 -0.16239
-0.18247 0.11614 -0.00917
0.15524 -0.14125 0.13389
0.11657 0.14410 -0.03533
-0.14035 0.40483 0.10282
0.14114 -0.00068 0.14177
-0.18247 -0.32575 0.15323
-0.09518 -0.22894 -0.18247
-0.14014 -0.26180 0.18247
-0.08780 0.30968 0.03954
0.14114 -0.07172 -0.17231
-0.18247 -0.03830 0.14986
0.18247 -0.25152 -0.13472
-0.13746 -0.02737 0.13437
-0.08976 -0.01328 -0.18072
0.18247 -0.01105 0.17267
0.09811 0.14410 0.06172
0.18247 -0.28301 -0.15916
-0.14171 0.10556 0.06868
-0.14746 -0.13209 -0.13455
0.14114 -0.14426 -0.13012
0.18247 0.14322 -0.08668
0.15561 0.10664 0.02145
0.14114 -0.34994 -0.13263
0.08779 0.18749 0.18146
-0.11172 -0.28493 0.13437
-0.18247 0.08062 -0.14938
-0.12298 -0.24492 0.13437
-0.12052 -0.15087 0.18247
-0.18247 0.14644 0.00288
-0.08780 0.29942 -0.08835
-0.12792 -0.32215 -0.18247
-0.17309 -0.33818 -0.18247
0.17210 -0.33749 0.18247
-0.08780 0.25739 0.03857
0.17601 0.10664 0.00696
-0.14095 0.10492 -0.13455
-0.12449 0.31059 0.18247
-0.18247 0.28835 0.07184
-0.18247 -0.20409 0.15658
-0.18247 0.14725 0.18084
-0.08780 0.26521 0.03850
-0.08976 -0.16883 -0.18121
-0.18247 0.32257 0.07899
0.04569 0.14984 -0.18247
0.18247 0.14840 0.04510
-0.14809 -0.03251 0.13437
0.04556 0.18749 -0.14728
-0.13081 0.32892 0.18247
0.18247 -0.33880 -0.15445
-0.11881 0.39477 0.12093
-0.07849 0.14410 0.10865
-0.11255 0.23220 0.18247
0.12864 0.14410 -0.07505
-0.08976 -0.04648 0.13949
-0.17887 0.05069 0.13387
-0.18247 0.32689 0.09093
-0.08780 0.19714 0.11618
0.11053 0.14410 0.01478
-0.08976 -0.06404 0.17718
-0.08976 -0.14261 -0.14850
-0.13900 0.29807 -0.18247
0.18247 0.08594 -0.17616
-0.15421 0.42617 -0.02888
-0.10038 0.02554 0.13437
-0.05223 0.18749 0.01018
-0.08780 0.18786 0.17524
0.08988 0.14410 0.06620
0.18247 0.17416 0.16990
0.00783 0.18749 -0.04804
-0.02111 0.17355 0.18247
0.15296 -0.25875 -0.12990
0.14114 -0.06627 -0.14081
0.02912 0.18749 -0.04376
-0.08976 0.07141 -0.14567
-0.02293 0.16038 0.18247
-0.08780 0.27135 0.16141
-0.16836 -0.12987 -0.18247
-0.11866 0.36055 -0.16591
-0.18247 -0.19001 0.17973
0.18247 0.15986 -0.02421
0.16512 -0.40993 -0.12990
-0.13894 0.10556 0.00185
0.10290 0.18749 -0.11282
0.16756 0.18749 0.01341
0.17170 0.10664 -0.08605
-0.14208 -0.15663 0.18247
-0.07072 0.18749 -0.05320
-0.16339 0.08526 -0.18247
0.14114 0.13075 -0.13778
-0.05224 0.18749 0.01960
-0.09984 0.12937 -0.18247
0.05477 0.17685 -0.18247
-0.18247 0.13161 -0.16037
0.15179 -0.00340 0.13389
-0.16023 -0.25830 0.18247
-0.08780 0.39820 0.09327
-0.18247 0.32300 0.01854
-0.13600 0.00157 0.13437
-0.17412 -0.09114 -0.13455
-0.09391 -0.34227 -0.13455
0.14114 -0.09480 0.14683
-0.18247 0.26628 0.11031
