ply
format ascii 1.0
comment VCGLIB generated
element vertex 1816
property float x
property float y
property float z
element face 0
property list uchar int vertex_indices
end_header
0.14179 0.02171 -0.18371
0.17422 0.04767 0.16657
0.09783 0.04767 0.16618
-0.18198 0.35750 0.01285
0.11574 0.04767 0.01233
-0.18079 0.32004 0.07079
-0.16943 0.25067 0.09224
0.17411 -0.15913 0.17857
-0.09006 0.03580 0.08684
-0.16860 0.19533 0.06787
-0.11407 0.03580 0.02088
-0.19166 -0.40080 0.08053
-0.17057 0.14133 0.13158
-0.17879 0.31444 -0.17533
-0.18348 0.17460 0.16303
-0.12445 0.04770 -0.13553
-0.18172 0.15771 0.10811
-0.18172 0.19623 0.10677
-0.16952 0.17666 -0.09744
-0.00688 0.04767 0.05065
-0.17026 0.17791 0.12068
-0.15818 0.04459 0.00000
-0.18122 0.42134 0.04784
-0.16808 0.19962 0.05150
-0.01094 0.03582 -0.14596
-0.16977 0.34687 0.05709
0.19370 -0.25482 0.16544
0.18945 0.04739 0.04137
0.09010 0.03580 0.14027
0.01434 0.01365 0.16621
-0.14900 -0.39811 0.17009
-0.18215 0.23516 0.11928
0.13814 0.04677 0.00000
-0.18250 0.37384 0.05327
0.07067 -0.42090 0.17588
0.05662 0.04773 -0.05985
-0.16826 0.26426 0.05505
-0.16996 0.35281 -0.04702
0.13782 0.01728 0.18187
0.10579 0.03586 -0.04874
-0.03764 0.03584 -0.10072
-0.04236 -0.42138 0.17003
-0.17932 0.18470 0.03148
-0.17153 0.40249 0.04618
-0.13215 0.03582 -0.14306
-0.04667 0.04767 0.06306
-0.13444 0.04775 -0.01662
-0.10247 0.03580 0.14330
-0.16687 0.25556 -0.00762
-0.18066 0.22145 -0.07248
-0.18349 0.40491 -0.01112
-0.09260 0.03581 -0.17538
0.17769 0.02842 -0.18262
-0.16885 0.13051 -0.07766
-0.17111 0.27061 -0.14456
-0.16728 0.05274 0.06187
0.00147 0.01414 -0.16556
0.14796 0.03582 -0.13811
0.01701 0.03584 -0.09345
-0.17010 0.29187 0.11199
0.09825 0.03583 -0.11307
-0.13178 0.02919 -0.18269
0.17378 0.03478 -0.16776
-0.12870 0.03580 0.10229
-0.10742 -0.40217 -0.18085
0.00829 -0.42133 -0.16968
0.14582 0.02113 -0.16063
-0.08076 0.04767 0.02223
-0.18070 -0.39838 -0.16006
0.19560 -0.26088 0.17005
-0.18059 0.05851 0.18340
0.17247 0.03587 -0.03452
0.14141 -0.42143 0.17055
-0.17138 0.28953 0.15234
0.11021 0.03580 0.08853
-0.18280 0.09375 -0.14412
-0.01236 0.03580 0.03846
0.05688 0.03581 -0.15743
-0.16822 0.25661 -0.05382
0.06218 -0.41387 0.18305
-0.17108 0.07157 -0.14972
-0.17203 0.10153 -0.17893
-0.18153 0.22561 0.09985
0.11922 0.03580 0.02972
0.06185 0.03580 0.17647
0.19169 -0.00480 0.16320
0.18401 0.04242 -0.05755
-0.18297 0.38845 -0.13760
-0.04172 0.03580 0.12678
-0.16980 0.15551 0.10677
0.09378 0.04368 0.00000
0.10701 0.04769 -0.14882
-0.17447 0.04180 -0.12239
-0.18140 0.08777 0.10016
-0.16010 0.03580 0.14627
-0.02256 -0.40907 -0.18371
-0.18060 0.23348 -0.07026
-0.19017 -0.41986 -0.12671
-0.18310 0.39255 -0.04714
-0.18383 0.41574 -0.14644
0.03705 0.04769 -0.15571
-0.16742 0.11241 -0.03342
-0.12221 -0.42066 -0.17627
-0.13997 0.02198 0.16053
-0.16974 0.34586 0.03290
0.01861 0.04767 0.00492
-0.18329 0.32858 -0.15199
-0.18177 0.28149 0.10559
-0.18344 0.40342 -0.04009
0.06496 0.03581 -0.16259
0.11271 0.04767 0.17210
0.01941 0.01588 0.16348
0.01305 0.03587 -0.03400
0.17234 -0.14312 -0.17371
0.01774 0.03580 0.01818
-0.18176 0.05242 0.14704
-0.18163 0.19593 -0.10387
-0.17908 0.26110 0.02167
-0.18347 0.40444 -0.02226
-0.00874 0.01638 -0.18117
0.10501 0.04767 -0.18323
0.16363 0.03580 0.10839
-0.18150 0.19326 0.10011
-0.05365 -0.40274 0.16245
-0.16681 0.15009 -0.01284
0.07060 0.04767 0.01651
-0.17206 0.18730 0.17692
0.17518 -0.42139 -0.17265
-0.18106 0.23745 0.08485
0.02104 0.02357 0.16032
0.17067 0.04775 -0.02316
0.04840 0.03583 -0.11329
-0.16349 0.02525 -0.16358
-0.17939 -0.39893 -0.09457
-0.04701 0.04770 -0.12539
-0.16800 0.25437 -0.04706
-0.18091 0.07060 -0.08541
-0.00102 0.04767 0.13115
-0.10711 0.04767 0.06148
0.19395 -0.08468 -0.17851
-0.02636 0.03580 0.06309
0.09402 -0.39980 0.16570
-0.15220 0.04767 0.11192
0.15855 0.03581 -0.16577
-0.16678 0.05659 0.01512
-0.11154 -0.42048 0.16698
-0.13653 0.04772 -0.08379
-0.16846 0.03789 0.08926
0.04295 0.04775 -0.00969
-0.19181 -0.41861 0.00516
-0.18372 0.41234 -0.00592
0.17025 0.04769 -0.16067
0.19389 -0.23862 0.17859
-0.17161 0.35050 -0.15754
-0.17165 0.22745 0.16291
-0.16814 0.05215 0.13303
0.02817 0.04767 0.09317
-0.14585 0.04767 0.13418
-0.00969 0.03582 -0.14103
-0.18342 0.40286 0.09938
-0.18251 0.16553 0.13279
0.19444 -0.32995 0.17771
-0.07410 -0.40280 -0.16238
-0.16900 0.23392 0.07938
-0.17207 0.15140 -0.17840
-0.18241 0.12072 -0.13108
0.17617 0.03585 -0.08079
0.05933 0.04058 -0.18401
-0.18064 0.08422 0.07630
-0.18071 0.26813 -0.07274
-0.16835 0.30206 -0.01343
0.12952 0.03584 -0.10725
-0.14529 0.03521 -0.17842
-0.01663 0.04767 0.04634
-0.18888 -0.39904 -0.07625
0.15581 0.04767 0.06419
0.07364 0.03586 -0.05923
-0.09965 0.04767 0.02804
-0.17964 0.08541 -0.04490
-0.06272 0.04772 -0.07480
0.10066 0.03580 0.14837
-0.00541 0.03580 0.07162
0.17402 -0.38973 -0.17846
-0.17175 0.40915 0.13436
-0.17218 -0.41010 0.11629
0.18500 -0.17643 0.16040
-0.17167 0.30888 0.16081
0.03332 0.04474 0.00000
0.01546 0.04772 -0.08086
0.02094 0.03587 -0.04378
0.00843 0.04771 -0.10589
0.12687 0.04769 -0.15366
-0.16414 0.01419 0.16552
-0.18112 0.06638 -0.09192
-0.15234 0.04772 -0.08294
0.16879 0.03580 0.08281
-0.17010 0.26297 -0.11306
-0.17894 0.13204 0.02127
-0.17119 0.24708 -0.14786
-0.17925 0.05583 -0.03353
0.19049 0.04726 -0.17320
-0.06727 0.01259 0.17552
-0.17048 0.36934 -0.11506
0.19566 -0.13212 0.17383
0.18537 -0.37283 -0.16044
-0.17050 0.33994 -0.12312
-0.12662 0.01461 0.16495
-0.03925 0.03586 -0.06306
-0.19549 -0.41270 -0.06399
-0.07991 0.04770 -0.12052
-0.07207 0.04767 0.02067
0.16284 -0.39825 -0.16933
0.16923 0.03580 0.07413
-0.07927 0.03580 0.08107
-0.00471 0.01952 0.16123
0.17428 0.04767 0.04998
-0.17833 0.12272 -0.00234
-0.16992 0.22390 -0.10863
-0.14638 -0.41796 0.16326
-0.19389 -0.41028 0.16927
0.18454 -0.08463 0.16034
-0.17541 -0.40163 0.11369
-0.17025 0.34687 0.11495
-0.18370 0.16000 -0.17043
-0.02499 0.04774 -0.04466
-0.14777 0.04767 0.15360
0.01056 0.04774 -0.02824
-0.17860 0.42142 -0.08378
-0.17126 0.39401 -0.09461
0.06557 -0.39905 -0.17691
-0.07152 0.03584 -0.10694
0.11413 0.04772 -0.08542
-0.17138 0.10633 0.15816
-0.16782 0.12972 -0.04534
0.11893 0.04769 -0.15564
-0.18242 0.32712 0.12464
0.12781 0.04774 -0.03232
-0.17856 -0.42024 -0.02221
-0.10482 0.04769 -0.15354
-0.17023 0.32386 -0.11516
0.19226 -0.29354 -0.18064
0.19142 -0.39240 -0.16298
-0.11637 0.04767 0.07833
0.01641 0.03580 0.16458
0.17348 -0.34470 0.16679
-0.18386 0.18523 -0.17473
0.19115 -0.30784 0.16278
0.03092 0.04770 -0.13432
-0.17014 0.24823 -0.11448
-0.16887 0.31866 0.02503
0.16276 0.02560 -0.16048
-0.12946 0.04767 0.00015
-0.16709 0.21035 0.01986
0.02881 0.04771 -0.10217
0.14906 0.03580 0.04734
-0.18866 -0.42057 0.14439
0.14670 0.04775 -0.01896
0.14205 0.04767 0.05164
-0.16973 0.22955 0.10230
-0.18312 0.33183 0.14669
0.17243 -0.28528 -0.17439
-0.05182 0.04774 -0.04379
-0.16074 0.04003 0.18401
-0.18766 -0.42098 0.03706
0.08926 0.04767 0.14189
0.18774 0.04755 -0.15643
0.12221 0.03447 0.16683
-0.18198 0.22657 -0.11399
-0.13818 0.03583 -0.11774
-0.16798 0.24801 -0.04662
0.13951 0.03580 0.08285
0.04634 0.04767 0.11282
-0.16696 0.03479 -0.17370
-0.04963 0.04772 -0.09195
0.09837 0.04775 -0.01614
-0.18007 0.28650 0.05199
-0.16670 0.20025 -0.00782
-0.18167 0.06084 -0.10953
0.10000 0.03580 0.00183
-0.18122 0.30677 0.08758
-0.17982 0.22867 -0.04587
0.12025 0.04767 0.09283
-0.16599 0.03694 -0.08614
0.13184 0.01211 -0.17251
-0.18272 0.05836 0.14274
0.12284 0.03580 0.08802
-0.17018 0.35997 0.04309
0.01702 0.04767 0.10407
0.10816 -0.41315 -0.18339
-0.16054 0.03580 0.10895
0.02555 -0.42048 0.16711
-0.18248 0.05696 -0.13672
0.10688 0.04767 0.17922
-0.17248 -0.40714 0.12128
-0.01664 0.03588 -0.01357
-0.17859 0.19532 0.00813
-0.18121 0.05754 -0.09516
0.08550 0.03587 -0.02955
-0.12859 0.03580 0.03634
-0.18159 0.34436 -0.09805
-0.18225 0.19690 -0.12351
0.03889 0.04774 -0.03557
-0.10518 0.03580 0.09762
0.19556 -0.38212 -0.17458
0.13720 0.03555 -0.17404
-0.17013 0.13700 0.11781
-0.05704 0.04767 0.08255
-0.02546 -0.41414 -0.18285
-0.16576 0.03683 -0.11666
-0.11167 0.02022 0.18332
-0.18119 0.16277 -0.09134
0.19509 0.00942 0.16813
-0.18400 0.24961 -0.17707
-0.17034 0.36490 0.06684
-0.16880 0.31117 -0.07028
-0.17114 0.23179 -0.14680
-0.16877 0.13804 -0.07507
-0.17053 0.23940 -0.12716
-0.02158 0.04774 -0.03415
0.18209 -0.34539 -0.18375
-0.17081 0.35748 -0.13212
-0.17205 0.29648 -0.17329
-0.12444 0.04767 0.03805
0.17610 -0.09292 0.16337
-0.17864 0.16650 0.01073
0.17238 -0.22662 0.17028
-0.17145 0.40002 0.14087
-0.17944 0.10827 0.03789
-0.18370 0.32991 -0.16510
0.17979 -0.31566 -0.16114
-0.18349 0.35853 -0.15745
0.10989 0.02108 0.16064
-0.16652 0.09640 -0.00561
0.18401 0.04699 0.08879
-0.11521 0.04767 0.17719
-0.12882 -0.41898 0.17914
-0.05878 0.04767 0.04667
0.19168 -0.12428 -0.18108
0.12642 0.04767 0.08432
0.14109 0.01252 0.16893
0.19432 -0.07141 0.16629
-0.03152 0.04770 -0.13323
0.03776 0.04774 -0.04555
-0.10692 0.04775 -0.02360
-0.07606 0.03582 -0.14500
-0.14644 0.03581 -0.17357
-0.18294 0.36238 0.13989
0.02481 0.03580 0.14092
0.11573 0.03581 -0.15796
-0.11979 0.04767 0.01634
-0.16664 0.02250 0.17550
0.19415 0.04661 0.14244
-0.18316 -0.39800 0.11051
-0.16686 0.12465 -0.01526
0.19545 -0.19289 0.17527
0.19521 -0.26876 -0.16842
0.09095 -0.41250 -0.18355
-0.10030 0.03580 0.16824
-0.17964 0.19693 0.04111
0.19555 0.03721 -0.13804
0.16963 0.02853 -0.18297
-0.08943 0.03580 0.12735
0.08263 0.04770 -0.13273
0.08099 0.03582 -0.15350
-0.16993 0.35198 -0.02935
0.18510 0.04766 -0.16336
0.09437 0.04773 -0.06986
-0.17950 0.07545 -0.04077
-0.10410 0.04751 0.00000
0.19588 0.03968 0.13434
0.18922 -0.11766 -0.16155
0.09050 0.03580 0.09775
-0.11090 0.02905 -0.16151
-0.15118 0.03583 -0.12071
0.16283 0.01501 0.16443
-0.16953 0.08670 -0.10041
-0.16142 -0.40244 0.16258
-0.18098 0.08404 -0.08706
0.17946 -0.13887 -0.18299
-0.17206 0.23666 -0.17555
0.04026 0.03534 0.17535
0.18518 -0.02780 -0.16042
-0.18107 0.27468 -0.08391
0.05701 0.04767 0.12177
-0.14188 0.04773 -0.05938
-0.17959 0.28198 -0.02200
-0.16767 0.07316 0.04245
-0.17046 0.33809 0.12202
0.16697 0.03587 -0.02758
0.17659 -0.36558 -0.16299
-0.19103 -0.40031 -0.06536
-0.06812 0.03583 -0.12270
0.01285 0.03580 0.08101
0.09437 0.03586 -0.06691
-0.18014 0.15602 0.05819
-0.16941 0.12142 -0.09573
-0.16706 0.02653 -0.17127
0.18987 -0.40902 0.17963
-0.16951 0.33866 -0.06024
-0.17908 0.15846 0.02489
0.11056 0.04771 -0.10925
0.02147 0.04771 -0.10704
-0.06098 0.03582 -0.14881
0.04126 0.03636 0.00001
-0.10474 0.01209 0.17240
-0.00756 0.03580 0.10993
-0.16759 0.22152 -0.03524
0.14072 -0.41737 0.18109
0.11516 -0.40459 -0.18267
0.10901 0.04767 0.06592
0.19570 -0.17379 -0.17350
-0.16734 0.27047 0.01159
0.17323 -0.34736 0.17688
-0.16909 0.31485 -0.07950
-0.09877 0.04768 -0.17029
-0.18263 0.08027 0.13903
0.04751 0.04770 -0.12706
-0.16963 0.14832 -0.10188
-0.18272 0.07121 0.14240
-0.16863 0.31100 0.04043
-0.18067 0.18513 -0.07414
-0.01054 0.03587 -0.04186
-0.17090 0.38256 0.10615
-0.16924 0.10018 -0.09104
-0.18346 0.10748 -0.18176
-0.19354 -0.41667 0.03247
0.10148 0.03580 0.14365
-0.17206 0.21876 -0.17588
-0.18032 0.36662 0.17363
0.02471 0.03582 -0.13714
-0.17105 0.27747 -0.14242
-0.18611 -0.42135 0.11656
0.13965 0.03582 -0.15045
-0.18165 0.06621 0.10873
-0.16880 0.31625 -0.06535
-0.04642 0.04770 -0.13057
-0.18121 0.33309 0.08205
-0.16919 0.20240 0.08612
-0.16801 0.29141 -0.01949
0.11210 0.03584 -0.09644
-0.10716 -0.41874 0.16423
0.17668 0.03584 -0.10217
-0.17915 0.04870 0.09309
0.03845 -0.40404 0.18236
-0.18218 0.05884 0.12561
0.05982 -0.42142 0.17039
-0.18211 0.34367 -0.11446
0.18400 0.04351 -0.15315
0.10820 0.04767 0.03277
-0.16719 0.07158 -0.02740
0.17208 0.03580 0.00032
-0.13444 0.03580 0.05669
0.13348 0.03585 -0.08581
0.19511 -0.13638 0.17609
0.18401 0.03959 -0.03407
0.18677 -0.31663 -0.18364
0.11303 0.03580 0.02801
-0.17183 0.41182 -0.08500
0.17479 0.03609 0.18401
0.00317 0.04390 0.18401
-0.17770 0.06766 0.18320
-0.17164 0.08875 0.16699
0.11746 0.03561 0.17360
0.18101 -0.31684 0.16066
-0.00759 0.04767 0.07171
-0.00674 0.04767 0.07699
0.00556 0.01911 0.18288
-0.18317 0.39501 -0.02192
-0.16783 0.06490 -0.04758
-0.17081 0.37984 -0.12781
0.08758 0.03580 0.08322
-0.18299 0.38931 0.08851
-0.11677 0.04771 -0.10621
-0.18307 0.08556 -0.15303
-0.13120 0.03584 -0.10983
-0.05607 0.01298 -0.16781
-0.17000 0.24469 0.11052
0.08485 -0.41126 0.16037
-0.07268 0.04767 0.13411
-0.16967 0.33417 -0.09686
-0.09203 -0.41161 -0.18349
-0.02704 0.04767 0.16357
-0.18026 0.30327 -0.03736
-0.16964 0.13535 0.10264
-0.18332 0.39954 -0.01193
-0.17138 0.06862 -0.15944
-0.17825 0.05443 -0.00208
0.14302 0.04767 0.10609
0.19582 0.04620 0.09403
-0.18377 0.38047 -0.16552
-0.17202 0.15481 0.17672
-0.17025 0.36223 -0.06340
-0.16881 0.26097 -0.07226
-0.16771 0.17906 0.04038
0.17286 0.03582 -0.13820
0.09957 0.03580 0.05219
0.19365 0.04671 -0.13300
0.03195 0.04767 0.03911
-0.00426 0.04772 -0.08471
-0.17071 0.34349 0.12972
0.18334 0.03997 0.18401
-0.18268 0.37947 -0.08586
0.11613 0.04767 0.14196
-0.17115 0.14912 -0.14970
-0.17141 0.18307 0.15681
-0.02111 0.03837 0.00000
-0.16196 0.04827 -0.03316
0.06229 0.01523 -0.18013
0.07366 0.03582 -0.15593
-0.07822 0.04767 0.16778
0.18401 0.04004 0.11675
0.05600 -0.41765 -0.16322
-0.13507 0.03587 -0.03044
-0.16790 0.09167 0.04934
-0.17158 0.18730 0.16195
0.08680 0.04767 0.17708
-0.17007 0.03848 0.15482
0.01176 0.04767 0.17330
-0.05638 0.04012 0.18401
0.01374 0.03583 -0.11650
-0.18538 -0.42145 0.13875
-0.18233 0.36852 -0.08375
-0.10316 0.02933 0.18262
-0.16831 0.16154 -0.05990
-0.11857 0.03162 0.16320
-0.10432 0.03587 -0.02452
-0.10389 0.03580 0.18267
0.11238 0.03586 -0.05763
-0.17395 0.09638 -0.18241
-0.17952 0.24521 0.03595
-0.05325 0.04772 -0.08293
-0.08155 -0.40509 -0.18268
-0.18196 0.17239 -0.11518
-0.01912 0.04772 -0.08291
-0.16382 0.04878 -0.12004
-0.17041 0.36712 -0.00741
-0.13903 0.04128 0.00000
-0.18211 0.13708 -0.12091
0.08736 0.03580 0.10683
0.07051 0.04767 0.05559
-0.17145 0.24713 -0.15578
-0.14011 0.04767 0.01771
-0.08849 0.04767 0.18092
-0.18424 -0.39792 0.08931
-0.04596 0.03580 0.01056
-0.17922 0.29108 0.17606
0.17400 -0.26884 0.17843
0.17934 -0.22304 -0.18294
-0.17190 0.41400 0.13145
-0.16997 0.03837 0.16706
-0.18248 0.30051 0.12757
-0.15630 0.03580 0.02796
-0.18363 0.40925 0.10036
0.16246 0.02436 0.16032
0.18652 -0.01530 0.18368
-0.07158 0.04770 -0.13663
-0.04783 0.03580 0.05573
0.19404 -0.28544 0.17840
-0.16853 0.08849 -0.06904
-0.13701 0.01241 -0.17483
-0.16964 0.31510 -0.09688
0.19456 -0.31766 0.17742
0.00939 0.03581 -0.16258
-0.04079 0.01450 -0.16509
-0.16889 0.08025 0.08079
-0.09759 -0.40605 0.18306
0.00548 0.03580 0.12816
-0.11284 -0.41860 -0.16403
-0.08059 0.03456 -0.16703
-0.16903 0.29822 -0.07808
-0.16985 0.34951 -0.06798
0.09832 0.03580 0.01255
-0.17910 0.08509 -0.02785
-0.16996 0.22111 0.11000
0.05895 0.04350 0.18401
-0.18156 0.34093 0.09728
-0.04232 0.04769 -0.14159
0.17223 -0.15294 0.17283
0.11298 0.03585 -0.07137
-0.18171 0.34902 -0.02204
-0.18118 0.33226 -0.03936
-0.05393 0.04775 -0.00718
-0.16895 0.11365 -0.08145
-0.09297 0.03580 0.10735
0.12794 0.03545 -0.17478
-0.16736 0.20086 0.02876
-0.00783 0.03588 -0.01375
-0.19567 -0.40819 -0.09626
-0.17440 -0.41657 -0.06006
-0.17055 0.35675 0.12420
-0.18329 0.39854 -0.03592
0.17531 -0.29361 0.18014
-0.17008 0.35669 0.09681
-0.17237 -0.40798 -0.05549
-0.00987 0.04776 -0.00236
0.01316 0.04767 0.08765
-0.15085 -0.40008 -0.17852
0.00111 0.03580 0.11772
-0.10184 0.04767 0.10536
0.12540 0.04775 -0.01000
0.06561 0.04767 0.11067
-0.01191 0.03362 0.16543
-0.03800 0.04772 -0.08538
-0.18374 0.41284 -0.04597
0.02343 0.01744 0.18199
-0.17697 0.24833 -0.17749
0.12593 -0.40815 -0.16042
-0.19489 -0.41425 -0.14195
0.19082 -0.08307 -0.16252
-0.17016 0.33899 0.11249
0.01748 -0.41970 0.16560
0.16453 -0.40821 0.18379
-0.01581 0.03580 0.08537
-0.18325 0.39728 0.11807
-0.12841 0.03587 -0.02990
-0.18362 0.11446 0.16930
-0.16803 0.28005 -0.04719
0.17545 -0.29589 0.16395
-0.18363 0.40371 0.16031
-0.16893 0.32033 -0.03728
-0.02099 0.03580 0.13423
-0.18012 0.23162 0.05521
-0.17418 0.07936 -0.18294
-0.16969 0.05510 0.12803
0.19230 0.04697 0.01633
-0.17684 0.10587 0.18201
-0.17935 0.15949 -0.03343
0.02502 0.04772 -0.07968
-0.18070 0.13146 -0.07679
0.08569 0.04767 0.01278
-0.18271 0.29265 -0.13504
-0.13841 0.02279 -0.16041
-0.17133 0.32687 0.14964
0.19139 -0.13931 0.18131
0.06620 0.04772 -0.09005
0.12734 0.01294 -0.16791
0.18501 0.03582 -0.14113
-0.17452 -0.41672 0.08631
-0.16144 0.03584 0.17500
0.10568 0.03582 -0.13721
-0.18204 0.20672 -0.11660
0.17830 -0.15179 -0.16176
-0.18179 0.35142 0.01405
-0.16879 0.05521 0.08783
-0.17199 0.25586 -0.17274
-0.16931 0.33228 -0.06420
0.18500 -0.36261 -0.16039
-0.04842 0.04774 -0.03031
0.18552 -0.23576 0.18381
-0.17932 0.08044 -0.03490
-0.18326 -0.42153 -0.14372
-0.18093 0.22390 -0.08114
-0.00908 0.04769 -0.14771
0.14721 0.04772 -0.09318
-0.17019 0.36006 0.10962
-0.04834 0.04767 0.01760
-0.11633 0.03583 -0.13445
0.19564 -0.00322 -0.17035
-0.11442 0.04767 0.02186
0.06334 0.03580 0.03814
-0.10836 0.04767 0.11590
-0.05185 0.04767 0.17434
0.19500 -0.40263 0.17495
0.16486 0.01242 -0.17484
0.17752 0.04775 -0.01272
-0.17189 0.41366 0.03289
-0.18363 0.40946 -0.01982
-0.08027 -0.41343 0.16066
0.09886 0.03580 0.13725
0.14379 0.02708 0.16070
-0.07792 0.03588 -0.00384
-0.16680 0.11048 -0.01385
-0.17056 0.31772 0.12573
-0.17114 0.38998 0.08517
0.16209 -0.41292 0.18355
-0.16991 0.35141 -0.00175
-0.18973 -0.42013 0.08004
-0.02487 0.04772 -0.08128
-0.00886 0.04767 0.09176
-0.10928 0.03581 -0.16176
-0.10897 0.03182 -0.18092
-0.18340 0.13690 -0.16177
-0.18027 0.18462 -0.06154
-0.18385 0.41637 -0.06725
0.19588 0.04119 -0.02230
-0.12606 0.01925 0.18294
0.00748 0.02206 -0.18376
0.03093 0.04767 0.13118
-0.04619 0.01808 -0.18245
-0.18243 0.08237 0.13288
-0.05613 0.04771 -0.09711
-0.17182 0.34791 -0.16425
-0.16744 0.03746 -0.10665
-0.16708 0.13732 0.02191
-0.17051 0.30478 -0.12462
0.13010 0.04771 -0.09465
-0.16969 0.30544 0.09879
-0.16671 0.21107 0.00774
-0.18226 0.06743 -0.12792
-0.07596 0.03780 0.18401
0.10335 0.03584 -0.11110
-0.04081 0.03585 -0.07098
0.17886 -0.40255 -0.16090
-0.16937 0.09606 -0.09530
-0.17024 0.11803 0.12199
-0.18317 0.19421 -0.17901
-0.17840 0.04509 0.17778
0.02770 0.04767 0.02863
-0.18287 0.38544 -0.11081
-0.18184 0.08659 -0.11406
-0.17118 0.29977 -0.14581
0.19157 -0.03536 0.16310
-0.17037 0.36594 -0.09703
0.13895 -0.42159 -0.17181
0.03816 0.04375 0.00000
0.12737 0.03580 0.16910
-0.12318 0.03580 0.11438
-0.17153 0.26142 -0.15782
0.09268 0.03586 -0.05118
-0.17016 0.25106 0.11507
-0.16734 0.16833 0.02912
-0.02292 0.03584 -0.10365
-0.16693 0.08383 -0.01872
-0.18254 0.37499 -0.06076
-0.14827 -0.42056 0.17648
-0.16819 0.09741 -0.05818
0.19532 -0.14983 -0.17557
0.07919 0.03580 0.15265
-0.18057 0.17482 -0.17971
0.16982 0.03580 0.18235
0.18401 0.04711 -0.03290
-0.12721 0.04769 -0.14222
-0.16792 0.22938 0.04529
-0.18118 0.17454 -0.09033
-0.07989 -0.42062 -0.16733
-0.17172 0.27344 -0.16362
0.06086 0.04767 0.13128
-0.16717 0.13250 0.02490
-0.18002 0.29571 0.03093
0.00176 0.04767 0.04535
-0.18337 0.40108 -0.14881
0.15172 0.03586 -0.05327
-0.17640 0.04442 0.08413
-0.18389 0.31242 0.17147
-0.17982 0.21614 0.04636
0.12749 -0.40009 -0.16535
-0.17191 0.41427 0.06155
0.11469 0.03580 0.15653
-0.03671 0.03580 0.15783
0.18401 0.03614 -0.18070
-0.18246 0.35222 0.12514
0.05365 0.03587 -0.03943
0.18613 -0.03681 -0.18372
0.13917 0.03580 0.05893
-0.01689 0.03580 0.09307
-0.11511 0.01408 -0.17863
0.17539 -0.21482 0.18024
0.14270 -0.41763 -0.16330
-0.05184 0.04773 -0.05795
0.09656 0.03580 0.07912
-0.01075 0.02738 0.18345
-0.08976 0.04772 -0.09143
0.00558 0.03585 -0.08637
-0.07676 -0.42119 -0.17502
0.18034 -0.35009 -0.18335
-0.18381 0.08046 0.17645
0.13661 0.03291 -0.17977
-0.17145 0.22619 -0.15664
-0.04195 0.03580 0.13692
0.00297 -0.42012 -0.16622
-0.11167 0.04767 0.15096
-0.16895 0.32094 -0.01501
-0.17952 0.05114 0.06867
-0.17948 0.27854 -0.01388
-0.18397 0.42025 0.01986
-0.18345 0.37864 0.15562
-0.16743 0.06732 -0.03500
-0.05099 -0.39806 0.17325
0.14737 0.04767 0.12418
-0.17994 0.17868 -0.05128
-0.17093 0.28025 0.13839
-0.17253 0.08777 0.18272
0.17829 -0.27523 0.16177
-0.16920 0.14618 -0.08813
-0.12622 0.04771 -0.10920
-0.02190 0.03583 -0.11369
-0.08744 0.04473 -0.18401
-0.17632 0.04644 -0.00808
0.17300 -0.24389 -0.17633
0.19582 -0.24389 0.17173
-0.18148 0.21257 0.09888
0.12101 0.03582 -0.15607
0.12188 0.03584 -0.09115
-0.17185 0.11679 0.17253
0.07343 0.03580 0.10188
-0.17191 0.24397 0.17061
-0.16644 0.12164 0.00213
0.15416 0.03580 0.09661
-0.17134 0.13795 -0.15585
-0.11375 0.04775 -0.01279
-0.09092 -0.42136 0.16979
0.17672 -0.06997 0.18138
-0.17098 0.20258 0.14267
-0.14930 0.04771 -0.10362
-0.16728 0.14697 -0.02768
-0.19450 -0.40432 -0.07899
-0.17010 0.23454 -0.11388
0.18433 0.03582 -0.11014
-0.00414 0.04767 0.13566
-0.17970 0.12841 -0.04535
-0.12293 0.03581 -0.16993
-0.00377 0.03580 0.12686
-0.17148 0.09376 -0.16187
-0.18045 0.17188 -0.06768
-0.16955 0.28807 0.09482
-0.16848 0.27947 0.06116
-0.04929 0.03586 -0.05717
0.18615 0.02775 0.16478
-0.16849 0.20328 0.06432
0.02875 -0.41374 0.16089
-0.18038 0.25637 0.06269
-0.01366 -0.39815 0.16990
-0.17402 -0.40343 0.01594
0.03931 -0.39999 -0.16538
-0.16285 0.04854 -0.06461
-0.08038 0.04234 -0.18401
-0.18322 0.42128 -0.06685
0.07947 0.04770 -0.11750
0.04685 0.04767 0.07875
-0.16894 0.21377 -0.07797
-0.18095 0.11872 -0.08500
-0.17133 0.39598 0.08423
-0.04273 0.04767 0.03600
-0.17173 0.17090 0.16707
-0.14663 0.04006 -0.18401
-0.16331 0.03619 -0.12530
-0.17167 0.29997 0.16101
-0.18272 0.36652 0.13293
-0.13750 -0.40823 0.16015
-0.18124 0.21535 0.09126
-0.07910 0.03580 0.11921
-0.17168 0.40701 -0.02546
-0.18157 0.29640 -0.09876
-0.18894 -0.41318 -0.17588
-0.18369 0.29318 0.16580
0.04288 0.04774 -0.02906
0.18401 0.03592 -0.01711
-0.00091 -0.40956 0.18380
0.07025 0.04776 -0.00218
0.14596 0.03580 0.09496
0.06426 0.03588 -0.01888
0.06233 -0.39922 0.16671
-0.13552 0.03588 -0.00774
0.17973 0.03580 0.14539
0.13926 0.04771 -0.11640
-0.18324 0.16696 0.15567
-0.17193 0.41507 0.01851
-0.17829 0.06719 -0.00295
-0.19219 -0.41832 -0.13167
0.19492 -0.32170 -0.16773
-0.07027 0.03580 0.12406
0.07371 0.04767 0.06755
0.01301 0.03580 0.01550
-0.00583 0.04770 -0.12203
0.18225 -0.38739 0.18378
-0.18124 0.09701 0.09467
-0.18050 0.14420 -0.07000
0.10526 -0.40572 -0.18312
-0.18386 0.30151 -0.17085
-0.18310 0.05959 -0.15480
-0.17194 -0.42160 0.17199
0.14814 0.04767 0.15261
-0.18004 0.18459 -0.05435
0.18556 0.02844 -0.16495
-0.17658 0.17963 0.17968
-0.00626 0.01865 -0.16158
-0.17706 0.42147 0.06557
-0.18043 0.24851 -0.06465
-0.07180 0.04772 -0.07558
-0.16797 0.21558 0.04730
-0.17949 0.27138 -0.03404
0.16828 0.01560 -0.16369
-0.18221 0.36461 0.02223
-0.13619 0.02691 0.18359
-0.16766 0.22070 0.03740
-0.18311 0.39302 0.00470
0.17658 -0.03714 0.18128
-0.18277 0.19334 -0.14008
0.17774 0.03273 0.17905
0.18753 -0.03635 -0.16085
-0.08745 0.03584 -0.09575
0.17384 -0.12502 -0.16605
0.18546 -0.24858 -0.18381
0.14806 0.03580 0.13131
-0.17176 0.21938 -0.16643
0.15349 0.01248 -0.16902
0.11534 0.03582 -0.13506
0.12687 0.03450 0.17737
-0.17170 0.37088 -0.15991
-0.16875 0.10869 -0.07520
0.06856 0.04767 0.08949
0.17905 0.03583 -0.12074
-0.15998 0.03586 -0.05460
-0.00598 -0.41793 -0.18051
0.09408 0.04767 0.13503
-0.18190 0.22092 -0.11156
-0.00430 0.04771 -0.11519
-0.18299 0.19834 -0.14669
0.00703 0.04773 -0.05369
-0.00648 0.04767 0.03901
-0.17121 0.39243 -0.11350
-0.08209 0.04772 -0.08830
-0.16975 0.24031 -0.10265
-0.16989 0.20902 -0.10807
-0.16921 0.32934 0.02822
0.03244 0.03581 -0.17533
-0.16754 0.26390 -0.03230
-0.17104 0.34234 0.13992
0.10207 0.03217 0.16362
0.08429 0.04768 -0.16402
0.02827 0.04767 0.00661
0.14988 0.03582 -0.14872
-0.16996 0.17535 0.11119
0.01827 0.04769 -0.14828
0.11155 0.03583 -0.12914
-0.17317 0.32213 -0.17527
0.00062 0.01418 -0.17875
0.10528 0.03580 0.11525
-0.12765 0.02707 0.16073
-0.18258 0.37629 -0.11235
0.10579 0.03584 -0.10074
0.13188 0.01297 0.17643
-0.01693 0.03582 -0.14143
-0.18361 0.40873 -0.13653
-0.08301 0.03980 0.18401
-0.17437 0.04307 0.02104
-0.18292 0.42129 0.12030
-0.06069 0.04773 -0.06714
-0.16803 0.21248 -0.04915
0.18065 -0.05326 0.16079
-0.07995 0.03580 0.04649
-0.17873 0.20465 -0.01233
0.19588 0.04046 0.00632
-0.14022 0.01605 0.18092
0.16263 0.04767 0.07981
-0.16667 0.23658 0.00543
-0.15019 0.03580 0.00667
-0.17928 0.19299 -0.03013
0.01778 0.04767 0.01862
-0.17985 0.25037 -0.04634
0.08016 0.01265 -0.17565
-0.16851 0.12735 0.06728
0.08585 0.03580 0.01292
-0.17985 0.23113 0.04671
0.17794 -0.31595 0.18232
0.04454 -0.41447 -0.16121
-0.12212 0.03587 -0.03714
0.19048 -0.19798 -0.18200
-0.17075 0.19774 -0.13530
-0.16688 0.03755 -0.00006
-0.09113 0.04775 -0.01252
-0.19546 -0.40667 0.10365
-0.17194 0.09644 -0.17621
-0.18130 0.29560 -0.09034
-0.15502 -0.39795 -0.17134
0.02562 0.03581 -0.16787
-0.16823 0.16689 0.05707
-0.19412 -0.40360 -0.15655
0.17671 -0.38570 0.16290
-0.17246 -0.40733 -0.01360
-0.18177 0.33094 -0.10397
-0.01514 0.03647 0.18401
-0.06869 0.03580 0.02690
-0.11789 0.04773 -0.04967
-0.05046 0.03586 -0.05006
-0.17169 0.22164 0.16428
-0.16912 0.21284 -0.08357
0.07183 0.03588 -0.02224
0.07364 0.04767 0.06112
0.09427 0.04769 -0.14570
-0.03460 0.03586 -0.06629
-0.12474 0.04767 0.07617
-0.17414 0.37475 0.17356
0.13680 0.04768 -0.17400
-0.05416 0.03587 -0.03045
0.16460 0.04767 0.17390
-0.16995 0.14250 -0.11218
0.06789 0.04767 0.12250
-0.17224 -0.41055 0.15825
-0.17132 0.11178 0.15624
-0.09932 0.04767 0.03531
-0.14007 -0.41265 -0.16032
-0.18223 0.20194 -0.12267
-0.16940 0.27880 -0.09040
-0.01436 0.02853 -0.16130
-0.17153 0.19603 -0.15997
-0.14244 -0.42089 -0.16791
-0.16883 0.12755 0.07713
-0.03259 0.04767 0.07048
-0.18271 0.06070 -0.14248
-0.17163 0.40563 -0.08513
0.19588 0.04276 0.15985
0.01532 0.04767 0.17715
-0.16971 0.34514 -0.09362
-0.18091 0.42135 -0.14775
-0.17843 0.07807 0.00674
0.08557 0.02557 0.16048
0.00480 0.03580 0.05678
0.04996 0.03588 -0.01624
-0.18009 0.29774 -0.02794
-0.15966 0.03580 0.09222
0.12280 0.03580 0.14726
0.17260 -0.34979 -0.16892
0.01195 0.04767 0.03137
-0.06921 0.04767 0.16367
0.10960 0.03580 0.00475
0.18838 0.04749 -0.01570
0.13890 0.04767 0.11065
-0.17663 0.04350 0.15288
-0.16174 0.04821 -0.02242
0.06152 0.03584 -0.10360
0.05048 -0.41011 -0.16018
0.19394 -0.13472 -0.17852
-0.06150 -0.41532 -0.18232
-0.17462 0.04190 0.12228
-0.17917 0.23372 -0.02531
-0.17022 0.21483 -0.11835
-0.08025 -0.40617 -0.16062
0.18509 0.00307 -0.18386
-0.17132 0.19385 0.15340
0.10408 -0.41980 -0.17830
-0.17130 0.28420 0.15006
0.07167 0.04767 0.15537
-0.17979 0.15933 -0.04701
-0.02212 0.02661 0.18366
-0.17078 0.36862 0.13080
0.18018 -0.34820 0.18329
0.17682 -0.30599 0.18146
-0.13073 0.04115 0.00000
0.17519 -0.20226 -0.16429
-0.18046 0.06648 -0.07118
0.15060 -0.40785 -0.16048
-0.17123 0.08580 0.15423
-0.17190 0.41410 -0.13260
-0.17185 0.23452 0.16891
-0.18017 0.29951 0.05466
0.09737 0.04767 0.00757
0.10390 0.03583 -0.12392
-0.17891 0.22589 -0.01717
-0.06783 -0.41873 -0.17953
0.00954 0.03580 0.07444
-0.16775 0.25497 0.03896
-0.16835 0.27902 -0.05731
-0.17338 -0.40466 0.14105
-0.01942 0.04767 0.00114
-0.18291 0.08428 0.14803
0.18902 -0.34491 0.16148
-0.17176 0.40950 0.12958
-0.06800 0.04767 0.12860
-0.17163 0.40566 0.14656
-0.16939 0.23988 -0.09134
-0.18274 0.19998 -0.13902
0.18060 -0.14891 0.16081
0.17314 -0.12958 0.16762
-0.01446 -0.42142 -0.17349
-0.09166 0.01603 -0.16336
0.16497 0.04767 0.10797
-0.18324 0.37011 -0.14917
-0.17826 0.04940 0.03804
-0.07017 0.04767 0.14636
-0.17122 0.35236 -0.14526
-0.01877 0.03580 0.12446
-0.13216 0.03571 -0.17144
-0.18353 0.19855 0.16393
-0.16747 0.22944 0.03124
-0.13176 0.04767 0.09339
-0.17037 0.20441 -0.12316
0.01360 0.01989 0.18321
0.18565 0.04765 -0.06849
0.16300 0.03588 -0.01189
0.02534 0.04767 0.11480
-0.18198 -0.39815 0.15491
-0.16764 0.14013 -0.03933
0.08572 0.04773 -0.06765
-0.16654 0.09972 0.00630
-0.02863 0.04775 -0.02301
-0.17976 0.05709 -0.04937
-0.02089 -0.42152 -0.17278
0.02004 0.03580 0.11544
0.03879 0.04767 0.17010
0.19317 0.03667 0.07197
-0.16831 0.21513 -0.05806
-0.17157 0.31437 0.15753
0.00611 0.04772 -0.07247
0.05612 0.01996 -0.16104
-0.00270 0.03580 0.02252
-0.16969 0.34435 0.04224
-0.09173 0.03588 -0.00105
-0.17981 0.27470 -0.04425
-0.03507 0.04665 0.00000
-0.17929 0.17339 0.03103
-0.18292 0.16399 0.14565
-0.04175 0.03657 0.18401
-0.08128 0.03581 -0.16100
-0.09820 0.03580 0.16322
0.02442 -0.41593 -0.16188
0.00456 0.03581 -0.16978
0.17507 -0.02281 0.16445
0.18693 -0.01706 0.16065
0.18921 0.03607 -0.15541
-0.18140 0.33923 0.03546
-0.00543 0.03580 0.09366
-0.16958 0.22323 -0.09766
0.05924 0.03582 -0.15053
0.19515 -0.04267 0.16828
0.06219 0.04767 0.15909
0.01912 0.04767 0.11284
-0.17150 0.15704 0.16046
0.17238 0.03582 -0.14558
-0.17617 -0.39945 -0.16432
-0.14953 0.04767 0.17375
-0.18264 0.23964 -0.13459
-0.18631 -0.42133 -0.08239
-0.01257 0.03580 0.00625
-0.16734 0.03761 0.01829
0.04330 -0.42134 -0.17421
0.09676 0.03969 0.18401
-0.15730 0.03580 0.11860
-0.16844 0.18122 0.06321
-0.17001 0.26740 -0.10987
0.19026 0.04729 -0.05272
0.02764 0.04769 -0.16046
-0.17063 0.05768 0.13871
-0.18399 0.29172 -0.17552
0.18401 0.04354 0.07763
0.18620 0.04764 -0.16970
-0.17038 0.31330 -0.12011
0.03165 0.03330 -0.16501
0.13939 0.03587 -0.04449
0.04768 0.03584 -0.09124
-0.18355 0.29474 -0.16128
-0.17837 0.10265 0.00429
-0.17097 0.18177 0.14291
0.08114 0.04767 0.16002
-0.16145 0.03585 0.16156
0.02701 0.03584 -0.09977
-0.17194 0.07348 -0.17699
-0.19575 -0.40882 0.03776
0.17217 -0.12694 0.17186
0.18882 -0.28984 0.18288
-0.16930 0.33220 0.06946
-0.15306 0.04771 -0.09733
-0.04515 0.04767 0.00818
-0.12247 0.03580 -0.17966
-0.18394 -0.42162 -0.10568
0.17844 0.04776 -0.00111
-0.14240 0.03503 0.17606
-0.18068 0.24384 0.07264
-0.16888 0.11328 0.07924
-0.14241 0.01661 0.16292
0.10944 0.03580 0.18054
0.19539 -0.20982 -0.17541
0.19399 -0.35003 -0.17845
-0.07962 0.04767 0.03043
-0.01138 0.03587 -0.03364
-0.18151 0.24840 -0.09865
-0.01369 0.04767 0.12256
-0.18167 0.30894 -0.10171
-0.19247 -0.41806 -0.04834
0.19224 0.03649 -0.12153
0.18050 0.03580 0.10826
-0.11786 0.04769 -0.14014
-0.17070 0.23648 -0.13274
0.15727 0.03583 -0.13214
-0.08671 0.03581 -0.16303
-0.09337 0.04774 -0.04257
-0.17153 0.16843 -0.16089
-0.12944 0.03580 0.17526
-0.13995 0.04767 0.10413
0.03590 0.04767 0.12720
0.07147 0.02921 0.16158
-0.18206 0.35982 -0.05319
-0.17062 0.10280 -0.13441
0.18282 0.03587 -0.02369
0.10828 0.03580 0.14224
0.10952 0.03583 -0.12474
-0.14916 0.04767 0.08673
-0.16868 0.05569 0.07860
0.01885 0.04767 0.04432
-0.02874 0.04767 0.12909
-0.16690 0.19494 0.01441
-0.18208 0.36070 0.00669
-0.06674 0.03580 0.11593
0.14580 -0.40035 -0.17916
-0.17939 0.21492 -0.03284
-0.18185 0.32275 -0.10704
-0.12483 0.03582 -0.14908
-0.01119 0.04775 -0.02232
0.03099 0.04767 0.17730
0.01586 0.03580 0.17981
-0.17212 0.42083 -0.01960
-0.08452 -0.41814 0.16346
-0.17970 0.24544 -0.04171
-0.18163 0.34654 0.08852
-0.17017 0.05523 0.14801
-0.17071 0.08891 -0.13770
-0.05581 0.04598 -0.18401
-0.17285 -0.41357 0.01010
-0.15599 0.01742 -0.18198
0.03237 0.04771 -0.10638
-0.16617 0.05253 -0.01316
0.17242 -0.38741 -0.17430
-0.15863 0.04767 0.08287
0.09949 0.04769 -0.15734
-0.03546 0.03580 0.16455
0.18769 0.04755 0.15812
-0.18140 0.33918 0.06689
0.06146 0.03580 0.14638
-0.16700 0.12549 0.01983
-0.18021 0.10409 0.06213
-0.18258 0.37632 -0.07802
-0.18326 0.11920 -0.15785
0.19373 -0.16854 -0.16547
-0.01962 -0.40841 0.18363
-0.17117 0.39120 -0.04370
-0.18323 0.12427 -0.15657
-0.17134 0.39636 -0.05710
0.16560 0.04771 -0.11516
0.16592 0.04767 0.02185
-0.18360 0.40847 0.02155
0.18401 0.03793 0.12525
-0.17956 0.12160 0.04115
0.00561 0.04770 -0.12057
-0.17911 0.22164 -0.02371
-0.18286 0.15555 0.14414
-0.18138 0.18712 -0.09647
-0.15814 0.04772 -0.09315
-0.16873 0.27362 -0.06950
-0.00178 0.04767 0.03465
-0.17126 0.39396 -0.14506
-0.16256 0.04817 0.16545
-0.13575 0.04776 -0.00430
-0.17044 0.24761 0.12418
-0.16951 0.33872 -0.00749
0.17826 -0.23950 0.18250
0.05025 0.03580 0.05704
-0.18321 0.12052 0.15632
-0.17976 0.07136 0.04907
0.01967 0.03580 0.06607
0.14821 0.04769 -0.14825
0.13044 0.04767 0.03364
0.14600 0.03583 -0.12558
-0.16785 0.09688 0.04741
-0.17154 0.37533 -0.15464
-0.16939 0.31364 0.08886
-0.16705 0.16605 0.01995
0.19321 -0.02144 0.17947
0.17696 -0.26841 -0.16270
-0.18341 0.40252 -0.09662
-0.17068 0.19198 -0.13353
0.04316 0.02445 0.18394
-0.18275 0.07928 -0.14288
-0.15411 0.03580 0.15787
-0.11493 0.03581 -0.17770
0.17222 -0.00375 -0.17275
0.01556 0.04773 -0.05664
-0.16983 0.32357 -0.10229
-0.10565 0.03580 0.02306
0.17693 0.02325 -0.16030
0.02995 0.04771 -0.11531
0.18904 0.04743 0.11831
0.08219 -0.41230 -0.18357
-0.04166 0.03586 -0.04514
-0.18355 0.21740 0.16376
0.01425 0.03580 0.04336
-0.18122 0.33343 0.02314
-0.16839 0.21439 0.06057
0.00712 -0.40640 0.16061
-0.18293 0.06569 -0.14926
-0.16803 0.29213 -0.03911
-0.17876 0.06760 -0.01764
-0.12023 0.03580 0.06930
-0.14298 0.03580 0.13705
0.18401 0.03668 -0.00199
-0.16019 0.02137 -0.18285
0.10832 0.03582 -0.15640
-0.17592 -0.40113 -0.07935
0.07899 0.04767 0.03356
-0.14403 -0.42068 0.16743
-0.16764 0.27996 -0.02989
0.07867 0.04770 -0.12596
-0.16910 0.32587 0.07452
0.18272 -0.31523 0.18384
0.05217 0.04770 -0.12397
0.02385 0.04772 -0.08494
0.11616 0.03588 -0.00485
-0.18248 0.29243 0.12786
-0.16887 0.31850 0.07004
0.08479 0.03580 0.05129
-0.07350 0.03580 0.14495
-0.18117 0.30762 -0.08604
-0.18304 0.39066 0.13702
-0.18368 0.22236 -0.17810
-0.13195 -0.39799 0.17262
-0.17053 0.31035 0.12501
-0.17953 0.22120 -0.03695
0.06333 -0.42097 0.17571
0.17007 0.03073 -0.16252
-0.17213 0.14136 -0.18071
-0.16897 0.20808 -0.07905
0.18400 0.04304 -0.17673
0.07775 -0.42162 -0.17195
-0.05302 0.04773 -0.05234
0.17219 -0.02442 -0.17255
0.06478 0.02577 -0.18376
0.02124 0.04767 0.04013
-0.02364 0.01214 0.17271
0.03462 -0.41053 -0.18376
-0.06383 0.03588 -0.01982
-0.17159 0.10621 -0.16494
-0.11376 0.04774 -0.03933
-0.16799 0.11485 -0.05108
-0.01707 0.03586 -0.06577
-0.18314 0.26891 0.14922
0.07593 0.03580 0.04412
-0.03903 0.03580 0.00247
-0.03161 0.03580 0.15879
-0.02732 0.02998 -0.16194
0.08685 -0.42035 0.16686
-0.12272 0.04767 0.09795
-0.18182 0.35219 0.02161
-0.16958 0.28355 -0.09584
-0.03030 0.04768 -0.17237
-0.07776 0.04770 -0.13439
0.11734 0.03584 -0.09772
-0.18299 0.29715 0.14364
-0.18400 0.27532 -0.17630
0.06014 0.04774 -0.04237
0.08974 -0.42144 0.17351
-0.02659 0.03585 -0.08044
-0.18064 0.24457 -0.07121
0.09090 0.04774 -0.04731
-0.18052 0.28205 0.06633
0.12945 0.03587 -0.02825
-0.16871 0.29343 0.06816
-0.04571 0.04767 0.13700
0.00111 0.04771 -0.10713
0.05302 -0.41941 0.17877
0.14884 0.03497 -0.16801
-0.18286 0.38516 0.10511
-0.16108 0.03587 -0.07665
-0.08889 0.04767 0.06693
0.11105 -0.42131 0.17454
0.10104 0.04767 0.10554
-0.16667 0.13838 -0.00895
-0.07593 -0.41684 -0.18128
0.13345 0.04184 0.00000
-0.17499 -0.40218 0.04808
-0.18337 0.15884 0.16005
-0.18160 0.09019 0.10648
-0.17119 0.29413 -0.14636
-0.18208 0.09552 0.18218
-0.07268 0.03582 -0.14952
-0.11262 0.03580 0.03361
0.19587 -0.36731 -0.17224
-0.00167 0.01234 0.16998
-0.18121 0.33307 -0.01748
0.05154 0.04775 -0.01733
0.10538 0.04452 0.00000
-0.01813 0.01698 -0.18163
-0.15202 0.03580 0.08313
-0.14211 0.03580 0.03806
-0.00291 0.04768 -0.16312
-0.16738 0.24850 -0.02757
0.09168 0.04768 -0.16182
-0.17430 0.04120 0.15978
-0.18006 0.25553 -0.17716
-0.07553 0.04767 0.01261
-0.06478 0.03588 -0.00137
0.06937 0.04774 -0.03602
-0.04122 0.03473 -0.16745
-0.12266 0.03584 -0.09673
0.09148 0.03580 0.02579
-0.15723 0.04767 0.05055
0.05398 0.02496 0.18388
-0.10637 0.03447 -0.17746
-0.17155 0.40312 -0.11845
-0.16408 0.02714 0.18000
-0.18722 -0.42117 0.12956
-0.03317 0.04769 -0.14255
0.02459 -0.40867 0.16025
0.10211 0.03587 -0.03092
-0.10842 -0.40344 0.16186
-0.16573 -0.41616 0.18172
0.13830 -0.41668 0.16257
-0.18158 0.28560 -0.09959
-0.18400 0.39747 0.17236
-0.16355 0.03636 -0.01973
-0.00334 0.03580 0.03914
-0.17110 0.31276 0.14275
-0.16648 0.17102 0.00191
-0.16952 0.07393 0.10078
-0.18171 0.12154 0.10904
-0.17942 0.27060 0.03211
0.19553 -0.05792 -0.16952
0.01218 0.03587 -0.04328
-0.18382 0.36963 -0.16767
-0.02445 0.01508 0.16433
0.05792 0.03580 0.15686
-0.18383 0.34925 0.16859
0.00022 -0.41925 -0.17891
0.13297 -0.41564 -0.16178
-0.18380 0.18299 0.17287
-0.13825 0.04767 0.13064
-0.16703 0.21533 -0.01757
0.08011 0.04767 0.10104
-0.17872 0.10527 -0.01507
-0.13586 -0.41905 -0.16459
0.16820 0.04773 -0.06062
0.01088 0.03291 0.16450
-0.15525 0.03581 -0.15805
-0.15052 0.04345 -0.18401
-0.17015 0.35888 0.08573
-0.01185 0.02368 -0.16029
-0.17175 0.03941 -0.15714
-0.17925 -0.42053 0.07661
-0.16641 0.12573 -0.00090
-0.16889 0.08014 -0.08068
-0.17202 0.14972 0.17690
0.19406 0.02035 0.16997
-0.17133 0.23147 -0.15256
-0.00283 0.03582 -0.13993
-0.03079 0.01942 -0.18300
-0.18259 0.17299 -0.13496
0.08620 0.03585 -0.07633
-0.18652 -0.39822 0.01912
-0.08218 0.02683 -0.18362
-0.18237 0.36965 -0.08905
-0.18124 0.33410 -0.03376
0.06243 0.03580 0.01012
0.04554 0.03581 -0.17221
0.17520 -0.17946 -0.18000
-0.18341 0.40260 0.12171
-0.18265 0.17582 0.13674
-0.16751 0.05118 -0.15062
-0.18334 0.20945 -0.15749
0.17659 -0.11123 -0.18128
-0.13247 0.02069 0.16074
0.17421 0.03580 0.15335
-0.17116 0.14133 0.15001
-0.17172 0.40846 -0.01207
0.04904 0.03581 -0.16578
0.18178 -0.00292 0.18372
-0.06446 -0.39827 -0.17475
-0.16695 -0.39990 -0.17828
0.14492 0.04775 -0.00759
0.06075 0.03585 -0.08576
-0.16776 0.23150 0.04020
0.16618 0.04772 -0.08510
0.01066 0.03580 0.17583
-0.17052 0.37051 -0.05723
0.16504 0.04767 0.06701
-0.08495 0.01466 0.16489
-0.18008 0.25719 -0.05313
0.17216 -0.35818 -0.17193
-0.17021 0.07305 0.12250
-0.16709 0.08183 -0.02380
-0.16831 0.30105 0.01854
-0.13936 0.03588 -0.01919
0.10445 0.03580 0.07231
-0.18158 0.34470 -0.04401
-0.18340 0.19105 0.16005
0.14098 -0.40551 0.16112
-0.17156 0.39129 0.15467
0.01471 0.04767 0.06873
-0.17062 0.28075 0.12877
0.18066 -0.24215 -0.16078
0.07051 0.04767 0.04824
0.13282 0.03350 0.16528
0.06478 0.04771 -0.10454
0.14971 0.04767 0.07996
-0.17035 0.22081 0.12226
0.06484 -0.40232 0.18115
0.01758 0.04767 0.02379
0.11468 0.03580 0.07854
0.17358 -0.15073 0.17772
-0.08854 0.04767 0.11598
0.02593 0.03580 0.00739
0.12622 0.04770 -0.12495
0.02453 -0.41022 0.18379
0.14808 0.04770 -0.11687
0.08246 0.04767 0.06287
-0.10095 0.03068 0.16249
0.18961 -0.30753 -0.18255
-0.03254 0.04767 0.09898
0.18692 -0.34035 -0.18362
-0.18226 0.31560 0.12020
-0.16800 0.06413 0.05302
-0.17097 0.21977 -0.14181
0.03124 0.04773 -0.05473
-0.18350 0.07190 0.16698
0.02584 0.04775 -0.01717
-0.18398 0.14240 -0.17978
-0.17205 0.39625 0.17003
-0.19571 -0.40850 -0.00429
-0.18205 0.35972 0.06647
0.18888 -0.01745 -0.18286
0.18214 -0.23221 0.16051
-0.17040 0.36666 -0.08689
-0.17840 0.21294 0.00171
0.00829 0.04774 -0.04612
-0.04741 0.03580 0.10279
0.17106 -0.40301 -0.16246
-0.18196 0.10339 0.11751
0.09753 0.02611 0.18372
0.18181 0.04770 -0.13741
-0.18321 0.30835 -0.15011
0.19339 -0.11642 0.17924
0.17599 -0.29702 -0.16345
0.11638 0.04775 -0.02467
0.17677 -0.16380 -0.16285
0.19584 -0.04719 0.17187
-0.16903 0.26512 -0.07896
0.04669 -0.40980 0.16014
0.02209 0.03580 0.02431
-0.11184 0.04775 -0.01915
-0.06164 -0.41549 0.16153
-0.16993 0.35185 0.05069
-0.17105 0.09426 -0.14802
-0.00501 0.03580 0.06050
-0.17955 0.39148 0.17286
0.18862 0.03601 0.17005
0.02660 0.04768 -0.16731
0.15446 -0.40084 0.16439
-0.10945 0.04772 -0.09206
-0.17946 0.12238 -0.03795
-0.17939 0.16039 0.03446
-0.18388 0.23671 0.17362
-0.06146 0.04774 -0.04019
-0.18334 0.21722 0.15736
-0.17387 -0.41588 -0.08315
0.18072 -0.23686 -0.16076
-0.18265 0.37846 -0.01481
-0.18276 0.38190 -0.00364
-0.16905 0.28134 0.07923
-0.17889 0.25523 -0.01579
0.17422 -0.08455 -0.16555
-0.17121 0.39222 0.00025
-0.17896 0.12586 0.02206
0.18172 -0.27958 -0.16056
0.07628 -0.39907 -0.16708
-0.16915 0.32738 0.00177
-0.10976 0.04767 0.10562
-0.11648 -0.39948 0.17778
0.17734 0.04767 0.07392
-0.10803 -0.40711 -0.18337
0.17297 0.04772 -0.07253
-0.18274 0.38140 -0.13129
0.12644 -0.40092 0.17989
-0.18098 0.27380 0.08115
0.19453 -0.05192 0.17750
-0.17908 0.08539 0.02728
-0.17047 0.36896 0.02515
-0.18115 0.33110 -0.06327
0.18332 -0.18840 -0.16035
-0.16884 0.09234 -0.07877
0.16711 0.04168 0.00000
-0.11874 0.03580 0.07487
0.05166 0.04767 0.14200
-0.17961 0.05442 0.04537
-0.01433 0.03580 0.17878
-0.12043 -0.40289 0.18140
0.17148 0.03580 0.16431
0.17303 -0.06945 -0.17640
0.04850 0.03588 -0.01093
0.17557 0.04767 0.05982
0.19371 -0.20554 0.16545
-0.16651 0.08554 0.00570
0.02972 0.04769 -0.14812
-0.09700 0.04767 0.11696
0.06255 0.04767 0.02120
-0.16271 0.03580 0.18093
0.07037 0.03589 -0.00005
0.13147 -0.41172 0.16047
-0.17877 0.08244 -0.01761
-0.17156 0.33425 -0.15645
-0.05626 0.04767 0.11819
0.15715 0.04359 -0.18401
0.19432 0.04657 0.14843
-0.18277 0.12610 -0.14199
-0.04274 0.04767 0.16351
0.18536 -0.14420 0.18383
-0.16657 0.20174 0.00372
-0.06994 0.04774 -0.04453
-0.18239 0.30048 -0.17566
-0.18240 0.37068 0.11960
0.11629 0.03580 0.09769
-0.17004 0.28469 -0.11024
-0.06857 0.03545 -0.17482
-0.17033 0.28328 0.11961
-0.17932 -0.42056 0.01745
-0.17150 0.30418 -0.15570
0.07815 0.03584 -0.10405
0.17236 -0.20815 -0.17043
-0.00008 0.04274 -0.18401
0.15665 0.04772 -0.07283
-0.18346 0.26363 -0.15968
-0.19386 -0.41626 0.02104
-0.18233 -0.42141 -0.06792
-0.18041 0.30804 -0.01572
-0.13414 -0.41499 0.18239
-0.18090 0.09929 0.08414
0.18441 0.02182 -0.16098
0.08637 0.03582 -0.15613
-0.17097 0.17269 0.14305
0.03316 0.02294 -0.18387
-0.08978 0.03583 -0.12582
-0.04602 0.03580 0.08814
-0.17064 0.09346 0.13520
-0.16795 0.23052 -0.04624
-0.13077 0.04767 0.08180
0.05586 0.03588 -0.00135
-0.16746 0.27139 -0.02948
-0.17881 0.06219 -0.01946
-0.17162 0.40512 0.02863
-0.17910 0.12627 -0.02649
-0.12526 0.03580 0.12182
-0.17054 0.28893 0.12593
0.19106 -0.24489 0.16271
0.17779 -0.06899 -0.18220
0.19588 0.04021 -0.12037
-0.11739 -0.40260 -0.16249
0.08168 0.03586 -0.04989
-0.14216 0.03583 -0.12319
-0.18268 0.37932 0.11223
0.06323 -0.41362 -0.16087
-0.14902 0.04767 0.00614
-0.11984 0.03580 0.14412
0.06341 0.04234 0.00000
-0.13620 -0.40894 -0.18358
0.06584 0.03585 -0.07927
-0.18258 0.10846 0.13675
0.17223 -0.27604 -0.17289
-0.16853 0.22608 0.06470
-0.10494 0.04767 0.17039
-0.16784 0.19495 0.04399
0.17290 -0.11011 0.17608
-0.17148 0.27880 0.15592
0.19359 -0.27475 0.16530
0.19110 -0.26604 0.18153
-0.17042 0.36751 0.04533
0.11588 0.03582 -0.14115
0.18551 -0.13251 0.16046
-0.16744 0.27358 0.02864
-0.06048 0.01235 -0.16991
-0.16733 0.19600 0.02785
-0.18104 0.21604 0.08476
0.09541 0.03582 -0.14503
-0.17910 0.17873 -0.02474
0.19560 -0.39099 0.17423
-0.17185 0.25277 -0.16842
0.14210 -0.40421 -0.16165
-0.15276 0.03580 0.16451
0.17698 -0.28199 0.16270
-0.07035 0.04769 -0.15862
0.07043 0.01564 -0.18060
0.19572 -0.15941 -0.17096
-0.19539 -0.41305 -0.10382
-0.18142 0.24931 0.09559
-0.17900 0.24247 -0.01973
-0.17057 0.12998 -0.13194
0.08907 0.03580 0.16815
-0.16977 0.34685 0.08889
0.19575 -0.28404 0.17119
0.08426 -0.40070 -0.16451
-0.17373 0.30334 -0.17585
-0.07359 0.04773 -0.06636
-0.17853 0.11338 0.00885
-0.17275 0.42161 0.14140
-0.11512 0.03580 0.06387
-0.16847 0.23376 -0.06261
0.19109 0.03631 -0.17328
-0.16941 0.24479 0.09180
-0.07693 0.03580 0.05922
-0.03012 0.03588 -0.01282
-0.17061 0.03923 0.06555
0.12269 0.02005 0.16101
0.14916 0.04775 -0.02397
-0.14499 0.03578 0.16635
-0.18338 0.10249 -0.16224
-0.01019 0.04767 0.18328
-0.02897 0.03585 -0.07166
-0.17177 0.09201 -0.17094
0.19259 -0.37315 -0.16398
0.00586 0.03535 -0.17532
0.10935 0.03580 0.16571
0.08882 0.03580 0.05899
-0.18721 -0.39852 0.16339
0.19588 0.04027 0.13979
-0.17886 0.32855 -0.17488
-0.17328 -0.41461 0.13103
-0.11100 -0.39992 0.17836
-0.00322 -0.39913 -0.16684
-0.18058 0.20011 0.07075
0.17292 -0.11894 -0.16814
-0.17775 -0.39973 0.08288
-0.07699 -0.41968 0.17829
-0.17749 0.35983 0.17393
-0.07716 0.03259 -0.16409
0.18917 -0.32908 -0.16153
0.07508 0.03580 0.17290
-0.18224 0.42131 0.10692
0.18288 -0.16231 -0.18386
-0.18118 0.19786 0.08973
-0.06848 0.03580 0.09747
0.02011 0.04767 0.17125
0.12794 0.03586 -0.05722
0.12605 0.03580 0.05696
0.09233 0.04775 -0.01238
0.06124 0.03029 0.18209
-0.16874 0.24699 -0.07064
-0.16996 0.19333 -0.11082
-0.17919 0.18769 -0.02732
0.06552 -0.42142 -0.17358
-0.18655 -0.39822 0.09393
-0.17748 -0.41958 0.13578
-0.08928 0.03585 -0.08783
-0.10329 0.04767 0.00954
-0.18350 0.40532 -0.05405
0.08848 0.03583 -0.12973
0.18098 -0.29285 -0.18361
0.07304 0.03580 0.08909
0.05683 0.04767 0.14239
-0.19563 -0.41165 0.04733
0.02655 0.02985 0.18243
0.17605 -0.20700 -0.18086
-0.16937 0.33439 -0.07161
0.06777 0.04770 -0.12364
-0.09892 0.01215 -0.17284
-0.18101 0.15795 0.08562
-0.16673 0.06146 0.01329
-0.17186 0.09913 0.17341
0.06967 0.04767 0.13459
-0.16734 0.27028 -0.01408
-0.12693 0.01215 0.17157
-0.17188 0.38062 -0.16515
0.08317 0.01240 0.17472
0.19403 0.03685 -0.16036
-0.00335 0.03580 0.15736
0.09330 0.02084 -0.18359
0.00643 0.03580 0.11654
-0.18264 0.15992 0.18011
-0.18300 0.17137 -0.14806
-0.13324 0.03580 0.13847
0.04895 0.03570 0.17289
0.09289 0.02999 0.16195
-0.10883 0.03588 -0.01946
-0.16628 0.03690 0.14881
-0.18272 0.14123 -0.14006
0.09323 -0.40081 0.17972
-0.17992 0.23580 -0.04895
-0.18284 0.11226 0.14470
0.18384 0.04767 0.00786
-0.17046 0.09681 -0.12955
-0.18251 0.17867 0.13225
-0.18329 0.39869 0.00526
-0.06926 0.04767 0.17823
0.08092 0.02770 0.16096
0.00973 -0.41901 0.16468
-0.14153 0.04767 0.04136
-0.10942 0.04767 0.09787
0.00360 0.04770 -0.13331
-0.18036 0.16562 -0.06509
0.09391 0.03580 0.08680
0.19252 -0.20759 -0.16389
0.19470 -0.07939 -0.16719
0.07073 0.01344 0.17756
-0.17946 0.42140 -0.11026
0.01014 0.04767 0.05633
0.16346 -0.39840 -0.17546
-0.17033 0.15882 0.12339
-0.17193 0.08170 0.17625
-0.05568 0.04767 0.06347
-0.17910 0.14105 -0.02611
0.09316 0.03580 0.13494
-0.06132 0.04773 -0.05863
-0.16995 0.07660 0.11429
0.16222 -0.40258 0.16279
-0.06859 0.03581 -0.15919
-0.16920 0.19506 0.08672
-0.18222 0.36510 0.05102
0.19432 -0.11417 -0.17798
-0.17118 0.03950 0.08429
-0.17207 0.41934 0.11595
-0.07056 0.04767 0.05849
-0.17059 0.23643 0.12910
-0.09845 0.03584 -0.10014
-0.18875 -0.39898 -0.11409
-0.18071 0.14644 0.07671
-0.12115 0.03580 0.11003
0.05305 0.03580 0.16975
-0.17858 0.19220 -0.00785
-0.17750 0.31656 0.17530
-0.12684 -0.39891 0.16726
-0.16466 0.01886 -0.17927
0.19529 0.04634 -0.07818
0.12314 0.04775 -0.01454
-0.09081 0.04645 0.00000
-0.18321 0.35315 -0.14894
0.17746 0.03499 -0.17354
-0.16956 0.25668 0.09629
-0.08077 0.03580 0.13090
0.16328 0.03580 0.18137
0.14107 0.03587 -0.03419
-0.17179 0.24758 -0.16672
-0.13637 0.03580 0.04820
