ply
format ascii 1.0
comment VCGLIB generated
element vertex 1780
property float x
property float y
property float z
element face 0
property list uchar int vertex_indices
end_header
0.20183 -0.16809 -0.19743
-0.13923 -0.08348 -0.01455
-0.20183 -0.07142 0.01169
-0.05457 -0.08348 0.15338
0.16555 -0.31235 0.17050
-0.16150 0.04356 -0.15398
-0.16944 -0.07857 -0.20183
-0.10878 -0.04689 -0.15468
0.20183 -0.13412 -0.17584
-0.20183 -0.13438 -0.19536
-0.16891 0.29287 0.20183
0.15793 -0.08348 0.14859
-0.06173 -0.04689 0.04657
-0.16150 -0.00326 0.15721
0.20183 -0.08328 -0.03620
-0.05636 -0.04689 0.18908
-0.16150 0.03334 -0.01261
0.06283 -0.08348 -0.12688
-0.20183 0.02283 0.19515
-0.16150 0.40339 0.00233
0.02740 -0.08348 -0.05255
0.17479 -0.04689 0.01692
-0.17717 0.35476 0.20183
-0.20183 0.06983 -0.01611
-0.18110 -0.21511 0.20183
0.16555 -0.18466 0.18504
-0.19211 -0.08348 -0.12204
-0.16150 0.19489 -0.18257
0.01715 -0.08348 0.14910
-0.16982 0.03778 0.14014
-0.03389 -0.08348 -0.09350
0.15293 -0.08348 -0.04331
-0.11135 -0.08348 -0.05411
-0.18286 -0.01573 0.03611
0.11688 -0.08348 0.15753
-0.03976 -0.06823 0.20183
-0.16761 0.29283 0.14014
-0.13718 -0.08348 -0.02867
-0.09371 -0.08348 0.04306
-0.20183 -0.01390 -0.02204
-0.16710 0.14157 -0.03611
-0.16150 0.37827 -0.04398
-0.12837 -0.04689 -0.08069
-0.19963 0.05030 -0.20183
0.11909 -0.04689 0.04376
-0.18352 0.31163 -0.03611
-0.16906 0.38844 -0.13138
0.08545 -0.04689 -0.09759
-0.20183 0.14168 -0.19140
-0.16150 0.30722 -0.03181
-0.20093 0.10194 -0.20183
-0.20183 0.23928 -0.18075
0.16863 -0.23539 0.20183
-0.16150 0.03523 -0.17577
0.16555 -0.24386 -0.17361
-0.16731 -0.23815 -0.17454
-0.16881 -0.01742 -0.14014
-0.16869 -0.08348 0.10537
-0.12770 -0.08348 0.17947
-0.05653 -0.08348 -0.19540
-0.20183 -0.16914 -0.19223
-0.20183 0.34445 -0.13702
0.20183 -0.05645 0.08316
-0.16150 0.04304 0.18135
-0.16659 -0.36397 0.20183
-0.16150 -0.31807 0.18148
-0.04646 -0.08348 0.17243
0.16429 -0.04689 -0.07380
-0.11587 -0.08348 -0.02347
-0.00988 -0.08348 0.11268
-0.16870 -0.37562 0.17537
-0.15639 -0.04689 0.12415
-0.20183 0.40707 -0.01302
-0.19929 0.03405 -0.14014
-0.16513 -0.26393 -0.20183
-0.18786 0.22511 0.03611
-0.19490 -0.06212 -0.20183
0.16530 -0.08348 -0.10374
-0.20183 -0.00782 0.17227
-0.20183 0.16692 0.17267
0.17841 -0.13215 -0.16829
0.18805 -0.04689 0.04770
-0.17928 -0.33376 0.17537
0.15368 -0.04689 -0.00788
0.16555 -0.13482 -0.19400
0.16555 -0.27046 -0.18858
-0.02623 -0.08348 -0.19498
-0.20183 0.36152 -0.15209
-0.17914 -0.07476 0.20183
0.08288 -0.05911 -0.20183
0.20183 -0.06355 -0.18993
-0.16150 0.13636 0.19687
-0.19145 0.40277 0.07763
0.05118 -0.08348 -0.12339
-0.20183 0.34559 0.13810
-0.16487 -0.33813 -0.17454
-0.16150 0.31431 0.15779
-0.20183 0.20927 0.14572
-0.10490 -0.08348 0.04807
-0.00706 -0.04689 0.11079
-0.16150 0.25344 0.14637
-0.18920 -0.08348 0.14814
-0.16918 0.28775 0.20183
-0.08170 -0.08348 -0.06795
-0.01082 -0.04689 -0.10732
-0.16150 -0.00515 0.02562
-0.16150 0.28380 -0.00960
-0.19868 0.13020 0.14014
-0.18361 -0.17694 0.17537
0.20183 -0.19945 -0.19710
-0.14643 -0.08348 0.11475
-0.17653 0.41038 -0.00324
-0.05500 -0.04689 0.04013
0.17819 -0.10765 -0.20183
-0.18754 -0.03071 -0.14014
0.11015 -0.08348 -0.12071
-0.19467 0.32742 0.14014
-0.18770 0.29102 0.20183
-0.16150 0.31929 0.03103
-0.03079 -0.04689 -0.09244
0.20183 -0.07812 -0.01869
0.10514 -0.08348 -0.14423
-0.16150 0.35412 0.19478
-0.14326 -0.04689 -0.18955
-0.16150 0.21862 -0.18643
-0.20183 0.39199 0.08397
-0.20183 0.16237 0.02876
0.15799 -0.08348 0.04377
-0.19588 0.31683 0.03611
-0.19219 0.28939 -0.03611
-0.05730 -0.08348 0.05607
0.00760 -0.04689 0.12180
0.20183 -0.30557 -0.19518
-0.18310 -0.20027 -0.17454
0.20183 -0.36952 0.18340
0.00461 -0.08348 0.10553
-0.11548 -0.04689 0.11920
0.20183 -0.11690 -0.17908
0.01823 -0.08348 -0.15008
0.09651 -0.08348 0.01405
-0.20183 0.07493 0.01894
0.09137 -0.04689 0.03376
-0.16528 -0.08348 -0.02008
0.10609 -0.04689 -0.03079
-0.10887 -0.04689 -0.16353
0.16555 -0.39582 0.18421
-0.17437 -0.32077 -0.20183
-0.16150 0.35542 -0.18590
0.03260 -0.08348 0.19092
0.13365 -0.08348 0.11051
-0.04569 -0.04689 -0.13003
0.02988 -0.08348 -0.06588
0.20183 -0.11485 -0.18846
-0.19996 -0.41052 0.18915
-0.18204 -0.04689 0.08631
-0.16150 0.05567 0.16617
-0.04382 -0.04689 -0.14206
-0.19146 0.11673 -0.20183
-0.20183 -0.16238 0.18733
0.00606 -0.04689 -0.09332
0.19412 -0.04689 -0.01985
-0.14164 -0.04689 -0.09967
-0.03848 -0.08348 -0.09780
0.07483 -0.08348 -0.01649
-0.20183 -0.07756 -0.15062
0.18633 -0.14767 -0.16829
-0.17890 0.23377 0.14014
-0.16150 0.11068 0.14456
0.19240 -0.04689 -0.10427
-0.19018 -0.21627 -0.17454
0.17000 -0.27088 -0.20183
0.10969 -0.08348 -0.10488
-0.19490 -0.37027 -0.20183
-0.19524 0.17366 -0.03611
-0.16425 0.38661 -0.13725
0.05400 -0.08348 -0.16004
-0.16150 -0.23566 -0.18518
0.20183 -0.27291 0.18747
-0.16150 -0.02207 0.16270
0.16790 -0.38453 0.17019
-0.05569 -0.08348 0.15990
-0.10416 -0.08348 -0.04134
-0.08644 -0.08348 -0.16411
0.16555 -0.14594 -0.17205
0.16642 -0.04689 0.09126
-0.16150 0.09170 -0.02986
-0.19484 0.05904 -0.20183
-0.16150 0.07839 0.19480
0.02323 -0.08348 0.17000
0.15051 -0.04689 0.14662
-0.20183 0.15998 0.19860
0.14319 -0.04689 -0.01727
-0.18725 0.06849 -0.14014
-0.18820 0.40908 -0.03323
-0.16150 0.36112 -0.14150
-0.04083 -0.08304 -0.20183
0.16223 -0.08348 -0.15166
0.20183 -0.26573 0.17113
-0.16150 -0.19173 -0.19695
-0.20183 0.12731 0.01790
-0.16150 0.14910 0.03093
0.14319 -0.08348 0.18427
0.07064 -0.08348 0.18055
-0.20183 0.03357 0.18563
-0.20183 -0.22495 -0.19293
0.20183 -0.15762 0.19662
-0.16150 0.00602 0.17303
0.04306 -0.08348 -0.08653
-0.10436 -0.08348 0.15564
-0.16150 0.28509 0.19625
-0.06431 -0.07805 0.20183
0.20183 -0.10715 0.19054
-0.18910 -0.08348 0.06243
-0.20183 -0.06766 0.05461
-0.20183 0.23236 -0.17214
-0.20183 -0.06366 -0.09563
-0.03709 -0.08348 0.05663
0.11684 -0.05550 -0.20183
-0.20183 0.35310 -0.02089
-0.01328 -0.04689 -0.01755
-0.16150 0.27590 -0.02446
-0.18249 -0.12805 0.17537
-0.17861 0.33543 0.03611
-0.16150 0.09349 0.18937
-0.16150 0.12368 0.14777
-0.16150 0.17128 0.19005
-0.10266 -0.04689 0.14252
-0.16150 0.22659 -0.18204
0.01936 -0.08348 0.16326
-0.17309 0.08775 0.20183
-0.16150 0.30507 -0.15997
0.08216 -0.08348 -0.04748
0.16555 -0.21094 -0.19635
-0.11812 -0.04689 0.02742
0.02706 -0.04689 0.10855
0.00182 -0.04689 -0.05668
0.00220 -0.04689 -0.00655
-0.16150 -0.33919 -0.18187
-0.18835 0.31791 0.20183
0.13428 -0.04689 0.10474
-0.20183 -0.02538 0.01887
-0.01368 -0.04689 0.02687
-0.01881 -0.04689 -0.19161
-0.16150 0.39122 -0.02018
-0.20183 0.35236 0.20002
-0.16150 -0.04315 -0.17031
-0.20183 -0.18856 0.19793
0.16555 -0.17594 -0.16882
0.15563 -0.04689 -0.18754
-0.13354 -0.08348 0.08095
-0.15759 -0.08348 0.08708
-0.16150 0.01853 -0.03382
0.02408 -0.04689 0.09865
-0.20183 0.37654 -0.04568
-0.18775 0.13669 -0.20183
-0.16150 0.34669 -0.19038
-0.18329 -0.01307 0.14014
-0.20183 -0.13665 0.18589
-0.08149 -0.04689 0.12601
-0.20183 0.30989 -0.00749
-0.09476 -0.08348 0.15773
-0.20183 -0.07260 -0.17560
-0.17327 0.14028 0.20183
-0.02247 -0.04689 -0.05684
-0.16150 0.08595 0.02606
0.16555 -0.26948 -0.17322
-0.19577 -0.21852 0.17537
0.19213 -0.08348 -0.07509
0.12507 -0.08348 0.13390
0.15218 -0.08348 -0.07042
0.16230 -0.04689 -0.15521
-0.00932 -0.05907 0.20183
-0.20094 0.27491 0.14014
0.18655 -0.04689 -0.07055
0.18124 -0.04689 0.02800
-0.17175 -0.08348 0.01154
0.20024 -0.11931 -0.16829
-0.16150 0.02686 0.18437
-0.01563 -0.04689 0.07833
-0.16595 0.29359 -0.14014
-0.07239 -0.04689 -0.01671
-0.18923 0.07355 0.20183
-0.12532 -0.04689 -0.11702
-0.16240 0.40650 -0.05431
-0.20183 0.38111 -0.01824
0.11560 -0.08348 -0.10729
-0.20162 0.21920 -0.14014
0.13002 -0.04689 -0.10275
0.04579 -0.08348 -0.10892
-0.16150 0.26492 -0.02489
-0.17692 0.39358 0.11496
-0.16411 0.26305 0.20183
-0.20183 0.10496 0.14220
-0.18147 0.05903 0.03611
-0.03839 -0.04689 0.10544
0.10594 -0.04689 -0.00225
0.20183 -0.07296 -0.14457
0.19852 -0.16242 -0.16829
-0.17067 -0.38706 -0.20183
-0.20183 -0.34562 -0.18891
-0.16150 0.39626 0.00960
0.16555 -0.17618 -0.19706
0.02257 -0.04689 0.01458
-0.16150 0.34605 0.00165
0.11755 -0.04689 -0.01072
-0.18492 0.37791 0.15860
0.07421 -0.04689 -0.04967
-0.18565 -0.17224 -0.17454
-0.18262 0.16838 -0.03611
-0.04061 -0.04689 0.17706
0.17733 -0.16911 0.17019
0.12762 -0.08348 -0.14203
0.17913 -0.14831 -0.16829
0.20183 -0.06433 0.10501
-0.20183 0.16490 -0.02096
0.04578 -0.08348 -0.01577
-0.16150 -0.03169 0.00930
-0.16690 0.05955 0.14014
-0.20183 0.40447 0.06717
-0.08083 -0.08348 -0.18421
-0.17467 0.22312 0.14014
0.20183 -0.05772 -0.15180
-0.20183 0.16642 -0.18465
0.12682 -0.04689 0.19636
-0.18378 0.02115 -0.14014
-0.20138 -0.02173 -0.14014
-0.19971 0.22230 -0.20183
0.08994 -0.04689 -0.18690
0.20183 -0.04949 0.15869
0.16555 -0.30397 -0.18489
-0.09818 -0.08216 -0.20183
0.17319 -0.21091 -0.20183
-0.18518 0.40194 0.08141
-0.16150 0.08436 0.16467
-0.19577 0.40782 -0.04419
0.18618 -0.31815 -0.16829
0.19667 -0.08348 -0.09839
-0.16150 0.12017 0.02508
-0.20183 0.34392 -0.16334
0.17042 -0.20159 0.17019
-0.20183 0.37743 -0.08345
-0.20183 -0.19264 -0.17880
-0.11660 -0.08348 -0.14515
0.08503 -0.08348 -0.07503
-0.16150 -0.13610 0.20168
0.18082 -0.04689 -0.16046
0.14942 -0.08348 -0.01456
0.16555 -0.29479 0.18443
-0.20183 0.36664 0.09753
0.04192 -0.08348 0.13678
0.06979 -0.04689 0.06813
-0.04857 -0.04689 0.04958
-0.18749 -0.26849 -0.20183
-0.17850 -0.02489 0.03611
-0.20183 0.25829 -0.15326
0.16396 -0.08348 -0.17223
0.14156 -0.08348 -0.18646
-0.18853 0.08470 -0.14014
0.02027 -0.08348 -0.07202
-0.16362 0.29950 -0.03611
-0.19699 -0.04689 0.05668
-0.20183 0.36424 -0.08232
0.18483 -0.21671 0.20183
-0.19123 0.19462 0.14014
0.20183 -0.06495 0.16011
0.11375 -0.04689 0.09197
0.15121 -0.08348 -0.13549
0.20183 -0.11296 -0.16918
0.20183 -0.17597 -0.19291
-0.06275 -0.08348 -0.09940
-0.20183 0.20440 -0.17192
-0.16150 0.17726 -0.18061
0.20183 -0.19477 0.19748
0.20183 -0.07760 0.08485
0.12050 -0.04689 -0.18386
0.03103 -0.04689 -0.07067
0.18222 -0.28096 0.17019
-0.01753 -0.04689 0.17257
-0.08560 -0.08348 0.17440
-0.04927 -0.04689 0.19126
0.05786 -0.08348 -0.12674
-0.09187 -0.04689 0.03847
-0.14414 -0.04689 0.19110
0.09838 -0.04689 -0.05939
-0.16150 0.09817 0.20003
-0.20183 0.11786 -0.18994
0.01881 -0.08348 0.18133
0.17271 -0.08348 0.15488
-0.10496 -0.04689 0.12273
-0.02716 -0.08348 0.07445
-0.19730 0.31780 0.20183
0.20183 -0.38996 -0.18544
-0.16150 0.20257 -0.15363
-0.20183 0.22829 0.00876
0.10703 -0.08348 0.12339
-0.18768 0.27341 0.03611
-0.19773 -0.18529 0.20183
-0.15936 -0.04689 -0.00519
-0.20183 0.36304 0.00167
0.15768 -0.04689 0.16598
-0.11366 -0.08348 -0.09642
-0.20183 0.25870 -0.02325
-0.02457 -0.04689 0.02512
0.03375 -0.08260 0.20183
0.00001 -0.08348 -0.06379
-0.16150 0.25951 0.02217
-0.20183 0.09640 0.14975
-0.19419 0.23765 0.20183
-0.18332 0.27578 0.03611
-0.16150 0.30351 0.16378
-0.20183 -0.33072 0.18528
0.18758 -0.33045 -0.20183
0.08055 -0.04689 -0.01888
-0.20183 0.12561 0.15698
-0.04110 -0.08348 0.08824
0.20183 -0.06585 0.05044
-0.19065 -0.27639 -0.20183
-0.17068 0.02566 -0.14014
-0.02945 -0.04689 -0.03997
0.07176 -0.08348 -0.09459
-0.17612 -0.03581 0.03611
-0.19106 0.19073 0.03611
-0.16150 0.21087 0.19325
-0.12873 -0.04689 -0.19612
0.11792 -0.08348 0.14624
0.05147 -0.04689 -0.02275
0.05804 -0.04689 -0.07728
0.19146 -0.04689 -0.09590
-0.16711 0.16128 -0.03611
0.15565 -0.08348 -0.06134
0.13434 -0.08348 -0.03981
0.02967 -0.08348 0.09426
0.11849 -0.08348 -0.09035
-0.16693 0.38677 0.13673
-0.17157 0.36758 0.05692
0.04524 -0.08348 -0.09742
-0.09829 -0.08348 0.08385
-0.20183 0.32005 0.18343
-0.17447 -0.27276 0.17537
0.14164 -0.04689 -0.02394
-0.19611 0.36300 -0.07933
-0.14872 -0.04689 -0.13381
0.05674 -0.08348 0.09120
-0.16988 0.09264 -0.14014
0.17566 -0.16088 0.20183
-0.12027 -0.04689 -0.12598
-0.05788 -0.04689 -0.03714
-0.05898 -0.04689 -0.19946
-0.14247 -0.06546 -0.20183
-0.16150 -0.11917 -0.19540
-0.06567 -0.05619 0.20183
-0.20183 0.00492 0.16965
0.14574 -0.08348 -0.11996
-0.20183 -0.08154 0.02662
-0.16952 -0.03071 0.03611
-0.19668 -0.34249 -0.20183
0.00577 -0.08348 0.05626
-0.16150 0.03243 0.15809
-0.07568 -0.04689 0.16601
0.20183 -0.06452 -0.10722
-0.16150 0.00629 -0.01186
0.05229 -0.08348 0.05738
-0.14096 -0.04689 0.18355
-0.16150 -0.01132 0.03534
-0.12204 -0.07137 -0.20183
0.20029 -0.16909 -0.16829
0.10405 -0.04689 -0.05798
-0.19690 0.30280 -0.03611
-0.18070 0.37080 0.03745
-0.10666 -0.08348 -0.03114
0.07138 -0.08348 0.19356
-0.16150 -0.02262 0.17502
-0.16150 0.36607 -0.03589
0.16555 -0.10517 0.19039
0.20183 -0.30151 -0.19918
-0.19187 -0.00657 0.20183
0.02904 -0.07061 0.20183
-0.17526 0.11033 0.20183
-0.20183 0.38824 -0.08743
-0.09435 -0.04842 0.20183
0.18535 -0.11852 -0.20183
0.18995 -0.41052 -0.17907
0.12345 -0.08348 0.06944
-0.17715 -0.31642 0.17537
-0.18430 0.37776 -0.15898
-0.19948 0.36753 -0.05720
-0.20183 0.33828 0.00225
-0.20183 0.04478 0.00646
0.17934 -0.39483 0.20183
-0.20183 0.36914 -0.12337
0.08686 -0.04939 -0.20183
-0.12899 -0.08348 0.18623
-0.05316 -0.04689 -0.11747
-0.09491 -0.08348 -0.06626
-0.16700 0.22912 -0.20183
0.20183 -0.04789 0.00317
0.15246 -0.06270 0.20183
-0.16150 0.35679 -0.13246
-0.20183 -0.07137 -0.14348
-0.10073 -0.04689 0.10104
-0.20183 0.37395 0.07045
0.02077 -0.04689 0.14033
-0.18338 -0.32707 0.17537
-0.04021 -0.05157 -0.20183
0.00492 -0.04689 -0.16663
0.10728 -0.08348 0.17946
-0.20183 0.12838 -0.15191
0.19786 -0.04689 -0.07332
-0.19606 -0.00772 -0.14014
-0.16150 0.29823 -0.01829
-0.16150 0.10426 -0.00026
-0.20183 0.14380 -0.16102
0.02429 -0.06850 -0.20183
-0.18121 0.11698 -0.03611
-0.19419 0.03554 -0.03611
-0.16150 0.22470 -0.15989
-0.16150 -0.02404 0.17010
-0.16150 0.00688 0.14332
0.02026 -0.08348 0.07673
-0.16478 0.16528 0.03611
0.16954 -0.04689 0.19990
-0.17671 -0.09554 0.20183
-0.19750 0.26629 0.14014
-0.17467 -0.31473 0.20183
0.16555 -0.10243 0.18232
-0.04454 -0.04689 -0.18979
-0.18711 0.38425 0.14318
-0.16150 0.26912 0.01150
-0.20183 0.01538 -0.18605
-0.09573 -0.07535 -0.20183
-0.16367 -0.04689 0.09696
0.08905 -0.04689 -0.07455
0.17873 -0.24696 -0.20183
-0.16150 0.11638 -0.16708
-0.11627 -0.08348 -0.10281
0.05087 -0.04689 -0.11914
-0.19724 0.02193 0.03611
-0.16150 0.32561 0.18092
-0.20183 -0.08552 0.18447
-0.19101 -0.04510 0.14014
0.17538 -0.26310 0.20183
0.20183 -0.11842 0.18832
0.03537 -0.08348 0.13884
-0.18476 0.15027 -0.03611
-0.16150 -0.21821 0.19060
-0.16150 0.40116 -0.03490
-0.20183 0.27902 0.00778
0.20183 -0.37526 0.19180
-0.18628 -0.39745 0.20183
-0.16892 0.23088 0.14014
-0.19195 -0.30342 0.20183
0.19479 -0.33499 0.17019
-0.20183 -0.05857 0.02734
-0.16759 -0.25284 -0.17454
0.20183 -0.21518 0.18169
-0.16607 -0.14681 0.20183
0.20183 -0.33874 0.18710
0.06813 -0.08348 0.19867
-0.17239 -0.27102 0.20183
-0.16150 0.33791 0.01431
-0.16150 0.09470 -0.14877
-0.19898 0.00272 -0.14014
-0.05293 -0.04689 -0.07571
0.18916 -0.38516 -0.20183
-0.20113 -0.28764 -0.17454
0.18723 -0.31054 0.20183
-0.16150 0.31559 -0.02520
-0.16150 -0.04586 -0.02295
-0.12623 -0.08348 -0.11829
0.18674 -0.28999 -0.20183
-0.07070 -0.06203 0.20183
-0.16150 0.00136 0.17480
-0.06193 -0.05963 -0.20183
-0.20183 -0.04910 0.06324
0.08768 -0.04689 -0.15984
0.16555 -0.25166 -0.19304
-0.16150 0.23347 -0.03072
0.12425 -0.06419 -0.20183
-0.17616 -0.10405 0.17537
0.20183 -0.05067 -0.00445
-0.16150 0.10925 -0.03117
-0.16150 0.26082 0.00452
-0.18132 0.38807 0.13256
-0.17117 0.19069 -0.03611
0.16555 -0.14087 0.19169
-0.16150 0.38961 0.04527
0.08735 -0.08348 -0.14296
-0.03756 -0.04689 -0.17375
-0.20183 -0.07831 0.02019
0.19943 -0.33862 -0.16829
-0.18330 -0.00913 -0.20183
-0.20183 0.39965 -0.03592
0.16136 -0.08348 0.10828
0.17556 -0.05427 -0.20183
0.17210 -0.08348 0.01439
-0.12047 -0.04689 0.11932
-0.20143 -0.39519 -0.17454
-0.03608 -0.08348 0.03919
0.16555 -0.39856 -0.19440
-0.18458 0.07412 0.14014
-0.01470 -0.08348 0.13600
0.07371 -0.08348 0.15439
-0.18343 -0.08348 0.09732
-0.15933 -0.08348 0.02448
-0.18310 -0.03924 -0.03611
-0.16150 0.37326 -0.03374
0.15883 -0.08348 -0.07888
-0.17908 -0.04689 -0.03773
-0.17252 0.00953 0.20183
0.03377 -0.08348 -0.04242
-0.16300 0.08636 -0.20183
-0.18747 -0.37879 0.17537
-0.20183 0.11013 0.18955
0.07449 -0.08348 0.16789
-0.20183 -0.08320 -0.03977
-0.10380 -0.04689 0.02940
0.17349 -0.23953 -0.16829
-0.08033 -0.04689 0.19254
0.16123 -0.08348 -0.05903
-0.06121 -0.08348 0.11441
-0.16150 0.37567 -0.11122
-0.20183 -0.00912 0.01346
0.11468 -0.08348 0.16723
-0.20183 0.25255 0.00278
-0.01199 -0.08348 -0.01489
-0.18174 -0.08348 -0.11377
-0.16150 0.33471 0.17742
-0.04811 -0.08348 -0.01974
-0.17947 -0.08348 0.02937
-0.03634 -0.04689 0.19406
-0.13860 -0.08348 -0.10437
0.07657 -0.04689 0.14576
-0.16347 0.02606 0.20183
0.12298 -0.08348 0.09800
-0.18857 -0.11454 -0.17454
0.20183 -0.16647 -0.19053
0.19411 -0.08348 -0.15841
-0.17307 -0.00895 0.20183
-0.19057 0.31071 0.20183
0.16486 -0.08348 -0.18957
-0.16150 0.30283 0.02649
0.14064 -0.08348 0.20116
-0.19701 0.28618 0.14014
0.18289 -0.04689 -0.01064
-0.03233 -0.08348 0.19254
-0.20183 0.11647 -0.19766
-0.16245 -0.09045 -0.17454
0.15555 -0.08348 0.15782
-0.09658 -0.08348 0.06630
-0.20183 -0.06054 -0.12979
-0.17371 0.14472 0.14014
0.20183 -0.08724 -0.18291
0.20183 -0.23735 -0.19581
-0.20183 0.37222 0.11405
-0.00607 -0.04689 0.00165
-0.06830 -0.08348 -0.19252
-0.17148 -0.04689 0.13722
0.19988 -0.25553 -0.16829
-0.20032 -0.14722 0.20183
-0.17441 -0.41052 -0.18519
-0.16150 0.26149 -0.18691
0.05771 -0.04689 -0.05369
0.16555 -0.21862 -0.17295
-0.16150 0.01346 0.16928
-0.20183 0.28514 -0.20160
-0.17475 0.38600 -0.13891
-0.19211 0.35583 0.10491
-0.17955 0.07016 -0.14014
-0.16150 0.08381 -0.14291
-0.16150 0.18221 0.15248
-0.07902 -0.04689 -0.14471
-0.18238 0.18227 0.14014
0.16555 -0.15313 -0.19040
-0.18716 0.41006 0.01063
0.09842 -0.04689 -0.19638
0.14965 -0.04689 -0.08485
-0.16150 -0.18538 -0.19042
-0.20183 0.38944 0.03950
-0.03366 -0.08348 0.09233
-0.16326 -0.41052 0.18183
-0.09416 -0.04689 -0.17487
-0.19261 -0.41052 -0.19606
-0.16762 0.01316 -0.03611
-0.16150 0.30544 0.01857
-0.20183 0.31040 0.00791
0.08235 -0.08348 0.09724
0.19431 -0.35127 -0.16829
-0.20183 -0.06692 -0.15449
0.19855 -0.34484 0.20183
-0.17058 -0.04689 0.11347
-0.11394 -0.08348 -0.03893
-0.20183 0.39818 -0.08138
0.02845 -0.08348 -0.01448
0.19027 -0.08348 -0.15136
-0.16150 0.12058 0.19856
0.12044 -0.08348 -0.10190
0.18801 -0.04689 0.17847
-0.19056 0.10912 -0.20183
-0.19285 -0.08348 0.10738
-0.20183 0.15326 0.00693
-0.16150 -0.03935 -0.03411
-0.16150 0.09758 -0.00867
0.16555 -0.22686 0.18024
-0.17788 0.18383 0.03611
-0.16150 0.27616 -0.18341
-0.03703 -0.08348 -0.05935
-0.06860 -0.04689 -0.17430
0.20183 -0.07517 0.04155
-0.10623 -0.04689 0.17857
0.05668 -0.08348 0.01197
0.00802 -0.08348 -0.09071
-0.20183 -0.06075 0.07459
0.09800 -0.08348 -0.01154
-0.16150 0.38737 -0.06115
0.20183 -0.21011 -0.18212
-0.16150 -0.00801 -0.01363
-0.19064 0.16374 -0.03611
-0.16150 0.18856 0.17479
-0.05760 -0.08348 0.03158
-0.16923 0.14006 -0.14014
-0.16181 0.33933 0.03611
0.04055 -0.08348 -0.07787
-0.16150 0.13067 0.00931
0.17832 -0.10711 0.20183
-0.17064 -0.04689 -0.09287
-0.20183 0.29610 -0.14687
0.16555 -0.18174 -0.19808
-0.20183 0.22301 0.18745
-0.20183 0.24011 -0.16053
-0.11062 -0.06042 0.20183
-0.16296 0.07339 0.20183
-0.16150 0.21074 -0.17535
0.10651 -0.04689 0.16296
0.16690 -0.26494 0.17019
-0.04922 -0.04689 -0.13781
-0.11554 -0.04689 -0.03563
-0.20183 -0.03431 -0.19971
-0.16150 -0.14020 0.18720
0.16555 -0.25818 0.17749
0.20183 -0.24353 -0.18545
-0.16150 0.37605 0.13754
-0.16150 -0.12038 0.19160
-0.10520 -0.05572 0.20183
-0.16150 0.22577 -0.02816
0.11226 -0.08348 0.10122
-0.00400 -0.08348 -0.16801
-0.13345 -0.04689 0.19760
-0.20183 0.02763 0.14670
-0.17982 -0.08348 -0.12776
-0.06118 -0.04689 -0.11328
-0.18789 -0.10943 0.17537
-0.19517 0.10545 -0.03611
0.10373 -0.08348 0.13650
-0.19730 0.37021 -0.03611
-0.19960 -0.08348 0.05323
0.16555 -0.28882 -0.19213
-0.16326 -0.03035 0.20183
-0.01803 -0.04689 0.03051
-0.16150 -0.29713 -0.20016
0.15304 -0.04689 0.15421
-0.16150 0.37060 0.13858
-0.16150 0.32617 0.17475
-0.17120 0.10320 -0.14014
0.16764 -0.25366 -0.16829
0.20183 -0.09227 -0.19773
0.00903 -0.04689 0.08435
-0.07967 -0.08348 -0.10388
0.00411 -0.04689 -0.20130
0.16654 -0.29149 -0.16829
0.12848 -0.04689 -0.04369
-0.13794 -0.04689 -0.19383
-0.19283 0.30634 -0.03611
-0.02114 -0.08348 -0.10074
-0.16150 -0.10831 -0.18062
0.17408 -0.04689 0.13073
-0.16150 0.30900 0.02736
0.05258 -0.04689 0.08262
-0.17139 0.18095 -0.03611
0.19206 -0.04689 -0.05114
-0.16150 0.37468 0.04000
-0.16150 0.00939 -0.15116
-0.14812 -0.08348 0.16566
-0.18131 -0.02119 0.20183
0.20032 -0.31918 -0.16829
0.14600 -0.08348 -0.03687
-0.16150 -0.17315 0.17937
-0.17438 0.30493 0.14014
-0.20183 0.23197 -0.01671
-0.06328 -0.06580 -0.20183
-0.17217 -0.02453 -0.14014
-0.11069 -0.04689 0.19647
-0.20183 0.04949 -0.01439
0.17406 -0.31741 -0.16829
-0.20183 -0.36255 -0.18102
-0.20183 0.20038 -0.16310
-0.17151 0.41008 -0.01028
-0.20183 0.08618 -0.03098
-0.18292 -0.04689 0.04183
-0.20183 0.10183 0.14900
-0.18885 -0.14373 0.20183
-0.17213 0.22949 0.03611
-0.19708 0.26228 0.03611
-0.17700 -0.08348 0.00797
-0.16150 0.01150 0.19769
-0.20183 0.40140 -0.01440
-0.17629 -0.09804 0.17537
-0.07658 -0.08348 -0.05364
0.19850 -0.39056 -0.20183
-0.16935 0.30938 0.14014
-0.16150 0.33377 0.02027
0.16555 -0.37419 0.18733
0.12822 -0.04689 -0.05547
-0.20183 0.27962 0.19716
-0.20183 -0.07440 -0.20022
-0.16270 0.32031 0.03611
-0.16712 0.09061 -0.20183
0.10273 -0.08348 -0.08074
0.20183 -0.06385 -0.00668
-0.02809 -0.08348 -0.06414
0.18443 -0.04689 -0.09312
-0.20183 0.34517 -0.16928
0.20183 -0.27525 -0.17088
-0.01083 -0.08348 0.14499
0.05620 -0.08348 -0.07688
-0.02085 -0.08348 0.14483
-0.16150 -0.20826 0.18507
-0.20183 0.05385 -0.15901
-0.20183 0.11593 -0.14707
-0.20183 0.32595 0.18497
-0.16150 0.23725 -0.17886
-0.16626 0.07664 0.14014
0.02362 -0.04689 -0.08450
0.11604 -0.04689 -0.00581
-0.20183 0.17846 0.00149
0.19650 -0.37070 0.20183
-0.16150 -0.36909 -0.19334
-0.16762 0.15035 0.03611
0.13503 -0.04689 0.03714
-0.00784 -0.04689 -0.12435
-0.14406 -0.08348 0.14089
0.12537 -0.08348 -0.03983
-0.09618 -0.04689 -0.02605
0.01836 -0.04689 0.19557
0.19687 -0.04689 0.10229
0.09948 -0.04689 -0.15657
-0.20183 0.13332 0.15490
-0.16524 -0.00029 0.03611
-0.20183 0.09267 0.17206
-0.16332 0.28570 0.14014
-0.16399 -0.17334 -0.17454
0.16555 -0.37449 -0.20016
0.16555 -0.25703 0.18298
-0.17260 -0.27794 0.20183
-0.18359 -0.15008 0.17537
0.17677 -0.10667 -0.16829
0.16555 -0.20422 0.19712
-0.10496 -0.04689 -0.11597
0.19084 -0.16743 -0.20183
-0.00664 -0.04689 0.08879
0.15532 -0.04689 0.01615
0.14791 -0.04689 -0.18053
-0.20183 0.02538 0.16202
0.03564 -0.04689 0.12796
0.04442 -0.04689 -0.10105
-0.16150 0.36481 0.00710
-0.16151 0.35153 0.11611
0.20183 -0.12355 -0.17725
-0.18212 -0.36417 0.20183
-0.16150 0.06039 0.01547
0.20183 -0.07326 0.02172
0.19609 -0.04689 0.05354
0.16976 -0.09398 0.20183
0.17823 -0.04689 -0.14140
-0.16290 -0.27064 -0.17454
0.00384 -0.08348 0.17612
0.20183 -0.36489 0.20172
-0.16658 0.32471 0.03611
-0.02594 -0.04689 0.00082
0.09460 -0.04689 0.13881
-0.16150 0.02681 -0.01260
-0.16150 -0.35656 -0.19187
-0.10724 -0.04689 0.10883
-0.18369 0.40134 -0.08415
0.01412 -0.04689 0.12428
-0.16150 0.36251 -0.02622
0.09765 -0.04689 0.18576
-0.18720 0.27815 -0.20183
-0.04838 -0.07446 0.20183
-0.16150 0.20468 0.02171
0.17895 -0.04689 0.05103
0.16743 -0.04689 0.17892
0.11342 -0.08348 -0.08597
-0.02069 -0.08348 -0.01985
-0.19932 -0.08348 0.11587
0.20183 -0.28947 0.17980
-0.20183 0.22319 -0.19018
-0.17382 0.34739 -0.03611
-0.20183 -0.06606 -0.12945
-0.19015 -0.28856 -0.17454
-0.11358 -0.04689 0.03375
0.16835 -0.37408 0.17019
0.18601 -0.34544 0.20183
-0.18722 0.34609 0.12961
-0.18270 -0.08348 -0.08957
-0.20183 0.30729 -0.17499
-0.20137 0.08352 -0.03611
0.15744 -0.04689 0.18163
-0.13357 -0.08348 0.05058
0.11217 -0.04689 -0.09908
-0.18461 -0.03182 -0.03611
-0.16892 -0.24521 -0.20183
-0.17131 -0.00348 -0.03611
-0.19907 -0.24542 -0.17454
-0.20183 0.16429 -0.17489
-0.16150 -0.00539 -0.02700
0.20183 -0.04731 -0.09510
-0.16185 -0.02281 -0.20183
0.07730 -0.04689 -0.07715
-0.20183 0.27506 -0.16773
-0.05943 -0.04689 -0.16809
-0.19093 -0.23796 0.17537
-0.03818 -0.08348 0.14196
-0.18883 0.32975 -0.14014
0.12163 -0.08348 0.07462
-0.02264 -0.04689 0.19529
-0.20183 0.15678 -0.14306
-0.19931 -0.14335 0.17537
-0.16150 0.29822 -0.18976
-0.20183 0.20913 0.17131
-0.09412 -0.07505 0.20183
0.19499 -0.08348 0.12589
-0.14052 -0.08348 -0.09446
-0.19873 -0.26001 -0.20183
0.16129 -0.04689 -0.03209
-0.17848 0.06380 -0.03611
-0.19319 -0.02423 0.20183
-0.16150 0.02357 -0.19327
0.16555 -0.11568 -0.19851
0.19426 -0.07311 -0.20183
0.18526 -0.32754 -0.16829
0.20183 -0.06862 -0.15577
0.20183 -0.05279 -0.13218
-0.17521 -0.06007 0.20183
-0.16150 0.34869 -0.14601
0.17741 -0.09403 -0.16829
-0.18310 -0.00002 0.14014
-0.16150 -0.04299 0.03116
-0.11239 -0.08348 0.12316
0.09052 -0.08348 0.16783
-0.20183 0.32319 -0.18030
-0.20183 0.31709 0.14571
-0.17941 0.22169 0.03611
-0.16329 -0.21422 -0.20183
-0.06159 -0.04689 0.17501
-0.18898 0.36511 -0.07181
-0.20183 -0.01778 0.03191
-0.14275 -0.04741 0.20183
0.04244 -0.04689 0.01017
0.16555 -0.34112 0.18988
-0.17527 0.29005 -0.20183
-0.09847 -0.04689 -0.13844
0.16555 -0.30655 0.18826
-0.16150 0.34083 0.17410
-0.20183 0.32340 0.00521
-0.16808 0.02674 -0.03611
0.14403 -0.04689 0.07058
-0.13064 -0.08348 0.09871
-0.16150 0.30315 -0.16647
0.15607 -0.08348 -0.15929
-0.19031 0.22805 0.14014
-0.20009 0.09870 -0.14014
-0.19403 0.15181 -0.14014
-0.20183 0.36389 0.03580
-0.20183 -0.03862 -0.14905
-0.20183 0.28218 0.15330
0.09422 -0.04689 -0.00465
-0.16150 -0.24971 -0.19416
-0.20183 0.09587 0.18908
0.16986 -0.41052 0.18597
0.18725 -0.19835 0.17019
-0.20179 0.03617 -0.03611
0.10236 -0.05517 -0.20183
-0.09702 -0.04689 0.08768
-0.19132 -0.03419 0.20183
-0.16150 0.12832 0.18087
-0.16869 0.07975 -0.20183
0.19002 -0.41052 -0.19764
-0.20183 0.24343 0.00387
0.04448 -0.08348 -0.03585
-0.17940 0.29918 -0.20183
-0.16150 0.35850 0.03183
-0.20183 0.35416 0.13804
-0.20183 0.08580 0.01535
-0.20183 -0.21415 -0.19725
0.07528 -0.04689 -0.16919
0.17289 -0.08348 0.02778
-0.07029 -0.08348 0.05373
-0.20183 0.25930 0.19355
-0.04442 -0.08348 -0.17772
0.19519 -0.08573 -0.20183
-0.13328 -0.04689 -0.12832
-0.13822 -0.04689 -0.07051
0.19886 -0.04689 0.09445
-0.20183 0.30187 -0.18584
-0.09731 -0.08348 -0.16155
0.16555 -0.26889 0.19997
-0.17715 -0.10570 -0.17454
-0.18288 0.35809 -0.09686
0.03908 -0.08348 -0.14203
-0.18767 -0.23522 0.20183
-0.16150 0.04975 -0.17343
0.10903 -0.08348 0.04144
-0.18244 0.06105 0.14014
-0.16150 0.38739 -0.00782
-0.01413 -0.04689 0.10460
-0.19074 -0.24057 -0.20183
-0.20183 0.14300 0.19890
0.00812 -0.08348 -0.00130
0.16555 -0.36343 0.18082
-0.18645 0.31475 -0.14014
0.19290 -0.04689 0.08923
-0.16150 0.38779 -0.11207
0.20050 -0.08348 0.12221
0.05208 -0.06952 -0.20183
-0.20183 -0.10145 -0.18138
0.13944 -0.04689 0.00111
-0.20183 0.35287 -0.14577
-0.03428 -0.04689 0.12948
-0.20183 -0.38138 -0.19816
-0.07051 -0.08348 0.01562
-0.01251 -0.08348 0.12294
-0.20183 0.17644 -0.02093
-0.16150 0.38227 -0.01934
0.08008 -0.04689 0.05418
0.10861 -0.08348 -0.04659
-0.16150 0.38052 -0.05384
-0.16881 0.01209 -0.20183
-0.19181 0.14300 0.14014
0.08405 -0.07044 0.20183
-0.10714 -0.08348 0.18795
0.03022 -0.04689 0.15607
0.04105 -0.04689 -0.05055
0.16849 -0.24087 0.17019
0.14254 -0.08348 0.06553
-0.20183 0.22480 0.18203
-0.13413 -0.04689 -0.06266
0.19409 -0.22396 0.20183
-0.20183 0.39405 0.04979
-0.19387 0.06027 0.03611
-0.16150 0.09700 -0.19062
-0.20183 0.04903 0.14117
-0.16150 0.37072 -0.06044
0.16555 -0.33665 -0.17875
-0.08745 -0.04689 0.10745
-0.10400 -0.04689 0.00782
-0.08860 -0.08348 -0.17706
-0.08686 -0.04689 -0.19504
-0.04186 -0.04689 0.04170
-0.19249 -0.08348 -0.03206
-0.03582 -0.04689 -0.16756
-0.20183 -0.27839 -0.17848
0.01627 -0.08348 -0.17222
0.02508 -0.04689 0.13171
0.11713 -0.04689 0.12149
-0.19402 0.34886 0.12273
-0.09459 -0.04689 0.02822
0.15121 -0.04689 -0.17391
0.20183 -0.29012 -0.19233
-0.20183 -0.00226 -0.03274
-0.16150 0.09090 -0.00403
0.04202 -0.04689 0.08420
-0.10724 -0.04689 0.18429
-0.16150 0.22372 -0.20120
0.15872 -0.04689 0.18828
-0.04089 -0.08348 0.09592
0.20183 -0.05115 0.01475
-0.20183 -0.16339 0.19370
-0.16150 0.25448 0.02932
0.12391 -0.08348 0.17739
-0.17729 0.32880 0.03611
-0.16150 0.15516 -0.17764
-0.16249 -0.13021 0.17537
-0.20183 0.19845 -0.17718
-0.20183 0.11546 -0.18061
-0.07064 -0.08348 0.16893
0.07362 -0.04689 -0.15662
0.11925 -0.08348 0.02262
-0.20183 -0.06015 0.10835
-0.20183 -0.04484 0.00801
-0.06741 -0.04689 0.11537
0.11298 -0.08348 -0.01494
-0.16799 0.36255 -0.08096
-0.18749 -0.14091 -0.20183
0.20183 -0.05239 -0.12332
-0.18063 -0.37102 0.20183
-0.16888 0.32724 -0.03611
0.17340 -0.18755 0.17019
-0.20123 -0.18277 -0.20183
0.12594 -0.04689 0.00630
0.06201 -0.08348 0.18174
-0.00359 -0.08348 -0.18432
-0.17313 0.09705 0.14014
-0.20183 0.05089 0.19297
0.17522 -0.41052 -0.19931
-0.03713 -0.04689 0.11795
-0.20183 0.37355 0.08843
-0.13484 -0.04689 -0.13684
-0.18907 0.09664 -0.03611
-0.16251 -0.08348 0.08768
-0.17806 0.15352 -0.14014
0.16626 -0.12829 -0.16829
-0.16568 -0.04689 0.04897
-0.18162 -0.13384 -0.17454
-0.16150 0.06899 -0.00369
-0.16824 0.25968 -0.14014
-0.15584 -0.04689 0.05661
-0.16150 0.11687 -0.00390
-0.16150 -0.28940 -0.19018
-0.16150 -0.09033 0.19421
0.16011 -0.05852 0.20183
-0.14283 -0.08348 -0.20152
0.20183 -0.27029 -0.18835
-0.20133 0.40380 -0.07295
-0.10807 -0.04689 -0.07080
-0.16150 0.20526 0.14277
0.08651 -0.08348 0.05553
-0.17342 0.21577 -0.14014
-0.17071 0.32286 0.20183
-0.05921 -0.08348 -0.10483
-0.20119 0.12143 -0.14014
-0.17762 0.19181 -0.03611
-0.17137 0.39953 0.09238
-0.16977 0.40989 0.01450
0.20183 -0.17503 0.18819
0.19564 -0.04689 -0.11110
0.00271 -0.08348 0.07668
-0.16150 -0.04526 -0.19188
-0.18515 0.22143 0.20183
-0.20183 0.18579 0.02944
-0.17467 0.03558 0.20183
-0.01307 -0.04689 -0.09989
-0.20183 -0.11204 -0.18791
-0.17615 -0.16160 0.20183
-0.14433 -0.04689 0.14916
0.16555 -0.25433 -0.17627
0.10979 -0.04689 0.08661
0.10177 -0.04689 -0.13569
0.20183 -0.08129 -0.07632
-0.20183 0.30528 0.01092
-0.20183 -0.03336 0.16884
-0.20183 0.36544 0.02669
0.16972 -0.04689 0.18761
-0.16150 0.39290 0.01322
-0.20183 0.08533 0.19657
-0.16150 0.28252 -0.18108
-0.17009 0.14769 -0.14014
0.13129 -0.05909 -0.20183
-0.14561 -0.08348 0.10270
0.20183 -0.05062 0.02533
-0.19653 0.40481 0.06718
-0.16900 0.35406 -0.10982
-0.16150 0.19574 -0.17653
0.11406 -0.04689 -0.15976
-0.05640 -0.04689 0.15167
0.19337 -0.04689 -0.04636
-0.00489 -0.08348 0.03838
-0.17741 0.36086 0.19408
0.16776 -0.27784 0.20183
0.16732 -0.28481 0.20183
-0.20183 -0.00912 0.18427
0.17498 -0.41052 -0.18236
-0.08118 -0.04689 0.12113
-0.18068 -0.08348 -0.03386
0.18882 -0.40154 0.17019
-0.03185 -0.05921 -0.20183
0.00700 -0.04689 -0.03038
0.20183 -0.40671 0.19528
0.20183 -0.23781 -0.18074
-0.17373 0.06975 0.20183
-0.08447 -0.05953 0.20183
-0.04366 -0.08348 0.03398
0.20183 -0.05650 -0.03176
-0.20183 -0.04906 -0.18444
-0.20183 0.06083 -0.19502
-0.01924 -0.04689 0.14939
-0.18795 0.28132 0.14014
0.00988 -0.05494 -0.20183
-0.16620 0.33411 -0.20183
-0.20183 0.33069 0.01487
-0.16150 0.28666 0.00311
0.14644 -0.04689 -0.16937
0.10885 -0.08348 -0.09194
-0.19415 0.08091 0.20183
-0.16150 0.06851 0.18051
0.04250 -0.04689 -0.05556
-0.18456 -0.02289 -0.03611
-0.05032 -0.08348 0.07465
-0.16150 0.23777 0.14141
-0.17698 -0.33384 -0.17454
-0.00503 -0.08348 -0.08134
0.20183 -0.31743 -0.18434
-0.19028 -0.09201 -0.17454
0.15071 -0.04689 0.11375
-0.16150 -0.35200 0.17620
0.14101 -0.08348 0.08351
-0.16770 0.27069 -0.20183
-0.16150 0.34782 -0.16914
-0.16150 0.22983 -0.19273
-0.18732 -0.05041 0.20183
0.18063 -0.36351 -0.20183
0.20183 -0.24176 0.17051
0.10398 -0.04689 0.06778
-0.20183 0.37599 0.03975
0.07567 -0.08348 -0.17877
-0.06288 -0.04689 -0.09011
-0.19630 0.13116 0.03611
-0.20183 0.34418 0.17413
-0.07456 -0.04689 0.05921
-0.18994 -0.32822 0.17537
-0.17728 0.40933 -0.02761
0.16555 -0.15376 0.17086
-0.20183 0.16596 0.16101
0.16555 -0.25261 0.19022
-0.17507 -0.04763 0.20183
0.16555 -0.19145 0.19754
-0.20183 -0.00393 -0.00030
-0.20183 -0.07954 0.17340
0.12212 -0.08348 0.15945
-0.20183 0.27389 0.03380
0.19164 -0.08348 -0.02035
-0.20183 -0.07660 0.18968
-0.20183 0.06171 0.16180
-0.16683 0.06605 0.14014
-0.10204 -0.04689 0.01390
-0.16150 0.21019 -0.15803
-0.16150 0.10614 0.17254
-0.17339 -0.30160 -0.17454
-0.16150 0.04216 -0.16826
-0.20183 -0.00394 -0.00851
-0.20183 0.24922 0.20032
-0.20132 -0.02171 -0.03611
0.09674 -0.08348 -0.03166
0.17573 -0.06679 0.20183
-0.05819 -0.04689 0.00606
-0.10905 -0.04689 0.07725
0.16555 -0.09874 -0.19029
0.19710 -0.33082 0.20183
-0.16460 -0.08348 0.16898
-0.18752 -0.24552 -0.20183
-0.20183 0.12601 -0.17649
-0.18389 0.31664 -0.03611
-0.05034 -0.08348 -0.16279
-0.20183 0.06201 -0.02411
-0.10043 -0.06442 -0.20183
-0.16150 -0.29917 0.20100
-0.16150 0.36489 0.16076
-0.20183 -0.05581 -0.03040
-0.20183 -0.08346 0.15813
0.15713 -0.06150 -0.20183
-0.13669 -0.04689 0.07544
0.19782 -0.27477 0.20183
0.06059 -0.04689 0.00709
0.19257 -0.06141 -0.20183
-0.20183 0.30258 0.19381
-0.13598 -0.06071 0.20183
0.03398 -0.04689 -0.02464
0.13974 -0.06002 0.20183
-0.16150 -0.19172 0.18497
0.13345 -0.04689 0.19018
-0.16305 0.36919 -0.04717
-0.16150 -0.39149 -0.19169
-0.01935 -0.04689 0.01127
-0.18745 -0.04689 -0.05195
0.20183 -0.07737 -0.16532
-0.16789 -0.25752 0.17537
0.09153 -0.04689 -0.05971
-0.16345 -0.24718 -0.20183
0.05112 -0.04689 -0.06028
-0.16367 0.27730 -0.20183
-0.10913 -0.08348 0.02187
-0.18450 0.16053 0.03611
0.17182 -0.04689 -0.17397
-0.16926 -0.33496 0.20183
-0.10801 -0.04689 0.20121
-0.18616 0.36012 -0.19551
0.06588 -0.04689 -0.07793
-0.20183 -0.03110 -0.15578
-0.20183 0.38243 -0.12248
-0.20183 0.22318 -0.03546
0.13029 -0.08348 -0.10029
0.07615 -0.04689 0.12049
0.07957 -0.08348 0.03924
0.20183 -0.29405 -0.17921
-0.03934 -0.06053 -0.20183
-0.13217 -0.08348 -0.04775
0.18158 -0.04689 -0.03381
-0.16150 0.15903 0.01742
0.20183 -0.30098 0.17721
0.00596 -0.08348 -0.13421
-0.20183 -0.15294 -0.19258
-0.16150 0.24416 -0.01122
-0.16554 -0.29773 -0.17454
0.07209 -0.08348 -0.12984
-0.16453 -0.05424 0.20183
-0.20183 -0.08004 -0.01343
-0.16150 -0.03031 0.14654
-0.16509 0.05793 0.03611
-0.16422 0.30432 -0.20183
-0.08893 -0.04689 -0.05852
-0.20183 0.08831 0.19004
-0.17023 -0.08348 0.08387
-0.17371 0.31014 -0.14014
-0.15469 -0.08260 -0.20183
-0.03333 -0.08348 0.06728
-0.18882 -0.10366 0.17537
0.02834 -0.06535 -0.20183
0.16716 -0.05610 0.20183
-0.16150 -0.12442 0.17735
0.11534 -0.04689 0.19341
-0.18446 -0.04689 0.06796
0.06586 -0.04689 0.18872
-0.18852 -0.22750 0.17537
-0.18252 -0.36720 -0.17454
0.13531 -0.04689 -0.05374
0.17916 -0.08348 -0.07809
-0.08343 -0.04788 0.20183
-0.08452 -0.08348 0.01876
-0.16150 -0.32360 0.19767
-0.19587 0.26548 -0.20183
-0.20183 -0.37762 0.19644
-0.11137 -0.07113 0.20183
-0.20183 -0.24548 0.20155
-0.19842 -0.33428 -0.17454
-0.18005 -0.30326 -0.17454
-0.20183 0.31608 0.02874
-0.19473 0.27203 0.14014
-0.19176 -0.19695 -0.20183
-0.19762 0.14308 0.03611
-0.15380 -0.08348 0.18368
-0.16150 0.05611 -0.03145
-0.20183 0.15190 0.18657
0.14572 -0.04689 0.14505
0.16555 -0.27781 0.18759
-0.20183 0.21485 0.14056
0.01211 -0.08348 -0.16982
-0.16728 0.17591 -0.20183
-0.16198 -0.00939 -0.20183
0.20183 -0.41007 0.17188
-0.18163 0.40622 0.05643
0.07671 -0.08348 -0.19750
-0.16150 0.22524 0.19915
-0.20183 -0.40879 0.18242
0.14908 -0.04689 0.05787
-0.19998 0.26633 -0.03611
0.06501 -0.08348 0.14457
-0.19308 0.21838 0.03611
-0.12283 -0.04689 -0.17297
-0.16150 0.36349 0.00238
0.20183 -0.06529 0.09843
0.16555 -0.08918 0.17031
0.06752 -0.04689 -0.14484
0.09527 -0.04689 0.04074
-0.20183 0.03106 0.16487
-0.17129 -0.36949 0.20183
-0.12984 -0.08348 0.10851
-0.19092 0.11026 -0.14014
-0.16150 0.12197 0.14100
-0.16150 0.39912 -0.04019
-0.17968 0.08000 0.14014
-0.20183 0.08926 -0.00019
0.11763 -0.04689 0.16879
-0.05135 -0.08348 -0.18140
0.14828 -0.04689 0.12640
-0.16150 0.02060 -0.14920
-0.16150 -0.08921 -0.18638
-0.17829 0.39942 0.09285
0.20183 -0.33448 -0.19988
-0.18259 0.31550 0.03611
-0.16150 0.03571 0.16714
0.07758 -0.04689 -0.05975
-0.16150 0.08020 -0.02570
-0.20183 0.14612 -0.02905
-0.18696 0.27157 0.20183
-0.12815 -0.08348 -0.19820
0.16187 -0.04689 0.07104
-0.19978 0.33706 0.03611
-0.07678 -0.05037 0.20183
0.18317 -0.35787 -0.20183
0.20183 -0.10659 -0.19914
0.18878 -0.08348 0.07360
-0.17843 -0.40381 0.20183
-0.18871 -0.32571 -0.17454
0.03950 -0.04689 0.17740
-0.20183 0.10011 -0.15684
-0.16396 -0.02254 0.20183
-0.16150 0.10710 0.01264
0.01371 -0.08348 0.01944
-0.20183 -0.03783 -0.15689
0.15721 -0.04689 0.02288
-0.16150 -0.29313 0.18667
-0.06200 -0.08348 -0.08591
-0.11319 -0.04689 0.20165
0.17127 -0.14365 0.17019
-0.00301 -0.04689 -0.15979
-0.17985 -0.33547 0.20183
0.17871 -0.20408 0.17019
-0.02208 -0.08348 0.10341
-0.16522 -0.02801 -0.03611
-0.20183 -0.21405 -0.17711
-0.20183 0.19519 -0.03282
-0.20183 -0.09559 -0.19850
0.17299 -0.08552 0.20183
-0.17132 0.00118 0.14014
0.20183 -0.22878 -0.17667
-0.20183 -0.23324 -0.17924
-0.16150 0.14280 -0.18105
0.17462 -0.06273 -0.20183
-0.20183 0.06585 -0.16213
-0.20183 0.29702 -0.00291
-0.20183 0.28071 0.17930
0.16555 -0.23643 0.17049
-0.17246 0.23977 -0.20183
-0.10768 -0.08348 0.10022
-0.14771 -0.04689 0.08930
-0.09329 -0.05726 -0.20183
-0.10328 -0.07048 0.20183
-0.16150 0.34417 0.13987
-0.17596 -0.15761 -0.17454
-0.05992 -0.04689 0.03069
-0.17427 0.40559 -0.06128
-0.18463 -0.18824 0.20183
-0.09115 -0.04689 0.19144
0.03789 -0.04689 -0.11952
-0.17641 0.17551 -0.14014
-0.12829 -0.04689 -0.02982
0.06638 -0.04689 0.15240
-0.19042 -0.41052 0.18141
-0.16222 0.35282 0.20183
-0.20183 -0.34016 -0.18267
-0.20183 0.17306 0.14935
0.19589 -0.08348 0.07827
-0.20183 0.26046 -0.19601
-0.16754 -0.04689 -0.08761
-0.16718 -0.08348 0.00351
-0.17245 -0.17501 0.20183
0.19250 -0.08348 -0.13586
-0.20183 -0.03783 0.00006
-0.16244 0.07453 0.03611
0.00787 -0.08348 -0.01121
0.19493 -0.37714 0.17019
-0.16150 0.38149 0.14778
0.05967 -0.08348 -0.09568
-0.20048 0.36743 0.18135
-0.17802 0.28972 -0.14014
-0.16150 -0.02262 -0.18640
-0.16995 0.00097 0.03611
-0.16974 0.35540 -0.20183
0.19901 -0.08348 0.14807
-0.16150 0.26864 -0.14375
0.17924 -0.38596 0.17019
-0.03433 -0.08348 0.19916
-0.16150 0.32347 -0.18290
0.02935 -0.04689 0.00740
-0.18201 0.08763 0.20183
0.01596 -0.04689 -0.18499
-0.19681 -0.01145 0.03611
0.20183 -0.04707 0.11679
-0.06607 -0.08348 -0.09481
-0.16150 0.36471 0.07553
-0.03011 -0.04689 -0.03047
-0.20183 0.18321 0.16234
-0.06400 -0.04689 -0.13754
-0.15989 -0.08348 0.13020
0.18792 -0.04689 -0.01829
-0.16150 0.22373 0.18480
0.20183 -0.09295 0.18613
-0.18776 0.37084 0.17473
0.16555 -0.13688 -0.17301
-0.17399 -0.38559 0.17537
-0.16150 -0.35699 0.18592
-0.09089 -0.08348 -0.12698
-0.20183 0.39536 0.06026
0.06353 -0.08348 0.01793
-0.13202 -0.04689 -0.02672
-0.01977 -0.08348 -0.08452
-0.16247 -0.18759 -0.20183
0.15888 -0.04689 0.07873
-0.10574 -0.04689 -0.12467
0.06797 -0.04689 -0.13215
0.20183 -0.06603 -0.09702
-0.18533 -0.15146 0.20183
-0.18636 -0.29012 0.17537
-0.16150 0.13398 -0.18990
-0.16150 0.15867 -0.03405
-0.20183 0.26338 0.03529
-0.20183 0.09126 0.18307
-0.20183 0.25423 -0.16171
-0.20183 -0.03050 0.18937
-0.16150 -0.39742 -0.18835
-0.17607 0.07035 -0.03611
0.09754 -0.08348 0.18243
-0.20183 0.25277 0.14164
0.04299 -0.08348 0.01198
-0.20183 0.05266 0.18069
-0.01289 -0.04689 0.16714
-0.16150 0.16467 -0.18286
-0.07254 -0.04689 -0.16225
-0.19673 0.33767 0.20183
0.16555 -0.30147 0.17020
-0.15033 -0.04689 0.17039
-0.20183 0.20051 0.01187
-0.20183 -0.02570 -0.16816
-0.16150 -0.26453 -0.19478
-0.09971 -0.04689 0.19182
-0.16150 0.24106 -0.02716
0.07953 -0.08348 -0.15372
-0.11494 -0.08348 0.10081
-0.18008 -0.00334 0.03611
0.19088 -0.04689 -0.17176
0.15951 -0.04689 0.17711
-0.16150 0.02017 0.18193
0.11109 -0.04689 -0.03142
-0.16150 0.27449 0.17460
0.17326 -0.23604 -0.20183
-0.20183 0.04512 -0.15513
-0.16150 0.20277 -0.19598
0.00989 -0.04689 -0.17151
0.11869 -0.04689 -0.09709
-0.19203 0.07827 -0.14014
-0.19427 -0.38833 0.17537
-0.17911 -0.32071 0.20183
-0.16150 0.36536 -0.14783
0.16350 -0.08348 -0.04724
0.03812 -0.08348 0.15946
-0.16044 -0.04689 -0.06173
-0.19089 0.29563 -0.14014
-0.20183 -0.07886 -0.10485
-0.20183 0.26756 -0.15668
-0.16150 0.23221 0.18450
-0.18257 0.40973 0.01839
-0.20183 -0.27790 -0.19162
-0.20183 0.19254 -0.01954
-0.19807 -0.22825 -0.20183
-0.20183 0.31145 0.19581
0.11765 -0.04689 -0.02380
0.20183 -0.05031 0.07992
0.19112 -0.04689 0.09864
0.05106 -0.08348 0.12700
-0.20014 -0.04530 0.14014
-0.20183 -0.01617 -0.17252
0.16555 -0.18617 -0.17031
-0.20183 0.22086 -0.15442
-0.16297 -0.10864 0.17537
-0.18918 -0.17358 0.20183
-0.20183 0.21821 -0.19288
-0.18600 -0.04689 -0.13711
-0.08118 -0.04689 -0.01865
-0.18087 -0.35214 0.20183
-0.15201 -0.05022 -0.20183
0.00488 -0.08348 -0.11984
0.00883 -0.08348 0.15202
0.17524 -0.31168 -0.20183
-0.16867 0.36235 0.19120
-0.05669 -0.04689 0.14386
-0.19072 -0.29417 0.20183
-0.20183 0.07867 0.16858
-0.17663 -0.00940 0.14014
-0.07474 -0.08348 -0.02773
-0.20183 0.07746 -0.19260
-0.16150 0.24422 0.16300
-0.17280 -0.41052 -0.17702
0.02933 -0.08348 -0.15290
0.12380 -0.08348 -0.17581
-0.20183 0.04029 0.19101
-0.16040 -0.04689 -0.06681
-0.16675 -0.29493 -0.20183
-0.05001 -0.08348 -0.19451
-0.14601 -0.05954 -0.20183
0.18987 -0.32426 0.20183
-0.01077 -0.08348 0.05682
-0.20183 0.09068 -0.17420
0.01441 -0.04689 -0.07382
-0.16150 0.22353 -0.00882
-0.17657 -0.16632 0.17537
0.19553 -0.13905 0.17019
-0.16150 0.24753 0.02691
-0.16150 -0.15108 -0.18292
-0.02677 -0.04689 0.09654
0.10774 -0.08348 0.09870
-0.10518 -0.04689 -0.10004
0.20183 -0.06354 0.00063
0.07566 -0.08348 0.09772
-0.00975 -0.04689 0.17966
-0.20183 -0.11804 -0.19033
-0.20183 0.25193 -0.14097
-0.04848 -0.04689 -0.19503
-0.20183 0.39261 -0.05208
-0.16150 0.03224 -0.18164
-0.20183 0.25092 -0.01204
-0.19089 0.32307 0.03611
0.17352 -0.16784 0.20183
0.05241 -0.08348 -0.06284
0.20183 -0.28093 -0.17763
-0.16150 0.16414 -0.02527
-0.06721 -0.08348 -0.00444
0.13759 -0.05414 0.20183
0.17714 -0.14216 -0.16829
0.15380 -0.08348 -0.16838
-0.09897 -0.04689 -0.16412
0.06791 -0.04689 -0.11349
-0.20183 0.12003 -0.15743
-0.20183 0.13544 -0.02321
0.03731 -0.04689 0.03244
-0.16150 -0.00259 -0.01601
0.20183 -0.25941 0.19904
-0.16150 0.19907 0.17002
-0.13289 -0.04689 0.02355
0.04912 -0.08205 -0.20183
-0.19223 0.21822 0.20183
-0.16264 -0.03928 0.14014
0.06708 -0.08348 0.18561
0.19476 -0.33861 0.20183
0.12292 -0.04689 -0.12964
0.14694 -0.08348 0.09583
0.15355 -0.04689 0.19456
0.15874 -0.04689 0.19589
-0.17034 0.40783 0.04408
-0.09159 -0.08348 0.19512
-0.15885 -0.04689 0.03757
0.07974 -0.08348 0.10607
0.14874 -0.08348 0.14341
-0.19037 0.36467 0.07340
-0.04993 -0.04689 0.07766
-0.20183 0.15439 0.19286
0.03172 -0.08348 -0.12278
0.18736 -0.11542 0.20183
-0.10729 -0.07707 0.20183
-0.16184 0.30211 -0.14014
-0.18488 -0.08209 0.20183
0.06537 -0.08348 -0.11162
-0.12559 -0.04689 -0.00479
0.20183 -0.05975 0.09786
-0.20183 0.37302 -0.14821
-0.20183 -0.37465 0.18551
0.17245 -0.08372 -0.20183
-0.02313 -0.08348 -0.14628
0.04487 -0.06311 -0.20183
-0.16150 0.00388 0.18130
-0.14931 -0.08348 0.12504
-0.16150 0.39143 0.07709
-0.03718 -0.04689 -0.17956
-0.16150 0.11696 -0.15763
-0.20183 0.17584 -0.19271
-0.20183 -0.02446 -0.14580
-0.20183 0.12921 0.16605
-0.07128 -0.04689 -0.02454
-0.14253 -0.08348 -0.14149
-0.18655 0.33451 -0.20183
-0.20183 0.01689 0.18126
-0.20183 0.20584 -0.00664
-0.16248 0.05462 0.14014
0.18695 -0.28590 -0.16829
0.17394 -0.33251 -0.20183
-0.09672 -0.04689 0.04795
-0.17057 -0.26620 -0.20183
-0.17473 0.30841 0.20183
-0.08807 -0.08348 -0.13403
-0.16178 0.16174 -0.14014
-0.02509 -0.08348 0.11565
0.20183 -0.07999 -0.00490
-0.16173 0.40295 -0.07684
0.09938 -0.04689 0.07402
-0.05326 -0.04689 -0.12307
-0.20183 0.13626 -0.18663
-0.04509 -0.08348 0.10616
-0.20183 -0.02948 -0.17267
-0.19824 0.15843 0.03611
-0.18804 0.02336 0.14014
0.16975 -0.08348 -0.16704
-0.17597 0.33988 -0.03611
-0.20183 0.27828 -0.15862
0.16555 -0.32429 0.18500
-0.18481 -0.00286 0.20183
-0.11360 -0.08348 0.09383
-0.19613 -0.04689 -0.06003
-0.05180 -0.04689 -0.15327
0.16141 -0.04689 0.01489
0.11820 -0.08348 -0.06211
0.01674 -0.04689 -0.19300
-0.20183 -0.23788 -0.17591
-0.11159 -0.04689 0.15355
-0.20183 0.09200 -0.15468
-0.11532 -0.08348 0.14307
-0.16150 0.03722 0.15428
0.18940 -0.37953 -0.16829
-0.17794 -0.27813 -0.17454
-0.20183 0.23834 0.01625
-0.20183 -0.20031 0.20118
-0.16823 0.04263 0.20183
0.03100 -0.04689 0.06474
-0.18995 0.01565 0.20183
-0.17331 0.38242 0.14763
-0.20183 0.18991 0.01274
-0.04286 -0.04689 0.16329
-0.16299 0.32147 -0.14014
-0.20183 -0.10071 0.19922
-0.17965 -0.10315 -0.20183
0.10121 -0.04689 0.02185
-0.20183 0.15938 0.17207
-0.20183 0.14561 0.01502
-0.20183 0.12049 0.02225
-0.05246 -0.04689 -0.12990
-0.20183 -0.03308 0.01017
0.20183 -0.16243 0.19038
-0.20183 -0.04991 0.09306
-0.18307 -0.08348 0.06985
0.13239 -0.08348 -0.00942
-0.20183 -0.05637 -0.06255
-0.18551 -0.08348 0.17342
-0.20183 0.06644 -0.18391
-0.17113 -0.08348 -0.04119
-0.19968 -0.12524 -0.20183
-0.18413 0.13939 0.03611
-0.16354 -0.08348 -0.15336
0.11244 -0.08348 -0.18369
-0.20183 0.33066 -0.16815
-0.16150 0.06113 -0.03138
-0.17945 -0.40451 -0.17454
-0.16150 -0.02913 0.18681
0.09061 -0.06514 0.20183
0.19294 -0.31886 -0.20183
-0.20183 0.22658 -0.01471
-0.18918 -0.40177 0.20183
0.19416 -0.36655 -0.16829
0.13180 -0.08348 0.08227
0.13599 -0.04689 -0.09581
-0.01846 -0.08348 0.12889
0.09408 -0.08348 -0.11322
0.16555 -0.32796 -0.19050
-0.16150 -0.00984 -0.16240
0.20183 -0.22976 -0.18728
-0.20183 -0.00606 -0.02001
-0.16437 -0.08348 -0.16883
0.05652 -0.08348 0.07158
0.18442 -0.08348 0.04557
-0.20183 0.09205 -0.18520
-0.16150 0.38407 0.03404
-0.16150 -0.39230 0.19024
-0.17003 -0.08348 -0.12433
0.02520 -0.04689 -0.00502
-0.17846 0.02932 0.14014
-0.17263 0.32290 -0.03611
-0.18188 0.04786 -0.20183
-0.16150 -0.22378 -0.18978
-0.19894 -0.04689 -0.06639
-0.20171 -0.25681 0.20183
-0.20069 0.24069 -0.20183
-0.08662 -0.04689 -0.16819
-0.16150 0.33161 0.18375
-0.04181 -0.04689 -0.08402
0.19873 -0.16454 0.20183
-0.20183 0.01646 0.18796
-0.19028 -0.08348 -0.01973
0.17369 -0.08348 -0.00408
-0.04631 -0.08348 -0.03843
-0.20183 0.39687 0.02878
-0.02583 -0.08348 -0.09233
-0.18498 0.34995 -0.12003
-0.14996 -0.08348 -0.16012
-0.16150 -0.38342 0.19603
-0.18412 -0.08348 -0.06009
-0.19159 -0.00880 -0.03611
-0.18667 0.29335 0.03611
-0.20183 0.25142 0.01057
0.17711 -0.08348 0.04061
-0.16150 -0.03689 0.18999
-0.16150 0.08821 -0.14772
-0.06981 -0.08348 0.12046
-0.16150 0.07473 0.17142
-0.17514 0.35880 -0.19807
