ply
format ascii 1.0
comment VCGLIB generated
element vertex 1813
property float x
property float y
property float z
element face 0
property list uchar int vertex_indices
end_header
-0.20160 0.36420 0.12834
-0.21394 0.36121 -0.05413
0.15306 -0.36732 -0.20705
-0.23212 -0.30732 -0.19062
-0.23675 -0.31772 0.20200
-0.23017 0.36856 -0.10493
0.14603 -0.36950 0.20566
-0.11419 0.02175 -0.18663
0.18267 0.01936 0.00798
0.08713 0.03551 0.08186
0.00366 0.04412 -0.01723
-0.13774 0.01280 0.17273
0.08539 0.03539 0.13338
-0.00283 -0.37521 -0.00903
-0.12218 -0.00535 0.10927
-0.13296 0.12345 0.19084
-0.15807 0.32327 0.19493
0.00795 0.03010 -0.10543
-0.16487 0.38461 0.20329
0.19988 -0.37284 0.19043
0.09548 0.05039 0.00824
-0.17885 0.38341 -0.19948
-0.05588 0.04005 -0.09814
0.12790 0.03830 -0.06255
-0.14798 0.21775 -0.19038
0.12205 0.05221 0.09080
-0.14521 0.26666 0.19361
0.07185 0.01932 0.16969
-0.16448 0.34586 -0.14532
0.18008 0.05618 -0.08438
-0.10597 0.02231 0.04687
-0.20389 0.37736 0.15198
-0.10943 -0.02063 -0.20561
0.23284 0.01493 -0.03924
0.21538 0.04606 -0.02002
0.04940 0.03293 -0.11073
0.11339 0.05162 0.01421
0.12998 -0.36802 0.19043
-0.11564 0.03597 0.16119
-0.17593 0.30720 -0.00347
-0.16709 -0.38142 -0.20133
0.08534 0.04970 0.08383
0.17846 -0.37597 -0.19072
0.02248 0.03109 -0.05268
0.00212 0.04401 -0.13614
-0.16878 0.31366 0.09353
0.14682 -0.36358 0.20566
-0.16996 0.29282 -0.05749
-0.14257 0.20021 0.11962
0.21338 -0.37745 0.20885
-0.08801 0.02124 -0.18446
-0.16876 0.26182 -0.20460
-0.14045 0.22769 -0.17354
0.11229 0.03723 0.12240
0.18924 0.05499 -0.11184
-0.09317 0.02319 -0.12698
-0.14585 0.24164 0.12547
0.16640 0.02783 0.13413
-0.21745 -0.32322 0.20566
0.21372 0.03068 -0.03433
0.04634 -0.35648 -0.20446
-0.13288 0.09946 0.20003
-0.02604 0.04209 -0.04850
0.17452 0.01169 0.08692
-0.16223 0.34023 -0.14781
0.22603 0.01447 0.03643
-0.14362 0.21035 -0.19038
0.02360 0.04548 0.01086
0.05102 -0.36136 -0.19038
0.07762 0.04917 -0.10317
-0.16110 0.37145 -0.17437
0.00029 0.03597 0.18839
-0.07570 0.00290 -0.17247
0.18241 0.02393 -0.03683
-0.16160 0.25134 -0.04782
-0.09560 -0.35717 -0.19125
-0.12426 0.03427 -0.04072
0.09247 0.05019 0.02206
0.20252 0.03788 0.15464
-0.15729 -0.37721 0.20499
-0.23358 0.37017 0.01446
-0.21205 0.37266 -0.17596
0.17692 0.04165 -0.01171
-0.03091 0.04176 -0.11583
0.21326 0.04754 0.14248
0.19032 0.05482 -0.05221
0.22373 0.04025 0.18228
-0.00308 0.04366 -0.02811
0.05369 0.03323 -0.16361
-0.01457 -0.36029 -0.08738
0.17127 -0.34816 -0.20223
-0.16300 0.27132 -0.13880
-0.17935 0.32133 0.03789
0.20350 0.03724 0.16906
-0.18267 0.33862 0.04808
0.02060 0.00130 0.17582
0.01771 0.02322 0.18573
-0.01550 0.02850 0.07412
0.19641 0.05386 -0.16687
-0.09673 0.04581 0.19074
-0.17915 0.29944 -0.09462
-0.06090 -0.37403 0.19043
-0.02085 -0.36829 -0.11521
-0.18393 0.29102 0.05401
-0.09464 0.03740 -0.15247
-0.16261 0.20895 0.06277
-0.12295 0.26516 0.20945
0.20043 0.05322 0.12287
-0.00076 -0.35998 0.00633
0.03705 0.04640 -0.17108
0.19838 -0.38035 0.20280
0.16865 0.05540 -0.01372
0.10760 0.05122 -0.03320
-0.02931 0.04187 0.07467
0.20851 -0.36661 0.19043
0.12266 0.03406 0.18239
-0.20050 -0.26000 -0.20552
-0.18793 0.35680 0.02994
-0.23375 0.36538 0.07724
-0.00990 -0.37521 -0.07462
-0.19404 0.36549 -0.11999
0.21885 0.04365 -0.03156
-0.02184 0.02806 0.00814
-0.03731 0.02701 0.07305
-0.12834 -0.00975 0.01526
-0.15061 0.30595 -0.19897
-0.19262 -0.37083 0.18829
0.06267 0.03384 0.04401
0.18265 0.02062 -0.10491
-0.17547 0.36059 -0.12054
-0.14226 0.34338 0.20616
-0.05150 0.00490 0.17207
-0.15767 0.32356 -0.19656
0.00724 -0.37162 0.08841
-0.11969 0.00319 0.17375
-0.18703 -0.37049 -0.20776
-0.15111 -0.13918 0.19043
-0.14050 -0.11079 0.20566
-0.04075 0.04108 0.03036
0.19063 0.05477 -0.01507
-0.11258 0.10552 0.19043
-0.19834 0.36425 0.08996
-0.13548 0.25439 0.16465
-0.14756 -0.15227 0.20272
-0.14770 0.24083 0.11358
0.18198 0.01580 0.11031
-0.14423 0.25539 -0.18201
-0.12321 0.00975 0.09547
-0.19920 -0.23238 -0.19038
0.06233 0.04776 -0.06199
-0.16758 0.33169 -0.16783
0.13104 0.03851 -0.02753
-0.16809 -0.36252 0.20566
0.16224 -0.37822 -0.19132
-0.21238 0.36462 -0.16888
-0.00841 0.02898 -0.01610
0.20730 -0.35170 0.19420
0.03043 0.03164 -0.09348
-0.11595 0.02163 0.13343
-0.01775 0.02209 0.17199
0.06803 -0.35305 0.19711
-0.13190 -0.11654 -0.19337
-0.13683 0.02087 -0.08656
-0.12368 0.06315 0.19455
-0.09873 0.02281 -0.08436
0.05377 0.03323 0.16348
-0.14051 0.20860 -0.11006
-0.16782 0.22696 0.05765
-0.12345 0.01744 -0.14788
-0.20232 0.35907 0.00009
0.21488 0.02994 -0.00045
-0.18901 0.37786 -0.11460
-0.13286 0.24982 0.16892
-0.15677 0.22800 -0.00135
-0.09060 0.03768 -0.06259
-0.03153 0.00320 -0.17200
0.00790 0.04441 0.00433
0.19127 0.04069 -0.17193
-0.04400 0.02655 -0.15384
-0.15223 0.37083 0.19715
0.08828 0.04990 -0.03110
0.21824 0.02520 0.07150
0.23403 0.02592 0.17652
0.05984 -0.35553 0.20356
-0.09062 0.03768 0.05066
-0.17457 0.28138 0.19247
0.11254 0.05156 -0.06632
-0.12074 0.03547 0.12305
-0.13700 0.00204 0.02905
0.15324 0.04003 -0.11245
-0.10616 0.00156 -0.20533
-0.19902 0.37854 0.13945
-0.14858 0.23911 0.10612
0.08482 0.01467 -0.16938
-0.17755 0.32861 0.13679
-0.14467 -0.14983 -0.19718
-0.12016 0.02109 0.00369
0.16684 -0.35143 -0.20647
-0.16024 0.35289 0.16204
-0.12960 0.03238 0.17297
-0.12814 -0.00974 0.12456
-0.18799 0.32479 0.07852
0.18652 -0.35424 -0.20222
0.00050 -0.35998 0.03540
-0.17417 0.24302 0.03825
-0.05632 0.04002 0.12046
-0.20909 -0.22919 -0.19317
0.22117 0.02068 -0.12534
-0.12978 0.09272 0.19330
0.04382 0.04686 0.15489
-0.20993 0.37590 0.16559
-0.19881 -0.35257 -0.19038
-0.04707 -0.00047 0.17319
-0.22489 0.35856 0.12082
-0.15031 -0.13039 0.19043
-0.10925 -0.02006 -0.19038
0.06979 0.04864 0.12272
-0.15648 0.26595 -0.09795
0.14185 0.05344 -0.01289
0.20556 -0.37208 -0.20561
0.08099 0.04137 0.18839
-0.12313 0.00848 -0.06321
0.16968 0.05547 0.08523
0.08207 0.03517 0.16139
-0.20773 -0.33650 -0.19092
-0.19976 -0.20327 0.19885
-0.17059 0.25934 -0.08781
-0.13392 0.23206 0.15382
0.08306 0.04955 0.00890
-0.16960 -0.17417 -0.19038
-0.12357 0.01493 -0.00011
0.10958 0.03705 -0.18506
-0.21058 -0.32140 -0.19204
-0.15303 0.25035 -0.09605
-0.23202 0.35684 -0.06330
-0.13788 -0.11994 -0.20517
-0.00125 0.04378 0.12522
-0.16345 0.27284 -0.06721
-0.00340 0.02932 -0.01126
-0.15397 0.31282 -0.15240
-0.06772 0.03924 0.01618
-0.17674 0.25367 -0.02283
-0.02697 -0.38177 0.20006
-0.13152 0.11015 0.20479
-0.11921 0.10047 -0.20561
-0.16252 0.31310 -0.12851
-0.13463 -0.01018 0.09465
-0.12660 -0.10808 0.19668
-0.17936 0.37529 -0.13170
-0.09484 0.03739 -0.09720
-0.03603 0.00307 0.18668
-0.23088 0.35712 -0.02291
-0.09227 0.05305 -0.19959
-0.14264 0.20509 -0.09284
-0.23730 -0.32450 -0.19574
-0.19968 0.37471 -0.03317
0.01792 0.00270 -0.17325
-0.13559 -0.07664 -0.19038
0.07536 0.04902 -0.07129
-0.16697 0.34589 0.13832
-0.18824 -0.36189 -0.20561
-0.04965 0.03857 0.14158
0.20347 0.03727 0.01719
-0.19453 0.34316 0.06602
0.17264 -0.37600 0.20531
-0.19985 -0.38544 0.19160
0.06984 0.04864 -0.07902
-0.13549 -0.37695 0.19103
0.01895 -0.38077 -0.19366
-0.11693 -0.02903 -0.20528
-0.19692 -0.25820 0.20488
0.15846 0.01070 -0.16782
-0.06306 0.03956 -0.05059
-0.00694 0.04339 -0.18206
-0.15058 0.29419 0.19955
0.11898 0.04408 -0.18861
0.00547 -0.36180 -0.16640
-0.07348 0.03885 -0.08956
-0.02430 0.02789 0.03334
-0.09312 0.03750 -0.13088
-0.23367 0.35960 -0.06887
-0.19556 0.34674 -0.06504
0.16807 0.05536 0.01889
-0.13260 0.21645 0.18842
-0.00610 0.01301 0.17119
-0.20394 -0.21436 0.19498
-0.19950 -0.22269 0.20566
-0.02928 0.04187 0.06148
0.08587 0.03542 0.09352
-0.01366 0.04258 -0.15879
-0.21882 0.37375 0.03531
-0.16513 0.36004 0.19481
-0.00314 0.00392 -0.18559
0.13815 0.05323 -0.18085
0.07398 0.03461 0.16148
-0.02373 0.04225 -0.14770
0.19817 -0.35158 -0.19068
-0.12087 -0.02974 0.20387
0.12574 0.03815 -0.10681
-0.10583 0.06093 -0.19038
0.17298 -0.37017 -0.20561
0.18222 0.02673 -0.11365
-0.01721 0.00653 0.18665
-0.20858 -0.35099 -0.20561
0.09507 0.03605 -0.11793
-0.15401 0.25154 -0.15097
0.21478 0.04648 -0.03959
-0.18663 0.36414 -0.13882
-0.00736 -0.35998 -0.03816
-0.01508 -0.36042 -0.00448
-0.07944 0.02413 -0.10849
0.06299 0.04664 -0.17410
-0.09469 0.02308 0.06317
0.15763 0.05464 -0.11577
-0.02267 0.02801 -0.02651
-0.23278 -0.31395 0.19075
0.16640 0.04093 0.02930
-0.15051 0.20214 -0.02119
0.19994 -0.38179 0.19609
-0.11994 0.11717 0.20566
-0.15648 0.31167 -0.20281
-0.02689 0.04203 -0.05508
-0.15262 0.24770 0.15230
0.08584 0.03457 0.17626
-0.18951 -0.20568 -0.19038
0.02529 0.04369 0.00198
-0.17635 0.25203 0.00853
0.19718 -0.36769 -0.18719
0.12672 0.03822 0.07470
-0.16588 0.28274 0.13844
-0.20072 -0.33644 -0.20089
-0.14487 0.15457 -0.20262
-0.19368 0.37161 -0.04872
-0.01445 -0.37494 0.08459
-0.16691 -0.12903 -0.19580
-0.11346 0.03611 -0.03625
-0.14670 0.25154 -0.13113
-0.00544 0.02918 -0.07879
0.09560 0.03609 -0.06937
0.12463 0.00829 0.17489
-0.15089 -0.16364 0.19948
0.21034 -0.36618 -0.20175
-0.15302 0.29072 -0.14002
-0.18414 0.28424 0.01828
0.07211 0.03142 0.17211
-0.16386 0.22637 0.08042
0.17877 0.04177 0.11431
-0.09280 -0.36583 -0.20561
0.15387 0.05439 0.12963
0.17039 -0.38390 -0.18719
0.03116 -0.35357 0.20090
0.01708 0.04504 -0.00804
0.06681 0.02732 -0.17011
-0.18783 0.35367 0.19062
0.00419 0.02984 0.14403
0.06126 0.03374 -0.03568
0.16740 0.02026 -0.00407
-0.19699 0.35459 -0.06780
-0.13761 0.01091 0.13201
-0.16554 0.20736 -0.02502
-0.10489 -0.00219 -0.19038
-0.12135 0.03526 -0.03127
-0.01374 0.04270 -0.10917
-0.10441 0.02242 -0.17685
-0.17304 0.33328 0.09635
-0.10820 0.02216 -0.16182
0.09821 -0.37864 0.19158
-0.17162 0.36796 -0.20406
-0.15743 0.26154 -0.19038
0.00583 0.04427 -0.03481
0.12599 0.03144 0.16903
0.17587 0.04158 -0.14748
0.06961 0.04863 -0.00479
-0.05242 0.02597 -0.12932
0.16343 0.04273 0.18839
-0.00968 -0.37521 0.12042
-0.02068 0.02493 0.18425
-0.14960 0.28894 0.14842
-0.07849 0.03850 -0.17421
-0.08685 0.02159 0.17644
-0.20292 0.36388 -0.09073
0.21987 0.02268 0.14980
0.03129 -0.38105 -0.20205
0.10032 0.03641 -0.04938
-0.21632 0.37435 -0.04651
-0.03780 0.02697 0.18093
-0.13694 -0.06164 -0.19413
-0.12595 -0.00959 -0.01820
0.01392 0.04482 -0.09750
-0.01191 -0.37521 -0.06931
0.07239 -0.35283 -0.19808
-0.16097 0.32947 0.14402
-0.09771 0.02288 -0.10473
-0.12281 0.00380 0.11465
-0.22008 -0.26134 0.20492
0.18561 -0.36900 -0.19038
0.14987 0.03980 -0.06137
-0.00767 0.01723 -0.17115
0.13635 0.01104 -0.16993
-0.15966 0.23995 -0.01471
0.13275 0.03863 -0.08679
-0.15663 0.31862 -0.14885
0.01446 0.04486 -0.06974
-0.00566 -0.37521 0.16132
-0.01477 -0.37336 0.20566
-0.18676 0.35197 -0.02468
-0.13211 0.24086 -0.16492
-0.12386 0.06254 -0.19571
0.13993 -0.38164 0.20056
-0.06010 0.03976 0.14804
0.12671 0.03822 -0.04331
-0.15124 0.34530 0.20945
-0.07245 -0.37913 -0.20397
-0.17501 0.30341 0.02995
-0.15924 0.29502 -0.12267
-0.04988 0.03855 0.18477
0.20307 0.03752 0.06972
-0.15451 0.19035 0.19478
-0.07523 0.02441 -0.03993
-0.06446 0.02515 -0.18344
-0.00423 -0.35998 0.10576
-0.10253 0.03686 0.13154
0.19129 0.04069 0.05671
-0.13181 0.00775 0.18839
0.17709 -0.38286 -0.18719
-0.11904 0.24465 0.20429
0.19581 0.05395 -0.15876
0.05773 0.03350 -0.17409
0.23036 0.01476 0.12488
-0.16367 0.22519 -0.19861
0.17738 0.03665 -0.14500
-0.13365 -0.01012 -0.11579
-0.15426 0.21765 0.03261
-0.01069 0.04170 0.18310
-0.18596 0.36155 0.13551
-0.11041 0.02201 0.13425
0.17971 0.01314 -0.05397
-0.15999 -0.14841 0.20566
-0.17546 0.31331 0.13211
0.04176 0.04672 0.02812
0.20980 0.03320 -0.03048
-0.10219 0.09546 0.19839
-0.19749 0.33943 0.01551
-0.15742 0.20576 -0.08903
-0.17034 0.22720 0.00668
0.13877 0.03904 0.03791
-0.17369 0.35472 0.16628
0.11881 0.05199 0.02567
0.18656 0.04138 -0.16450
-0.17241 0.29500 -0.04636
-0.18032 0.28116 -0.06132
0.23799 0.01889 -0.16580
-0.05818 -0.38185 -0.19972
0.06732 0.03416 0.07937
0.18219 0.02719 0.00575
-0.12331 0.01812 -0.10224
0.02497 0.03126 0.10598
0.07947 0.04930 -0.16175
0.19762 0.05366 0.14016
-0.15185 0.36095 0.20945
-0.03869 0.02691 0.12732
-0.13191 0.12989 -0.20561
-0.12668 -0.09288 0.20537
-0.12244 -0.00160 0.05602
0.16734 0.05531 0.02845
0.15719 0.05461 0.14005
-0.19912 0.37602 0.06053
-0.14892 0.28254 0.14600
-0.13652 0.02247 -0.01299
0.18272 -0.36729 0.20885
-0.15637 0.30828 -0.19249
-0.10078 -0.00402 0.20566
0.06829 0.03422 -0.16964
0.09798 0.03625 -0.15615
0.14109 0.05161 -0.07021
-0.10328 0.04217 0.20566
-0.12111 0.25988 0.20886
0.17567 -0.35373 -0.19453
0.17282 -0.35696 -0.19131
0.22872 0.03538 -0.01278
0.02769 0.03145 0.05412
0.00634 -0.37252 0.06216
0.07351 0.04889 0.09568
0.03529 0.03197 -0.05645
-0.21007 0.36215 -0.12432
0.22368 0.01680 -0.08024
-0.15391 0.29559 0.18214
-0.01626 -0.38229 -0.19789
-0.12230 0.05599 0.20025
0.18307 0.04189 -0.15813
-0.11770 0.00936 0.18857
0.00956 0.04452 -0.06746
-0.15770 0.28780 0.16570
-0.17755 0.36503 0.11664
0.20828 0.03417 0.14662
0.03237 0.04608 0.11497
-0.21903 0.37369 -0.11570
-0.04544 0.02645 0.03890
-0.18260 -0.37924 -0.19922
-0.17532 -0.36106 0.20566
-0.08776 0.03596 0.14924
-0.02657 0.04205 0.01757
-0.23834 0.36204 -0.03575
-0.13659 -0.00396 0.17958
-0.14414 0.28715 -0.20453
-0.21233 -0.32621 0.19087
-0.16729 0.27255 0.04456
0.07992 0.04933 0.12722
-0.04803 0.02627 0.05572
0.10878 0.03699 -0.09512
-0.13096 0.20302 -0.14263
0.22093 0.04220 0.06756
0.18192 0.03093 -0.00920
-0.18598 0.34875 -0.02049
-0.15639 -0.36038 0.19044
-0.20691 -0.29205 0.19691
-0.04080 0.04108 -0.09509
-0.19720 -0.36567 -0.20742
-0.05918 0.02551 0.11445
0.11032 0.03710 -0.05311
0.03725 -0.37786 0.19128
0.20702 0.03499 -0.17632
-0.08507 0.02374 -0.09898
0.03915 0.04654 0.06620
-0.11818 0.15684 -0.19400
-0.14486 -0.38207 0.19895
-0.18313 0.32661 0.11003
-0.17468 0.32852 -0.20561
0.19373 0.04033 -0.00698
0.14417 0.03941 -0.17009
0.03798 0.04646 0.10758
-0.17032 -0.16745 0.19043
-0.20117 0.35465 0.00506
-0.13575 0.11043 -0.19917
0.17397 0.05576 -0.14035
-0.16480 0.37514 0.16856
-0.08169 0.03829 -0.13862
-0.18296 0.36295 -0.08076
0.14104 -0.35549 -0.19252
0.14405 0.03940 0.09693
-0.18281 0.37273 -0.20945
-0.12892 -0.35423 -0.20222
-0.14075 0.26288 0.15561
-0.07683 0.03862 0.04981
0.03426 0.00294 0.17390
-0.13653 0.29472 0.20945
-0.13691 0.00068 -0.16504
-0.15380 -0.11879 -0.19038
0.07791 0.03488 -0.15202
0.01134 -0.37379 0.20566
-0.13947 0.28964 -0.17742
0.11609 0.03092 -0.18355
-0.18832 -0.22943 -0.20561
0.14008 -0.35296 -0.19858
0.17160 0.05560 -0.06049
-0.12579 0.03374 -0.13219
-0.13030 0.09393 0.20257
-0.15930 0.30579 0.17369
0.04982 0.03296 -0.07785
-0.20175 0.36416 0.13430
0.06608 0.01516 -0.18497
0.16084 0.04055 -0.03077
-0.11523 0.21014 -0.19152
-0.16683 0.26204 -0.11409
-0.17356 0.29741 -0.02746
-0.11052 0.04252 0.19043
0.21921 0.02370 0.16959
0.02020 0.03094 -0.00268
0.15120 0.02987 0.17815
-0.16628 0.28913 -0.07364
-0.13743 0.23703 0.19420
0.14365 -0.35625 0.19181
0.06600 0.04838 -0.01581
-0.13058 -0.06294 0.20561
0.13643 -0.35336 0.20013
0.17820 0.03952 -0.03238
0.20594 -0.35517 0.18922
-0.16166 0.23676 0.10846
-0.16863 0.38276 -0.18940
-0.14809 -0.15293 0.19315
0.15488 -0.35665 0.20867
0.07554 -0.36590 -0.20561
-0.12174 0.07744 0.20528
-0.23782 0.35989 0.04168
-0.15537 0.22321 -0.04448
-0.09759 0.03720 0.07948
-0.15666 0.32955 -0.19800
0.05710 0.02109 -0.18513
-0.23003 0.35732 0.02928
0.09995 0.05070 -0.12264
-0.02434 0.00321 0.17206
-0.18180 -0.37667 0.18829
-0.12341 0.01258 -0.05818
-0.22329 -0.28014 0.19043
-0.00448 -0.00088 0.17969
0.15042 0.05415 0.06662
0.11543 0.03744 -0.13897
-0.03441 -0.37068 -0.20561
-0.17125 -0.18183 -0.19038
-0.21271 -0.36269 -0.19394
0.10672 0.05116 0.10593
0.23161 0.03023 0.11864
-0.16751 0.31013 -0.09595
-0.16313 0.19740 0.02938
0.17884 0.05418 -0.16572
0.10915 0.05133 0.03261
0.15976 -0.36725 -0.20561
-0.17396 0.31576 -0.13819
-0.11664 -0.01463 0.19484
-0.17150 0.36456 0.20474
-0.13825 0.23031 0.20427
0.20747 -0.36007 0.18763
0.15198 -0.35344 -0.20036
0.15809 -0.35349 0.19550
-0.15620 0.28174 0.12168
-0.14803 0.19889 -0.06117
0.08309 0.03523 -0.14818
-0.13914 0.27093 -0.16561
0.18699 -0.37042 -0.20880
0.19946 0.05337 -0.12597
-0.05204 0.02600 -0.05944
-0.00841 -0.35998 0.12412
-0.06636 0.02502 -0.03782
0.08571 0.04973 0.10456
0.21293 0.03790 0.18839
0.15532 -0.34732 -0.19700
-0.18878 0.30343 -0.04248
0.16840 0.01599 -0.09757
-0.03144 0.02741 0.07950
0.18996 0.05488 -0.18163
-0.16001 0.27859 -0.09520
0.18918 -0.38544 0.19539
-0.20339 -0.33320 0.19936
0.08521 0.03538 -0.09898
0.03907 0.01521 0.18555
-0.02952 0.02593 -0.18209
-0.00983 -0.37521 -0.09705
-0.17881 0.31914 0.12504
0.21487 0.02995 0.11298
-0.10844 0.04407 0.20566
-0.13263 0.02891 0.10602
-0.17047 0.23187 -0.04896
-0.17601 0.30779 -0.04342
0.06538 -0.36794 -0.19038
-0.09823 0.02284 -0.06877
-0.15126 0.20523 -0.00333
0.21202 0.04840 0.17797
0.20516 0.05247 0.08180
-0.22339 -0.29098 0.20566
0.05151 0.02883 -0.17129
-0.01149 0.02877 0.11864
0.05734 0.04779 0.06777
0.16685 0.02819 0.03375
-0.14386 -0.13242 0.19075
0.06583 0.04816 0.10529
0.17828 0.02837 0.14680
-0.17210 0.24381 -0.05647
-0.11379 0.03609 -0.17651
-0.00778 0.04334 0.03373
-0.12153 0.05135 -0.19894
0.02194 -0.36710 0.20566
-0.19074 -0.19591 -0.20506
-0.20885 -0.34842 0.19043
0.17129 0.05558 -0.00242
0.23719 0.02031 -0.05531
-0.03166 0.04171 -0.08735
0.14870 0.05403 0.17328
-0.20584 0.36317 -0.11229
0.20770 0.03455 -0.04423
-0.05709 0.02565 -0.01787
0.09019 0.05003 0.15506
-0.01589 0.01417 0.18661
0.15241 0.03997 0.11818
0.22499 0.01477 0.01888
-0.02361 0.04226 -0.11590
-0.20945 0.37601 -0.13398
0.18080 0.05623 0.10698
-0.13720 0.00492 -0.16093
0.11793 0.05116 0.18839
-0.12287 0.01911 -0.17324
-0.15395 0.35050 -0.17813
-0.23570 -0.32991 -0.19528
-0.07431 0.03879 -0.13322
-0.01866 0.04259 -0.01923
-0.18518 0.34545 -0.04173
-0.21693 0.37420 -0.01487
0.18109 0.03566 0.06816
-0.22924 0.35751 -0.07250
-0.19720 -0.35904 -0.20561
-0.15285 0.19772 -0.02405
-0.10073 0.02267 -0.14151
0.23234 0.01490 -0.16323
-0.20877 -0.38373 -0.19443
-0.01686 -0.36090 -0.14584
-0.16622 0.33056 -0.12999
-0.12274 -0.35328 0.19625
0.04872 0.04720 -0.14070
-0.14316 0.24330 0.17664
0.13020 0.05277 0.01424
-0.19015 0.36425 -0.03988
-0.11343 0.22009 0.20338
-0.17440 0.36233 -0.12859
-0.15414 0.27853 0.16951
-0.22034 0.35967 -0.07359
-0.07593 0.03868 -0.15271
-0.21092 0.36194 -0.00163
-0.03061 0.04178 0.05466
0.21238 0.03155 -0.16913
0.01306 -0.36916 -0.19038
0.22671 0.03818 0.15981
-0.17724 -0.37731 0.20408
0.12434 0.05237 0.15470
0.14548 0.03295 0.16487
-0.19082 0.38052 -0.15756
-0.17761 0.26180 -0.04953
-0.17233 0.24873 0.06214
-0.19352 -0.34502 0.19348
0.15960 0.04046 0.06849
-0.10562 0.03665 0.04802
-0.15194 -0.09381 0.19728
-0.10926 0.05959 0.20566
0.22073 -0.38544 0.19104
-0.14371 0.28219 0.20231
-0.15779 0.20188 -0.19650
-0.17589 -0.38175 0.20780
-0.20783 -0.34357 -0.19038
0.00808 -0.36910 0.01355
-0.20878 0.36246 -0.04630
0.17542 0.01152 -0.07798
0.07418 0.03463 -0.14092
0.16308 0.04070 0.09916
-0.23686 -0.32483 0.19420
-0.17932 0.38271 -0.17796
-0.18364 0.30127 0.07053
0.21606 0.02857 -0.02477
-0.17651 0.33103 0.07310
0.06341 0.04629 0.17081
-0.03820 -0.36738 0.19043
0.13900 0.05179 0.05872
0.17654 0.04162 0.07577
-0.04525 0.02646 -0.00209
0.02937 0.00438 -0.18398
-0.19512 -0.20471 0.19112
0.04134 0.03238 0.12949
-0.15968 0.33160 -0.19067
-0.17000 0.23473 -0.05587
-0.07895 0.03847 -0.07175
-0.14998 0.25470 -0.16487
0.09871 0.03630 -0.16476
-0.17679 -0.20980 -0.19091
-0.09576 -0.01485 0.19043
0.08676 0.03549 -0.00178
0.00759 0.04439 0.14333
-0.07328 -0.36416 0.19043
-0.18909 -0.38098 0.18829
-0.05571 0.02575 0.06441
-0.16143 0.21612 -0.19880
0.16089 -0.38022 0.20293
-0.19489 -0.19333 -0.19538
0.13595 0.03885 -0.07821
-0.20931 0.36778 -0.18081
-0.12819 0.20938 -0.19624
-0.00043 -0.37521 -0.13722
0.15015 0.03862 -0.17318
-0.16527 0.20624 0.00026
-0.10752 0.02221 0.16246
-0.16628 0.32125 0.11869
-0.16647 0.34978 0.14237
0.09078 0.03576 0.16303
-0.00799 -0.35998 0.16281
0.18165 0.05619 0.03972
0.21792 0.02570 -0.00794
0.08570 0.03541 0.13942
0.06168 0.03073 -0.18255
0.18842 0.05512 -0.08766
-0.09210 0.02326 -0.01290
0.11167 0.01066 -0.18293
-0.14045 0.25202 -0.19974
-0.09158 0.02330 0.08898
-0.14784 -0.09533 0.20485
0.21599 0.02869 -0.08642
-0.19669 0.33614 0.03301
0.03863 0.03220 0.15219
0.17652 0.05519 0.08521
-0.05345 0.02590 -0.15561
0.12919 0.03839 0.03659
-0.06291 0.02526 0.09869
0.00455 -0.36097 -0.02656
-0.11393 0.02728 -0.20276
-0.15569 0.22906 0.13034
0.20429 0.03674 0.17431
0.09956 0.03636 0.14454
-0.12751 0.19858 -0.19630
-0.18636 0.36789 0.20508
-0.13717 0.00451 -0.01112
-0.17591 0.25021 0.03720
-0.00782 -0.35627 -0.19174
-0.12900 0.13869 0.19043
-0.16833 0.38035 -0.18056
0.16665 0.03098 -0.08796
0.13418 0.03873 0.01316
-0.19033 -0.37095 -0.19075
0.11059 0.05143 0.12773
-0.17569 -0.37210 0.19043
-0.16071 -0.11824 -0.20274
-0.17551 0.25594 -0.05363
0.08867 0.03562 0.01569
-0.23081 0.35713 0.02096
0.05264 0.04747 -0.09819
-0.12342 0.01282 0.08295
-0.18856 -0.38544 -0.19933
-0.00643 -0.35998 0.06643
0.04717 0.03278 -0.16201
-0.10349 -0.03838 -0.19052
-0.13170 0.20099 -0.20464
-0.15154 0.24391 -0.15279
0.22946 0.03406 0.02881
-0.04607 0.04072 -0.00498
0.17926 0.01272 0.00332
0.05991 0.04796 -0.14952
0.09238 0.01484 0.18453
-0.15981 0.22012 -0.09554
-0.18231 0.34483 0.05882
0.04596 0.04701 0.07569
-0.18337 0.33797 -0.00856
0.23761 0.01956 0.04154
0.10580 0.03679 -0.06635
0.10818 0.03033 -0.16934
0.09718 0.05051 0.08125
0.01006 0.03024 -0.16416
-0.18488 0.32051 0.20280
-0.11938 0.14693 -0.20483
0.00199 0.02857 -0.17728
0.02065 0.04528 -0.13011
0.17708 0.01197 -0.02354
-0.12023 0.00924 -0.17481
-0.11315 0.20733 0.19688
0.06630 0.03409 -0.09149
0.16229 0.05496 -0.18384
-0.14813 0.21649 0.07702
0.23734 0.01524 0.05986
-0.18219 0.35282 0.14033
0.09976 0.00911 0.18251
-0.15093 0.20385 0.03589
0.11182 0.03720 0.09450
0.16787 0.05534 -0.10157
0.02756 0.03144 0.08892
-0.22955 -0.32412 0.20559
-0.05968 0.02548 0.10599
-0.17166 0.35753 0.13303
0.04633 0.03272 -0.09528
0.16790 0.01745 0.09637
0.01731 0.02914 -0.18141
-0.02928 0.02755 0.10837
0.16701 0.03529 -0.02031
0.11577 -0.36678 -0.20561
0.16745 0.03685 0.02538
-0.15981 0.26816 0.14581
0.07014 0.03435 0.12874
-0.12793 -0.37194 -0.19038
-0.16330 -0.37351 0.19043
-0.20299 0.36307 0.06284
0.05775 0.00902 -0.18464
-0.00255 0.02553 -0.17281
0.06176 -0.35462 -0.19340
-0.19468 0.37302 -0.06997
-0.11245 0.12275 -0.19156
-0.14041 -0.11224 0.19043
-0.07315 0.01476 0.18771
-0.09503 0.02306 0.16469
0.14630 -0.38052 0.20263
-0.07672 0.02016 -0.18611
-0.15799 0.25228 0.13995
-0.05155 0.03282 -0.18861
-0.16017 0.25792 0.13760
-0.08693 0.03602 0.00933
-0.10725 -0.00823 0.18046
0.19494 0.04016 -0.18562
0.09409 0.05030 0.16201
-0.15469 0.27462 0.16519
-0.18317 -0.23524 -0.20209
-0.03018 0.01741 0.17165
-0.21482 -0.33652 0.19043
-0.21016 0.37526 -0.02719
-0.20223 0.36405 0.11132
-0.07123 0.02469 -0.13978
-0.13738 0.01807 -0.03109
0.08133 0.03511 0.14335
0.07166 0.03862 -0.18861
0.11808 0.05194 0.03768
-0.13695 0.02025 0.10953
-0.03634 0.04138 0.15152
-0.15327 0.18392 -0.19585
-0.06940 -0.36586 -0.20561
0.10179 0.03651 0.05434
0.07293 0.03084 0.18308
-0.12277 0.00323 -0.04335
-0.08302 -0.35409 0.19397
-0.00163 0.02944 -0.05938
-0.00850 0.02897 0.02249
-0.14724 0.24638 -0.12402
-0.19825 0.37735 0.10002
-0.15882 0.25997 -0.07598
-0.12342 0.25827 0.20124
-0.19806 0.34179 -0.02242
-0.14109 0.27638 -0.20582
-0.12154 0.02062 0.05934
0.20639 -0.36690 -0.20561
-0.18727 0.33212 -0.20315
0.17083 -0.35894 0.19083
-0.00866 0.02896 -0.11492
-0.05182 0.02601 0.13300
0.22871 0.03540 0.11330
-0.16068 0.27564 -0.19038
0.15024 0.02784 -0.16227
-0.09792 0.03718 0.05682
-0.19251 0.34503 0.19923
0.11269 0.05157 -0.11646
-0.15268 0.21109 -0.04122
-0.06458 0.02514 -0.15365
-0.13370 0.20236 -0.14920
-0.08661 0.03665 -0.12606
-0.15748 0.38040 0.20080
0.19535 0.04010 0.04253
0.01101 0.04462 -0.03426
-0.00939 -0.35998 -0.15041
-0.09248 0.02461 -0.19046
-0.14586 0.21206 -0.08392
0.02337 0.03115 -0.03845
0.00555 -0.36188 0.16573
-0.15718 0.29380 -0.17142
-0.19770 0.34029 -0.00024
0.20927 0.05031 -0.05328
0.13533 0.03881 -0.16343
0.12285 0.03795 -0.13841
0.15253 0.03998 0.04621
-0.08955 0.03722 -0.06883
-0.16550 0.28105 0.06684
-0.14850 0.24849 -0.16478
0.00228 -0.37483 0.15893
0.09825 0.03627 0.06861
-0.20618 0.36247 -0.00673
-0.17336 0.23971 -0.01822
0.03674 0.00274 -0.18157
-0.14464 -0.11654 0.20566
-0.09628 -0.02355 -0.20530
-0.01596 0.01658 -0.18654
-0.11040 0.02201 0.06101
0.14236 0.02041 0.16554
-0.13704 0.01979 -0.00480
0.18642 -0.36480 0.18724
-0.13430 -0.38120 -0.20190
-0.21621 -0.33560 -0.19038
0.19526 -0.35322 0.19649
0.00771 -0.00012 0.17914
-0.18829 0.36977 0.07016
0.19561 0.04006 0.07189
0.04914 0.04067 0.18839
0.14826 0.05400 0.09911
-0.13681 -0.00082 -0.09649
-0.13661 -0.00369 -0.04035
-0.10135 0.03694 0.10801
-0.19886 -0.26478 0.19144
-0.02205 0.02805 -0.10108
0.10845 0.05128 -0.09643
0.17606 0.01161 0.05495
0.07281 0.04885 -0.15798
0.02204 0.03106 -0.03029
0.13582 0.05315 -0.09288
-0.01681 -0.37430 0.18656
-0.12256 0.00023 -0.12215
-0.09801 0.03717 -0.17737
-0.16481 -0.15990 0.20566
-0.11386 -0.07271 -0.20364
0.12873 0.03835 -0.08104
-0.14553 0.28361 0.15626
-0.17583 -0.38544 0.19072
-0.13027 0.03162 0.05162
0.00793 -0.36553 -0.06278
-0.17069 0.36070 -0.17918
-0.04880 0.03879 0.00916
0.14826 0.03969 -0.02355
-0.14594 0.30173 -0.16744
0.11935 0.05203 -0.00298
-0.09174 0.02329 0.12405
0.21696 0.02718 -0.06039
-0.13643 0.02289 0.00788
-0.14096 0.15465 0.19096
-0.03527 0.02714 0.18594
-0.16973 0.28158 0.02020
-0.04348 0.02658 0.08800
0.16700 0.02602 0.12585
-0.19846 0.36496 -0.18587
0.15894 -0.37610 0.19081
-0.06787 0.03923 0.14425
0.03287 -0.35637 -0.19164
-0.17195 0.31529 0.14369
0.14825 0.05400 0.01525
0.05722 0.04778 0.12666
0.08960 0.00550 -0.17674
-0.02008 -0.36403 0.00988
-0.21347 -0.26455 -0.20561
-0.22836 0.35773 0.04312
0.16890 0.05282 0.18839
0.18150 0.03447 0.04247
-0.00857 0.02897 0.05881
0.16039 -0.35857 0.20517
-0.08159 0.03829 0.02560
0.02847 0.03150 0.01881
-0.13777 0.01333 0.11605
0.14525 -0.34777 -0.19517
0.23483 0.01780 -0.18861
-0.12167 -0.03624 0.19116
-0.01258 0.04110 0.09630
-0.06940 0.02481 -0.02322
-0.16209 0.35792 0.16026
-0.00800 0.04332 -0.11549
-0.18616 0.32151 -0.19443
-0.12321 0.22002 -0.17580
-0.19731 0.33870 -0.03544
-0.18356 0.30562 -0.07728
0.00781 0.04440 0.11729
-0.19307 0.37991 0.14450
0.18243 0.02376 0.07979
-0.12833 0.08842 0.20319
-0.18345 -0.17568 -0.19132
0.05278 0.03316 -0.15679
-0.16305 0.25952 0.05086
0.10829 0.05127 -0.13563
-0.18980 0.33485 -0.08220
-0.14571 0.20974 -0.14572
0.07479 -0.35358 0.19514
0.10046 0.05012 0.05713
-0.06042 0.03974 0.06035
-0.18580 0.34457 0.12003
-0.11683 0.03588 -0.09322
0.01992 0.02160 -0.17061
-0.19686 -0.21711 -0.20561
0.17418 -0.36456 0.19043
0.02127 0.03101 -0.01638
-0.18214 0.33289 -0.00500
0.07772 -0.38196 -0.19931
0.04970 0.03295 -0.10500
-0.10182 0.02260 0.10732
-0.12335 0.01177 0.11708
-0.21484 -0.27442 0.20566
0.03090 0.02888 0.17324
-0.23715 0.35712 0.00028
-0.20277 -0.20979 0.19780
-0.17164 0.33543 -0.15870
0.23138 0.03064 -0.16131
0.01259 0.00740 0.17092
-0.15273 0.21161 0.04350
0.00419 -0.37228 0.20566
0.18668 0.04136 -0.03191
-0.20080 0.36657 0.20637
-0.19382 0.37400 0.20945
0.02442 0.04503 0.16503
-0.10082 0.02266 0.06196
-0.14827 0.25931 -0.13201
-0.16102 0.20530 0.06696
-0.13309 -0.10737 0.20539
-0.08662 0.02364 0.07838
-0.18004 0.27326 0.05160
0.00635 -0.37251 -0.10770
-0.19387 0.36815 0.02668
-0.13842 0.13465 0.20425
0.01003 -0.37296 0.19043
0.20357 0.03720 -0.03621
0.15367 -0.36350 0.19043
-0.13045 0.29097 0.20373
-0.15430 0.20140 0.10133
0.18354 0.05590 0.18018
0.23145 0.03052 0.00288
0.02754 0.04484 -0.04346
0.16666 0.01796 0.16716
-0.19850 0.35954 0.06715
-0.16232 0.36290 -0.20495
-0.12308 0.00784 0.15609
-0.13351 0.20240 0.14198
-0.14714 0.23110 0.10318
0.03628 0.04635 0.02875
-0.10324 0.07274 0.20535
0.09683 0.05049 -0.14121
-0.00830 0.02799 0.17959
0.00079 -0.37521 -0.01518
-0.20516 -0.37500 0.18829
-0.16910 0.31104 -0.08803
-0.03451 0.02720 -0.00177
0.18514 -0.36381 0.20566
0.02762 0.04504 0.08699
-0.10315 0.02251 0.02086
-0.15221 0.23232 0.07552
-0.23020 0.37099 -0.00817
0.20099 -0.36661 0.18724
-0.22082 0.35955 0.02550
-0.18183 0.29299 -0.06938
-0.14786 0.29313 0.15617
0.13016 0.05276 0.10779
-0.15091 0.25839 -0.11961
0.20967 -0.37951 0.20364
-0.15904 -0.18170 -0.19566
-0.06412 -0.00511 -0.17920
0.17083 -0.37213 -0.18719
-0.22243 0.35916 -0.00660
-0.14374 0.27213 0.15348
0.07794 0.03488 -0.11766
-0.15049 0.23600 -0.20561
0.00043 0.04390 -0.12827
0.23431 0.02543 -0.06631
-0.03407 -0.00225 -0.18280
-0.17725 0.26747 -0.05986
0.02732 0.04433 0.14222
-0.16767 0.26827 0.19075
0.18182 0.03243 -0.06098
-0.06007 0.03976 -0.05607
0.03755 0.04644 -0.12971
-0.06281 0.03958 0.13802
0.20542 -0.37957 0.19252
0.11472 0.03740 0.07910
-0.15440 0.31043 0.19694
-0.00644 0.02912 -0.04584
-0.18907 0.30562 0.04446
-0.17853 0.33346 0.06478
-0.14667 -0.35823 -0.19097
0.16020 0.05482 0.17693
0.00591 -0.36224 0.17580
0.03578 0.03200 0.03170
-0.17824 0.26135 0.04516
0.12080 0.03781 0.17338
-0.22872 0.35764 0.07338
-0.13613 0.02442 0.01493
0.05319 0.00550 -0.18299
-0.14489 0.31323 -0.17824
0.18107 0.01471 -0.07763
-0.21722 0.37413 0.04281
-0.11342 -0.37509 -0.19049
-0.20126 0.36333 0.07133
-0.17957 0.28423 -0.07018
-0.18623 0.38163 -0.20719
-0.17643 0.28142 0.08483
-0.21739 -0.35165 -0.20531
-0.08100 0.03833 -0.09907
0.23674 0.01520 -0.04482
-0.21208 0.36167 0.14434
-0.22642 -0.32235 -0.20561
-0.18727 -0.21360 0.20566
-0.14070 -0.10249 -0.19038
-0.19371 -0.37622 0.20150
-0.01259 0.02869 -0.02796
-0.09786 0.02287 0.12956
0.02630 0.03135 0.13869
-0.11696 0.22681 0.20945
-0.16706 -0.37940 -0.20773
-0.13054 0.21263 0.19841
-0.04573 0.02141 -0.17280
0.20202 -0.36777 -0.20880
-0.19350 0.33015 -0.05341
-0.12187 0.20739 -0.17097
-0.20346 0.37536 -0.02747
-0.03061 0.02746 0.09496
-0.00859 -0.35998 -0.09466
0.20808 0.05114 -0.01543
-0.20898 0.36241 0.00316
0.17343 0.04086 -0.06058
-0.17810 0.31617 -0.01457
-0.13724 0.19568 0.20566
0.19565 0.05398 -0.05947
-0.21710 -0.27260 -0.20561
-0.01761 -0.37380 0.15027
-0.01201 -0.37521 0.03988
0.05868 0.03357 0.08647
0.02173 0.04535 -0.07620
-0.17380 0.38098 0.16663
-0.00182 0.02943 0.06192
-0.18696 0.34405 0.11239
0.18266 0.02034 -0.08983
0.00280 0.04406 0.13240
-0.12012 -0.04481 0.20566
0.18205 0.02906 0.12370
0.19232 0.04617 0.18839
-0.13067 0.19092 -0.19099
-0.10554 0.00062 0.20557
0.07199 -0.38137 -0.20151
-0.04479 0.02649 0.06746
-0.11458 0.03607 0.20425
-0.12227 -0.00403 0.03852
-0.12495 -0.08274 0.20566
-0.04006 0.04113 0.09014
-0.12231 -0.00341 -0.12856
-0.11615 0.03410 -0.19379
-0.17850 0.26093 0.00508
-0.16870 0.29384 -0.13804
-0.17536 0.24798 0.02496
-0.15590 0.23438 0.05704
0.20506 -0.36107 0.20566
0.03281 0.04611 0.07083
-0.01781 0.02686 0.17653
-0.06334 -0.36432 0.20566
-0.15396 0.21638 0.00989
0.12932 0.03839 -0.01120
0.20837 -0.35147 -0.19993
-0.09192 -0.00192 -0.18740
-0.01137 0.02878 -0.01133
0.18011 -0.37258 0.19043
0.09467 0.05034 0.11711
0.01235 -0.35508 0.20311
-0.16496 0.34196 -0.18262
0.18336 0.05592 -0.16917
0.14757 0.05396 0.18341
0.09204 -0.35818 -0.20502
-0.12265 0.00148 -0.02886
-0.17396 0.28953 0.11124
0.15056 0.03384 -0.16221
0.13590 0.01617 0.16750
0.00205 -0.37244 0.19043
-0.01169 0.04116 0.04497
0.12348 0.03800 0.06942
0.00029 0.04389 0.07677
-0.10704 0.05112 0.19043
0.20150 0.05305 -0.02418
-0.16949 0.22882 0.05038
-0.13613 0.02446 -0.09516
0.19821 0.05357 -0.10633
-0.18893 -0.23352 -0.19048
-0.17913 0.29044 0.19623
-0.11652 -0.36014 -0.19046
0.19223 0.04055 0.18361
-0.12764 0.03311 0.08075
0.10239 -0.35791 0.19110
0.07737 0.03484 -0.09851
0.21212 0.04833 -0.12972
0.23631 0.01517 0.08936
0.15135 0.05421 -0.14913
0.15045 0.03984 -0.18239
-0.13653 -0.00479 -0.16541
-0.11321 -0.00996 -0.20324
0.11441 0.03738 -0.16526
0.08858 0.03561 -0.11491
0.03785 0.04646 0.10139
-0.19595 0.37928 0.15470
-0.02646 0.02775 -0.00726
-0.07759 0.02425 -0.12715
-0.06614 0.01192 -0.18751
0.08367 0.04959 -0.07128
-0.10724 0.08085 -0.19038
0.03675 0.03207 0.06598
-0.18302 0.27962 -0.04163
-0.13658 -0.00414 0.15296
-0.13853 0.16003 -0.20561
-0.01993 -0.36371 0.10443
-0.18981 0.33983 0.19354
0.08290 0.03522 -0.17705
-0.06953 0.00285 0.17242
-0.19757 -0.38405 -0.20776
-0.19490 0.32872 -0.02940
0.00208 0.04401 0.02505
0.10343 0.03662 -0.01224
0.15822 -0.35371 -0.19460
-0.05904 0.03983 0.03860
-0.03127 0.02742 -0.08236
0.17017 0.05550 -0.09453
0.09659 0.03616 0.18004
0.12450 0.05238 0.06397
-0.15679 0.27423 0.10774
-0.14773 0.19778 -0.20561
0.22129 0.02049 0.06841
-0.10398 0.03676 -0.13114
-0.16511 0.35605 0.15048
-0.19840 -0.37362 -0.19655
0.20551 0.03595 -0.16604
-0.19001 0.36700 -0.18261
-0.13767 0.01177 -0.00345
0.01803 0.03079 0.14418
-0.10562 0.02234 0.00272
0.17790 0.03978 -0.04856
0.17778 0.05411 0.05641
0.09107 0.00857 0.18274
0.20984 0.04991 0.17000
-0.10425 0.05558 0.19043
0.17422 0.04146 -0.02425
0.01100 -0.35527 0.19279
0.14061 0.05157 0.17262
-0.12246 -0.00122 0.13092
-0.11100 -0.03162 -0.20561
0.18342 0.04655 0.18839
0.19001 0.04088 -0.13637
-0.19590 0.33287 0.01105
0.15000 0.05412 -0.05171
0.01023 0.03025 0.02410
0.03648 0.03205 -0.18698
-0.11897 0.23048 -0.20945
-0.14151 0.18049 -0.20561
0.01081 0.00421 0.18521
-0.09585 -0.03239 0.20333
-0.01990 -0.37152 0.09318
-0.13898 0.20108 -0.11639
-0.18921 0.30522 0.01064
0.21328 0.03097 0.01440
-0.12969 0.12237 -0.20561
-0.00968 0.00585 0.18642
-0.13165 0.26748 -0.18436
0.19284 0.05442 0.05029
-0.01579 -0.37458 0.01036
-0.22344 0.37263 0.08129
0.04650 -0.38133 0.20170
-0.12981 -0.11073 0.19301
-0.17319 -0.19470 -0.19038
-0.18957 0.30670 -0.00211
-0.00235 0.04371 -0.17640
-0.01149 0.03826 0.18839
-0.04505 -0.37965 -0.20345
0.05350 -0.36918 -0.20561
-0.12382 -0.07762 -0.19038
-0.01806 -0.36183 -0.02986
-0.13153 0.03017 -0.16490
-0.17805 0.34983 -0.09052
0.17457 -0.37716 -0.18719
-0.06870 0.02486 -0.03256
-0.13545 0.02568 -0.05719
0.01179 0.03036 -0.11871
0.06236 0.00513 0.17314
0.00337 -0.37454 -0.06013
-0.18214 -0.35062 -0.19350
0.16069 0.04054 -0.05943
-0.20090 0.37808 -0.16630
-0.10357 0.02263 0.19043
-0.02089 -0.36705 0.05311
0.23714 0.02040 0.05606
-0.08770 0.01389 -0.18792
0.12839 0.01885 -0.16854
-0.14692 0.32192 0.17844
-0.00548 0.02918 0.11694
-0.15951 0.36284 0.17088
-0.19044 0.31029 -0.02991
-0.12245 -0.00935 0.02205
-0.01554 -0.36055 0.07600
-0.11969 -0.02067 -0.19622
0.16661 0.03321 0.01050
-0.14982 0.20894 0.19043
-0.07007 -0.00429 -0.18419
-0.13244 0.02913 -0.15319
-0.00986 0.02888 0.09951
-0.02018 -0.37079 -0.00549
-0.08644 0.02365 -0.13516
-0.16424 0.36128 -0.19826
-0.15873 0.28186 0.10722
0.15644 0.04025 0.13059
0.22287 0.04085 0.18802
-0.18710 0.29650 -0.03400
-0.17757 0.32623 -0.19038
-0.12288 0.00490 0.04369
-0.14674 0.20835 0.07363
-0.11601 0.02163 0.02991
-0.02230 0.04235 -0.00433
-0.13159 0.03011 -0.02860
0.16689 0.02762 0.11619
0.20572 -0.37040 0.20566
-0.01961 -0.36339 0.18772
-0.21597 0.37444 -0.06302
-0.16244 0.28432 0.14954
-0.16067 0.37982 -0.19350
0.21484 0.02997 -0.06701
0.12392 0.03803 0.10666
0.05438 0.03327 -0.02281
-0.23192 -0.33542 -0.19367
0.23583 0.02273 -0.14483
0.22248 0.01865 0.14314
-0.22798 -0.27404 -0.20347
-0.22645 -0.26450 0.19907
0.18038 0.01391 -0.04648
-0.16318 0.23588 -0.20394
0.02939 -0.38141 -0.19461
-0.23590 -0.30637 0.20288
-0.16356 0.30707 -0.16224
0.02156 0.03103 0.00399
0.22581 0.01445 -0.03306
0.14864 0.03972 -0.12770
0.19012 0.05485 0.13216
-0.15342 0.31760 -0.19899
-0.04128 0.02673 0.08004
-0.13689 0.02056 0.11966
0.19033 0.05482 0.15232
0.19731 -0.35534 -0.20332
-0.15480 0.27896 -0.12587
-0.19598 -0.36663 0.19043
-0.04914 0.02620 0.17666
-0.14338 0.21938 0.10859
-0.17840 0.31743 -0.03706
0.07872 0.03494 -0.03567
0.20086 -0.35317 0.19942
-0.16067 0.30958 0.19071
0.14672 0.05390 -0.16075
-0.15400 0.26143 0.10597
-0.17350 0.33130 0.09092
0.04985 0.04728 -0.08483
-0.13848 0.20380 0.16251
0.00464 0.00270 0.18458
-0.07920 0.03846 0.03305
-0.17618 0.35979 -0.16262
-0.21303 0.36143 0.02300
-0.19943 0.35127 -0.04853
0.18571 0.04150 -0.07809
-0.18816 -0.34811 -0.20103
0.04903 0.04722 -0.05613
0.03789 0.04646 -0.04821
-0.01433 0.02858 -0.12719
-0.06028 0.02544 -0.11784
0.13255 -0.37633 -0.20518
-0.21202 -0.32705 -0.19083
0.14873 0.05403 -0.07581
-0.12245 -0.00145 -0.05791
-0.18305 0.29399 -0.06351
-0.20113 0.37627 0.06919
0.03106 0.00334 -0.17328
-0.19528 -0.37501 -0.20219
0.09386 -0.36467 -0.19038
-0.13673 -0.00189 0.13179
0.04623 0.03272 0.09988
0.15962 0.04047 -0.14612
-0.14507 0.22103 0.19043
0.07181 0.03446 -0.01691
-0.22954 0.36707 0.10666
-0.14400 0.22505 -0.11289
-0.09345 -0.37018 -0.19038
-0.04843 -0.36743 -0.20561
-0.23531 0.36976 0.04483
0.08911 0.04996 -0.03846
-0.15157 0.23129 -0.14384
0.02619 0.01387 -0.18573
-0.21188 0.37543 -0.06758
-0.13731 0.00657 -0.07461
-0.02213 0.04236 0.01263
-0.07345 -0.38106 0.19400
-0.13621 -0.00957 -0.14218
-0.01826 0.02831 0.10483
-0.20765 0.36274 -0.17343
-0.17068 -0.17244 0.20566
0.14479 0.01571 0.16528
0.05133 -0.36739 -0.19038
0.23452 0.01505 -0.02639
-0.18091 0.34895 -0.07273
0.04419 0.03258 0.18679
0.14724 0.03962 0.03299
-0.16127 0.19569 0.01919
-0.11704 0.03587 0.11408
0.20559 0.05240 0.09345
-0.15177 0.34263 -0.17889
-0.22812 0.37150 -0.07224
-0.20570 -0.28066 0.20460
0.23334 0.02715 -0.13264
-0.15828 0.21551 0.09799
-0.23009 0.37102 0.00168
-0.05446 0.02583 0.04454
-0.18973 -0.35131 -0.19125
-0.13632 -0.00789 0.13287
0.13932 0.03960 0.18839
-0.11828 -0.08914 -0.19921
-0.01680 -0.36901 -0.20561
0.03005 0.03161 -0.04046
-0.14253 0.25299 -0.14386
-0.18809 0.31140 -0.05858
-0.08264 0.03822 0.12929
0.06441 0.04636 -0.16507
0.05496 0.04763 0.02455
-0.03551 0.01822 0.18698
-0.20132 0.35524 0.03990
-0.09969 0.02173 -0.18023
-0.05679 0.03999 0.10744
-0.00377 0.04361 0.17127
0.13810 0.03899 0.10283
-0.13962 0.25423 -0.15289
-0.15951 0.21580 -0.19321
-0.08599 0.01937 0.20214
-0.22102 0.37322 0.09002
-0.04789 -0.36014 -0.20554
0.09937 0.03635 0.10939
0.08564 0.04972 -0.01131
0.02002 0.04524 -0.06062
-0.18087 0.27074 -0.03455
0.14607 0.03954 -0.05546
-0.18741 0.34341 -0.10874
-0.02232 0.02803 -0.12004
-0.00633 0.02912 0.00285
0.06289 0.03385 0.09609
-0.15523 0.22164 0.04044
0.17751 0.05409 0.16436
0.18071 0.03322 -0.13626
-0.01718 0.02838 -0.11363
-0.09333 -0.37939 -0.19228
-0.13111 0.22687 0.15821
0.17659 0.04033 0.09431
-0.14142 0.34233 -0.20783
-0.09423 -0.01608 -0.20550
0.22008 0.02236 -0.15219
-0.14424 0.22585 -0.20561
-0.13723 0.26057 -0.16393
-0.11586 0.09423 -0.20561
-0.20028 0.36079 -0.06275
-0.19205 0.36561 -0.00822
-0.00156 0.04376 0.18162
-0.16270 0.20183 0.05197
-0.16951 0.31794 -0.09534
0.06545 0.00689 -0.17147
-0.13069 0.14121 -0.19038
0.07826 0.03490 0.15682
0.16616 -0.35526 0.20329
-0.14911 -0.16031 -0.19832
-0.01323 -0.35998 0.01659
-0.04859 0.02623 0.02813
-0.18224 0.30191 -0.19859
-0.15982 0.24109 -0.04372
0.19925 0.03953 0.10676
-0.13607 0.30030 0.19426
-0.15373 0.18386 0.19763
-0.20424 0.37727 0.14131
-0.17656 0.25293 -0.03740
-0.09236 0.01373 -0.20561
-0.05368 0.02589 0.07949
-0.17420 -0.14570 0.20023
-0.19384 0.36608 0.17354
-0.15658 0.25307 0.07931
-0.14425 -0.09077 -0.20519
-0.12385 -0.00945 0.12903
-0.16256 0.23510 -0.19164
-0.01055 -0.36781 0.19044
-0.21873 0.36005 0.06529
0.05043 0.04732 -0.12356
-0.14256 0.21623 -0.19038
-0.18957 0.37921 -0.13561
-0.02886 0.04190 -0.01022
-0.14227 -0.14337 0.20028
-0.07183 -0.00255 0.18615
-0.03877 0.03148 0.18839
-0.12962 -0.00984 0.16121
-0.00931 0.04323 0.17538
-0.15348 0.19757 -0.03598
-0.13641 0.02302 0.12828
-0.18701 0.29610 -0.01350
0.22596 -0.38544 -0.19810
-0.15277 0.22040 -0.05562
-0.11155 0.03625 0.01494
0.07033 0.02997 -0.18376
0.17562 0.05587 -0.08708
-0.15998 0.24341 0.04608
-0.12965 -0.00984 0.18329
-0.12199 -0.00820 0.04817
-0.18522 0.30104 -0.06075
0.06943 0.03430 -0.16348
0.12120 0.03784 0.09965
-0.12875 0.03273 -0.12061
-0.21612 -0.29107 0.19043
0.23707 0.02052 0.06743
-0.13890 -0.06616 0.19417
-0.03809 0.04127 -0.05153
0.07360 0.04890 0.07647
-0.11156 -0.07454 0.19798
0.05952 0.04794 -0.10062
-0.06722 0.02496 -0.08458
-0.13626 -0.00878 -0.13196
-0.05529 0.02578 0.03731
0.06977 0.04864 0.03184
-0.10149 -0.05030 -0.19615
-0.13733 0.00690 -0.17631
-0.15433 0.24831 -0.08566
0.18876 0.04106 -0.10707
0.13139 0.03854 -0.07400
-0.13697 0.00159 -0.03864
0.13697 0.03892 0.04494
0.17021 0.03975 0.09251
0.08172 0.03514 0.01554
-0.15244 0.20450 -0.11689
0.15678 0.03960 -0.16454
-0.00137 -0.36122 -0.20561
-0.12268 0.00196 -0.16672
-0.18146 0.31400 -0.10180
-0.12029 0.03208 -0.18861
-0.05556 0.04007 0.16828
0.00827 -0.36682 0.06467
-0.14453 0.26936 0.19937
0.18676 0.05538 0.00435
-0.14860 0.31601 -0.16970
-0.20846 -0.37893 0.18929
-0.10720 -0.36749 -0.20561
-0.08920 -0.37883 -0.20427
-0.11937 -0.00135 0.18664
-0.15788 0.23261 0.00231
-0.19727 0.36525 -0.12570
-0.06602 0.03936 0.00414
0.22105 0.02087 -0.00667
-0.13165 0.22936 0.20023
0.06985 0.01706 0.18496
-0.08605 0.01147 -0.19386
-0.01011 0.04308 0.12510
0.14444 0.05374 -0.16777
0.05039 0.03831 -0.18861
-0.22978 -0.28011 -0.20425
0.00189 0.03876 -0.18861
0.00137 -0.37508 0.13965
-0.17491 0.32515 -0.07413
-0.15801 0.19648 0.01523
-0.13073 0.16206 0.19043
-0.00370 0.02930 0.16002
0.17738 -0.37200 0.20566
0.16720 0.02312 -0.10085
-0.17438 0.30082 -0.04140
-0.15644 0.19686 -0.06007
-0.05065 0.02609 0.00281
0.12884 0.01299 0.18308
-0.18223 0.37900 0.14067
-0.16748 0.36162 0.14761
-0.11024 0.02202 0.11330
0.05584 0.02766 0.18452
-0.04419 0.02726 -0.18861
-0.01345 0.04221 0.05196
-0.10823 0.08698 -0.19038
-0.14949 0.28358 -0.14510
0.15886 -0.35105 -0.18987
-0.14297 0.24731 0.13873
-0.06602 0.01945 -0.18671
-0.19617 -0.37552 -0.18824
0.12796 -0.35314 -0.19927
-0.22039 -0.31701 0.20566
0.12475 -0.37706 -0.19101
-0.22777 0.36753 -0.11862
0.00393 -0.37439 -0.08154
-0.04808 0.02627 -0.06851
0.20943 0.05020 -0.17863
0.18552 0.05558 0.01135
-0.07276 0.03890 0.18533
-0.07002 0.02477 -0.01572
-0.04132 0.02673 0.13184
-0.22259 0.36556 0.13786
-0.03091 0.02744 -0.08995
-0.17112 0.31463 -0.14563
0.16979 0.03954 0.03624
-0.15026 0.19331 -0.19089
-0.17016 0.30508 0.07355
-0.14335 0.28169 -0.20299
-0.16977 0.33226 -0.11391
-0.18345 0.34057 0.12808
-0.01189 -0.37521 0.15015
-0.11737 0.21977 -0.19207
-0.18024 -0.23153 -0.19836
-0.14847 0.27475 -0.18330
0.16797 -0.36175 -0.18719
-0.13764 0.01145 -0.02992
-0.17393 0.37769 0.15358
-0.14059 -0.12181 -0.19038
0.11076 0.00958 0.17115
-0.23596 0.36960 0.02531
-0.17551 0.35364 -0.11061
-0.20947 -0.22626 -0.19993
0.01767 -0.35284 -0.19815
0.11230 0.03723 -0.08774
-0.19235 -0.37100 -0.20527
0.06150 -0.37395 -0.20561
0.21720 0.02681 0.16583
-0.12417 0.21733 -0.17124
-0.13348 0.20395 0.13592
-0.15659 0.21320 -0.10473
0.17102 -0.38544 0.19426
0.16656 0.03226 0.09258
-0.14386 0.15947 -0.20464
-0.05415 0.02723 -0.18861
-0.17800 -0.21902 0.19220
-0.17691 0.35787 0.20566
-0.15275 0.26107 -0.11268
-0.12442 0.10770 -0.19038
-0.17059 0.28507 0.12491
0.19492 -0.38346 0.20885
0.12207 0.03790 0.06009
0.12277 0.05226 -0.02296
-0.18764 0.36037 -0.04975
-0.12259 0.00065 -0.06419
-0.08518 0.03805 0.05726
-0.13021 -0.07742 -0.19038
0.14699 0.05392 -0.12742
-0.13511 0.27148 0.17734
-0.18539 0.33300 -0.10583
0.04449 0.04510 -0.18861
-0.17824 -0.37898 -0.19382
0.22837 0.03600 0.00422
0.21356 -0.38544 -0.20742
0.18934 -0.35013 0.20508
0.18005 0.05618 -0.14370
-0.15520 0.20436 0.19176
0.04316 0.04682 0.08748
-0.05857 -0.37122 -0.20561
-0.02006 0.02818 -0.07076
-0.02699 0.02771 -0.05736
-0.16804 0.27459 -0.01148
-0.13091 0.20358 0.18429
-0.19054 0.36192 0.11715
-0.15586 -0.35358 0.20095
-0.15488 0.21938 -0.20554
-0.13323 -0.05768 0.20373
-0.13675 -0.00156 -0.12459
-0.04369 0.04088 0.00342
0.16555 -0.37896 0.19190
-0.13289 0.27110 0.18332
0.22870 0.01465 -0.17832
0.16066 0.01701 0.17310
0.16958 0.01414 0.05462
-0.17867 0.35439 0.09333
0.10085 0.04946 0.11378
0.17232 0.01212 0.10878
-0.15669 -0.17588 0.19506
-0.05876 0.03985 -0.07211
0.23536 0.02356 -0.03142
0.18608 0.05549 0.17038
-0.03287 0.02731 -0.17286
-0.14227 0.33015 -0.19714
-0.03430 0.04152 0.12907
0.16652 0.04094 0.00357
0.14043 0.05156 -0.10622
-0.17750 0.31371 -0.04091
0.17650 0.05523 -0.06314
0.08906 0.04996 -0.15935
0.08213 -0.37925 -0.20385
-0.15503 0.23335 0.19043
-0.12161 -0.02833 -0.20258
-0.15314 0.23024 0.06721
-0.09313 -0.02201 0.20474
0.04119 0.04668 0.08060
0.09257 0.05020 -0.04371
-0.00818 0.04331 -0.00229
-0.12277 0.00329 0.18723
0.03627 0.01202 0.17038
-0.20877 -0.38532 0.19367
0.16426 -0.38544 0.20017
0.18741 -0.35360 0.20102
-0.18665 0.29461 0.01933
0.09348 0.03468 -0.17917
-0.12637 -0.00962 0.03882
-0.11693 0.03588 -0.12974
-0.16415 0.24381 0.10379
-0.10624 0.02229 0.07645
-0.02060 -0.36596 0.14260
0.01935 -0.36731 -0.19038
-0.20251 -0.26334 -0.19038
0.15138 -0.37511 -0.20550
0.15552 -0.37914 -0.19204
-0.13758 0.20509 0.19043
0.04458 0.03260 0.13848
0.21399 0.04703 0.04836
-0.13610 0.21243 -0.17547
0.14580 0.01456 -0.16531
-0.17391 0.29302 -0.19077
0.22389 0.04014 0.00995
-0.08618 0.01003 -0.17266
-0.14778 0.30675 0.20775
-0.12472 0.14163 0.20566
-0.16262 0.29535 -0.15674
-0.10407 0.03676 -0.00429
-0.04841 -0.37056 -0.19038
-0.07559 0.02439 0.08941
-0.11834 0.15990 0.19566
-0.18758 -0.38544 -0.19181
0.04198 0.04674 0.00739
0.08073 0.04939 -0.13679
-0.18266 0.31507 -0.19237
-0.15785 0.23247 -0.01468
-0.03121 0.02742 0.01941
-0.10226 0.03688 -0.04610
-0.16426 0.26464 -0.05101
0.16664 0.03111 -0.09729
0.07197 0.04879 -0.17846
0.16741 0.02018 0.07978
-0.20275 0.36392 0.09433
0.03434 0.04622 -0.02950
-0.16720 0.21798 0.04844
-0.16268 0.25245 -0.02090
-0.12218 -0.00534 0.14703
-0.20195 -0.27333 0.20410
0.11121 0.05147 0.13848
-0.18064 0.37306 -0.11610
-0.07950 0.03844 -0.11996
-0.17634 0.36715 -0.17158
-0.23325 -0.31789 -0.19093
0.12704 0.05255 -0.16352
0.22544 0.01443 0.08842
-0.12091 0.10805 0.20566
-0.17762 0.31535 -0.19038
0.18203 0.01606 0.10008
-0.15423 0.37933 -0.20598
0.19608 0.03999 0.12025
-0.10157 0.02261 -0.11354
-0.16831 0.21879 -0.03124
0.16900 -0.38220 -0.19843
0.12698 0.03823 -0.12358
-0.14753 0.30735 -0.20888
0.15461 0.05444 0.08847
0.00682 -0.37204 0.13452
-0.18723 0.36768 0.19034
0.14995 0.03204 -0.17828
0.17030 0.05551 0.13698
0.14683 0.03959 0.13769
-0.13704 0.20524 -0.16770
0.15645 0.05456 -0.09827
-0.08675 -0.37424 -0.19038
-0.11992 0.03567 -0.16951
0.21034 -0.36775 0.20431
-0.18525 -0.35428 0.19086
-0.16344 0.28006 -0.14364
-0.10206 0.03616 0.19043
0.05130 -0.38211 -0.19876
0.05634 0.04772 0.16061
-0.13730 0.00638 0.08930
0.02616 0.03134 0.09817
-0.15913 0.26395 0.20566
-0.13907 0.32646 -0.20364
0.16983 0.04116 -0.06773
