ply
format ascii 1.0
comment VCGLIB generated
element vertex 1792
property float x
property float y
property float z
element face 0
property list uchar int vertex_indices
end_header
-0.19152 0.08644 -0.01793
0.13314 -0.08140 -0.17089
0.12498 -0.26183 -0.11081
-0.15755 0.26674 -0.08442
-0.16722 0.30611 -0.04843
-0.02853 0.01330 -0.00672
-0.14728 -0.05054 0.02203
-0.19152 0.40184 -0.00747
0.16967 -0.35310 0.14485
-0.13657 0.04128 0.13038
0.14121 0.01330 -0.04818
0.01313 0.01330 0.15653
-0.19152 0.06823 0.15582
-0.17619 0.30578 -0.19152
-0.19152 0.26463 0.00133
-0.08654 -0.05054 0.12499
-0.06911 -0.05054 0.12392
-0.19152 0.15373 -0.15692
-0.16104 0.33552 0.07482
-0.04162 0.01330 0.16954
-0.14415 0.01330 -0.08184
0.19152 -0.02424 -0.08383
-0.19152 0.22082 0.18288
-0.07491 -0.05054 0.10839
-0.14587 -0.05054 -0.05837
-0.19152 0.41512 0.16793
0.16572 -0.05054 -0.08238
-0.02066 -0.02508 -0.19152
0.10713 -0.30376 0.14494
-0.12283 0.41647 0.16685
-0.15546 0.26956 0.19152
0.12136 -0.18802 0.16637
-0.19152 0.13228 0.02538
-0.14094 0.42028 -0.13018
-0.17225 0.17161 0.00197
-0.16662 -0.30074 -0.12552
0.04505 -0.05054 -0.02883
-0.19152 -0.01935 0.07628
0.00108 0.01330 0.18632
-0.12283 0.04316 -0.18851
-0.13861 0.21087 0.12654
0.03549 0.01330 0.13363
-0.04110 0.01330 -0.11392
-0.10833 -0.20081 -0.12953
-0.19152 -0.01302 -0.00792
0.10420 -0.05054 -0.15336
0.14650 -0.31041 0.10896
-0.14794 -0.18993 -0.10950
0.19152 -0.02433 -0.06290
0.03432 -0.05054 -0.07971
-0.07913 0.01330 0.03814
-0.12283 0.27064 0.17693
0.11093 -0.27199 0.12364
-0.12433 0.26613 -0.19152
-0.12884 -0.14319 0.17007
0.02442 -0.05054 -0.04516
-0.14145 -0.42028 0.15595
-0.19152 0.26367 0.15463
-0.14908 0.13905 0.10681
-0.10749 0.01330 0.03531
-0.16403 0.18821 -0.06343
0.16940 -0.15395 0.14669
-0.11689 -0.18052 0.16296
0.08527 0.01330 0.16001
-0.19152 0.40743 -0.07655
-0.14139 0.18353 -0.12130
0.15599 0.01330 0.05348
-0.16805 -0.37689 0.15080
-0.18453 0.14749 0.19152
-0.14364 -0.42028 -0.13893
-0.19152 0.20382 -0.02994
-0.10746 -0.06299 0.14731
0.02607 -0.04229 0.19152
-0.14740 -0.37511 -0.17016
-0.14557 0.30845 -0.11343
-0.19152 0.12163 -0.08763
0.19125 0.01330 0.00046
-0.11368 0.01330 0.09353
0.13962 -0.21227 0.10800
-0.05300 0.01330 0.05559
0.04627 -0.05054 0.12552
-0.19152 -0.04107 0.03823
-0.17644 -0.03198 -0.19152
0.04167 0.01330 -0.06056
0.19152 -0.00662 0.00172
-0.14137 -0.00349 -0.19152
-0.12283 0.40150 -0.16767
-0.05591 -0.05054 -0.16299
-0.13446 0.23922 0.13436
-0.19152 0.35890 0.01858
-0.17001 0.27981 0.03411
-0.19152 0.15145 0.00770
-0.11783 0.01330 0.17398
0.02388 0.01330 -0.13925
0.18378 -0.01112 -0.19152
-0.15868 0.10949 0.08131
-0.13508 0.28835 -0.19152
-0.10677 -0.28689 -0.13704
0.06409 0.01330 -0.04336
-0.19152 0.13031 -0.07929
-0.19152 0.21230 0.18382
-0.16853 0.15793 -0.19152
-0.05006 0.01330 0.12812
-0.19152 0.02196 0.14936
-0.14899 0.14978 0.10698
-0.05705 -0.05054 0.04748
0.19152 -0.03362 0.10561
-0.15764 -0.19369 -0.16478
-0.16989 0.13648 -0.03571
0.12028 -0.30417 0.16564
0.05182 0.01330 0.06840
-0.16461 0.11970 -0.06071
-0.10970 -0.33546 0.12610
0.16993 -0.24024 0.14156
-0.13560 0.01330 0.09733
-0.19152 0.10956 0.11343
-0.19152 0.40166 -0.04865
-0.01732 -0.00707 0.19152
0.03757 -0.05054 0.01327
-0.04031 -0.03804 0.19152
-0.19152 -0.03951 -0.14202
-0.19152 0.31968 0.17353
-0.19152 0.22703 0.12455
-0.00837 -0.05054 -0.03018
0.07031 0.01330 0.15999
0.16957 -0.32455 0.14619
0.10700 -0.28892 0.13429
0.11074 -0.42028 -0.12591
-0.12160 -0.18112 0.16673
-0.07145 0.01330 -0.18990
-0.00605 -0.05054 0.00602
-0.12712 -0.05054 0.03996
-0.13083 -0.17938 -0.17058
-0.13907 0.41295 0.12568
0.13922 -0.40793 0.10797
-0.16648 -0.01588 0.19152
-0.12283 0.27458 0.16800
-0.19152 0.33005 -0.15555
-0.13547 0.15242 -0.13245
0.00646 0.01330 0.03799
-0.12954 0.32123 0.19152
-0.04400 0.01330 -0.03013
0.02831 0.01330 0.02269
0.07179 0.01330 0.03692
-0.12283 0.03788 -0.18531
-0.08678 0.01330 0.05688
-0.19152 0.14050 -0.11298
0.12892 -0.32198 0.10920
0.10921 -0.39502 -0.12720
-0.14197 -0.22261 0.10813
0.14736 -0.38628 0.17015
-0.19152 0.30212 -0.17642
0.06184 -0.05054 -0.08831
-0.13131 0.28447 -0.19152
-0.14939 0.27610 -0.10622
-0.06167 -0.05054 0.00598
-0.12283 0.38870 0.17657
-0.15843 -0.10900 -0.11509
-0.19152 0.33759 -0.09931
-0.13180 0.21917 0.19152
0.10814 -0.22706 -0.12945
-0.16850 0.17364 -0.04239
-0.16212 -0.42028 -0.13436
-0.11408 0.01330 -0.13586
0.15647 -0.41382 0.11370
0.19152 -0.02525 0.16701
0.17019 -0.23195 -0.14120
0.19152 -0.04498 -0.12843
0.12111 -0.25124 -0.16650
-0.19152 0.14390 -0.12963
0.11328 -0.40288 0.12021
-0.19152 0.21376 -0.00727
0.10985 -0.31134 -0.12587
-0.07584 -0.05054 0.13954
-0.16804 0.22929 0.04456
-0.14812 -0.16892 -0.17003
-0.17716 0.36393 -0.19152
-0.17069 0.40448 -0.02430
0.03262 -0.05054 0.09255
0.19152 -0.03374 -0.17744
-0.10282 0.01330 -0.09436
-0.11724 -0.38890 -0.16359
0.07674 -0.05054 0.04737
0.07304 0.01330 -0.00468
-0.12803 0.33400 0.19152
-0.18960 0.42028 -0.10755
-0.19152 0.01742 -0.11852
0.16838 -0.33607 -0.15020
0.12459 -0.42028 -0.12336
-0.10686 -0.24585 0.13568
-0.19152 0.34740 0.03096
-0.19152 0.34655 0.13783
0.14722 -0.05054 -0.04006
0.16370 -0.22726 0.12060
-0.16707 0.40722 0.04912
-0.02397 0.00098 0.19152
0.10786 -0.27847 0.13089
-0.19152 -0.03648 0.10421
0.16860 -0.17485 0.14897
0.01606 -0.05054 0.09465
-0.11136 -0.13256 0.15630
-0.19152 0.33797 0.16463
-0.19111 0.00998 0.19152
0.16908 -0.17153 -0.14739
0.17447 0.01330 0.14333
0.11993 -0.05054 -0.11204
0.14080 -0.16094 -0.10793
-0.15451 0.11480 0.09279
-0.19152 0.25390 0.14334
0.06473 0.01330 -0.17623
0.19152 -0.01116 0.09220
-0.15424 0.06796 0.09353
0.09053 0.01330 0.05332
-0.19152 0.20649 -0.18613
-0.11111 -0.30540 0.15594
-0.03480 0.01330 0.16251
0.05578 -0.05054 -0.15357
-0.16314 -0.20899 -0.15941
0.07802 -0.05054 -0.10274
-0.14438 0.40117 0.19152
-0.19152 0.05946 -0.00663
0.05856 0.01330 0.17591
-0.19152 0.39782 0.03657
-0.19152 0.21162 -0.04286
-0.16931 -0.05054 -0.06184
-0.16468 -0.22856 -0.15717
0.14488 -0.26352 0.10840
-0.19152 0.14915 0.03742
0.13225 -0.30435 0.17091
0.11892 -0.13867 -0.11460
-0.16399 0.22740 0.06364
-0.10734 0.01330 -0.04559
0.10839 -0.14790 0.12939
-0.16904 -0.28115 -0.13183
-0.14001 -0.35541 -0.17154
-0.16754 0.19318 0.04691
-0.16932 -0.17269 0.13242
-0.07581 -0.05054 0.12522
0.19152 -0.03077 -0.00488
0.01778 -0.05054 -0.16243
-0.03570 -0.05054 -0.03777
-0.08151 0.01330 -0.18860
0.05696 0.01330 -0.01640
-0.13329 -0.36223 -0.10841
-0.19152 0.22236 0.13063
-0.19152 0.05894 -0.17178
0.14364 -0.31798 -0.10846
-0.19152 0.12574 0.12928
-0.16951 0.35939 0.03763
0.12038 -0.05054 -0.10674
-0.17157 0.33483 -0.01175
0.11855 -0.12646 0.11492
-0.14126 0.27428 -0.19152
-0.12283 0.24591 -0.17188
0.08741 0.01330 -0.06840
-0.17238 0.02891 0.00016
-0.13076 -0.33549 -0.10888
-0.17710 0.35879 0.19152
-0.14308 0.04813 -0.19152
0.19152 -0.02395 -0.04072
0.12698 -0.26145 -0.16932
0.06367 -0.05054 -0.16388
-0.16404 -0.28880 -0.12105
0.15587 -0.18847 -0.16601
0.09750 -0.05054 0.15179
-0.18871 0.10323 0.19152
-0.16843 -0.19634 -0.14941
-0.13721 0.37955 -0.12918
-0.11217 -0.21084 0.12151
-0.07563 0.01330 -0.04881
0.16016 -0.07875 -0.16283
0.11441 -0.19151 -0.11894
-0.11872 -0.30860 -0.16460
-0.19152 0.08087 -0.02213
-0.16999 -0.06772 0.13879
-0.10661 -0.08723 -0.13916
0.15319 -0.07035 0.11146
0.15759 -0.15330 0.16481
-0.19152 0.30550 0.11252
-0.14121 0.07121 -0.12164
0.15561 -0.29720 -0.16619
-0.12527 0.42028 -0.18251
0.19152 -0.00728 0.06126
0.17847 -0.02052 -0.19152
-0.06756 0.01330 0.04127
-0.15538 -0.00452 0.19152
-0.18376 0.42028 -0.12652
0.19152 -0.04052 -0.05814
-0.19152 0.01873 0.08992
-0.16972 -0.30341 0.13532
-0.07974 -0.05054 0.05879
0.13554 0.01330 -0.12047
0.17340 -0.05054 0.06242
-0.12283 0.35218 -0.17432
-0.19152 0.07296 0.19113
-0.12902 0.29818 0.19152
-0.14815 0.34388 -0.10856
0.19152 -0.01895 0.09732
-0.13855 -0.12192 0.10788
-0.19152 -0.03091 -0.18915
0.10693 -0.23871 -0.14410
0.11463 0.01330 0.12004
0.02297 0.01330 0.17545
-0.17072 0.07292 -0.02392
0.11613 -0.38413 0.16236
-0.11150 -0.13166 0.12236
-0.16362 0.04202 0.06538
-0.19152 0.02482 0.12498
-0.13350 0.35110 -0.19152
-0.15744 0.37285 0.08471
-0.12795 -0.33208 0.16977
-0.19152 0.12959 -0.03702
0.15039 -0.26819 0.16895
-0.19152 0.26964 -0.03980
0.16976 -0.18264 -0.13560
-0.11541 -0.26809 -0.11761
0.04218 0.01330 0.15251
0.12279 -0.36828 -0.16731
-0.16137 0.08283 0.19152
-0.16246 -0.12291 -0.16040
-0.10646 -0.16530 0.13781
-0.19152 0.25312 0.03114
-0.07744 -0.05054 -0.15266
0.14585 -0.29380 0.17043
0.13555 -0.26328 -0.10814
-0.16614 -0.05054 0.03579
-0.10996 -0.05054 0.16857
-0.03128 -0.05054 -0.04678
0.10690 -0.10502 0.13559
-0.19152 0.38385 -0.14651
0.15739 -0.05054 0.04097
0.16327 -0.39982 0.12011
-0.14066 0.20015 0.12268
-0.09220 -0.05054 0.10734
-0.12283 0.13341 -0.15474
0.06353 0.00763 -0.19152
0.15071 -0.37413 0.16880
0.13804 -0.05649 0.17136
-0.11455 -0.05054 0.11434
0.09527 0.01330 0.11711
-0.11591 -0.26268 -0.16216
0.16616 -0.07233 0.15501
-0.13247 0.35619 0.19152
0.12021 -0.23157 0.16559
-0.18945 0.27081 0.19152
0.14970 -0.01337 0.19152
-0.03338 -0.02261 0.19152
0.11140 -0.25340 0.15668
-0.12979 0.11358 -0.19152
-0.14530 0.42028 0.18677
-0.07121 -0.05054 0.05868
-0.14552 0.29755 0.19152
-0.19152 0.13756 -0.08417
0.09667 0.01330 0.02657
-0.19152 0.32220 -0.03074
-0.16504 0.42028 0.07954
-0.17184 0.39800 -0.00778
0.05376 0.01330 -0.04575
-0.19152 0.20018 -0.06930
0.09273 -0.05054 -0.10792
-0.12146 -0.30947 0.11282
-0.15443 0.01708 0.09300
0.14462 -0.09322 0.17066
-0.19152 0.02149 -0.06907
0.13262 0.01330 0.13359
0.01170 -0.05054 -0.09898
-0.19152 0.01648 -0.10056
-0.14948 0.07445 0.10605
0.10777 -0.21624 -0.14816
-0.19152 0.21340 0.01786
-0.16417 0.17555 0.06278
-0.17693 -0.00218 0.19152
0.13268 -0.41910 -0.17080
-0.10754 -0.16920 0.13204
0.15214 -0.05054 -0.05580
-0.19152 0.39903 0.18050
-0.02227 -0.05054 -0.09907
-0.16926 0.18301 -0.03879
-0.19152 0.06756 -0.01083
0.16003 -0.15095 0.11632
-0.19152 0.18219 0.18178
-0.17227 0.28439 0.00174
-0.12283 0.31405 0.18022
-0.10680 -0.15506 -0.13670
0.05961 -0.05054 -0.03913
0.14436 -0.25459 -0.17094
-0.01722 -0.05054 -0.15158
-0.15263 0.07049 -0.09798
-0.19152 0.19777 0.03684
0.15405 -0.32425 -0.16726
-0.19152 0.02466 -0.08476
0.16651 -0.22212 -0.12480
-0.01014 -0.05054 -0.11950
-0.19152 -0.04833 -0.18996
-0.01325 -0.05054 0.04671
0.03207 -0.04380 -0.19152
-0.15453 0.37651 -0.09272
-0.11263 -0.35882 -0.12115
0.05942 0.01330 0.12183
-0.19152 0.05572 -0.11239
0.13304 -0.19079 0.10843
-0.04457 -0.05054 -0.14673
-0.08980 0.01330 -0.15800
0.11592 -0.29831 -0.16213
0.16302 -0.28014 -0.15949
-0.14558 0.20263 0.11340
-0.12283 0.13277 -0.16976
-0.19152 0.31917 0.16684
0.06650 0.01330 0.08315
-0.14610 0.01330 0.09502
-0.12549 -0.29972 -0.16870
-0.19152 0.22399 0.09699
-0.16723 0.31037 0.04837
-0.17011 -0.05054 0.06997
0.04194 -0.05037 -0.19152
-0.18908 0.42028 0.06984
-0.19152 0.32389 0.11896
-0.19152 0.00025 0.11542
-0.10840 -0.19933 0.14998
-0.11842 -0.30439 0.16427
-0.15415 0.24905 -0.09377
-0.18904 -0.01361 -0.19152
-0.13751 -0.06869 0.17144
0.15955 -0.30220 -0.16349
-0.12572 0.38913 0.14699
-0.05030 0.01330 -0.09527
-0.19152 0.25820 -0.05718
-0.16807 0.36629 0.04439
-0.16834 -0.20946 0.15019
-0.15745 -0.06473 0.11436
0.09049 0.01330 0.00004
0.08435 0.00984 -0.19152
-0.15448 0.21095 0.09289
-0.14062 -0.22997 -0.10810
-0.16859 0.10398 -0.04197
0.01756 0.01330 0.15346
0.13777 0.01207 -0.19152
-0.13004 0.28472 -0.14103
-0.16090 0.15596 0.07521
-0.17115 0.34763 0.01773
-0.17215 0.02293 0.00341
0.09845 0.01330 -0.06918
-0.14034 -0.05054 -0.06146
-0.15175 0.22234 0.10040
0.15627 -0.09953 -0.16573
0.19152 -0.03423 0.03103
0.07096 -0.05054 -0.05333
0.11258 -0.25270 0.12124
-0.16827 0.20040 -0.04346
0.11601 -0.37613 0.16223
-0.19152 0.15643 0.03235
-0.13124 0.26373 -0.13938
0.11520 -0.22803 0.16128
-0.14710 0.22779 0.11053
0.15380 -0.32061 0.16732
-0.19152 0.33454 0.18216
0.16139 -0.05054 -0.06404
-0.12600 -0.18447 0.11042
-0.11067 -0.19075 -0.12401
0.13279 0.01330 0.04802
0.09605 0.01330 0.08127
-0.16667 0.12382 -0.05101
0.13097 -0.42028 -0.12501
-0.19152 0.13546 -0.12679
-0.04928 -0.05054 0.05332
-0.16553 0.19891 0.05638
-0.13821 0.13030 -0.12728
0.14663 -0.35577 -0.17030
0.15144 -0.31475 -0.11085
-0.11689 -0.33402 -0.11634
-0.12014 0.01330 -0.05244
-0.19152 0.21763 -0.18650
0.10678 -0.25672 0.13716
-0.12685 0.12307 0.14543
-0.19152 0.37742 -0.08332
-0.13656 -0.38227 -0.17127
-0.12283 0.20734 -0.18519
-0.12404 0.38164 0.19152
-0.16318 0.35403 0.06742
-0.14082 0.14304 -0.12237
0.16367 -0.26184 0.12058
0.14456 0.00090 -0.19152
-0.01450 0.01267 0.19152
-0.12497 0.16643 -0.14803
-0.15468 0.03922 0.19152
0.16937 -0.17944 0.13344
0.18688 0.01330 0.04919
-0.14555 -0.41996 0.17064
-0.15885 0.24018 0.08083
-0.15249 0.26505 0.09836
-0.17081 0.33010 0.02256
0.14609 -0.42028 0.16421
-0.16768 0.09741 -0.04625
0.00679 -0.05054 -0.14994
-0.12296 0.32232 0.19152
-0.16213 0.41312 -0.19152
0.11580 0.01157 0.19152
-0.14898 -0.32081 -0.16964
-0.19152 0.28021 -0.09312
0.09603 -0.03905 0.19152
0.16322 -0.30843 -0.15926
-0.12283 0.36285 0.17247
0.19152 -0.03159 0.08749
-0.19152 0.25038 -0.01467
-0.19152 -0.04499 0.14854
0.08723 -0.02480 0.19152
-0.12160 -0.05786 -0.11258
-0.17730 0.02407 0.19152
-0.15071 -0.29719 -0.11048
0.14730 -0.14601 0.10924
-0.14279 -0.14719 0.17103
-0.13859 0.36865 -0.19152
-0.17085 0.34802 -0.02206
-0.17011 -0.21113 -0.13753
-0.19152 0.25136 0.00866
0.09061 -0.05054 -0.17205
-0.01030 -0.05054 0.07365
-0.10847 -0.34292 -0.15063
-0.12283 0.33413 -0.18278
-0.16006 -0.23012 -0.16271
-0.19152 0.16879 -0.14913
0.14721 -0.05054 0.10915
0.11460 -0.13913 0.11830
0.12679 0.00844 0.19152
-0.17746 0.10349 0.19152
0.06388 -0.02931 -0.19152
0.01482 0.01330 -0.03416
-0.19152 0.37929 -0.18614
-0.15687 0.02588 0.08628
0.16028 -0.41065 -0.16269
-0.19152 0.26055 0.16709
-0.10988 -0.32959 0.12574
0.14282 -0.03711 -0.19152
-0.19152 0.11553 -0.11742
-0.16142 -0.20151 -0.11799
-0.09763 0.01330 -0.16888
-0.19152 0.11232 0.00484
-0.16234 -0.01729 -0.19152
-0.03713 -0.00361 -0.19152
-0.16054 0.39100 -0.07619
0.07009 0.01330 -0.06106
0.03789 -0.05054 -0.12593
-0.19152 0.11057 -0.10099
-0.19152 0.07347 -0.10658
-0.19152 0.12939 -0.10236
-0.16979 -0.06190 -0.14308
-0.14225 0.25653 0.19152
-0.06300 -0.05054 -0.04987
-0.02271 -0.05054 0.16019
-0.19152 0.09905 0.15555
0.05876 0.01330 0.18713
0.08636 -0.05054 0.10250
0.14575 0.01330 0.09059
0.15670 -0.16402 -0.16544
-0.16906 0.42028 -0.14815
-0.19152 0.27768 -0.09775
0.14384 -0.05054 0.02713
0.19152 -0.03405 -0.07372
-0.16962 -0.40879 -0.14526
0.01794 0.01330 0.02229
0.19152 -0.00576 0.01253
0.02639 0.01330 -0.09378
-0.19152 0.27286 0.16407
-0.16697 0.03990 -0.04957
-0.16714 -0.21433 0.12623
-0.17706 -0.05054 0.18512
-0.11750 -0.05869 -0.16377
0.16561 -0.28446 -0.15597
0.19152 -0.02828 0.04056
0.14096 -0.05054 0.04982
-0.19152 -0.00634 0.06132
0.17185 -0.05054 0.08057
-0.19152 0.19545 -0.11674
0.02500 -0.05054 -0.12991
-0.19152 0.15128 -0.10440
-0.19152 0.09787 -0.03032
-0.14786 0.17890 0.10910
0.01595 -0.05054 0.02339
-0.14131 0.32763 -0.12144
-0.16833 0.41477 -0.04317
0.18298 -0.05054 -0.02934
0.13386 -0.15248 -0.17102
-0.10652 -0.05054 -0.04516
-0.18751 0.42028 -0.11302
0.06336 0.01330 -0.01135
-0.12283 0.33995 0.17523
-0.19152 0.35334 0.12752
0.13824 -0.32808 -0.17141
-0.13054 0.01330 -0.08576
-0.05103 -0.02615 0.19152
-0.19152 0.01815 0.16121
0.16409 0.01330 0.07052
0.12296 -0.10313 -0.11183
-0.11962 0.01330 0.02587
0.15868 -0.24168 -0.11543
-0.16762 -0.29445 0.12760
-0.19152 0.18214 -0.12680
-0.15867 -0.23133 0.16406
-0.19152 0.10364 -0.03705
-0.11775 -0.05054 -0.09718
-0.14970 0.16794 -0.10564
0.05570 -0.05054 -0.18616
-0.08766 -0.02521 0.19152
-0.12283 0.12168 0.18316
0.16570 -0.37867 -0.15579
-0.12283 0.34770 -0.16679
-0.19152 0.15019 -0.14503
-0.17803 -0.05054 -0.15866
-0.16870 0.33691 -0.04142
-0.19152 0.19807 0.12827
-0.09974 -0.02610 -0.19152
-0.08661 -0.05054 0.04359
0.14087 -0.05054 0.09345
-0.19152 0.20749 0.01925
-0.17013 -0.05407 0.14065
-0.02428 -0.05054 -0.17470
0.14750 -0.39447 -0.10918
0.06588 0.01330 0.13786
0.15413 0.01330 0.03086
-0.12704 0.16986 -0.19152
0.14185 -0.27797 -0.17113
0.11380 -0.42028 -0.15321
-0.14611 -0.05054 0.09792
0.08493 0.01330 0.13970
0.07757 -0.05054 0.09824
-0.15505 -0.31452 -0.11277
0.10895 -0.28974 -0.15152
-0.19152 0.14067 0.19099
0.11632 -0.05054 0.17494
-0.17065 0.08500 0.02490
-0.15693 -0.30220 0.11392
-0.10692 -0.05285 0.13531
-0.10991 -0.05054 0.06115
0.15282 -0.35944 0.16779
-0.19152 0.17182 0.12782
-0.19152 0.02533 -0.07985
-0.10739 -0.22289 -0.14649
0.19152 -0.03876 0.01245
0.13608 -0.11638 0.17121
0.02147 0.01330 -0.06637
0.07528 0.01330 0.07175
-0.16772 -0.00816 -0.19152
-0.15226 -0.20584 0.16828
0.11494 0.01330 -0.04032
-0.01774 -0.05054 -0.19038
0.11592 -0.31050 -0.16213
0.19152 -0.02268 -0.11258
-0.19152 0.07720 0.08582
0.19152 -0.03549 -0.10476
-0.11352 -0.24397 0.15944
-0.13762 0.03621 0.19152
-0.19152 0.03700 -0.04152
-0.17097 0.41169 0.02027
-0.11147 -0.05054 0.02031
0.11827 0.01330 0.08705
-0.12137 -0.24075 0.16661
-0.19152 0.10798 -0.03360
-0.14065 -0.13955 -0.17142
-0.02854 -0.01215 0.19152
-0.10782 -0.35458 0.14834
-0.12283 0.31201 -0.17014
-0.19152 0.31273 0.12311
-0.19152 0.30948 0.04154
0.14822 -0.08087 0.10957
0.10723 -0.05054 -0.08754
0.11917 0.01330 0.16069
0.17010 -0.14902 0.13733
-0.13315 0.11659 -0.13675
-0.13852 0.42028 0.16933
0.16911 -0.37499 0.13203
-0.16259 -0.18301 0.15994
0.10753 -0.18028 0.13182
-0.19152 0.18679 -0.13841
-0.11463 -0.41102 -0.16067
-0.17142 0.40762 -0.01378
0.19152 -0.00039 -0.14739
0.18512 0.01312 0.19152
-0.16167 -0.29468 0.16102
0.16550 -0.08897 -0.12332
-0.15212 0.37106 0.09938
-0.17065 0.11483 0.02492
-0.13401 -0.09816 -0.10827
-0.19152 0.16355 0.13253
-0.17198 0.18695 -0.00588
-0.14228 -0.11270 -0.17112
-0.19152 0.22402 -0.06973
0.16740 -0.10495 -0.15224
-0.09359 0.01330 -0.13154
0.12799 -0.29816 -0.16980
0.06219 -0.05054 0.16958
0.17668 -0.05054 -0.14660
0.09181 -0.05054 -0.07304
-0.12283 0.07782 0.18980
0.15149 -0.28126 -0.11088
-0.03216 -0.05054 -0.01961
0.11052 -0.38752 0.12424
-0.14354 -0.12990 -0.17088
-0.19152 0.12775 0.02761
-0.04906 -0.03659 -0.19152
-0.12655 0.23622 -0.14585
-0.16830 0.31939 -0.04334
-0.16174 0.30609 -0.07288
0.09951 0.01330 -0.16958
0.10676 -0.30613 -0.14185
-0.16979 -0.12275 -0.14305
-0.19152 0.21480 -0.03461
-0.10856 -0.05054 -0.08941
-0.16601 -0.15136 -0.15523
-0.12155 -0.27736 0.16670
-0.12784 0.01330 -0.09670
-0.19152 0.32037 -0.05997
-0.16688 -0.16274 -0.12605
-0.16474 0.39000 -0.06009
-0.06732 0.01330 -0.06520
-0.16501 -0.14328 0.15712
-0.19152 0.37756 0.07483
-0.17202 0.08405 0.00528
-0.15029 0.25779 0.10440
-0.14308 -0.05054 0.00885
-0.16565 -0.05054 -0.15720
0.11430 -0.06513 -0.11908
-0.19152 0.23660 -0.15844
-0.19152 0.01163 -0.04854
-0.19152 0.15479 0.10331
-0.19152 0.34490 -0.10168
-0.19152 0.09714 -0.12619
-0.04573 -0.02427 0.19152
-0.15118 0.30874 -0.10196
0.07003 0.01330 0.02407
-0.17132 0.16025 0.01534
-0.19152 0.12981 0.17092
0.12604 -0.36893 0.16886
0.02090 -0.05054 -0.02157
0.16949 -0.28706 -0.13287
-0.19152 0.16161 -0.06702
0.10681 -0.17053 0.14325
0.12616 -0.06025 -0.16892
-0.12283 0.12749 0.15489
-0.19152 -0.00041 0.06245
-0.19152 0.40037 0.05713
-0.16293 -0.36346 0.15954
0.08354 -0.05054 -0.05069
-0.16223 0.07712 0.07154
-0.15988 0.25766 -0.07802
-0.05291 -0.05054 0.19048
-0.01683 -0.05054 0.10530
0.13727 -0.31066 0.10782
-0.11517 -0.05867 0.16149
0.12919 -0.39515 -0.17015
0.16697 -0.19304 0.12618
0.16781 -0.23226 0.15122
0.15286 -0.17318 0.11123
-0.09892 -0.05054 0.14488
-0.16897 0.07847 -0.04014
-0.00075 -0.01308 -0.19152
0.19152 -0.03139 -0.03660
-0.13706 0.24740 0.12946
0.12060 -0.38840 -0.11345
0.08130 -0.05054 -0.07460
-0.01720 0.01330 0.01573
0.16684 -0.05054 0.17210
-0.07822 -0.05054 -0.07412
0.16734 -0.26067 0.15255
-0.16950 -0.09428 -0.14636
-0.12283 0.20241 0.15675
-0.11210 -0.32052 -0.15771
0.19152 -0.05047 0.07139
0.12714 0.01330 0.05770
-0.19152 0.13675 0.07821
-0.07251 0.01330 -0.13153
-0.13550 -0.23743 -0.10799
-0.14385 0.42028 0.13602
0.10669 -0.09016 -0.14100
0.12173 -0.10504 0.16663
-0.17047 0.13315 0.02748
0.16426 -0.05054 -0.17949
-0.19152 0.00757 0.14200
0.12540 -0.29304 0.11074
0.12490 -0.22717 0.16846
-0.15423 0.30448 0.09356
-0.19067 0.01967 0.19152
0.16247 -0.34183 -0.16013
-0.16644 -0.26290 -0.12514
0.13641 -0.42028 0.13101
-0.14765 0.12490 0.10949
0.11049 -0.06657 -0.12454
0.07986 0.01330 0.03378
-0.15515 0.01330 -0.02208
-0.15700 0.11433 -0.08593
-0.16354 0.42028 0.09951
0.02204 -0.05054 -0.07489
-0.12698 0.34079 0.14525
0.10786 -0.20225 0.14884
-0.15892 -0.05054 -0.04216
-0.07485 0.01156 0.19152
-0.16757 -0.24866 0.12744
-0.11191 -0.11008 -0.12220
0.16709 -0.23433 -0.12606
-0.09963 -0.05054 0.12866
-0.17247 -0.05054 0.04338
-0.16951 -0.20203 0.14499
-0.13361 0.06206 0.13595
-0.19152 0.33808 0.06285
0.15425 -0.03088 0.19152
-0.16601 0.09202 0.19152
-0.05127 -0.05054 -0.18565
-0.18491 -0.05054 0.01561
-0.06154 -0.05054 0.16330
-0.06388 -0.03994 -0.19152
-0.19152 0.32570 0.09906
-0.12531 -0.05054 0.18466
0.01784 0.01330 0.17606
0.12167 -0.16766 0.11253
-0.11553 -0.09183 -0.16171
0.05776 -0.05054 -0.02321
-0.12621 -0.16343 -0.11037
-0.11858 -0.34404 0.11479
-0.19152 0.07691 0.17065
0.15061 -0.20050 -0.11046
-0.12283 0.33202 0.15855
-0.06284 0.01330 -0.13120
0.15025 0.01330 -0.12200
0.14704 -0.36591 -0.10910
-0.08292 0.01330 -0.00775
-0.19140 -0.05054 0.03832
-0.12508 0.18788 0.19152
-0.14206 -0.10865 0.10814
0.07001 0.01330 -0.07608
-0.15780 -0.06050 0.16465
-0.19152 0.25240 0.15601
-0.16396 0.21122 0.06378
-0.16358 0.18968 0.06555
0.12762 -0.32846 -0.10989
-0.01133 -0.05054 0.00020
-0.17205 0.33374 0.00484
-0.19152 -0.02637 -0.10715
-0.12283 0.40826 -0.16740
-0.03012 -0.05054 0.15083
-0.19152 0.10917 0.18159
-0.19152 0.18869 -0.08368
-0.12030 -0.14134 0.11361
-0.16298 0.02312 0.06839
-0.17772 0.42028 -0.09334
-0.12283 0.19650 -0.16063
0.16840 -0.05054 -0.10182
-0.19152 0.21054 0.14932
-0.19152 0.39609 -0.05934
-0.19152 -0.02134 0.06440
-0.14914 0.22692 0.19152
-0.01754 0.01330 -0.05816
-0.12283 0.38848 -0.18908
-0.16919 0.01330 0.03615
0.14385 -0.20198 0.10832
0.16456 -0.30905 -0.12194
-0.13845 -0.14030 0.10789
0.14271 -0.21721 0.10824
0.17213 -0.05054 -0.18837
-0.19152 0.33799 -0.07611
-0.13951 -0.05054 -0.10794
-0.12919 -0.39309 0.10930
-0.01082 0.01330 -0.01213
-0.14284 -0.16946 0.10829
-0.10675 -0.05835 0.14193
0.16052 -0.15028 -0.16241
0.00065 -0.05054 0.01097
0.10987 -0.36324 0.15347
-0.12665 0.01330 0.07723
0.10716 -0.25957 0.14511
-0.17003 0.23903 0.03373
0.18276 0.01330 0.09618
-0.19152 -0.04200 0.09896
-0.10678 -0.35000 -0.13690
-0.14918 0.11240 -0.10661
0.11250 -0.17524 -0.15795
-0.19152 0.38558 0.06815
-0.16726 0.41293 -0.04823
-0.17470 0.32366 0.19152
0.10873 -0.17236 -0.12821
0.16577 -0.14044 -0.12373
-0.12283 0.16704 -0.16051
0.11040 -0.05054 -0.01168
-0.11679 0.01330 -0.00479
-0.09055 -0.05054 -0.05989
-0.12862 0.35274 -0.19152
-0.19152 0.38202 0.18862
-0.10738 -0.36956 0.13289
-0.12283 0.21477 -0.17430
-0.12283 0.35625 0.19139
0.10749 -0.38780 -0.13242
0.00456 -0.05054 -0.09013
-0.11570 -0.00953 -0.19152
-0.08523 -0.04877 -0.19152
0.11645 -0.35102 0.16275
0.14162 -0.32256 0.10815
-0.19152 0.41085 0.01109
0.10959 -0.15872 -0.15333
0.15422 0.01330 -0.10067
-0.09295 0.01330 0.08976
-0.12283 0.37989 0.16873
-0.15158 0.19273 -0.19152
-0.18217 0.42028 -0.04217
0.15760 -0.05054 0.05101
0.16229 -0.26778 0.16067
-0.16331 0.08840 -0.19152
0.19152 -0.01294 0.06719
0.10615 -0.05054 0.04706
-0.01687 -0.05054 -0.08436
-0.16483 0.32430 -0.05966
0.12495 -0.27584 0.11096
-0.12907 -0.21696 0.17011
0.12087 -0.26718 -0.16638
0.11655 -0.10755 0.11663
-0.08843 -0.05054 -0.03113
-0.15190 -0.24149 -0.16825
0.16986 -0.31079 0.14235
-0.19152 -0.04988 0.07400
-0.17205 0.04698 -0.00489
-0.15923 0.35082 0.07979
-0.11075 -0.16185 0.15541
0.16018 -0.24624 0.16260
-0.19023 0.14698 0.19152
0.05782 -0.05054 -0.07476
-0.19152 0.08798 0.09209
0.12955 -0.37102 -0.17022
0.16985 -0.30852 -0.13672
-0.12697 0.01330 0.05649
0.11875 -0.05054 -0.17801
-0.19152 0.00002 -0.11951
-0.19152 0.02279 0.05078
-0.16409 -0.13108 -0.15803
0.10709 -0.18436 -0.14614
-0.02129 0.01330 0.12609
-0.19152 0.06747 -0.13466
-0.19152 0.35007 -0.05648
-0.10630 -0.05054 -0.16939
-0.10919 -0.18638 0.15222
0.16763 -0.05166 0.15171
0.12836 0.01330 -0.13525
-0.19152 0.27307 0.11951
0.19152 0.00766 -0.04632
-0.16637 -0.31475 0.15433
-0.15491 -0.05054 -0.09694
-0.19152 0.12799 0.18420
0.15687 -0.08228 0.16543
0.19152 -0.00661 0.15356
-0.19152 0.12137 0.17362
-0.12283 0.32198 -0.15126
-0.14043 -0.07889 0.17122
-0.08355 -0.05054 0.07945
0.16930 -0.29597 -0.14626
0.13400 -0.11145 -0.17105
-0.09581 -0.04677 -0.19152
0.11362 0.01330 -0.11837
0.03478 -0.02820 0.19152
0.14977 -0.26014 0.16925
-0.10657 -0.14945 0.13971
-0.19152 0.14954 0.06708
-0.09018 -0.02074 -0.19152
-0.05009 0.01330 0.03427
-0.19152 0.20469 -0.13596
-0.18955 0.24116 -0.19152
-0.19152 0.38723 -0.08217
-0.16885 -0.05054 -0.02959
-0.01956 -0.05054 -0.17216
0.02520 -0.05054 0.11293
-0.10875 -0.19620 -0.15121
-0.19152 0.01024 0.00459
-0.11236 -0.34815 -0.15801
0.13780 -0.05054 -0.17856
-0.19152 0.41021 0.13159
-0.18264 0.18639 0.19152
0.19063 0.01330 -0.15555
-0.19152 0.02917 0.07426
-0.14145 0.32276 -0.19152
-0.16096 0.22761 -0.07503
-0.15969 0.06246 0.07852
0.03829 0.01330 0.00885
0.07019 0.01330 -0.12179
-0.09022 0.01330 0.02008
-0.12283 0.37104 -0.15267
-0.19152 0.25982 0.07732
-0.16583 0.08371 0.05495
0.06547 -0.05054 0.17357
0.14707 -0.32062 0.10916
0.18167 -0.05054 -0.07184
0.17296 0.01330 -0.02393
-0.15838 -0.16858 -0.11506
-0.12598 -0.42028 -0.14833
0.10844 -0.27008 0.12924
-0.14746 0.08906 0.10987
-0.16068 -0.15253 -0.16217
-0.16823 0.05636 0.04365
-0.06316 0.01079 -0.19152
-0.10747 -0.25343 0.13238
-0.05815 0.01330 0.11597
-0.11344 -0.10706 -0.15927
0.09967 -0.05054 -0.13773
-0.00068 0.01330 0.16612
-0.19152 0.41953 0.03785
0.10135 -0.00322 0.19152
-0.19152 0.34108 -0.00115
-0.16040 -0.32496 0.16250
0.16381 -0.21680 -0.12086
-0.17200 0.40734 -0.00550
0.11968 -0.28144 -0.16535
-0.15829 0.34271 -0.19152
0.16987 -0.07797 -0.13706
-0.12933 -0.11506 0.10925
-0.14538 -0.21584 -0.17054
0.15475 -0.33403 -0.11244
-0.19152 -0.04973 -0.04464
-0.18387 -0.05054 0.12993
-0.12283 0.41762 -0.16326
-0.12599 0.21114 0.14662
-0.14799 -0.19520 0.10925
-0.13437 0.21880 -0.19152
0.16511 -0.03470 -0.19152
-0.18649 0.09787 -0.19152
-0.16739 0.18733 -0.04758
-0.15888 0.16265 0.08077
0.16124 -0.26784 -0.11762
-0.04338 -0.05054 -0.11859
-0.16906 0.38098 -0.03971
-0.13817 -0.42028 0.12620
-0.14107 -0.25786 -0.10814
-0.15902 0.16891 -0.08036
-0.13423 0.01330 -0.01275
-0.14611 0.01330 -0.06972
-0.10929 -0.07124 -0.12680
-0.16107 -0.36202 -0.16184
-0.19152 0.38786 0.08857
0.10446 -0.05054 0.12449
-0.09436 0.01330 0.04473
-0.19152 0.28242 0.04880
-0.04683 -0.05054 0.12537
-0.11766 0.01330 0.15926
-0.10323 -0.05054 -0.00606
-0.14219 0.33615 -0.19152
-0.13275 0.36013 -0.13730
0.12219 0.01330 0.17372
-0.19152 0.38327 -0.09975
-0.16534 0.06594 0.05726
0.19122 -0.05054 -0.00134
-0.15784 0.19658 0.08363
-0.15494 -0.33897 -0.11270
-0.12283 0.09280 0.17180
0.14428 -0.37300 -0.10858
-0.17076 0.17746 -0.02327
-0.15415 0.36540 0.09377
-0.13754 0.26746 0.19152
-0.16782 0.28292 -0.04559
-0.10275 0.01330 0.00875
-0.16757 -0.41501 0.12746
-0.16649 -0.21325 -0.12523
-0.16837 -0.10606 0.12973
-0.17140 0.02398 0.01413
-0.16974 -0.21618 0.14375
-0.19152 0.03195 -0.09981
-0.13354 0.41461 0.19152
0.01754 -0.05054 0.05496
-0.13937 -0.42028 -0.16785
-0.19152 0.14086 0.10370
0.15746 0.01330 0.09778
-0.15372 0.34094 -0.09497
-0.19152 0.04746 -0.05047
0.15723 -0.05054 -0.11404
0.05385 -0.05054 -0.09592
-0.10956 -0.35153 0.15327
-0.19152 0.27987 -0.13111
-0.02163 0.01330 -0.11394
-0.04408 0.00338 -0.19152
-0.16710 0.41856 0.04899
-0.15216 -0.05054 -0.00836
-0.19152 0.02177 -0.14476
-0.18835 0.34746 0.19152
-0.19152 0.28741 -0.09090
-0.19152 0.12324 0.11885
-0.16891 -0.34726 -0.14804
0.04212 -0.01049 0.19152
-0.17075 0.12428 -0.02342
-0.16738 0.28277 0.04765
0.01270 -0.05054 0.06614
-0.13462 0.04451 0.19152
-0.16743 -0.28845 -0.12719
-0.16437 0.13550 -0.06185
-0.19152 0.19952 -0.15916
0.19152 -0.04001 0.07780
-0.04171 0.01330 0.06844
-0.16921 0.14594 -0.03905
-0.02729 0.01330 -0.17355
0.04832 -0.05054 0.05957
-0.15025 0.08703 0.10450
-0.14685 -0.41418 0.17018
-0.11321 -0.02233 -0.19152
-0.18206 0.42028 0.07492
0.00729 -0.02098 -0.19152
-0.06846 0.01330 -0.17049
-0.17180 0.20187 -0.00837
-0.15170 0.24770 0.10052
-0.00457 -0.00912 -0.19152
0.11324 -0.37591 -0.12031
-0.12823 0.25601 0.14354
-0.16626 -0.12887 0.15455
-0.16453 0.40325 -0.06110
-0.14880 0.37701 -0.19152
0.15579 -0.42028 0.14245
0.01078 0.01330 0.02944
-0.12283 0.08435 -0.17049
-0.13803 0.01930 0.12762
-0.08797 -0.05054 -0.01309
0.16115 -0.05054 -0.00172
0.14062 0.01330 0.14319
-0.19152 -0.00244 -0.18629
-0.13508 -0.05054 0.00206
-0.16344 0.09486 -0.06623
0.05358 -0.04881 -0.19152
0.06943 -0.01500 -0.19152
-0.15104 -0.31634 -0.11059
-0.16919 -0.27378 0.13206
0.07572 -0.05054 -0.09290
-0.08779 0.01330 0.11295
-0.16935 0.37455 -0.19152
-0.15200 -0.10849 -0.16820
-0.15365 0.23817 0.09517
-0.14482 0.34580 -0.19152
-0.14735 0.42028 0.15520
-0.17109 0.10662 -0.01859
-0.16991 -0.02065 -0.19152
-0.19152 0.41020 -0.09534
-0.17826 -0.05054 0.00491
-0.12283 0.29571 0.18223
-0.19152 0.29038 -0.07159
-0.19152 0.29791 0.12784
-0.19152 0.38303 0.02137
0.16582 -0.24405 0.15551
0.04730 0.01330 0.02182
-0.14392 0.32500 0.11653
-0.18444 -0.02911 0.19152
-0.00393 0.01330 -0.01030
-0.16653 -0.36606 0.12484
0.15167 -0.22441 -0.16852
-0.01950 0.01330 0.17585
0.00223 0.01330 -0.15053
0.12150 -0.11776 -0.11283
0.10906 -0.35225 0.15179
-0.12283 0.40806 0.18535
-0.14799 -0.05054 -0.03150
-0.19152 0.19272 -0.13169
0.02136 0.01330 -0.03441
-0.17205 0.12470 0.00486
-0.19152 0.18584 -0.01112
0.16032 -0.21084 0.11666
-0.10682 -0.10690 -0.13639
0.13702 -0.25312 -0.10802
0.10971 -0.21335 0.15314
-0.17009 0.01839 -0.03284
0.08757 -0.05054 -0.15381
-0.01603 -0.05054 0.17545
-0.01034 0.01330 0.07359
-0.19152 0.39578 -0.13602
0.16587 -0.22787 -0.15544
-0.13897 -0.26661 0.17133
0.10963 -0.34351 -0.15342
0.12727 -0.37934 -0.11001
0.15293 -0.37525 0.11127
-0.17003 0.23787 -0.03372
0.18204 0.01330 0.12729
-0.05391 0.01330 -0.19054
-0.13329 -0.26619 0.10829
0.15776 -0.34352 0.16467
0.10804 -0.07271 0.14966
-0.16990 -0.32168 0.13770
-0.17269 -0.05054 0.06464
-0.10697 -0.37425 -0.13451
-0.17066 0.28455 -0.02471
-0.15854 0.02137 -0.08171
-0.05267 -0.05054 0.10085
0.15034 -0.05054 -0.17148
-0.15893 -0.11546 0.16387
-0.15126 -0.29298 0.11075
-0.19152 0.25747 0.12040
-0.19152 0.19304 -0.15930
-0.16502 -0.20982 0.15710
0.09277 0.01330 0.15925
-0.16373 0.31633 -0.06486
0.10665 -0.34168 -0.13694
0.19152 -0.04064 0.12757
0.13612 -0.05977 -0.10809
0.15801 -0.26201 0.16445
0.11427 0.00531 -0.19152
-0.12013 -0.05054 0.09790
-0.13340 -0.33298 -0.17103
-0.04698 -0.05054 0.13743
0.18918 0.01330 0.17904
-0.17050 0.16754 0.02710
-0.19152 -0.01708 -0.15648
0.11199 -0.20752 0.12209
0.14339 -0.11769 0.17089
-0.03375 0.01330 0.03296
-0.19152 0.16475 -0.10432
-0.10305 -0.05054 -0.10999
0.13912 -0.42028 0.10839
-0.19152 0.25549 0.11188
0.13418 -0.16924 -0.10824
-0.16286 0.29992 -0.06897
-0.16171 -0.27536 0.11801
-0.07367 0.01330 -0.15300
-0.16980 -0.23823 0.13639
-0.12721 -0.42028 -0.12384
-0.17160 0.18439 0.01130
-0.17003 -0.13149 -0.13712
-0.15399 0.37802 0.09421
-0.18196 0.28512 0.19152
0.10711 -0.18519 0.14482
-0.13430 0.19017 -0.13466
-0.13752 -0.09234 0.10796
-0.19152 -0.03704 -0.15312
-0.00006 0.01330 0.10388
0.13118 -0.41897 -0.10863
0.03533 0.01330 -0.03941
-0.16703 -0.09630 0.12593
-0.15235 -0.10086 -0.16803
-0.11538 -0.35613 -0.16154
-0.02699 -0.05054 -0.01112
-0.12711 0.04594 0.14508
0.10772 -0.27230 -0.14801
-0.19152 -0.03748 -0.16362
-0.16479 0.41532 0.05986
-0.16749 -0.09384 0.15197
-0.13897 0.14925 -0.19152
-0.12283 0.31921 0.15841
-0.19152 0.21214 -0.17919
-0.17021 0.33949 0.03118
0.15629 0.01330 0.15407
0.10646 -0.19363 -0.13794
-0.12740 0.13172 -0.14468
0.19152 -0.01936 -0.15214
-0.19152 -0.03924 -0.01004
-0.12371 -0.10350 -0.16803
-0.11660 -0.38870 0.11634
0.10721 -0.07216 0.13274
-0.13009 -0.26259 -0.17032
-0.16975 -0.18143 -0.14353
0.19152 -0.04465 0.17115
-0.13205 -0.25115 -0.17092
-0.16855 -0.33118 -0.12954
-0.12786 0.24257 0.19152
0.11038 -0.11514 0.15453
-0.19152 0.11999 0.00725
-0.09000 0.01330 -0.11017
-0.13715 -0.05054 -0.03691
-0.16896 0.21039 0.04019
-0.19152 0.09125 -0.04928
-0.16736 -0.40896 0.15226
-0.16153 0.35138 -0.07347
-0.14746 0.28230 0.19152
-0.16994 -0.19159 0.13821
0.16889 -0.17431 0.13090
0.13621 -0.06304 0.10784
-0.09233 0.01330 -0.09570
-0.12932 0.07573 0.14203
0.19152 -0.03333 -0.02954
-0.19152 0.20114 -0.06277
-0.12610 0.04308 -0.14647
0.13451 -0.05054 -0.06664
0.13650 -0.38103 -0.10806
-0.19152 0.25978 0.01025
0.11229 -0.30662 -0.12142
0.11224 -0.36690 -0.12148
0.01443 -0.02340 0.19152
-0.08869 0.01330 0.16767
-0.03222 0.01330 0.13265
-0.18735 -0.05054 -0.03861
-0.09766 0.01330 0.02905
-0.12283 0.05937 0.17832
-0.11730 -0.21516 0.16332
0.11086 0.01330 0.03454
-0.16921 0.03019 -0.03904
0.10416 0.01330 0.04222
-0.19152 0.25379 -0.07931
-0.12283 0.35700 0.17112
0.12935 -0.05054 0.06379
-0.07627 -0.05054 0.17078
-0.19152 0.30937 0.14523
-0.12415 -0.16734 -0.16823
-0.17055 0.15734 -0.02625
-0.19152 0.00581 -0.15837
-0.14214 0.11805 -0.11987
-0.07845 0.01330 0.01465
-0.19152 0.17180 -0.03236
-0.16205 0.33264 0.19152
-0.19152 0.22609 -0.01762
-0.17046 0.04157 0.19152
-0.19152 0.22908 -0.13024
-0.17107 0.06622 -0.01886
0.11059 -0.19299 -0.15517
-0.19152 0.21653 0.06576
-0.16156 0.20199 0.07340
-0.12283 0.38499 -0.18233
-0.13562 -0.31125 -0.17120
0.04232 -0.05054 0.07494
-0.19152 0.37834 -0.13307
-0.19152 0.06662 0.04946
0.09057 0.01330 -0.01050
-0.13459 -0.08265 -0.17112
-0.10695 -0.26867 -0.14415
-0.13989 0.01330 -0.09827
0.10685 -0.37840 0.13624
0.13959 -0.13074 0.17148
-0.17094 0.25651 0.02079
-0.12989 -0.05054 -0.02494
-0.19152 0.35161 0.06753
0.13560 -0.00534 -0.19152
-0.18269 0.37515 -0.19152
0.16516 -0.14099 0.12238
-0.19152 0.07060 -0.15848
-0.17205 0.07455 -0.00482
-0.16357 0.17089 -0.06559
-0.19152 -0.03442 -0.00659
-0.12939 0.39082 0.14193
-0.19152 0.32564 0.08590
0.12361 0.01330 -0.17935
0.04755 -0.05054 0.13913
-0.19152 0.31944 0.14717
-0.15227 0.40517 -0.09897
-0.02382 -0.05054 0.12746
0.05973 -0.05054 0.01732
-0.16706 0.25760 0.04918
-0.19152 0.12361 -0.12691
-0.04604 -0.05054 0.06781
-0.12283 0.38770 0.16741
-0.15922 -0.05054 0.17620
-0.13246 -0.42028 0.15313
-0.14780 -0.39279 -0.10945
-0.16651 0.42028 0.10407
-0.12283 0.04806 -0.18209
0.01661 0.01330 0.11227
0.16652 -0.35195 -0.15408
-0.19152 -0.04716 0.17924
-0.08382 0.01330 0.02616
-0.14511 -0.36994 -0.17059
-0.18732 -0.02895 -0.19152
-0.19152 0.29436 0.10360
-0.00413 0.01330 -0.18236
-0.13516 0.04578 0.13303
-0.17403 0.42028 0.17908
-0.19152 0.29175 -0.18990
0.10728 -0.08233 0.14575
-0.19152 0.18998 -0.01606
-0.13698 -0.30646 0.10800
0.09390 0.01284 0.19152
0.00544 -0.05054 -0.17333
-0.10443 -0.05054 0.16524
0.16611 -0.09834 0.12437
-0.19152 0.23658 0.15428
0.03680 0.01330 -0.12108
0.16639 -0.40602 0.15468
0.17741 -0.01028 0.19152
-0.19152 0.19363 0.15265
-0.10791 0.01330 0.13419
-0.16686 -0.21849 -0.15386
0.09197 -0.05054 -0.00397
-0.12269 0.01330 -0.04594
-0.08386 0.01330 0.12991
0.14634 -0.35500 0.17034
-0.03515 -0.05054 -0.03183
-0.19152 0.16029 0.09482
-0.19152 0.07461 0.03574
-0.14215 -0.12574 -0.10822
-0.19152 0.36924 -0.05304
0.19152 -0.04297 0.11018
-0.15165 -0.31411 -0.16836
-0.19152 0.01544 -0.05638
0.01885 0.01330 0.18850
-0.16186 0.03435 -0.19152
-0.19152 0.24304 -0.12492
-0.18002 0.30502 0.19152
-0.14583 -0.02759 0.19152
-0.19152 0.28019 0.16178
-0.10735 -0.20061 -0.14628
0.13630 0.01330 0.06779
0.14322 -0.16937 0.17092
0.18154 0.01330 -0.10784
0.11698 -0.09147 0.16336
0.16280 -0.34159 -0.11939
0.10665 -0.32963 -0.14040
-0.16229 -0.16169 0.16029
-0.19152 0.31492 -0.07024
0.07442 -0.05054 -0.13869
0.13447 -0.05054 -0.05837
0.14210 -0.27770 0.17113
-0.19152 -0.01646 -0.13011
0.18919 -0.05054 -0.00655
-0.16253 0.06961 -0.07053
-0.16584 0.30752 -0.05488
-0.19152 0.20612 0.02637
-0.14380 0.16338 -0.11676
-0.14004 0.37835 -0.12384
0.04067 0.01330 -0.09020
-0.19152 0.41320 0.05421
0.13628 -0.09373 -0.10808
-0.14074 -0.34736 0.10790
0.11883 -0.01248 0.19152
0.15527 -0.05054 -0.03351
0.13347 -0.15965 0.10835
0.12165 -0.30677 -0.16676
0.08380 0.01330 0.16926
-0.13171 -0.15300 -0.10870
0.16812 -0.27514 0.15033
0.11918 -0.05054 0.02943
-0.14991 -0.12257 0.16911
0.09566 -0.02228 0.19152
-0.17172 0.15503 -0.00949
0.18828 -0.05054 0.16329
-0.19152 0.05158 0.00420
-0.12283 0.21517 -0.15381
-0.15634 -0.24656 -0.16589
-0.19152 0.37733 0.15653
-0.16723 -0.40844 -0.15282
-0.18299 0.15524 -0.19152
-0.05184 0.01330 0.04530
-0.12005 -0.36008 0.16567
-0.13028 0.29440 -0.14070
-0.10180 0.01330 0.13683
-0.00865 0.01330 -0.16310
-0.01111 -0.05054 -0.13750
0.01270 -0.05054 0.08385
-0.16437 0.07481 -0.19152
-0.14857 0.41558 0.10777
0.12851 -0.06071 0.10928
-0.13899 0.01330 -0.04556
-0.16240 -0.13159 -0.11914
0.19152 -0.00633 0.03838
-0.14863 -0.13205 -0.16981
0.10795 -0.15707 -0.12994
-0.17026 0.17127 -0.03053
-0.10799 -0.11763 -0.13047
0.14932 -0.07335 0.10995
0.12880 -0.22674 0.10922
-0.13488 0.10793 -0.13356
-0.13902 -0.37993 -0.10798
-0.13838 -0.05054 -0.17196
0.17020 -0.08898 -0.14143
-0.10786 -0.05921 0.13033
-0.03226 -0.05054 -0.06502
-0.16978 -0.11243 0.13611
-0.16862 -0.05571 -0.14886
0.13046 -0.33267 -0.17039
-0.17979 0.13034 -0.19152
0.07239 -0.05054 0.14000
0.08884 0.01330 -0.08235
-0.03187 -0.05054 -0.16915
-0.13727 -0.29261 -0.10784
0.10966 -0.19248 0.12579
-0.19152 0.26369 -0.02338
0.10866 0.01330 0.11140
-0.13106 -0.01115 -0.19152
0.14808 -0.36153 -0.16978
-0.19152 0.09088 -0.12262
0.01540 0.01330 -0.05910
-0.03533 0.00866 -0.19152
-0.14751 -0.20269 -0.17014
-0.06762 0.01330 0.11834
-0.19152 0.39048 0.06703
-0.19152 0.38382 0.14611
-0.12870 -0.27550 -0.16983
-0.12283 0.24574 -0.19088
-0.15179 -0.40590 -0.11086
-0.12283 0.06670 0.16154
-0.09237 -0.05054 -0.09404
-0.15617 -0.23883 0.11327
-0.17140 0.03013 0.01418
-0.12643 -0.29041 -0.11027
-0.10694 -0.32742 0.14445
-0.14132 0.14072 0.12143
0.13767 -0.42028 -0.12270
-0.11258 -0.09674 0.15807
-0.15862 -0.07898 -0.16393
0.14366 -0.05054 -0.05446
-0.13861 0.15481 -0.19152
-0.11466 -0.25668 0.11860
-0.19152 -0.00037 0.03239
-0.09951 -0.01999 -0.19152
0.16072 -0.28961 0.16213
-0.19152 0.31548 -0.11797
-0.16385 0.22070 0.06428
0.03050 -0.05054 0.15924
0.16954 -0.24471 0.13434
0.12714 -0.14442 0.16925
-0.12940 -0.01552 0.19152
-0.19152 0.37870 0.04145
-0.19152 0.26931 0.15156
-0.19152 0.25252 0.08941
-0.19152 0.35433 -0.15458
-0.16725 0.13691 0.04827
-0.02108 -0.05054 -0.02827
0.06026 0.00163 -0.19152
-0.11223 -0.11840 0.12144
0.10673 -0.17440 -0.14153
-0.16978 0.30848 -0.19152
-0.17334 -0.05054 0.08945
-0.19152 0.29132 0.04588
-0.00409 0.01330 0.08603
0.19152 -0.03893 -0.16664
-0.01783 -0.05054 -0.07813
-0.07722 -0.05054 0.15513
-0.16354 -0.20350 0.12047
-0.13614 0.07515 0.13120
0.19152 0.01048 -0.09521
-0.16998 0.39799 0.03449
-0.10808 0.01330 0.11761
-0.19152 0.07140 -0.16792
0.10957 0.01330 -0.16638
0.13135 -0.36149 0.17073
-0.17061 0.36879 -0.02551
0.19152 -0.04954 0.04765
-0.19152 0.30498 0.00441
-0.12790 0.34636 0.19152
0.11416 -0.10025 -0.16038
0.11243 -0.05745 0.12145
-0.16898 -0.14064 0.14780
0.16357 -0.05205 -0.12051
0.10780 -0.27212 0.14851
-0.19152 0.27448 -0.04244
-0.19152 0.29391 0.06326
-0.17962 0.42028 0.08953
-0.12664 -0.05054 -0.01810
-0.19152 0.33864 0.14378
0.12450 -0.36507 -0.11098
0.15760 -0.10415 0.11448
0.14266 -0.09969 -0.10828
-0.06252 0.01188 0.19152
0.04411 -0.05054 0.18648
-0.09972 0.01330 -0.00827
0.15515 -0.21285 0.16668
0.12990 0.01330 0.11201
-0.16466 0.19317 -0.19152
-0.19152 0.25055 0.04124
-0.09054 -0.05054 0.11610
-0.15295 -0.15803 0.11156
-0.19152 0.15405 -0.12594
0.02174 -0.05054 0.02466
-0.14211 0.00530 0.19152
-0.17854 -0.05054 -0.04126
-0.16600 0.31334 0.05416
-0.19152 0.30724 -0.03829
0.19111 -0.05054 0.07928
0.13875 -0.16652 0.17141
-0.19152 0.04349 0.01713
0.14226 0.01330 -0.02673
0.17998 -0.02624 0.19152
-0.07257 0.01330 0.08062
-0.07217 0.01330 -0.16417
-0.19152 0.36197 0.15319
0.10905 -0.13774 0.15175
-0.15293 -0.16980 0.11155
-0.14550 0.36062 0.11356
-0.19152 -0.04590 -0.01185
-0.16643 -0.36479 -0.15461
-0.19152 0.26878 -0.18199
0.11622 -0.14396 0.11691
0.09239 0.01330 -0.03006
-0.13272 0.01330 -0.07994
-0.19152 0.19714 0.11899
-0.19152 0.02552 -0.11794
-0.16572 0.24659 -0.19152
-0.13428 -0.18111 0.17108
-0.19152 0.19919 -0.07413
-0.19152 -0.00623 0.12574
0.02839 -0.05054 -0.07452
0.04605 0.01330 0.08344
-0.19152 0.05890 0.02672
-0.19152 0.08807 -0.12981
0.01235 0.01330 -0.16661
-0.16293 0.41172 0.06863
-0.19152 0.09746 0.00507
-0.02031 -0.05054 -0.12162
0.15227 -0.33131 0.16805
-0.12423 -0.13728 -0.11132
0.02283 -0.01927 0.19152
-0.18213 -0.05054 -0.06136
-0.15469 0.29777 0.09230
-0.19152 0.11093 0.11817
-0.17069 0.02875 -0.02428
-0.19152 0.22124 -0.11059
-0.10227 -0.03175 0.19152
-0.12964 0.03290 0.14159
0.07666 -0.04870 0.19152
-0.19152 0.00098 -0.16712
-0.10694 -0.26471 -0.13485
0.05821 -0.05054 0.12520
-0.19152 -0.04294 0.03141
0.19152 -0.01851 0.17607
-0.16325 -0.39832 -0.12013
0.10763 -0.18400 -0.13167
-0.16528 0.42028 -0.06739
-0.12534 -0.16297 0.16852
0.13544 -0.14179 0.10798
0.19152 -0.00963 -0.15525
-0.19152 0.10018 -0.07071
0.19152 -0.02498 0.18928
-0.19152 0.27994 -0.17074
-0.13819 0.35641 -0.12732
-0.19152 0.06493 -0.01634
0.18358 -0.05054 -0.10035
-0.04937 0.01330 0.06416
-0.11695 -0.26227 -0.11629
-0.13101 -0.37349 -0.17065
-0.11133 -0.18469 -0.12305
0.01329 -0.05054 -0.04198
-0.17042 0.38154 0.02825
-0.12283 0.05144 0.16967
-0.19152 0.14589 0.05931
-0.19152 0.20121 0.18697
-0.19152 0.32459 -0.17561
-0.11978 -0.05054 0.07487
-0.16815 -0.10361 0.15059
-0.10183 0.01330 -0.12098
-0.19152 0.21013 -0.16834
0.14838 -0.32424 0.16992
-0.17195 0.09357 -0.00626
-0.15854 0.18928 -0.08170
-0.12391 0.40548 0.14948
-0.19152 -0.01427 0.04513
0.16926 -0.32504 -0.14643
0.13179 -0.05054 0.03210
-0.19152 -0.01267 -0.07460
0.14410 0.01330 -0.06017
-0.13189 0.18096 0.13849
0.07383 0.01330 -0.15209
-0.19152 0.34125 0.03163
0.13255 -0.42028 0.10888
-0.19152 -0.03847 -0.07465
-0.17965 -0.03740 -0.19152
-0.13106 0.29265 0.19152
-0.13958 -0.11722 0.17128
-0.18212 0.42028 0.19038
-0.14678 -0.25958 -0.10909
-0.16017 0.14956 0.19152
-0.16442 0.09690 -0.06161
0.15984 -0.35166 -0.11642
-0.17169 0.07952 0.00998
-0.11148 -0.32818 0.15646
0.16105 -0.05737 -0.11745
-0.12816 0.01330 -0.06225
-0.13283 -0.26383 -0.10849
-0.19152 -0.00972 -0.09533
-0.15453 0.36569 -0.09275
-0.18190 -0.05054 -0.00745
0.00937 0.01330 0.06977
0.10666 -0.14347 -0.14057
0.13142 0.01330 0.17767
-0.17236 0.36123 0.00039
-0.10881 0.01330 -0.04059
-0.19152 0.37430 0.11009
-0.19152 0.14057 0.04078
-0.19152 0.05110 0.04096
-0.16277 0.32779 -0.06938
0.10863 0.01330 0.15515
-0.15332 0.35428 -0.09607
0.19152 -0.00675 0.04647
-0.14534 -0.14321 -0.17055
-0.19092 -0.05054 -0.02046
0.17197 0.01330 -0.00184
-0.18171 0.42028 -0.15556
-0.19152 0.03166 0.16817
-0.11229 -0.34053 0.15766
0.14419 -0.36961 -0.17095
-0.04794 0.01330 -0.09018
-0.19152 0.08584 0.11462
-0.18598 0.42028 0.08551
-0.07700 0.01330 0.13028
-0.10652 -0.30733 0.13903
-0.16106 -0.42028 0.15147
-0.19152 0.41290 -0.15141
-0.15906 -0.41399 -0.16356
-0.06165 -0.05054 0.02750
0.16444 -0.30688 0.15752
0.03240 0.01330 -0.02193
0.00170 -0.05054 -0.11758
0.15474 -0.14506 0.11252
0.11096 -0.27201 -0.12355
0.12290 -0.12715 0.11194
-0.05299 -0.05054 -0.11628
0.16306 -0.05054 -0.06928
-0.04935 -0.02277 -0.19152
-0.08862 -0.00115 0.19152
-0.18537 -0.05054 0.12487
-0.19152 0.21047 -0.03116
-0.12283 0.29824 0.19038
0.16750 -0.16406 -0.12723
-0.12283 0.36800 -0.15800
0.08402 -0.05054 0.15192
-0.19152 0.04055 -0.02529
-0.09116 0.01330 0.10065
-0.11629 -0.13854 -0.11685
0.11032 0.01330 0.01051
0.13234 -0.04189 0.19152
0.07248 -0.05054 -0.01610
-0.16125 0.36334 -0.07423
-0.19152 0.30048 -0.16008
-0.12283 0.15536 -0.18582
0.04974 -0.05054 0.00619
-0.12283 0.36447 -0.15111
-0.16678 -0.05054 0.06596
-0.19152 0.27228 -0.17248
-0.10707 -0.37266 -0.14475
-0.19152 0.28340 -0.06161
-0.08384 -0.05054 0.18389
0.11900 -0.08400 -0.11455
0.03640 0.01330 -0.06794
-0.19152 0.17324 -0.16892
-0.15299 0.42028 -0.10273
0.14928 -0.24122 -0.16936
-0.14346 0.33004 -0.11739
0.16927 0.01330 -0.11787
-0.08693 -0.05054 0.13313
0.06495 0.01330 0.16908
0.17003 -0.09859 0.14023
0.16223 0.01330 -0.18131
0.19152 -0.01991 0.07925
-0.19152 0.41137 -0.10828
0.13626 -0.00937 0.19152
0.19152 -0.04410 -0.18053
-0.14947 0.07709 -0.10607
-0.19152 0.02031 0.13976
-0.17221 0.34134 0.00249
0.10654 -0.03218 0.19152
-0.15908 -0.06686 -0.11553
-0.19152 0.09199 -0.07089
-0.10810 -0.34459 -0.13018
-0.18570 0.11343 0.19152
-0.19152 0.32967 0.15053
-0.07686 -0.05054 -0.09295
-0.19152 0.33387 0.03701
0.11774 -0.15291 0.16389
0.18343 -0.01213 0.19152
-0.14503 0.15855 0.11445
-0.13458 0.38678 -0.13412
0.18891 -0.05054 0.14569
0.16843 -0.25605 0.14944
-0.19152 0.22224 -0.00868
0.16815 -0.10179 0.15024
-0.13234 -0.20178 0.17072
-0.18928 0.28427 0.19152
0.11536 0.01330 -0.05676
-0.19152 0.18928 0.09120
-0.14939 0.20050 0.10622
-0.16304 -0.05054 -0.09467
-0.13986 -0.03238 -0.19152
0.15771 -0.05530 0.11456
-0.13787 0.03206 0.12793
0.01855 -0.05054 0.11926
-0.07613 -0.05054 -0.14412
-0.19152 -0.04835 -0.04960
-0.12283 0.28091 0.16173
0.16298 0.01330 -0.03661
-0.19152 0.32675 0.14345
-0.19152 0.12323 0.15980
-0.14841 0.42028 -0.15414
0.14893 -0.16574 0.16965
-0.14342 0.20014 -0.19152
-0.15637 0.07943 0.08766
-0.14846 0.01330 -0.01427
-0.16050 0.13882 -0.07630
-0.19152 0.32731 -0.10366
-0.14662 -0.12059 0.10900
-0.11003 -0.41849 -0.15389
-0.11787 -0.39699 0.16380
-0.19152 -0.01031 -0.11918
-0.19152 0.05489 0.16995
-0.19152 0.19303 -0.08818
-0.16737 0.42028 0.13770
0.16524 -0.05054 0.18308
-0.12526 -0.00302 -0.19152
0.19152 -0.02246 0.12361
-0.14279 0.01330 0.07822
-0.10726 -0.42028 0.13876
-0.19152 0.14477 -0.08287
0.10701 -0.11141 -0.14513
0.00917 -0.05054 0.03484
-0.00661 -0.03769 -0.19152
0.16754 -0.28901 -0.12734
0.16478 -0.01937 0.19152
-0.13012 -0.30282 0.17030
-0.15185 0.04774 -0.10011
-0.19152 0.18465 0.16539
-0.14339 0.02013 0.11752
-0.13979 0.10128 -0.19152
-0.18451 -0.05054 0.17377
-0.16341 0.15397 -0.06636
0.11719 -0.05054 0.09278
