ply
format ascii 1.0
comment VCGLIB generated
element vertex 1793
property float x
property float y
property float z
element face 0
property list uchar int vertex_indices
end_header
0.01586 -0.05376 -0.19013
-0.19081 -0.23909 0.20806
-0.17119 0.39753 0.10082
-0.19291 -0.08887 -0.20538
-0.06360 0.00845 0.15035
0.15269 -0.05704 0.18259
-0.19291 -0.24201 0.19140
0.02303 0.00845 -0.18460
-0.15269 0.23749 -0.14584
-0.19291 0.07997 -0.18799
0.10511 0.00845 -0.08088
0.02483 -0.05376 0.07879
-0.17802 -0.01293 -0.16784
-0.19291 0.25798 0.17581
-0.12024 -0.01251 -0.20806
-0.15269 0.25156 -0.01385
-0.15913 0.27855 -0.08645
-0.16397 0.39910 0.03266
-0.17485 0.40955 -0.19576
-0.14182 -0.03151 -0.20806
-0.04573 -0.05376 -0.15025
-0.15269 -0.02428 0.10391
-0.15269 0.20397 -0.20220
-0.19134 0.03962 0.16784
-0.15269 0.34289 -0.17464
0.05856 0.00845 -0.12412
-0.17297 0.16422 0.20806
-0.15269 -0.00655 0.16793
-0.17119 0.18509 -0.11277
0.04530 0.00845 0.18902
-0.17774 -0.19569 0.16784
0.19291 -0.03910 -0.07759
-0.15638 -0.23560 0.16784
-0.17119 0.31078 0.00321
-0.18190 -0.37988 -0.20806
-0.17119 0.36285 -0.16728
-0.19291 -0.19108 0.18500
-0.18187 0.04852 -0.16784
0.15393 0.00845 -0.13943
0.16417 -0.41170 -0.19587
-0.19291 -0.34404 -0.19903
0.17405 -0.03485 0.20806
0.19291 -0.29262 -0.20594
0.15269 -0.06410 -0.17383
-0.03852 -0.03954 0.20806
0.14407 0.00845 0.10962
-0.09670 0.00845 0.10169
-0.15269 -0.24318 0.19419
-0.15269 0.36707 -0.20402
-0.15269 0.31403 0.15785
0.16612 -0.09272 -0.16784
-0.19057 -0.31552 0.16784
-0.17523 0.12488 -0.20806
0.19291 -0.23007 -0.19064
-0.15269 0.26621 0.06705
-0.17748 -0.27790 -0.16784
0.03354 0.00845 0.17870
0.09639 -0.05376 -0.06860
-0.10196 -0.03568 -0.20806
-0.11805 0.00845 -0.06931
0.15269 -0.06444 0.17166
0.11418 0.00845 -0.17430
-0.15269 0.18507 -0.20171
-0.15269 0.24589 -0.18884
-0.15269 -0.22775 -0.16839
0.17270 -0.07010 -0.20806
-0.16307 -0.29916 -0.20806
-0.15871 -0.22080 0.16784
-0.03575 0.00845 0.14448
0.01653 -0.05376 -0.00558
0.01195 0.00845 0.14509
0.19291 -0.01775 0.03541
0.15269 -0.23141 -0.20449
-0.09293 -0.05376 0.11551
-0.17119 0.29215 0.16312
-0.17523 -0.14764 0.20806
0.12358 0.00845 -0.00361
-0.17119 0.32934 -0.05282
-0.15269 0.35276 0.19142
-0.17119 0.22504 -0.01288
-0.17119 0.23994 0.15140
-0.16293 -0.07478 -0.20806
0.18176 -0.36263 -0.20806
-0.17119 0.27718 -0.07438
0.15269 -0.26644 0.19406
-0.16390 0.19943 -0.16784
-0.17168 0.27803 -0.20806
0.19291 -0.05019 0.18665
-0.17119 0.28385 -0.10170
-0.15269 0.15196 -0.00472
0.12998 -0.05376 -0.01268
0.04373 0.00845 -0.09480
0.19291 -0.10420 0.18149
-0.17119 0.17152 -0.03927
0.13771 -0.05376 0.12647
-0.18929 -0.20479 -0.20806
-0.17119 0.17448 -0.11145
-0.18491 0.31107 -0.16784
0.16019 -0.28100 -0.16784
-0.15806 0.34979 0.10476
-0.15328 0.36257 -0.00549
-0.08422 -0.05376 -0.01048
-0.19291 -0.36622 0.18567
-0.15269 0.08215 -0.18655
-0.15269 0.37416 0.11755
-0.17119 0.36723 -0.15674
0.19291 -0.00470 -0.09336
0.06794 -0.05376 -0.03249
-0.17229 0.03547 -0.20806
-0.15832 0.20585 0.04667
-0.16468 -0.15405 -0.20806
-0.17255 -0.29482 0.20806
-0.19291 0.00517 0.20034
-0.17119 0.16652 0.06566
0.08132 0.00845 0.09193
-0.19291 -0.25611 0.17167
0.08481 -0.05376 0.04824
-0.19291 -0.26565 0.19448
-0.03094 -0.05376 0.16537
-0.15269 0.19244 -0.08420
-0.15580 0.29892 0.06501
0.12272 -0.01747 -0.20806
-0.19291 -0.19380 -0.17096
0.04640 -0.02237 0.20806
0.02522 -0.05376 -0.05980
-0.06281 0.00845 0.07160
-0.04560 -0.05376 0.11570
0.16094 -0.18147 -0.16784
-0.05565 0.00845 -0.18269
-0.15301 0.41170 0.20739
-0.11232 0.00845 0.07853
-0.19291 -0.04109 0.18317
-0.17119 0.16015 -0.11517
0.03647 -0.05376 -0.09077
0.04093 0.00845 -0.17733
0.17081 -0.08797 0.16784
-0.17119 0.24612 0.03518
0.06546 0.00845 -0.00306
-0.15269 0.33926 -0.04201
0.13779 0.00284 -0.20724
0.16378 0.00845 -0.08477
-0.17374 -0.02354 0.20806
-0.17119 0.32376 0.01243
-0.19005 -0.12168 0.20806
-0.15269 0.17491 0.07861
-0.18813 -0.05457 0.16784
-0.15913 0.29140 0.09115
-0.18792 0.18232 -0.16784
0.18909 -0.05376 0.15276
-0.01159 0.00845 -0.07827
0.14469 0.00845 -0.15823
0.19253 -0.05376 -0.12194
-0.17119 0.20748 -0.11340
-0.15302 0.20197 -0.16784
-0.07810 0.00845 0.15416
-0.19291 -0.23652 -0.18272
0.00500 0.00845 0.00210
-0.12049 -0.05376 -0.08653
-0.17119 0.34621 0.15398
-0.06611 -0.05376 -0.00639
0.06154 -0.05376 -0.05324
-0.17119 0.27140 0.08563
-0.15269 0.35130 0.17179
-0.10793 -0.04421 0.20806
-0.14186 -0.05376 -0.02720
-0.16906 -0.19363 0.16784
-0.17119 0.35259 0.11952
-0.15913 0.28634 0.14439
-0.13236 -0.01661 0.20806
-0.02672 0.00845 0.18168
0.19291 -0.40396 0.17146
-0.14458 -0.01220 -0.18311
-0.15688 0.29892 -0.12277
-0.15269 -0.03112 0.07207
0.17258 -0.16598 0.16784
-0.15269 -0.04050 -0.07451
0.19056 0.00701 -0.19165
-0.03458 -0.05376 -0.00298
-0.13619 -0.05376 0.15409
-0.15269 0.18426 -0.04163
-0.15269 0.31816 -0.01144
0.17479 -0.41170 0.17641
-0.01557 -0.05376 0.14904
-0.15952 -0.04325 -0.16784
0.00341 0.00845 0.09625
-0.15269 -0.02855 -0.06639
0.19291 0.00218 0.02279
-0.15269 0.37411 0.08463
-0.19291 0.21466 -0.18871
0.10532 -0.05376 0.16084
-0.17119 0.18267 -0.03891
0.14042 -0.05376 0.03138
-0.15269 -0.22179 0.19886
-0.15269 0.33448 0.12596
-0.08541 -0.00214 0.20429
-0.15269 0.15274 -0.18204
-0.15269 0.29157 -0.18333
-0.19291 0.00281 0.19534
-0.15269 0.19059 0.09697
-0.15269 0.23646 0.14991
-0.12924 -0.05376 -0.04874
-0.15269 0.37616 0.01141
-0.18803 -0.41170 0.19965
0.03861 0.00845 0.06368
0.02361 -0.05044 -0.20806
0.19291 -0.38599 -0.19299
0.04088 -0.05376 0.07354
0.17866 -0.16808 -0.20806
-0.15400 -0.41170 0.18317
-0.17119 0.28698 -0.03792
-0.16624 -0.19653 0.20806
-0.17119 0.29903 0.13191
-0.10403 0.00845 0.07674
-0.17246 -0.34375 0.16784
-0.19291 0.16988 0.20219
-0.19291 0.13255 0.20086
-0.06145 -0.05376 0.00008
-0.11882 0.00845 -0.04996
-0.18112 -0.07335 0.20806
0.13639 0.00845 -0.14631
-0.15832 0.12207 -0.16784
-0.18495 0.13296 0.20806
-0.19291 0.13797 0.18900
-0.15522 0.39910 0.03102
-0.17119 0.19440 0.11253
-0.19291 0.34306 -0.18166
0.15269 -0.27418 -0.20533
-0.17119 0.37617 -0.14711
0.14581 -0.05376 -0.16717
0.03881 -0.05376 -0.12597
-0.17119 0.29338 -0.00221
0.19291 -0.11217 0.18745
0.00650 0.00845 0.17961
-0.15269 0.18408 0.02476
-0.07183 -0.05376 -0.18136
0.07801 -0.05376 -0.12073
-0.12020 0.00845 0.06992
-0.03400 0.00845 0.05911
0.09293 -0.02898 0.20806
-0.19291 0.23467 -0.19016
0.09409 -0.05376 0.16223
0.19291 -0.01525 0.05081
-0.17119 0.23808 -0.14782
-0.02882 -0.05376 0.05802
0.19291 -0.03685 0.11768
-0.10622 -0.05376 0.20512
-0.17119 0.29434 0.12923
0.02596 -0.05376 -0.18163
-0.15269 -0.03710 -0.09415
-0.15916 -0.01791 0.20806
0.19291 -0.01242 0.11242
-0.15756 0.29051 0.20806
-0.13569 0.00845 0.07855
-0.15806 0.36235 0.13167
-0.18691 -0.37253 -0.16784
0.06951 -0.05376 0.10533
0.13873 0.00845 -0.06772
-0.16587 -0.14085 -0.20806
-0.15806 0.34947 -0.14186
0.06447 -0.05376 -0.07599
-0.17774 -0.41170 0.18329
0.06507 -0.05376 -0.04514
0.02839 0.00845 0.07834
-0.14852 -0.05376 0.09477
-0.17013 -0.38446 -0.20806
-0.19009 -0.02706 -0.20806
0.19291 -0.21187 0.20777
-0.17119 0.32475 0.10583
0.16082 -0.09312 -0.16784
0.15901 -0.11454 -0.20806
-0.15313 0.27653 -0.15708
0.18598 -0.05376 0.08057
-0.13161 0.00845 0.08981
0.19291 -0.20162 -0.16990
0.15497 0.00845 -0.11184
0.11605 0.00845 0.02090
-0.15913 0.29617 0.12007
-0.09361 0.00845 -0.18360
-0.17119 0.30812 -0.06315
-0.15806 0.35794 -0.13889
-0.17462 0.25620 -0.20806
-0.15269 -0.10600 -0.17313
-0.15325 0.22180 -0.10874
-0.17119 0.22239 0.04048
0.03842 0.00845 -0.06007
-0.16907 0.15082 0.05991
0.19291 -0.15396 0.18727
0.08106 -0.05376 0.08708
0.15269 -0.31726 -0.19143
0.15269 -0.11418 -0.19234
0.07572 0.00845 0.17378
-0.07540 0.00845 -0.10289
-0.17119 0.19821 0.04321
-0.16363 0.37161 0.20806
0.09450 0.00845 -0.11913
-0.15269 0.11689 0.19755
-0.17119 0.36592 0.05003
0.15684 -0.05376 -0.09337
-0.17353 -0.32129 -0.20806
0.16525 -0.09673 -0.20806
-0.17119 0.28157 -0.11785
-0.18709 0.26446 0.16784
-0.15269 -0.29877 0.20627
0.04352 -0.02778 0.20806
-0.15605 0.34383 -0.16184
0.01693 -0.05376 0.11647
-0.15269 -0.11701 0.20461
0.09260 0.00845 -0.17528
-0.15832 0.21946 0.08221
0.15417 -0.06951 0.16784
0.01104 -0.05376 0.02012
-0.01373 -0.02614 -0.20806
-0.04823 -0.04117 -0.20806
-0.17715 0.30515 -0.20806
-0.15913 0.28642 -0.08598
-0.15269 -0.02915 -0.12409
-0.19291 -0.30700 0.20502
-0.15269 0.18899 -0.11504
0.18673 0.00294 0.20429
0.16415 -0.41170 0.19240
0.11611 -0.05376 0.13004
0.19235 0.00467 -0.09039
-0.05399 0.00845 0.11051
0.15633 0.00845 0.19118
0.00444 -0.05376 -0.05425
-0.15721 0.20291 -0.12218
-0.17119 0.38709 0.03067
0.15420 -0.11841 0.16784
-0.15949 0.39232 0.20806
0.07974 0.00477 -0.20724
-0.15269 -0.04613 -0.08414
-0.00900 0.00845 -0.04974
-0.15269 0.38799 0.18593
-0.19291 0.05068 0.17872
0.14107 0.00845 -0.04818
0.15269 -0.32559 -0.19062
-0.17119 0.27618 -0.09372
-0.17119 0.26381 -0.02469
-0.17071 -0.31827 -0.16784
-0.15269 0.16018 0.03205
0.15269 -0.27228 -0.19382
0.03660 -0.05376 0.19945
-0.17707 -0.23121 0.16784
0.19291 -0.00351 -0.02894
-0.17119 0.21305 -0.12005
0.15777 -0.02636 0.20806
0.17958 -0.27225 -0.20806
-0.15269 0.20055 -0.09039
-0.03078 0.00845 -0.17120
-0.18395 -0.41170 0.16906
-0.19291 0.05402 -0.20390
-0.15269 0.25420 0.08360
-0.15269 0.18527 0.17550
-0.17796 0.04220 0.20806
-0.15735 -0.19050 -0.16784
0.19291 -0.33828 0.18296
-0.17584 -0.22912 -0.20806
0.19291 -0.04936 0.15750
-0.17119 0.19354 0.13174
-0.18977 -0.33408 -0.20806
-0.15832 0.20471 0.02201
0.07396 0.00845 0.16660
0.02928 0.00845 0.03897
-0.15269 -0.38911 0.20479
0.19291 -0.15614 -0.17784
0.19291 -0.05265 -0.10083
0.19291 -0.39194 -0.20055
-0.19291 -0.27216 0.17598
-0.19291 -0.19792 -0.19049
0.19291 0.00198 0.05708
0.03208 0.00845 0.02123
-0.16021 0.39657 0.16784
-0.19291 -0.13219 0.18263
0.14493 0.00845 -0.19778
0.19291 -0.04038 -0.08352
-0.15269 0.18335 0.08238
-0.18535 -0.31104 0.16784
0.11436 0.00845 -0.16804
0.02772 0.00845 -0.18725
0.06331 0.00845 -0.05981
-0.19291 -0.29672 -0.19968
-0.15269 0.25561 0.11482
-0.10786 0.00845 0.09101
0.17412 -0.28486 -0.16784
-0.08081 0.00845 -0.00106
0.15269 -0.12540 0.19789
0.19291 -0.16718 0.20274
-0.01683 -0.04833 -0.20806
0.02591 -0.05376 0.13319
-0.17119 0.38235 0.02690
0.15269 -0.11387 -0.17047
0.04030 0.00845 0.20327
-0.04602 -0.05376 -0.08273
0.11668 -0.05376 -0.09885
-0.18517 -0.21041 -0.20806
0.15563 0.00845 -0.14724
-0.19291 -0.28875 0.18507
0.18568 -0.24183 -0.20806
-0.18003 -0.41094 -0.20806
-0.18180 0.36113 -0.20806
-0.10525 -0.05376 0.19905
-0.07752 -0.05376 0.17896
-0.15269 -0.24320 -0.17730
-0.17378 -0.13767 0.20806
0.19291 -0.10809 -0.20303
-0.01404 0.00845 0.06998
0.04657 -0.05376 -0.18858
-0.19291 0.09196 0.18261
-0.05839 0.00845 0.11632
-0.17698 0.38188 -0.20806
-0.17119 0.21856 0.01783
-0.15269 0.25990 0.08675
-0.17119 0.21047 -0.01555
-0.06232 -0.05376 0.19787
-0.09367 0.00845 -0.09120
-0.15269 -0.15552 -0.18842
-0.15269 -0.30209 -0.19287
-0.09249 0.00845 -0.08008
0.18382 -0.27984 0.20806
-0.19291 -0.22087 -0.19352
0.03119 0.00845 -0.01023
-0.17981 -0.10317 0.16784
-0.06554 0.00845 -0.20346
-0.18748 -0.17662 -0.16784
0.10951 0.00845 0.11149
0.16919 -0.05376 -0.06180
0.13705 0.00845 0.15380
0.16696 -0.23124 0.20806
-0.09196 -0.03050 -0.20806
-0.00354 0.00845 -0.09790
0.15269 -0.06157 0.20275
-0.17761 -0.41170 -0.18836
-0.19291 0.35160 -0.18291
-0.19291 0.13119 -0.19569
-0.17369 0.07611 -0.16784
0.08894 0.00845 -0.16229
0.17726 -0.17347 0.20806
-0.16009 0.11724 -0.16784
0.14627 0.00845 0.04623
0.11055 -0.04744 -0.20806
-0.15269 0.30982 0.18256
-0.04137 -0.05376 0.03306
-0.11386 0.00845 -0.11683
-0.17342 0.09369 -0.16784
-0.17119 0.31433 -0.04199
-0.17020 0.37324 0.20806
-0.15269 0.29684 -0.19917
-0.16508 -0.32636 -0.16784
-0.16768 0.06432 0.20806
0.11775 0.00845 -0.00202
-0.15269 -0.39677 0.19583
-0.17119 0.23475 -0.05026
-0.02314 -0.01441 0.20806
-0.07857 0.00737 -0.20724
0.19291 -0.40945 -0.18232
0.17223 -0.00419 -0.20724
0.15077 0.00845 -0.15978
-0.15269 -0.24655 -0.18869
0.18099 -0.39845 0.16784
-0.17119 0.37356 -0.00549
0.16430 -0.10305 -0.20806
0.13591 -0.05376 0.19136
-0.17225 -0.03195 0.20806
-0.18118 -0.20244 0.20806
0.18141 0.00845 -0.09953
-0.05566 -0.00156 -0.20724
0.17414 -0.06000 0.16784
0.17398 -0.29710 -0.20806
-0.15269 0.25486 -0.20415
-0.15269 0.19119 -0.09659
0.09120 0.00845 0.00943
0.11673 0.00845 -0.18243
-0.10222 0.00845 -0.06428
0.19040 -0.38587 0.16784
-0.15269 -0.25406 -0.19783
0.04871 -0.05376 0.17714
-0.15269 0.39366 0.16298
0.18033 -0.29453 -0.16784
-0.16974 0.25550 -0.16784
-0.15269 0.25702 -0.06262
-0.17119 0.22048 0.07721
-0.17119 0.29352 -0.02805
0.19029 -0.33746 0.20806
0.15319 0.00845 -0.07527
-0.17119 0.29674 -0.07342
-0.15420 0.29892 -0.14183
0.18000 -0.36947 0.20806
-0.15505 -0.25422 -0.20806
0.15269 -0.39725 0.18695
-0.18726 -0.11148 0.20806
-0.15269 -0.07596 -0.18434
-0.15721 -0.39509 -0.16784
-0.18356 -0.20927 0.20806
-0.19207 0.41170 0.18492
-0.15911 -0.38791 -0.20806
-0.17119 0.19616 -0.11604
-0.15269 0.27519 -0.17722
-0.17119 0.23164 -0.14343
0.18649 0.00845 -0.08733
0.15269 -0.37595 -0.19910
-0.13971 -0.04431 -0.20806
-0.09075 0.00845 0.00232
0.19058 -0.09630 -0.20806
0.18896 -0.25730 0.16784
-0.19190 -0.28510 -0.16784
0.15269 -0.07470 0.16904
-0.12660 -0.05376 -0.05994
-0.15269 0.04668 0.19056
-0.17119 0.22983 0.12968
-0.17119 0.37915 0.14291
0.14901 0.00845 -0.00516
0.02169 -0.05376 -0.09736
0.01377 -0.05376 -0.09965
-0.10312 -0.05376 0.11548
0.15269 -0.32133 0.17056
0.14999 0.00845 0.05879
-0.15806 0.34690 0.02269
0.16371 -0.13052 -0.20806
-0.03233 0.00845 0.03010
-0.15079 -0.05376 -0.10049
-0.13632 0.00740 -0.16166
0.15659 -0.12827 -0.20806
0.15269 -0.34059 -0.18065
-0.16737 0.40955 -0.18805
0.15269 -0.11621 0.19417
-0.17545 0.23396 0.16784
0.06219 -0.05376 -0.11756
-0.17119 0.26462 -0.07395
-0.17119 0.17604 -0.16535
0.18076 -0.28024 0.16784
-0.15269 -0.02358 0.16320
0.18129 0.00845 0.06754
-0.15269 0.37984 0.19853
0.18869 -0.40112 0.20806
-0.08696 0.00845 -0.10640
-0.17426 -0.41170 0.20714
-0.15815 0.15082 -0.08376
-0.19291 -0.28280 0.18693
0.18474 0.00845 0.08062
-0.05866 -0.05376 0.09227
-0.15269 0.31801 0.03125
0.09663 -0.05376 0.00333
-0.15269 0.24805 -0.16020
0.15269 -0.12879 0.20735
0.11382 -0.05376 0.20406
0.18838 -0.20455 -0.16784
-0.18966 0.23489 0.20806
0.17834 -0.39529 -0.16784
-0.16833 0.08793 0.16784
0.19291 -0.03618 -0.13809
-0.19291 0.10915 -0.20110
-0.17119 0.39328 0.11181
-0.15269 -0.04296 0.12337
0.05972 -0.05376 -0.09094
0.16946 -0.05376 0.13113
-0.17758 0.21185 -0.16784
0.07088 -0.05376 0.12179
-0.15334 0.01748 0.20806
-0.19291 0.06344 0.17265
0.15436 -0.05376 -0.07347
-0.15269 -0.00440 0.18723
-0.11306 -0.01042 0.20429
-0.15269 0.30239 0.03850
-0.15269 0.30580 0.07473
-0.16753 0.27086 0.20806
-0.17119 0.15163 -0.02189
0.11771 -0.05376 0.07804
-0.06819 -0.04530 0.20806
-0.19291 -0.30922 -0.17855
-0.18098 0.06771 -0.20806
-0.15269 -0.03197 -0.05582
-0.15269 0.38188 -0.02738
0.00396 -0.01220 0.20711
-0.19277 -0.20743 -0.16784
-0.01056 -0.05376 0.11800
0.19198 0.00537 0.03075
-0.19291 -0.39643 -0.19461
-0.19291 0.20314 -0.20186
0.01678 0.00845 -0.04177
-0.19291 -0.40459 -0.17831
0.15269 -0.10675 -0.20002
-0.18313 0.17252 -0.16784
-0.13789 -0.05376 -0.12963
-0.16214 -0.19130 0.20806
-0.17119 0.35453 0.09507
-0.15295 -0.12052 0.16784
0.18664 0.00845 -0.08154
0.15370 -0.20723 -0.20806
-0.18825 0.02441 0.16784
-0.06671 0.00845 0.12498
0.17887 -0.41170 0.20032
-0.18902 0.00540 0.16784
-0.11414 0.00845 -0.19755
-0.17119 0.24253 -0.05760
-0.00171 -0.05376 0.08805
0.15418 -0.24963 0.20806
-0.19291 0.07307 0.17958
0.15756 -0.20879 -0.16784
0.06800 -0.05376 -0.04975
-0.06610 -0.05376 0.07660
-0.19291 0.04577 0.17571
-0.18122 0.18910 0.20806
-0.15269 0.00074 -0.17421
0.19093 -0.05376 -0.11255
-0.19291 -0.38537 0.17641
-0.17910 -0.14375 0.20806
-0.08468 -0.05376 0.00230
0.12008 0.00845 0.08938
-0.15913 0.28125 -0.10143
0.15269 -0.28816 0.19240
-0.15269 0.34131 -0.06211
-0.17119 0.29913 -0.00702
-0.19291 0.21050 0.20115
0.09160 -0.05376 -0.04594
-0.17119 0.34925 -0.07135
0.12266 0.00845 0.15114
0.16432 -0.28414 -0.20806
-0.03529 -0.05376 0.07493
-0.15284 -0.29455 0.16784
0.11387 0.00845 0.09802
0.07932 -0.05376 0.16373
-0.02253 0.00845 0.12690
-0.15460 0.34383 0.02978
0.15269 -0.25570 -0.18639
-0.15269 -0.30530 -0.17246
-0.06332 -0.05376 0.01520
-0.18896 0.01665 0.20806
-0.15585 -0.01018 -0.16784
-0.04238 0.00845 0.13439
-0.19291 -0.17641 -0.18538
0.17714 -0.15587 0.16784
-0.10036 -0.05376 -0.19491
-0.15269 0.30318 0.11241
0.06014 -0.05337 0.20806
0.15269 -0.30232 0.17161
-0.15832 0.21909 0.09758
0.16651 -0.05376 -0.13123
-0.17119 0.33256 -0.11935
-0.01343 -0.05376 -0.07592
-0.03342 -0.05376 0.17273
0.08174 -0.05376 -0.02374
0.17905 -0.26422 0.16784
-0.15269 0.30982 0.11892
0.19291 -0.37609 0.16785
-0.17119 0.17091 -0.15980
-0.14018 -0.01220 -0.12847
-0.18369 0.25422 -0.16784
-0.19291 0.39170 0.18489
0.05123 0.00845 0.13410
-0.00629 0.00845 0.09401
-0.16466 -0.26060 -0.16784
-0.19291 0.05179 -0.17063
0.19291 -0.35898 0.18889
0.19291 -0.31198 -0.20386
-0.15472 0.33056 -0.20806
0.15117 -0.02932 -0.20806
-0.15269 -0.16804 0.17386
0.19291 -0.02263 0.12634
-0.02957 -0.05376 0.13727
-0.15269 -0.05038 0.20479
0.15269 -0.36465 -0.19142
0.18080 0.00845 -0.14691
0.19291 -0.04229 -0.12241
-0.15269 -0.25459 -0.17708
-0.08262 -0.05376 -0.15846
-0.15269 0.19312 0.11079
0.16217 0.00845 -0.11213
0.12939 -0.05376 0.08267
0.08512 0.00845 -0.01810
-0.19291 0.09851 0.17214
-0.15757 0.15082 0.09215
-0.05420 -0.05376 0.12552
0.03848 -0.05376 -0.17004
0.15354 0.00845 -0.06898
-0.16509 -0.34458 -0.20806
-0.17664 0.20299 0.16784
-0.15269 -0.36420 0.20324
0.15454 -0.05376 0.00808
-0.17119 0.35659 0.07269
-0.15269 -0.05004 -0.12409
0.15269 -0.10612 -0.17549
0.17153 -0.05376 -0.15312
0.19291 -0.27747 0.17410
-0.15913 0.28288 -0.10989
-0.17990 -0.11088 -0.16784
0.19291 -0.12807 0.19914
-0.06912 0.00845 0.14164
-0.15269 -0.02501 -0.04400
0.18678 -0.25166 -0.16784
0.19291 -0.04693 -0.16636
-0.19291 -0.38139 0.18978
-0.15988 0.34504 0.16784
0.15746 -0.06289 -0.16784
0.17651 0.00845 -0.16889
-0.17119 0.34744 0.01453
-0.15269 0.23535 -0.02452
-0.17119 0.35549 -0.11068
-0.19291 0.25947 0.19439
-0.17119 0.39290 -0.11313
0.01512 0.00838 0.20429
0.11972 0.00845 -0.13198
-0.14387 -0.01220 -0.20130
0.13817 -0.05376 -0.19287
-0.17119 0.33318 -0.02491
0.19291 -0.37247 -0.19449
-0.18510 -0.25949 0.16784
-0.15269 0.22451 0.12316
0.04868 0.00845 -0.19910
-0.15388 0.16909 -0.16784
-0.14836 -0.05376 0.11020
0.19291 -0.00152 -0.17228
0.10313 0.00845 -0.06787
-0.17119 0.28870 0.15848
0.08165 0.00845 -0.00795
-0.15269 -0.12726 0.19002
0.19262 0.00397 0.06348
0.15269 -0.18579 0.18386
-0.15269 0.02662 0.20107
-0.15269 0.38632 0.15415
-0.06939 0.00845 0.02289
-0.05942 0.00845 -0.17041
0.19291 -0.02219 0.18512
-0.19291 -0.29885 0.18534
-0.04654 0.00845 0.11920
-0.15269 0.20064 -0.19300
-0.07772 -0.05376 -0.07601
0.18520 -0.05376 0.11608
-0.18604 0.40955 -0.17785
-0.09962 0.00845 -0.02646
-0.19291 0.18480 0.20023
0.11691 0.00845 0.04024
-0.17119 0.19252 -0.13710
-0.15269 -0.03679 0.02167
0.02947 0.00845 -0.17430
-0.04284 -0.05376 -0.10814
0.19291 -0.33905 -0.18480
-0.19291 0.01773 -0.19267
-0.01524 -0.05376 0.12527
0.10395 -0.05376 0.02921
-0.15269 0.04737 -0.19013
-0.19291 0.29114 -0.18515
-0.16432 0.21116 0.20806
0.19291 -0.19962 0.18606
-0.03495 -0.05376 -0.04765
0.06807 -0.05376 0.02233
0.10579 -0.05376 -0.16601
-0.17119 0.38117 0.08715
-0.15806 0.34770 0.01430
-0.17119 0.32449 -0.06003
-0.09780 0.00845 0.13314
0.19291 -0.03919 0.03779
-0.15269 0.14172 0.17140
0.18495 -0.15324 0.16784
-0.15584 0.20291 -0.09962
-0.13632 0.00821 0.13087
-0.19291 -0.11332 0.16866
-0.15164 -0.01220 -0.01772
0.05966 0.00845 0.09914
0.14175 -0.01747 -0.20806
-0.15269 0.07001 -0.17963
0.16257 -0.14466 0.16784
-0.02935 -0.05376 -0.03170
-0.17119 0.28530 0.10424
-0.18119 -0.40986 0.20806
-0.19291 0.38693 0.17298
0.19201 -0.26371 -0.16784
-0.18257 -0.22159 -0.20806
-0.17662 0.27872 0.16784
0.06368 -0.04721 -0.20806
-0.15269 0.32216 -0.06556
0.03085 -0.05376 -0.16363
-0.15269 0.11731 -0.16823
0.11218 0.00845 0.19956
-0.17821 0.11879 -0.16784
0.02171 0.00845 0.14129
-0.15269 0.00858 -0.18605
0.19291 -0.02386 0.14899
-0.16516 -0.32361 0.16784
-0.17119 0.17866 0.09567
0.10882 0.00845 -0.14599
0.19291 -0.38931 0.17752
-0.15269 -0.05193 0.10106
-0.15278 0.20291 0.08295
-0.19291 -0.27610 0.18568
-0.18160 -0.27652 0.20806
-0.15269 0.10516 -0.17388
-0.18178 -0.06082 -0.20806
-0.03569 0.00845 -0.00107
0.17066 -0.21347 0.16784
-0.15269 -0.23920 -0.19263
0.02926 0.00845 -0.09596
0.14849 -0.05376 -0.12499
-0.11692 0.00845 -0.04465
-0.15269 0.16249 -0.13702
0.15421 0.00845 -0.04698
-0.15671 0.07507 0.16784
0.12198 0.00845 0.01384
-0.15705 0.21049 -0.16784
-0.19291 -0.09992 -0.18942
-0.16704 -0.31540 -0.20806
-0.15269 0.18775 -0.00825
-0.14231 -0.05376 -0.18892
0.19291 -0.28757 0.18672
0.18508 -0.14103 -0.16784
-0.17119 0.26723 0.06367
-0.14847 -0.01220 0.04145
0.08772 -0.05376 0.06331
0.04774 0.00102 0.20429
0.17328 -0.41170 -0.19679
0.13948 -0.05376 0.10707
0.19291 -0.34939 -0.18942
-0.15269 0.19315 0.17644
-0.14615 -0.01220 0.18968
0.06902 0.00845 0.03540
-0.18059 -0.30863 0.20806
-0.01027 -0.05376 0.08695
-0.16742 -0.16695 -0.16784
-0.17119 0.17157 -0.08051
-0.17119 0.15556 -0.13131
-0.15269 0.33897 -0.00571
-0.15269 0.06882 -0.17367
-0.15269 0.09521 0.20176
-0.17119 0.22194 -0.13433
0.12360 -0.05376 0.09885
-0.17119 0.26625 -0.15174
-0.17119 0.26530 -0.08807
-0.19291 0.27424 -0.19373
0.05320 -0.05376 0.08809
0.19291 -0.00754 0.11420
-0.15913 0.27707 0.11117
0.00386 -0.05376 0.06461
0.00393 -0.05376 0.17251
0.16690 -0.41170 -0.20779
-0.19291 -0.16346 0.19130
-0.09116 -0.05376 -0.18662
-0.10279 0.00845 0.12600
-0.17119 0.39223 0.13419
-0.17119 0.33982 -0.05314
-0.15515 -0.36927 0.16784
-0.17119 0.31519 0.06553
-0.19291 0.09679 0.19607
0.13338 0.00845 0.04488
-0.17119 0.27139 -0.16044
0.15269 -0.29587 0.16934
0.15269 -0.36347 0.19266
0.16699 -0.29648 -0.20806
-0.15269 -0.14431 -0.19407
0.07865 0.00845 0.19385
-0.13632 -0.01039 0.00104
-0.15269 0.24199 -0.13699
-0.16836 0.39910 0.08082
0.18415 -0.24845 0.20806
-0.17119 0.23437 -0.13057
0.10058 -0.05376 -0.15311
-0.17119 0.24218 -0.14273
-0.16799 -0.28516 0.16784
0.18979 -0.41170 -0.19970
-0.04190 0.00845 -0.19947
0.19273 -0.34083 -0.20806
-0.01527 -0.05376 -0.16300
-0.15269 0.17252 -0.08125
-0.15275 0.27653 0.01077
0.17406 -0.05376 -0.01799
-0.19291 -0.00185 -0.19350
-0.19095 0.02538 -0.20806
0.16061 -0.05376 -0.14260
-0.17119 0.33589 0.09140
-0.17119 0.28630 -0.15343
-0.19291 -0.02922 -0.20129
0.15983 -0.22193 0.20806
-0.08394 -0.05376 -0.12627
-0.01407 -0.05376 0.04797
-0.15913 0.28562 -0.14415
-0.13273 0.00845 -0.04435
-0.02158 0.00845 -0.15440
-0.16608 -0.19790 -0.20806
-0.11254 -0.05376 -0.06354
-0.15269 0.31982 -0.10747
-0.17583 -0.34077 -0.20806
0.14035 0.00845 -0.13203
-0.19291 0.38569 -0.18147
-0.13632 -0.01149 0.17117
-0.17119 0.28258 0.12802
-0.17017 0.17345 -0.20806
0.14091 -0.01220 -0.20729
-0.16976 -0.34964 0.16784
-0.02692 -0.05376 -0.01544
-0.15269 0.30726 -0.08989
0.03423 -0.03778 0.20806
0.14501 0.00845 0.06242
0.04057 0.00845 -0.17227
-0.19291 -0.02322 -0.17165
-0.15269 0.32603 0.00659
-0.17119 0.36485 -0.00493
-0.15269 0.33863 0.02214
0.16493 -0.38841 -0.16784
0.15260 0.00845 -0.20059
-0.16093 -0.08425 0.16784
-0.15269 0.13853 -0.17771
0.19291 -0.31049 0.18238
-0.15269 0.14090 0.19108
-0.15269 0.38577 0.08147
-0.17119 0.32385 -0.01437
-0.13620 0.00845 0.09907
-0.09017 -0.05376 0.19843
-0.15269 0.17235 -0.08732
0.08793 -0.05376 -0.10174
0.15269 -0.24930 0.19650
-0.14268 -0.01220 -0.02328
-0.17119 0.31332 0.03588
-0.06678 -0.05376 0.01973
-0.17119 0.25186 -0.16326
0.19291 -0.31332 -0.17700
0.12976 0.00845 -0.00496
0.17369 0.00845 0.13428
-0.15269 0.38045 -0.13469
0.16212 -0.05376 0.14769
0.18616 -0.09490 0.20806
-0.16406 -0.18299 -0.16784
-0.12858 -0.05376 -0.12958
-0.16611 -0.37960 0.16784
0.02627 -0.04062 0.20806
-0.15518 -0.20868 -0.16784
-0.11369 -0.05376 0.07119
-0.15269 -0.02352 0.09379
-0.17282 0.03686 0.20806
0.15269 -0.26803 -0.17118
-0.18096 0.06028 0.16784
0.15269 -0.18726 -0.18984
0.15269 -0.35171 -0.19560
0.00931 0.00845 -0.12014
0.18221 -0.27988 -0.20806
-0.16250 0.01358 -0.20806
0.15269 -0.29895 0.17566
0.19291 -0.03426 0.09914
-0.19291 -0.16806 -0.17316
-0.17119 0.39584 -0.07701
-0.15269 0.26736 -0.06561
0.14135 0.00845 0.03374
0.07192 -0.03713 0.20806
-0.05817 -0.05376 0.03551
0.14258 -0.01958 0.20806
-0.17119 0.28500 -0.01498
-0.15269 0.12004 -0.18850
0.16752 0.00845 0.06474
-0.17119 0.25896 -0.12021
-0.01682 0.00845 -0.06051
0.19291 -0.16181 -0.19732
-0.15269 0.15156 -0.01430
-0.15269 0.33639 -0.05605
0.14256 -0.05376 0.11778
0.01329 -0.04193 -0.20806
0.00287 -0.05376 0.00054
0.07426 0.00845 -0.18298
-0.01181 -0.05376 0.09207
0.08664 0.00845 0.18416
-0.11972 0.00845 0.13882
-0.19013 0.10509 0.20806
-0.19291 -0.21085 -0.17835
-0.17119 0.30761 -0.04554
0.01187 0.00845 0.12487
-0.17119 0.37913 0.01516
0.15269 -0.16373 0.20336
-0.13383 0.00845 0.00073
-0.19291 0.35558 -0.20088
-0.17119 0.32931 0.14819
-0.15521 0.36257 -0.13090
0.15303 -0.25412 -0.20806
0.08929 0.00845 0.15702
-0.15269 0.32550 -0.10965
0.16061 -0.05376 0.00329
0.11112 -0.04243 0.20806
-0.09367 0.00845 -0.13689
-0.14724 -0.01220 0.18212
-0.13494 0.00845 0.02886
-0.15269 0.18543 0.03344
-0.15541 -0.36937 -0.16784
0.02819 -0.01220 0.20696
-0.15269 -0.37901 -0.17764
-0.19291 0.15915 -0.19260
-0.17547 0.18829 0.20806
-0.15269 -0.03750 0.03983
-0.09733 -0.00234 0.20429
0.19291 -0.35489 -0.17940
-0.15702 0.30426 0.16784
-0.16921 0.23230 0.16784
-0.18327 -0.32487 -0.16784
-0.13632 -0.01218 0.03521
-0.18631 -0.31749 -0.20806
-0.15269 -0.31471 -0.19735
0.19291 -0.20399 0.17305
-0.17119 0.32563 -0.15048
0.19291 -0.07977 -0.19417
-0.15269 -0.08157 0.19244
-0.19291 -0.01782 0.20308
0.15638 -0.33292 0.20806
-0.15269 0.17263 0.04218
0.16267 -0.07523 -0.20806
-0.18112 0.15521 -0.20806
-0.15269 0.30457 -0.12788
-0.15269 0.15826 -0.04994
-0.11253 -0.00031 0.20429
-0.13632 -0.00465 0.16217
0.19291 -0.06281 -0.16895
-0.15269 0.17190 -0.15973
-0.15492 0.22180 0.15277
0.19291 -0.05035 -0.05955
0.16855 -0.39487 0.20806
-0.19291 -0.19133 -0.20614
0.01681 -0.03038 0.20806
-0.16528 -0.30642 0.20806
-0.15269 -0.25518 0.16841
0.09831 -0.05376 0.19141
-0.17908 -0.33873 -0.16784
-0.19291 0.08141 0.18318
-0.17117 -0.39026 -0.20806
-0.18290 -0.19434 -0.20806
-0.06203 0.00845 0.09138
0.15269 -0.21320 -0.18618
-0.16357 0.34193 -0.16784
-0.15685 -0.21401 0.20806
0.19291 -0.27546 -0.17434
-0.14419 -0.05376 -0.15511
0.15144 0.00845 0.10112
0.15519 -0.14386 0.16784
0.15269 -0.14706 0.19416
-0.04609 -0.04337 0.20806
-0.15269 0.26440 0.04886
-0.15913 0.29276 0.01607
-0.15269 -0.13224 0.19582
-0.15269 0.38599 0.11917
-0.19291 -0.39098 -0.17206
-0.15832 0.20962 -0.07202
-0.06680 -0.05376 -0.17620
-0.15802 0.12855 -0.20806
-0.11305 -0.05376 0.12206
-0.19291 -0.07089 0.17580
0.15350 -0.29209 -0.20806
-0.17119 0.28333 0.06541
-0.01958 0.00845 -0.14810
0.19291 -0.24649 -0.16899
-0.15269 0.31205 0.14868
-0.17663 0.32420 0.20806
-0.15269 0.22417 -0.05115
-0.15832 0.21522 -0.08725
-0.15832 0.20561 -0.08635
-0.15806 0.34900 -0.00412
0.19291 -0.06873 0.17205
-0.15269 0.29654 0.18374
-0.15415 -0.24553 0.16784
-0.15269 0.22894 0.09219
0.14097 -0.04499 0.20806
-0.06429 -0.05376 0.14177
0.00899 -0.05376 -0.06697
-0.01574 -0.00627 -0.20724
0.16969 0.00845 -0.17042
-0.17119 0.33770 -0.07619
-0.19291 -0.21410 0.19009
-0.05335 -0.05376 0.06164
-0.15269 0.32155 -0.11686
-0.19291 0.22787 -0.20707
0.02678 0.00845 0.17723
-0.15269 0.15231 -0.14801
-0.15269 -0.26489 0.18756
0.18011 -0.05376 -0.03314
-0.18792 0.05442 -0.20806
-0.15269 0.19745 0.01304
-0.06281 -0.05376 -0.10774
0.07355 0.00845 -0.10253
-0.15538 0.37489 -0.16784
-0.15269 0.23782 0.11118
-0.15269 0.17786 -0.13111
-0.06447 -0.05376 0.11549
0.19291 -0.06627 -0.17686
0.15421 -0.05376 -0.11531
-0.19291 0.06986 0.19074
-0.19287 0.32093 -0.20806
-0.11275 -0.05376 -0.18246
-0.19291 0.22206 0.20403
-0.15269 -0.01965 0.00456
0.01937 0.00845 0.18794
0.19291 -0.00066 -0.06816
-0.19291 0.29762 -0.17644
-0.15695 0.36257 -0.04822
-0.15269 0.33196 0.09654
-0.15269 0.36560 0.12235
-0.18635 -0.38083 -0.16784
-0.18808 -0.24142 0.16784
-0.15269 0.32204 0.04168
0.15637 -0.02847 -0.20806
-0.15357 -0.11170 0.20806
-0.19291 -0.32803 0.17434
0.15257 0.00845 -0.00925
-0.19291 0.38384 -0.19009
-0.19291 0.24674 -0.19894
-0.17119 0.31842 -0.04939
-0.15269 0.13360 0.17552
-0.15269 -0.38305 -0.20522
-0.15567 0.39910 0.08212
-0.17119 0.32040 0.15234
-0.19291 0.09989 -0.19218
0.18002 -0.00075 -0.20724
-0.15832 0.20306 0.09287
-0.19291 0.03516 0.19315
-0.17119 0.35301 0.01352
-0.15269 0.23924 -0.01083
-0.15913 0.27664 0.05091
-0.19291 0.11223 -0.17277
-0.06376 0.00845 0.09955
-0.16686 -0.06804 0.16784
-0.15269 0.22387 0.02563
0.12476 -0.04349 0.20806
0.00241 0.00845 -0.09674
0.03767 -0.05376 -0.02219
-0.15776 0.22180 -0.08852
0.03944 -0.05376 0.05600
-0.15269 0.30744 -0.01662
-0.15269 0.23493 -0.05591
-0.15269 0.38198 0.17141
-0.17119 0.36426 0.05519
-0.15269 0.32484 0.16500
-0.15269 0.33697 -0.10723
0.02439 0.00845 0.03720
-0.11370 -0.05144 -0.20806
-0.15269 0.39225 -0.05752
-0.16776 -0.27024 -0.20806
-0.15806 0.34425 -0.06152
-0.15269 0.37818 -0.09175
-0.09823 0.00845 0.16270
-0.15269 -0.04406 0.19616
0.15912 0.00845 0.20085
-0.10423 -0.00729 0.20429
-0.15269 0.19617 0.12702
-0.15269 -0.02261 0.12378
0.19291 -0.27131 0.17969
-0.17119 0.34406 0.16052
-0.15269 -0.29252 0.17774
0.15269 -0.16188 0.17125
0.19291 -0.34128 -0.19885
0.04350 -0.03682 0.20806
-0.17843 -0.34514 -0.20806
0.19291 -0.02590 -0.01334
-0.19000 0.29264 -0.20806
-0.19256 -0.01415 0.20806
0.18362 -0.05376 -0.01318
-0.03645 -0.05376 -0.01469
0.03174 0.00845 0.06714
-0.15502 0.39545 -0.20806
-0.18513 0.38104 -0.20806
0.12207 -0.05376 -0.01435
0.08394 0.00845 -0.19675
-0.03140 -0.05376 -0.07103
0.19291 -0.23833 0.19782
0.19291 -0.18783 0.20664
-0.15806 0.35062 0.03706
-0.12005 -0.04872 -0.20806
-0.10611 -0.05376 0.05073
-0.18048 0.08371 -0.16784
0.08509 -0.05376 -0.00652
-0.01731 0.00845 0.11054
-0.17119 0.22971 0.08056
-0.17119 0.28539 0.08272
-0.08030 -0.05376 -0.02190
-0.19291 -0.32060 -0.20210
0.19291 -0.05243 -0.07745
0.18564 -0.33779 -0.20806
-0.15866 0.35747 -0.16784
-0.15269 0.23595 0.06154
-0.17119 0.18109 0.12374
-0.15913 0.28207 -0.08218
-0.01147 0.00845 -0.15222
-0.07614 0.00845 0.12606
0.01673 0.00845 0.07603
-0.17119 0.36245 -0.05451
-0.15269 0.27124 0.14176
-0.15269 -0.04891 -0.14193
-0.16778 0.33696 -0.16784
-0.16178 -0.23377 -0.16784
-0.15269 -0.07938 0.16799
0.13256 -0.05376 -0.18226
-0.15269 0.37383 -0.14751
-0.00042 -0.05376 -0.17545
-0.15269 0.19727 -0.15034
-0.02101 -0.01220 -0.20806
0.14723 -0.05376 -0.10412
-0.15269 0.17261 -0.19935
0.07101 0.00845 0.05570
-0.17119 0.21989 0.11616
0.15269 -0.24869 -0.17348
-0.00520 0.00845 0.19883
0.15269 -0.25459 0.18648
-0.19265 0.30642 -0.16784
0.05301 0.00845 0.09138
-0.04618 0.00845 0.10118
0.03281 -0.05376 -0.04756
0.09094 0.00845 0.14827
-0.15269 -0.16573 0.16900
0.02233 -0.02921 -0.20806
0.19291 -0.39848 -0.20138
-0.15744 0.29892 0.05008
-0.17390 0.31133 0.20806
-0.05446 -0.05376 0.07057
0.13411 -0.05376 0.11061
-0.17498 0.30915 0.16784
-0.08021 0.00845 0.01568
-0.19291 0.39857 -0.17659
-0.00420 -0.05376 -0.05517
0.08026 -0.04298 0.20806
0.19291 -0.04032 0.20623
-0.16292 0.13062 0.20806
0.08825 -0.05376 0.11526
-0.15913 0.29673 0.15080
-0.17119 0.38449 -0.01092
-0.15269 0.31801 -0.12093
-0.02491 0.00845 -0.14195
-0.19291 0.34609 -0.20414
0.15502 -0.09690 0.20806
-0.15269 0.39345 -0.00477
-0.19291 -0.23568 0.18263
-0.15269 0.20165 -0.06023
0.16082 -0.30679 0.20806
-0.15269 -0.03764 0.14919
0.10278 -0.03769 -0.20806
-0.17328 0.13429 -0.20806
-0.18824 -0.39596 -0.16784
-0.15269 0.19889 0.05970
-0.15269 0.20269 0.00122
0.15269 -0.40037 -0.19468
-0.17119 0.21814 -0.16169
-0.17119 0.28176 0.02856
0.14954 0.00845 0.07707
-0.02961 0.00845 -0.17919
-0.09962 -0.05376 -0.00983
-0.06174 -0.05376 -0.20328
0.05214 0.00845 0.08178
-0.19291 -0.01660 -0.19002
-0.17725 0.14341 -0.16784
-0.15806 0.35111 -0.10862
0.04702 0.00845 -0.15002
-0.17119 0.32835 -0.03001
-0.13632 -0.00359 -0.05542
-0.15269 0.27345 -0.06567
0.09762 -0.05376 0.17467
-0.08640 0.00845 -0.02462
0.19291 -0.01764 -0.00756
-0.15269 0.12385 -0.18285
-0.15269 -0.01739 -0.01306
-0.19291 0.05380 -0.19480
-0.13149 0.00845 -0.06070
0.19291 -0.01432 -0.03700
-0.19291 -0.04616 0.20269
-0.19027 -0.32361 -0.16784
0.01498 -0.05376 -0.02211
-0.19206 0.33632 -0.16784
-0.09000 -0.02402 0.20806
0.15269 -0.38699 0.19308
-0.15806 0.35082 0.07479
-0.15269 0.19481 -0.02576
-0.18809 0.01159 -0.16784
-0.18649 -0.14502 0.16784
0.14039 -0.05376 -0.00576
-0.15269 0.26853 -0.01175
-0.11629 0.00845 -0.07877
0.15426 -0.10007 0.16784
-0.17119 0.26108 -0.11293
0.09538 -0.05376 0.04993
-0.19291 -0.14903 -0.17508
0.15269 -0.28413 0.18234
-0.17119 0.30954 0.01338
0.15269 -0.31075 -0.19166
-0.15269 0.24481 0.13113
0.19291 -0.24474 -0.18527
0.01419 -0.05376 0.20278
-0.15269 -0.30293 -0.17966
-0.06127 -0.05376 0.10851
-0.06751 0.00845 0.13302
-0.13632 -0.01202 0.11030
-0.13066 -0.05376 -0.03526
0.14097 0.00845 -0.02641
-0.15269 0.25803 0.16359
0.05124 -0.05376 0.16794
-0.15269 -0.04009 -0.11635
-0.02624 0.00845 0.15287
-0.08003 0.00845 0.17123
0.03940 -0.05376 -0.18559
-0.01532 0.00845 0.01940
0.19291 -0.27098 0.20009
0.19291 -0.05325 -0.15978
-0.01885 -0.05376 -0.07233
-0.11691 0.00845 -0.12661
-0.15269 0.24217 -0.12982
-0.16627 0.15082 -0.10318
-0.17119 0.37570 -0.13856
0.01211 0.00845 0.02248
-0.19291 0.22823 -0.20103
0.03524 0.00845 0.14142
-0.17169 -0.21992 0.16784
-0.18011 -0.22530 0.20806
0.13498 0.00845 -0.20571
-0.13632 0.00749 0.07299
0.18717 -0.29818 0.20806
-0.17119 0.37261 0.07907
-0.15269 0.23304 -0.19384
-0.17576 -0.17377 0.20806
0.01134 0.00845 -0.06770
-0.01226 -0.02456 0.20806
-0.16039 0.19386 0.16784
-0.02106 -0.03840 0.20806
-0.17119 0.34022 -0.01400
-0.15269 -0.19803 -0.20431
-0.14536 -0.01220 -0.11274
-0.15269 0.33683 0.18428
-0.15269 0.32462 -0.01476
0.17330 -0.14744 0.20806
-0.15832 0.20350 0.14317
-0.19291 0.02446 0.17497
-0.15269 0.36534 0.14983
0.14894 0.00845 0.16379
0.08994 0.00845 0.16465
-0.15269 0.33848 -0.14113
-0.17744 0.20580 0.20806
-0.11479 -0.05376 0.20446
-0.15269 0.36829 -0.03238
0.19291 -0.09872 -0.18955
-0.15416 -0.21000 -0.20806
-0.13632 0.00357 0.04554
-0.03214 0.00845 -0.08374
-0.19291 0.22868 -0.17977
-0.17119 0.23031 -0.02457
0.01239 0.00845 0.17814
-0.15441 0.10329 -0.16784
0.08941 0.00845 -0.08481
0.19291 -0.05299 -0.13851
-0.00610 -0.05376 0.20659
-0.17119 0.24752 -0.15286
-0.18927 0.24877 -0.20806
-0.14557 -0.05376 0.18976
0.16072 -0.23312 0.20806
0.06972 0.00845 -0.03709
-0.19291 -0.40329 0.20600
0.18973 -0.00876 -0.20724
0.16316 -0.09130 0.20806
-0.16969 -0.12807 0.16784
-0.10193 -0.05376 -0.04532
-0.15887 0.17422 0.16784
0.15269 -0.33238 -0.17256
0.19291 -0.00678 0.06500
-0.15269 0.36330 -0.09607
-0.15269 0.26985 -0.14347
-0.15269 -0.37201 -0.17264
0.17484 -0.06361 0.20806
-0.17119 0.29369 0.14535
-0.09272 0.00845 0.05698
-0.15913 0.28418 0.06900
-0.15269 -0.02554 0.12975
0.14320 0.00845 0.15175
0.18023 -0.31827 0.20806
0.19291 -0.12182 -0.18598
0.17515 -0.40410 0.20806
0.10962 -0.01864 -0.20806
-0.13632 -0.00731 -0.11122
-0.17119 0.18038 0.00661
-0.15269 0.39182 -0.09848
0.05643 -0.05376 -0.03430
-0.19291 0.23735 -0.17138
-0.18269 -0.00745 0.20806
-0.15913 0.28994 -0.01120
-0.15074 -0.01220 0.01276
-0.19218 -0.14921 -0.16784
0.13972 -0.05376 0.07586
0.18691 0.00845 0.01817
-0.17119 0.19308 -0.05617
-0.06459 0.00845 0.02969
-0.13662 -0.05376 -0.15186
0.11954 0.00845 -0.20098
0.14862 0.00845 0.06677
-0.15269 -0.02504 0.05475
0.19291 -0.31514 0.19487
-0.15361 0.36257 0.05525
0.00198 0.00845 -0.15254
0.19291 -0.38444 0.20489
-0.16476 -0.40375 0.20806
-0.14517 -0.01220 -0.09840
0.19291 -0.35869 0.17311
-0.19291 -0.16189 -0.17782
0.19291 0.00135 0.14482
0.18630 -0.41170 0.18631
-0.15946 -0.11180 0.16784
0.14055 0.00845 0.10257
0.17326 -0.10144 -0.20806
-0.15402 0.22180 -0.04043
0.14133 0.00757 -0.20724
-0.15678 0.11639 -0.20806
-0.08611 -0.05376 0.05888
-0.13632 0.00670 0.01397
-0.10448 0.00845 0.01572
-0.17119 0.22154 0.12596
-0.06880 0.00845 0.07307
0.18449 -0.31494 0.16784
0.15269 -0.16767 0.19625
0.19085 -0.05376 0.10045
-0.18337 0.00983 -0.16784
-0.05867 -0.05376 -0.15827
-0.15807 -0.32814 -0.20806
-0.19291 -0.33793 0.19816
-0.15269 -0.19270 0.19718
0.16345 -0.17474 0.16784
0.12749 0.00633 0.20429
-0.19291 0.38783 0.18998
-0.17119 0.24294 0.00291
-0.17119 0.36871 0.09059
-0.14631 -0.05376 0.02003
0.08430 0.00845 -0.10180
-0.15269 0.18860 0.01600
-0.17119 0.30344 -0.13182
-0.16333 -0.09453 0.20806
-0.15269 0.26830 -0.11318
0.09916 0.00845 0.12620
-0.15525 0.31431 -0.20806
-0.17119 0.31667 -0.05732
-0.15269 0.23377 0.00175
-0.15269 0.16597 0.11236
-0.15269 -0.36976 0.20644
-0.03841 -0.05376 0.02381
-0.15832 0.21621 0.02332
-0.16214 0.38250 0.20806
-0.19227 0.19079 0.16784
-0.16368 0.31408 0.20806
-0.15269 0.00704 -0.18064
0.15269 -0.36355 0.20009
-0.13632 -0.01057 -0.09811
-0.15269 0.30748 -0.10433
-0.15269 -0.38336 0.17161
0.19291 -0.24942 0.17773
0.16937 -0.23481 -0.16784
0.18455 -0.08061 -0.16784
0.04979 0.00845 -0.18421
-0.13632 -0.00064 0.09642
-0.17119 0.19037 0.03325
0.16249 0.00845 0.06008
-0.19291 0.24855 -0.20447
-0.17119 0.21087 -0.05029
-0.17119 0.29177 0.10673
-0.18108 0.06861 0.20806
-0.15806 0.35358 -0.09703
0.19212 0.00514 0.13519
-0.17840 0.18986 -0.16784
-0.17457 0.01648 0.16784
-0.16685 0.39910 0.14988
0.04695 -0.05376 -0.07009
0.00042 -0.03992 0.20806
-0.17119 0.34575 0.05726
-0.11700 0.00845 0.09920
-0.17119 0.19604 -0.06493
-0.15269 0.33781 0.11978
0.17030 -0.02149 -0.20806
0.17162 -0.05376 -0.14396
-0.17119 0.38809 0.16579
-0.18307 0.28769 0.16784
-0.15537 0.15479 0.20806
0.15873 -0.31836 -0.16784
0.15269 -0.05422 -0.19996
0.01528 0.00845 -0.08886
-0.19291 -0.20270 0.17987
-0.06407 -0.05376 -0.16042
-0.16727 -0.15363 0.16784
0.00177 0.00845 0.03353
-0.07212 -0.05376 -0.03873
-0.18008 0.41170 0.20561
0.15588 -0.20911 0.20806
0.11234 0.00845 -0.13354
0.19291 -0.04957 -0.04488
-0.10869 0.00845 0.09951
-0.17152 0.08696 -0.20806
0.12004 -0.05376 -0.11921
0.18317 -0.05376 -0.07897
-0.08127 -0.05376 0.07296
-0.19291 -0.38120 0.18227
0.16037 0.00845 -0.00540
-0.15269 0.03739 -0.19913
0.19065 -0.05376 0.02671
-0.18046 -0.41170 -0.17208
-0.05935 0.00845 -0.14780
-0.16814 0.15082 -0.01518
-0.15269 0.17450 -0.14226
0.17734 -0.30278 -0.20806
-0.15487 0.00701 -0.16784
-0.13632 -0.01063 0.08503
0.09490 -0.03560 -0.20806
-0.17119 0.21131 -0.09215
-0.17119 0.37349 -0.15318
-0.17119 0.23659 0.09996
-0.15269 0.17783 0.07289
0.12457 0.00845 0.09244
0.15659 -0.19481 -0.20806
-0.15269 0.38638 0.19083
0.19291 -0.06680 -0.18271
-0.19291 0.33455 0.17044
0.15323 -0.31088 0.16784
0.19291 -0.33793 0.19574
-0.15806 0.35499 0.13144
0.19291 -0.03502 0.14271
-0.15269 -0.04317 -0.12194
-0.19291 0.02456 0.18151
-0.15622 0.39434 -0.16784
-0.15269 0.16315 -0.16878
0.15269 -0.10528 0.17124
0.15269 -0.29244 0.17499
0.08257 0.00845 -0.16593
0.19117 -0.10445 0.16784
0.15269 -0.29520 0.19945
-0.19144 0.18209 0.16784
-0.17650 -0.12129 0.16784
-0.15269 0.27651 0.08346
0.18629 -0.31900 0.20806
-0.00847 -0.05376 0.08155
0.12175 0.00845 0.08197
0.09263 -0.05376 -0.07469
-0.19291 0.07139 0.16961
-0.19291 -0.23308 0.17324
-0.05136 -0.05376 0.10846
0.12460 0.00845 -0.18638
-0.16950 0.15082 0.06744
0.03825 -0.05376 0.00856
-0.15806 0.34440 0.15820
0.04132 0.00845 -0.13833
-0.11059 0.00845 -0.01815
0.17705 -0.05376 -0.10897
-0.15269 -0.18294 0.19935
-0.15269 0.33515 -0.13202
-0.02989 -0.05376 -0.10457
0.01145 0.00845 -0.10115
-0.19291 -0.30516 -0.18740
0.10505 -0.05376 0.12967
-0.15269 0.38808 -0.11612
-0.18878 0.08988 -0.16784
-0.15269 -0.38282 -0.18923
-0.00021 0.00845 -0.19369
-0.19291 0.10125 -0.20517
0.05326 0.00845 -0.05470
-0.15269 -0.31760 -0.18493
-0.15269 0.38136 -0.14333
0.15294 -0.05376 -0.01634
-0.17119 0.18747 -0.08441
-0.03852 0.00845 0.10271
0.16334 -0.25495 -0.16784
-0.19291 -0.35528 0.20110
0.09762 0.00845 -0.18899
-0.17119 0.18424 -0.03401
-0.16536 0.07876 -0.16784
-0.12007 0.00845 0.01667
-0.16922 0.26580 0.20806
-0.15732 0.39910 -0.01562
-0.09932 -0.05376 0.05562
-0.18205 -0.18447 0.20806
-0.00870 -0.05376 0.04531
-0.15269 0.18507 -0.08399
-0.06315 0.00845 -0.19722
-0.04363 -0.05376 0.11003
-0.15269 0.32127 -0.16350
0.17253 -0.13093 0.20806
-0.15913 0.29167 0.09743
0.17878 -0.12755 -0.16784
-0.03031 -0.05376 0.10232
-0.15660 -0.30629 0.20806
-0.17166 0.25567 0.16784
0.08356 -0.05376 -0.16472
-0.03672 -0.05376 -0.07305
-0.15993 0.35488 0.20806
-0.18233 0.31515 0.20806
-0.16217 0.11367 0.20806
-0.19291 -0.00029 -0.18492
-0.14046 -0.05376 0.09129
0.19291 -0.11553 -0.19692
0.19092 -0.19316 0.16784
0.15269 -0.31384 -0.17262
0.19291 -0.29832 -0.18307
-0.15269 0.38487 -0.07828
-0.15913 0.29147 0.16474
0.18936 -0.15362 0.20806
-0.15626 -0.09092 -0.16784
-0.17605 0.00034 -0.20806
-0.03730 -0.01926 0.20806
-0.05999 -0.05376 0.04216
-0.19291 0.29481 0.20272
0.16861 -0.05376 0.03901
-0.15269 -0.04612 -0.00000
-0.17119 0.15221 0.04510
0.15805 -0.17773 0.16784
-0.13572 0.00845 0.05272
-0.13306 -0.05376 -0.06226
-0.17119 0.35252 -0.07846
-0.15269 -0.04413 -0.13882
-0.09858 -0.01978 -0.20806
0.18867 0.00807 0.15748
-0.17119 0.29416 -0.16739
-0.10684 0.00053 -0.20724
-0.18532 0.22770 0.20806
-0.17119 0.23126 -0.10778
-0.17119 0.19858 -0.02787
0.19291 -0.38574 0.18369
0.09885 0.00845 0.13386
-0.15269 0.15162 -0.09648
0.07623 -0.05376 -0.04775
-0.15513 0.34383 -0.08066
-0.08245 0.00845 -0.10398
0.18924 -0.28060 -0.20806
-0.04809 0.00845 -0.16067
-0.16902 -0.35089 0.20806
-0.08011 0.00845 -0.01279
0.19291 -0.36435 -0.17781
-0.19291 -0.10594 0.17753
-0.19291 0.08739 -0.17285
-0.17080 0.31862 0.16784
-0.15269 0.34135 0.17434
0.06695 -0.05376 0.17086
-0.17119 0.16767 -0.14734
0.15082 -0.05376 0.05505
0.15009 -0.05376 -0.06097
-0.15269 -0.01827 -0.03808
-0.03488 -0.00950 -0.20724
0.19291 -0.36729 0.18416
0.17803 0.00845 -0.19751
-0.17119 0.19721 -0.05184
0.07470 0.00845 -0.10853
0.15312 -0.01702 -0.20806
0.12895 -0.01892 -0.20806
0.01016 0.00845 -0.15857
0.18839 -0.08201 0.16784
0.13825 -0.05376 -0.14294
-0.01287 -0.05376 -0.11891
-0.16945 -0.17066 0.20806
-0.13636 -0.01220 -0.01367
-0.16513 0.15082 0.13261
-0.19291 0.29945 -0.20123
-0.18308 -0.15302 -0.16784
-0.19291 0.17781 -0.19922
0.16799 -0.05376 -0.09134
0.16802 -0.21304 0.20806
-0.17663 0.08069 0.16784
-0.17119 0.23051 -0.03987
-0.13632 -0.00263 -0.16305
0.17119 -0.15081 -0.16784
-0.13104 0.00845 0.04207
-0.15269 0.27254 0.20589
-0.17119 0.37253 0.08489
0.17716 -0.18588 0.16784
0.07296 -0.05376 -0.15215
-0.08021 -0.05376 0.02464
0.17157 -0.28416 0.20806
-0.01868 -0.05376 -0.04694
-0.15269 0.16912 0.16901
-0.13084 -0.05376 0.14066
0.19074 -0.30256 -0.20806
-0.15269 -0.12485 -0.16807
-0.17035 0.39910 -0.12524
0.15269 -0.19605 -0.18301
0.15269 -0.07875 0.20213
-0.15689 0.15082 -0.14253
-0.17637 0.07029 0.16784
-0.16028 0.14803 -0.16784
-0.16415 0.03068 0.16784
-0.16344 -0.41034 -0.16784
0.16544 -0.31545 -0.20806
0.16788 -0.05376 0.02091
-0.07555 0.00845 -0.02045
-0.07371 0.00845 -0.19165
-0.01170 0.00845 -0.01782
-0.16847 0.31119 -0.20806
0.15975 -0.25922 0.16784
-0.17119 0.23181 0.04458
-0.13632 -0.00525 0.17543
-0.12426 -0.05376 0.12747
-0.18459 -0.16064 -0.20806
-0.17119 0.19776 -0.14440
-0.19291 -0.05254 0.18207
0.15939 -0.13532 0.16784
-0.15832 0.20577 -0.12859
-0.19139 0.31914 -0.16784
-0.17119 0.27161 -0.13664
0.15269 -0.25198 -0.16785
-0.18983 -0.12930 -0.16784
-0.17119 0.28077 -0.02520
0.10312 -0.05376 0.11898
-0.16378 -0.41170 -0.18459
0.07576 -0.05376 0.17754
-0.15559 0.27653 0.04200
-0.17119 0.18754 -0.10263
-0.15269 -0.04378 0.17936
0.12843 -0.05376 0.01680
-0.17833 0.39874 -0.20806
-0.13779 -0.05376 -0.04937
-0.15806 0.35846 -0.08965
-0.17119 0.32425 0.07203
-0.19291 0.06269 0.19845
-0.17239 0.30641 -0.16784
0.19291 -0.03173 -0.01067
0.05649 -0.05376 0.11114
0.16842 -0.11132 -0.20806
0.17947 0.00845 0.15058
-0.06464 -0.05376 -0.11432
-0.19291 -0.14044 -0.17239
-0.17119 0.38486 -0.09006
0.16984 -0.02268 0.20806
0.18694 -0.05376 0.03949
-0.17119 0.22634 0.07360
-0.19291 -0.27370 0.20447
-0.15269 -0.29749 -0.17940
-0.00390 0.00845 -0.20355
-0.01584 0.00845 0.18523
-0.17119 0.16720 0.07286
-0.15352 -0.35244 -0.20806
-0.18372 0.03607 -0.16784
0.00993 -0.02609 -0.20806
-0.15269 0.22601 -0.10179
-0.12443 -0.05376 0.06654
-0.16551 -0.08247 -0.16784
-0.01677 0.00845 -0.07784
-0.15898 -0.27938 0.20806
-0.15269 0.36643 -0.10629
-0.15269 0.09027 0.16958
-0.17742 0.23369 -0.16784
-0.19291 0.29052 0.17848
0.18160 -0.12481 0.20806
-0.15269 0.26940 -0.12274
0.15269 -0.29328 0.18368
-0.15269 0.27071 -0.08857
-0.17644 -0.02528 0.16784
-0.17119 0.21210 0.07334
-0.05060 0.00845 -0.12015
-0.13632 0.00546 -0.11984
-0.15269 0.28613 0.18135
-0.17119 0.33035 0.04764
0.10727 -0.05376 -0.20651
0.02224 -0.05376 -0.03539
-0.15269 0.32735 0.13092
-0.15269 0.22669 0.11416
-0.16968 -0.37121 0.20806
-0.12536 -0.05376 -0.09892
-0.18396 -0.33416 0.16784
0.11772 -0.05376 0.00582
-0.13632 -0.00707 -0.02565
-0.17119 0.25634 -0.03044
-0.19291 0.11054 -0.18700
0.19291 -0.00577 -0.20255
-0.17119 0.29554 -0.05838
0.17781 0.00845 0.08516
-0.17119 0.26548 -0.16321
-0.04374 -0.04946 0.20806
-0.15269 0.28244 -0.20686
-0.15269 0.36778 0.01067
-0.15151 -0.01220 0.05679
-0.15460 0.33682 -0.16784
0.04743 -0.05376 -0.11619
-0.15269 0.23189 0.12910
-0.16875 -0.05227 -0.20806
-0.14350 -0.01220 0.15043
-0.18358 -0.08186 0.16784
0.18573 -0.11383 0.16784
0.07094 -0.05376 -0.10818
-0.07520 -0.05376 -0.11944
0.01868 -0.05376 -0.14098
0.19291 -0.02578 -0.19301
-0.17119 0.32376 0.12182
-0.15269 -0.33467 -0.17491
0.19291 -0.15118 0.17401
-0.12549 -0.05376 0.10321
-0.02565 -0.05376 -0.20128
-0.17119 0.18429 -0.01140
-0.16331 0.39910 0.06003
0.03375 -0.05376 0.01867
-0.17119 0.37641 0.01005
-0.15269 -0.12297 0.17829
-0.17119 0.18427 -0.14862
0.00342 -0.05376 -0.03103
0.06897 0.00845 -0.15459
-0.15269 0.26999 0.15036
-0.15561 0.23102 0.16784
-0.15269 -0.16206 -0.20136
-0.17119 0.23241 -0.03233
0.05838 -0.00814 -0.20724
-0.14215 -0.01220 -0.01595
0.01247 -0.05376 0.05623
-0.01199 0.00845 0.12555
0.15592 -0.05376 -0.08474
0.18899 -0.13800 0.20806
-0.19291 -0.18403 -0.19903
-0.04079 0.00845 -0.06938
-0.15913 0.29362 0.03042
-0.15269 0.16289 0.19181
0.17228 -0.34858 0.16784
-0.15269 0.18899 -0.07216
0.18099 -0.04548 -0.20806
