ply
format ascii 1.0
comment VCGLIB generated
element vertex 1793
property float x
property float y
property float z
element face 0
property list uchar int vertex_indices
end_header
-0.14495 -0.01811 -0.14176
-0.18226 0.07697 -0.15067
0.18226 -0.24347 0.17392
-0.10773 0.02088 0.09080
0.14176 -0.07657 0.17330
0.08548 0.02088 0.10756
-0.14176 -0.12650 0.14388
-0.13287 0.04094 -0.14202
-0.13287 0.02157 -0.17671
0.18226 -0.08657 0.17339
-0.18226 0.30185 -0.07690
-0.13287 0.07428 -0.15150
-0.11858 0.02088 0.11966
0.17925 -0.33135 -0.18226
-0.13287 0.14188 0.11454
-0.16289 -0.29516 0.14176
-0.18226 0.25803 0.12693
-0.18226 0.11052 -0.12114
-0.13287 0.22800 -0.00075
-0.13287 0.27024 -0.11700
-0.13287 0.09421 -0.09046
0.14176 -0.32382 -0.15888
-0.18226 0.29994 0.08530
-0.08626 -0.01709 0.06690
-0.18226 0.30344 -0.06400
-0.06557 0.02088 -0.16434
-0.14234 0.29811 0.18226
-0.04659 -0.01709 0.00918
-0.13287 0.35827 -0.14962
-0.18226 0.20982 -0.10000
-0.13287 0.11464 0.09370
0.17979 -0.01709 -0.02962
-0.17789 0.21076 0.18226
-0.17488 0.38795 0.13250
-0.18226 0.02309 0.14511
-0.09242 0.02088 -0.01379
-0.07556 0.02088 -0.09331
-0.01721 -0.01709 0.18072
0.18226 -0.26985 0.18215
-0.10783 0.02088 -0.09767
-0.18226 0.42352 -0.02499
0.11378 0.02088 0.02971
-0.13641 -0.01709 0.14381
-0.14176 -0.25134 -0.16574
0.10571 0.02088 0.13547
0.12302 0.02088 0.11320
-0.15035 0.27356 -0.18226
-0.18226 0.05789 0.04144
-0.18226 0.08626 -0.00534
-0.10485 -0.01709 0.17345
-0.14176 -0.19621 -0.17547
-0.18226 0.26947 -0.05101
-0.18226 0.40294 0.01227
-0.18226 -0.15517 -0.17671
-0.16250 -0.29511 -0.14176
-0.11863 -0.01709 -0.16052
-0.18075 -0.37306 -0.18226
-0.13287 0.26297 -0.04217
-0.18138 -0.35056 0.14176
-0.13473 0.40498 -0.10264
0.00958 0.02088 -0.04086
-0.13287 0.20705 0.14266
0.17075 0.02088 -0.16101
-0.14176 -0.13011 -0.17927
-0.14349 0.19450 -0.18226
-0.13287 0.20855 -0.06431
0.15487 0.02088 -0.06972
-0.18226 0.26398 -0.16832
0.13372 0.02088 -0.00543
-0.13287 0.20271 -0.07877
-0.15327 -0.05292 -0.18226
0.14567 -0.16060 0.14176
0.14176 -0.15066 -0.15219
-0.14176 -0.07765 -0.14954
0.14176 -0.11569 -0.17020
0.01613 0.02088 -0.09563
0.08420 0.02088 0.13965
0.14637 -0.13875 -0.18226
0.18226 -0.28319 -0.16665
-0.07887 0.02088 -0.06692
-0.16800 0.18899 0.18226
-0.13287 0.29534 -0.07730
0.01883 -0.01709 0.07270
-0.13287 0.04921 0.02272
-0.16407 -0.35293 0.18226
0.09181 0.02088 0.07682
0.15228 -0.31540 0.14176
-0.18226 0.12201 0.06278
0.15192 -0.01709 0.02434
-0.13287 0.31960 -0.05928
-0.08742 0.02088 0.11218
0.17315 -0.35994 -0.14176
-0.13287 0.05503 0.04790
-0.14176 -0.12606 -0.14406
-0.18226 0.34681 -0.11453
-0.14958 -0.01709 0.09017
-0.18226 0.30585 0.02574
-0.05539 -0.01709 -0.17169
-0.18226 0.01274 -0.03555
-0.15903 -0.01788 0.18226
-0.13287 0.35048 0.02091
-0.15521 -0.11398 -0.18226
0.00065 -0.00922 0.18226
-0.18226 0.08877 0.04779
-0.14176 -0.31494 -0.14236
-0.13961 0.21895 0.18226
-0.18226 0.19072 0.08948
0.03669 0.02088 -0.00070
-0.13287 0.38266 -0.04625
0.14176 -0.19225 -0.14911
-0.08545 -0.01709 0.13116
-0.18226 0.08820 -0.02297
0.14176 -0.26385 -0.18017
-0.18226 0.34772 -0.01171
0.05127 0.02088 0.08946
-0.13287 0.33462 0.10707
-0.18226 0.28615 -0.08228
0.14176 -0.39707 -0.17397
-0.13287 0.32409 -0.06881
0.12584 0.02088 0.01820
-0.06390 -0.01709 -0.13213
-0.14176 -0.32678 0.14575
0.12130 -0.01709 -0.02830
-0.14296 0.19547 0.18226
-0.15683 -0.21659 -0.18226
-0.16156 -0.01709 -0.13946
-0.18226 0.00921 -0.11887
0.06365 -0.01709 0.12801
0.09257 -0.01709 0.01132
-0.16081 -0.33385 0.14176
-0.16687 -0.18611 0.18226
0.15241 0.02088 0.16758
0.16634 -0.19333 -0.14176
-0.18226 0.36393 -0.07590
0.10216 0.02088 0.01213
-0.18226 0.29704 -0.05891
0.17909 -0.27577 0.18226
-0.13287 0.08210 0.11044
-0.13287 0.09412 0.01578
-0.13287 0.09195 0.16205
0.07643 -0.01709 -0.08775
-0.13287 0.22985 -0.05047
-0.18226 0.11219 -0.00840
0.05259 0.01297 0.18226
0.18226 -0.00813 -0.09322
-0.13287 0.32623 -0.05294
0.17791 -0.09091 -0.18226
0.05671 0.02088 0.02368
-0.18226 0.06093 0.07621
-0.14176 -0.02636 0.17754
-0.17495 0.38500 0.13634
0.17775 -0.07501 -0.14176
-0.13287 0.36295 -0.08477
0.17614 0.02088 -0.06389
-0.18226 0.09192 0.13753
-0.14176 -0.04580 -0.15469
-0.16416 0.01788 0.18226
0.07875 0.02088 0.00882
-0.13287 0.04979 0.03408
-0.18226 0.24924 -0.09502
-0.14180 0.41342 0.08145
-0.14863 -0.05735 -0.14176
-0.17099 0.11342 0.18226
0.18226 -0.30000 0.16490
-0.18226 0.18423 -0.08605
0.15383 0.02088 0.17849
0.15953 -0.32697 -0.14176
-0.13287 0.24370 -0.15715
0.12519 -0.01709 0.00789
-0.08964 -0.01709 0.11252
0.14176 -0.31034 -0.15082
-0.18226 0.22464 0.03869
-0.13287 0.21639 0.03171
0.18226 -0.23109 -0.14594
0.14176 -0.18272 0.15370
-0.02366 0.00612 -0.18226
0.02517 -0.01709 0.05882
-0.13287 0.14005 0.17302
-0.06326 0.02088 -0.12731
-0.18226 0.01439 0.05630
0.03330 0.02088 -0.06352
-0.18226 0.27838 -0.14411
-0.00611 -0.01709 0.12044
-0.18226 0.31397 0.03587
0.14176 -0.29834 -0.15158
-0.09316 0.02088 -0.12307
0.14299 -0.19788 -0.14176
0.14176 -0.20604 0.16826
0.14956 -0.01709 -0.05857
0.06498 0.02088 0.03195
-0.18226 0.04886 0.15143
-0.13287 0.09801 -0.17911
-0.18226 0.24819 0.14447
-0.17790 -0.07912 0.14176
0.11715 -0.01709 -0.02309
0.04653 -0.01103 -0.18226
0.15607 -0.30544 0.18226
-0.13287 0.09859 -0.09651
-0.18226 -0.39701 -0.16684
-0.00772 -0.01709 0.02354
0.18226 -0.23407 -0.15455
-0.17657 0.42504 -0.03851
0.00904 -0.01709 -0.02137
-0.13287 0.20877 0.13177
-0.13287 0.07732 -0.05480
-0.13287 0.09218 -0.00937
-0.18226 0.13312 0.11272
-0.13287 0.04914 -0.10405
-0.13287 0.13657 -0.05760
0.11308 0.02088 0.12539
0.17907 -0.04440 0.14176
-0.18226 -0.39084 0.16106
-0.14176 -0.33820 0.17221
-0.18226 0.41894 0.06064
-0.09682 -0.01709 -0.12356
-0.13412 0.02753 0.18226
-0.13287 0.41476 0.01063
-0.18226 0.11596 -0.06936
0.18226 -0.01611 0.05677
-0.13287 0.09068 0.08553
0.04560 -0.01709 -0.16003
-0.13287 0.22950 0.10426
-0.12364 0.02088 0.04414
-0.13287 0.17806 0.02662
-0.13287 0.34533 -0.01777
-0.17516 -0.03622 -0.14176
0.14769 -0.17490 0.18226
0.02783 -0.01709 -0.08670
0.15552 -0.31548 -0.18226
-0.18226 0.16866 -0.12774
0.16987 -0.12824 -0.14176
0.15009 -0.01709 0.01113
0.12639 -0.01709 0.02030
-0.17295 -0.29904 -0.18226
-0.08317 -0.01709 0.17308
-0.14176 -0.13293 -0.15453
0.18226 -0.30277 0.16103
-0.13287 0.10244 0.10987
0.14176 -0.31128 -0.15919
-0.14566 -0.42211 -0.16923
-0.18226 0.30757 -0.15199
-0.13287 0.28224 0.07499
0.10773 -0.01709 0.10081
-0.16878 0.30792 -0.18226
-0.13287 0.09199 0.04845
-0.13287 0.03237 -0.01900
-0.18067 -0.40939 -0.14176
0.17589 0.02088 0.05736
-0.13887 0.38203 0.14022
-0.18226 0.14479 -0.08064
-0.18226 0.30376 -0.08991
-0.00115 -0.01709 -0.02423
0.14633 -0.16135 0.18226
-0.14410 0.14404 0.18226
0.14205 -0.16188 -0.14176
-0.18226 0.33390 0.00727
-0.18226 0.39239 -0.02154
-0.18226 0.23198 -0.04490
-0.18226 0.41222 0.00566
-0.16878 -0.05854 -0.18226
0.11941 0.02088 -0.09354
-0.13287 0.26533 0.00519
-0.18226 0.32766 -0.15068
0.03196 0.02088 -0.07435
-0.13287 0.33451 0.17863
0.17023 -0.39321 -0.14176
-0.18226 -0.04968 -0.14949
0.15138 -0.01709 -0.09002
-0.18226 0.39464 0.11857
0.18226 -0.16417 0.14315
-0.13287 0.18811 -0.16359
-0.12438 0.02088 0.00015
0.17549 0.02088 0.08920
-0.17180 -0.13667 0.18226
0.18226 -0.31496 -0.16495
0.14176 -0.40100 -0.16155
0.01178 0.02088 -0.07053
0.03020 0.02088 -0.11718
-0.18226 0.40496 0.07116
-0.18226 0.35309 0.08144
-0.18226 -0.36530 -0.18169
-0.15331 0.24215 0.18226
-0.13287 0.05024 -0.17123
0.04783 -0.01709 0.03866
-0.18226 0.04934 0.16938
-0.18226 -0.00139 0.13106
-0.15496 0.15609 -0.18226
0.08932 0.02088 -0.13925
-0.18010 -0.41887 -0.18226
0.18226 -0.20172 -0.14965
-0.13287 0.03572 0.14814
-0.13287 0.28113 -0.17247
0.16562 -0.31907 0.14176
-0.13287 0.20903 -0.07493
-0.01097 0.02088 -0.08123
-0.05566 -0.01709 -0.15098
-0.18226 0.28912 -0.12649
0.17900 -0.42211 -0.17104
-0.18226 0.03280 -0.07372
0.14176 -0.37698 0.16518
0.18226 -0.05689 -0.15433
-0.16631 0.35711 0.16899
-0.13287 0.24063 -0.10057
-0.13287 0.35505 0.11714
-0.13287 0.16580 -0.07755
-0.01964 0.02088 0.14380
0.02275 0.02088 0.14373
-0.14959 -0.08841 -0.18226
0.14176 -0.24313 -0.17829
0.05606 -0.01709 -0.05541
-0.16463 -0.25393 0.14176
-0.18226 0.19330 0.00975
-0.08822 0.02088 -0.11663
-0.02151 -0.01709 -0.09354
-0.18226 0.34216 0.04049
-0.18226 0.24454 0.10739
-0.02705 0.02088 -0.06638
0.18226 -0.01586 -0.17250
-0.07654 0.02088 -0.10898
0.13989 0.02088 0.14532
-0.18226 0.18869 -0.08372
-0.14843 0.32189 -0.18226
-0.18226 0.29720 -0.02038
-0.07081 -0.01709 -0.02552
-0.17144 0.02881 -0.18226
0.15211 -0.42211 0.18197
0.16848 -0.02259 -0.14176
-0.13287 0.40443 0.02415
0.02679 0.02088 0.01179
-0.17871 -0.06534 0.14176
-0.15392 0.17531 0.18226
-0.17785 0.36046 0.16573
0.12515 0.02088 -0.09088
0.07744 -0.01709 0.03020
-0.13287 0.23779 0.14312
0.12327 0.02088 0.09136
-0.13533 0.11067 0.18226
-0.13287 0.04567 -0.05867
-0.13287 0.10264 0.02914
0.09937 0.02088 -0.09347
0.16417 0.02088 0.10055
-0.14944 -0.15287 0.14176
-0.18226 -0.03570 -0.17505
-0.18226 0.09309 0.04027
0.08590 0.01993 -0.18226
-0.18226 0.14202 0.13730
0.16021 -0.00901 -0.18226
0.17832 -0.01709 -0.08518
-0.09755 0.02088 -0.13142
-0.18226 0.14871 0.11961
-0.18226 -0.33983 -0.16463
-0.18226 0.20853 0.14103
-0.14079 0.42223 0.05117
-0.17504 0.00513 -0.18226
-0.13287 0.12019 0.14233
0.18226 -0.24944 0.17105
-0.13287 0.23889 0.00102
-0.13287 0.08039 -0.14327
0.04761 0.02088 0.15607
-0.13287 0.11966 -0.14897
-0.18226 0.30034 -0.08183
-0.18226 -0.32998 0.15808
0.03814 0.02088 0.11161
-0.13287 0.38401 0.05437
0.14176 -0.41529 0.14893
-0.13287 0.14669 -0.05344
-0.18226 0.33749 -0.14222
0.03874 0.02088 -0.00724
-0.18226 -0.01173 -0.11146
-0.13287 0.17639 -0.02798
0.05910 0.02088 -0.07540
-0.13287 0.19731 -0.06806
-0.17285 -0.22562 -0.18226
-0.18226 0.14761 0.17248
-0.13287 0.17810 0.08240
-0.18226 0.16042 0.14819
-0.13287 0.20932 0.11789
0.18226 -0.24220 -0.15097
-0.10516 -0.01709 -0.02927
-0.18226 0.38845 -0.09901
-0.01783 0.02088 -0.12425
-0.13287 0.22248 0.03067
-0.13287 0.14513 0.06510
-0.13287 0.19094 0.11546
0.04121 -0.00728 0.18226
-0.18226 0.01200 -0.06670
-0.18226 0.31250 0.02962
0.14468 0.01439 0.18226
0.13056 0.02088 0.17609
-0.07343 -0.01709 0.07174
-0.13287 0.03935 -0.07135
-0.13287 0.08036 -0.13485
-0.13287 0.18263 0.13557
0.18226 -0.21424 -0.14841
-0.13287 0.16498 -0.15934
0.08795 -0.00716 -0.18226
-0.18226 -0.00229 0.02246
0.16410 -0.01709 0.07782
0.14458 -0.26643 0.14176
-0.15810 0.05759 -0.18226
-0.12368 -0.01709 0.04247
0.13534 -0.01709 -0.01595
0.18226 -0.26722 0.16576
-0.18226 -0.33855 0.17031
0.04045 -0.01709 0.07685
0.09708 -0.01709 0.15982
0.07785 0.02088 0.11682
-0.18226 -0.11515 0.16961
-0.18226 0.22814 0.10833
0.16761 -0.17205 0.18226
0.09619 -0.01709 -0.13229
-0.13287 0.22273 -0.16156
-0.18226 -0.12692 0.14877
-0.18226 0.02676 -0.12750
0.01503 -0.01709 -0.05805
-0.18226 -0.42770 0.16239
-0.10507 -0.00294 -0.18226
-0.14176 -0.21978 0.17350
-0.13287 0.24856 0.13252
0.18226 -0.00697 -0.13838
-0.18226 -0.31053 -0.14361
0.15083 -0.11947 -0.14176
-0.18226 0.29801 0.06147
0.16562 -0.07477 0.14176
-0.13863 0.22253 -0.18226
0.17265 -0.01019 -0.18226
-0.18226 0.38329 -0.06332
-0.04771 0.02088 -0.06102
-0.18226 0.05408 -0.14562
-0.14448 -0.01709 -0.02228
-0.14176 -0.31300 0.16102
0.14176 -0.33636 0.15140
0.16504 -0.02655 -0.14176
-0.13287 0.29703 -0.12295
-0.13287 0.20505 0.00941
0.16065 -0.01709 -0.08800
-0.17032 -0.01709 0.07565
-0.16384 -0.26439 -0.14176
-0.18152 -0.32111 0.14176
-0.18226 0.29065 0.12780
-0.13287 0.18531 -0.08800
-0.18226 -0.01553 0.00972
0.17464 -0.35389 0.18226
0.04242 0.02088 -0.09490
-0.13287 0.05237 0.12464
-0.18226 0.21239 -0.07510
0.18226 -0.35763 -0.17987
-0.16236 0.20162 0.18226
-0.14176 -0.22408 -0.14740
-0.18226 0.05916 -0.02864
-0.13287 0.22511 -0.14368
0.18226 -0.31050 0.17929
-0.01231 0.01105 0.18226
-0.14176 -0.40904 0.14501
0.14176 -0.11433 0.16147
-0.00142 -0.01709 0.13382
-0.05740 0.02088 -0.00271
0.14841 -0.21922 0.18226
-0.14176 -0.16255 0.15117
0.17588 0.02088 -0.13729
-0.18226 -0.08640 0.16198
-0.13287 0.08697 -0.05049
0.16673 -0.06219 -0.18226
0.18226 0.01703 -0.04574
-0.14176 -0.13151 0.17254
-0.14176 -0.16517 0.17657
0.17715 -0.39712 -0.14176
-0.18170 -0.28024 0.14176
-0.00637 -0.01709 -0.05311
0.10974 0.02088 -0.02891
-0.18226 0.35220 -0.12263
-0.07935 -0.01709 -0.13401
-0.13287 0.40121 0.04508
-0.13287 0.12803 0.08820
-0.13287 0.04933 0.12999
0.17816 -0.24393 -0.18226
0.10130 0.02088 -0.01548
-0.13287 0.09184 0.10835
-0.16603 -0.04415 0.18226
-0.16165 -0.05226 -0.14176
-0.13287 0.15236 0.02500
-0.18226 0.01888 -0.16378
-0.04247 0.02088 -0.09599
0.17900 -0.30235 -0.14176
-0.18226 -0.41386 0.14371
-0.14176 -0.04614 0.14394
-0.15913 -0.16864 0.14176
-0.05804 0.02088 0.09292
-0.18226 0.16289 -0.17584
-0.14977 -0.08334 -0.14176
0.15048 -0.01709 -0.00332
-0.18226 0.20472 -0.12518
0.03302 0.02088 -0.14491
0.14176 -0.31940 -0.16915
-0.06903 0.02088 -0.03037
-0.13287 0.13882 -0.06904
-0.13287 0.34721 0.11393
-0.15559 0.41917 0.06495
-0.16208 0.13438 -0.18226
-0.16243 -0.22101 -0.14176
-0.18226 -0.09412 -0.16598
-0.17131 -0.23099 0.14176
-0.14176 -0.18569 -0.14477
-0.18226 0.20712 0.09977
-0.18226 0.33429 0.02935
-0.05057 0.02088 -0.05368
-0.16824 -0.21092 -0.14176
0.17709 -0.40971 0.18226
0.18226 -0.08218 -0.17278
-0.13287 0.02801 0.12655
0.04638 0.02088 -0.04608
-0.18226 0.32908 0.12809
0.16023 -0.37891 0.18226
0.13939 0.02088 0.06421
-0.18226 0.00679 -0.01525
-0.18226 0.34362 0.05668
-0.13287 0.33463 0.16665
-0.16122 0.42838 -0.00084
0.03337 -0.01709 0.17209
-0.13287 0.23950 0.07322
0.14176 -0.23376 -0.14868
-0.13287 0.24170 0.05237
0.17506 -0.31507 0.18226
-0.01752 0.02088 -0.05815
-0.15615 -0.42844 0.18085
-0.13287 0.05283 -0.15242
-0.17057 -0.36741 -0.14176
-0.18226 0.37377 -0.08380
-0.18226 0.14437 -0.01107
-0.18226 0.37244 -0.01276
0.13810 0.02088 0.01267
-0.18226 0.00583 0.06804
0.07722 0.02088 0.02899
-0.18226 0.10583 -0.01056
-0.18226 0.29765 0.04214
-0.13287 0.14614 -0.04750
-0.11442 0.02088 0.06053
-0.18226 0.09005 0.18139
0.02819 0.02088 -0.06533
0.14176 -0.17179 0.14321
-0.18226 0.19419 0.05800
0.18226 -0.16809 -0.15436
-0.07698 0.02088 0.11290
-0.17361 -0.14689 -0.14176
-0.18226 0.32256 -0.02828
0.18226 -0.01121 -0.04132
0.14176 -0.27227 0.17566
-0.13287 0.24175 -0.07522
0.09096 0.02088 0.15518
0.18226 -0.01936 -0.15928
0.16758 0.02088 0.17415
0.08501 -0.01709 0.10886
-0.13287 0.03245 0.11861
0.16466 -0.38129 -0.18226
-0.18226 0.18571 -0.05701
0.04742 -0.01709 -0.17480
0.03215 0.02088 -0.02378
-0.13287 0.24880 0.04571
-0.13287 0.14269 -0.14573
-0.18226 -0.10873 0.15640
-0.13287 0.17646 0.03701
-0.18226 0.06144 -0.06829
-0.18226 0.17126 -0.14654
-0.17753 0.17488 -0.18226
-0.14783 -0.33068 0.18226
-0.18226 -0.11424 -0.14987
0.13520 0.02088 -0.08654
-0.13287 0.30671 0.10271
-0.13287 0.03954 0.17792
-0.18226 0.29873 0.01357
-0.10387 -0.01709 -0.03908
0.18226 -0.06875 -0.17630
-0.16527 -0.01058 0.18226
0.16733 0.02088 -0.11623
0.16081 -0.09837 -0.18226
-0.01523 -0.01709 0.14014
0.14176 -0.11047 0.14858
-0.18117 -0.29529 -0.14176
-0.13036 -0.01709 -0.06505
-0.04669 -0.01709 0.16685
-0.16306 -0.13167 0.14176
-0.13287 0.33482 0.08782
0.17417 -0.14597 0.18226
0.09160 -0.01709 0.16322
-0.03971 0.02088 -0.02050
-0.18226 0.17001 0.09642
0.09454 -0.01709 0.03468
-0.16109 0.20640 0.18226
-0.13287 0.08126 0.13514
0.16812 0.02088 0.07666
-0.18226 0.39470 -0.05710
-0.13287 0.39934 0.09371
0.03098 -0.01709 0.04535
0.15719 -0.17515 -0.18226
0.18226 -0.01509 0.08869
-0.14424 -0.23271 -0.14176
0.18226 -0.34812 0.14645
-0.15899 0.02179 0.18226
0.18226 -0.04070 0.17393
-0.05857 -0.00551 -0.18226
-0.13287 0.17428 0.17849
0.15024 -0.19409 -0.18226
-0.18226 0.38589 0.04751
0.18201 -0.01709 -0.10340
0.09791 -0.01709 -0.12099
-0.15607 0.42112 0.05617
-0.18226 0.29061 0.02546
-0.15738 0.21475 -0.18226
-0.18226 0.33742 -0.08484
-0.17602 -0.02982 -0.18226
0.15670 0.02088 -0.06449
-0.13287 0.29129 -0.08617
-0.05078 -0.01709 -0.15165
-0.16573 0.22117 -0.18226
-0.16917 -0.01709 0.05318
-0.13848 0.35804 -0.16808
-0.18226 0.14443 0.01482
0.00530 0.02088 -0.12909
0.06886 -0.01709 0.04931
0.16108 -0.01709 -0.13876
-0.14176 -0.36781 -0.15671
0.03292 -0.01709 -0.12307
-0.17386 -0.06255 0.18226
-0.18226 -0.23019 -0.15931
-0.14494 -0.08881 -0.14176
-0.14501 -0.01709 0.08084
-0.18226 0.16281 0.09314
0.14322 -0.40738 -0.14176
-0.17856 -0.25142 -0.18226
0.12081 -0.01709 0.15035
0.08122 0.02088 -0.04671
-0.18226 0.30982 -0.17852
0.00273 0.02088 -0.02957
0.18000 -0.42211 0.17726
0.06013 -0.01709 0.14117
0.09227 0.02088 0.03457
-0.14660 -0.10269 -0.14176
-0.13287 0.18757 0.04208
-0.18215 -0.28506 -0.18226
0.09538 -0.01709 0.04507
-0.18226 0.33709 -0.16784
0.17051 -0.01709 -0.02589
-0.18226 0.25061 0.03346
0.14721 -0.22017 -0.18226
0.16870 -0.18247 -0.18226
-0.18226 0.35377 0.05318
0.17943 -0.13940 0.14176
0.18226 -0.00621 0.04976
0.07295 0.02088 0.10373
-0.18226 -0.35391 0.16760
-0.18226 0.38719 -0.12577
-0.13287 0.07190 -0.15658
0.13175 0.02088 0.10046
-0.06682 -0.01709 -0.14164
-0.15749 0.31773 0.18226
0.03111 -0.01709 -0.17545
-0.15547 -0.01709 -0.11852
-0.08916 -0.01220 0.18226
-0.15242 -0.34421 0.14176
-0.03618 -0.00919 -0.18226
-0.18226 0.06356 -0.11498
-0.00076 0.02088 0.07401
-0.16056 0.41703 -0.07197
-0.14396 0.16649 0.18226
-0.13287 0.20426 -0.15399
-0.16922 0.42773 0.00981
-0.16498 0.33451 0.18226
-0.18226 -0.04749 0.16360
-0.13287 0.18927 -0.14754
-0.18226 0.38523 -0.09386
0.14405 -0.38569 0.14176
0.16728 -0.01709 0.12080
-0.13287 0.27779 -0.00102
-0.18226 0.38941 -0.05585
-0.18226 0.22193 0.06769
0.18226 -0.01120 0.10372
-0.06232 -0.01709 0.17242
-0.15691 0.30221 -0.18226
-0.13287 0.08090 -0.00871
-0.14217 0.20953 -0.18226
-0.18226 0.26987 0.05340
-0.14429 -0.01709 0.04685
-0.18226 -0.26186 0.15508
0.04749 -0.01709 0.16319
0.14176 -0.14279 0.16398
-0.13287 0.25864 0.12385
0.14900 0.00960 -0.18226
-0.13287 0.28676 0.16870
-0.18226 0.06996 0.07223
0.07751 0.02088 -0.12622
-0.13287 0.20551 -0.12027
-0.18226 0.17472 -0.12015
0.18124 0.02088 -0.17471
0.14176 -0.40827 0.16772
0.09464 -0.01709 -0.02560
0.14176 -0.30517 0.14777
0.08844 0.02088 -0.11333
0.18226 -0.39506 -0.16525
-0.16083 0.40720 0.09778
-0.10041 -0.01709 0.06424
0.18226 0.00051 -0.13021
-0.14176 -0.38023 -0.15592
-0.13287 0.15008 -0.07574
0.18226 -0.00107 -0.08025
-0.06274 -0.01709 0.05663
0.07214 -0.01709 -0.17498
0.18226 0.00835 -0.14271
0.18226 -0.40855 -0.15603
-0.13287 0.31853 -0.00854
-0.16737 -0.20988 0.14176
-0.18226 0.34178 -0.11940
-0.13287 0.25115 -0.11497
-0.18226 0.04503 0.01271
-0.18226 0.15095 0.01707
-0.05564 -0.01709 -0.00030
0.14176 -0.06290 -0.17793
-0.18226 -0.14835 0.15905
-0.14176 -0.10316 -0.14363
0.02772 0.02088 -0.14691
-0.15211 0.42133 -0.05525
0.18226 -0.00789 0.13763
-0.18226 0.05596 -0.03366
0.00179 0.02088 -0.10670
-0.17269 -0.16809 0.14176
-0.02215 -0.01709 0.15197
0.15426 0.02088 -0.08356
-0.09810 -0.00661 0.18226
-0.13037 0.02088 0.01369
0.05210 -0.01709 -0.05153
0.14176 -0.20881 -0.14793
-0.14176 -0.09698 0.15142
-0.16004 0.21569 0.18226
-0.17411 -0.38434 -0.18226
0.18226 -0.15110 -0.15605
-0.13287 0.34014 -0.05007
-0.13287 0.18440 0.02110
0.18226 0.01311 -0.14183
-0.13197 0.02088 -0.09916
-0.13287 0.08120 0.14833
0.16639 -0.31844 -0.18226
-0.13287 0.30087 -0.14886
-0.07484 -0.01261 -0.18226
-0.18226 0.15163 0.08359
-0.13287 0.11563 -0.12942
-0.14479 -0.30484 0.18226
-0.18226 0.28921 0.17837
-0.17234 -0.01709 0.08645
-0.10133 0.02088 -0.17782
-0.15723 -0.01709 -0.06051
-0.17043 0.18870 -0.18226
0.18226 0.00493 0.02181
0.14176 -0.07827 -0.15911
-0.12484 -0.01709 -0.01018
-0.14176 -0.28029 0.14684
-0.14176 -0.04837 -0.14941
0.18226 -0.05283 -0.14239
0.11405 0.00180 -0.18226
-0.18226 -0.41981 -0.14535
-0.01085 0.02088 -0.03500
-0.13287 0.12637 -0.00592
-0.16548 -0.12384 -0.14176
-0.18226 0.26142 -0.09291
-0.12869 -0.01709 -0.14723
-0.18226 0.36239 -0.15373
-0.09842 -0.01158 -0.18226
0.18226 -0.14461 0.14360
-0.03872 0.02088 0.09393
-0.16580 -0.20416 -0.14176
-0.18198 -0.24432 0.18226
0.18226 -0.16136 0.15100
0.16824 0.02088 0.09753
-0.13287 0.09136 -0.07204
-0.02734 0.02088 0.09527
-0.18226 0.23220 -0.12681
-0.13287 0.09736 0.04720
0.07213 0.02088 -0.16201
0.01033 -0.01709 0.04435
-0.10136 0.02088 0.09087
-0.18226 0.04099 0.03067
-0.18226 0.34473 0.07641
-0.13287 0.22035 -0.05987
-0.14176 -0.17672 -0.14929
0.16038 -0.25581 0.18226
-0.17070 0.34414 -0.18159
-0.15164 0.13285 -0.18226
-0.13287 0.28218 0.02792
-0.12051 -0.01709 0.14650
0.09248 -0.01709 -0.06884
0.15671 -0.24885 -0.14176
-0.17471 -0.07111 -0.14176
-0.05858 -0.01709 0.06344
-0.05589 0.02088 -0.10737
-0.08103 -0.01709 -0.12639
0.13769 -0.01709 0.16026
-0.15419 0.09014 -0.18226
-0.18226 0.10216 0.14879
0.03410 -0.01709 -0.05351
-0.13287 0.16326 0.10242
-0.13287 0.14901 -0.15757
-0.17120 -0.36586 -0.18226
0.12185 -0.01709 -0.06904
0.14176 -0.24887 -0.18135
-0.02909 -0.01709 -0.09005
-0.13287 0.18554 0.06812
-0.15525 -0.06214 -0.18226
0.18226 0.00259 0.03971
0.03441 0.02088 0.13959
0.14814 -0.01709 -0.13040
-0.14176 -0.22481 0.16177
-0.13287 0.38144 0.13235
0.05203 -0.01709 0.07212
-0.13287 0.17658 0.08969
0.14768 -0.33769 0.14176
-0.17076 0.14041 0.18226
0.17600 -0.22929 0.14176
0.15219 -0.25572 0.18226
-0.18226 0.24279 0.03197
-0.14176 -0.23902 -0.16293
-0.18226 0.06250 -0.04985
0.18226 -0.06322 0.14273
-0.04380 -0.01709 -0.01497
-0.13287 0.05855 -0.05301
-0.09165 0.02088 -0.16467
-0.17014 -0.07198 0.14176
0.18226 -0.19095 0.17928
0.09551 -0.01709 -0.00530
0.18226 -0.40472 0.14376
-0.13287 0.15374 0.10798
0.10896 0.02088 0.11134
-0.18226 0.13593 -0.18006
-0.13287 0.04426 -0.11520
-0.05229 0.02088 -0.09390
0.18147 -0.15491 -0.18226
0.10530 -0.01709 0.03880
-0.16859 -0.28783 0.14176
-0.18226 -0.36841 -0.17564
-0.18226 -0.01571 -0.03311
-0.18226 0.25653 0.14705
-0.06779 0.02088 0.14926
0.18226 0.01766 0.09638
0.14176 -0.23687 0.17057
-0.13287 0.23552 0.05174
-0.18226 0.21633 0.16059
0.10845 -0.01709 -0.03136
0.14176 -0.31216 0.17255
-0.17112 -0.20412 0.18226
-0.10144 -0.01709 -0.05767
-0.00135 -0.01709 0.11269
0.17045 -0.39225 0.18226
-0.04018 0.02088 0.10656
-0.14176 -0.05514 -0.15359
-0.18185 0.16161 0.18226
0.14415 -0.21303 -0.14176
-0.18161 -0.09357 0.18226
0.14176 -0.12127 -0.15296
-0.18226 0.19556 0.09037
-0.18226 0.13317 0.05843
-0.14594 0.39369 -0.12287
0.14176 -0.04495 0.17208
-0.13287 0.24195 0.04191
0.06291 -0.01709 0.17592
-0.15938 -0.08763 -0.14176
-0.18226 0.24874 -0.14590
-0.18226 0.39585 -0.02722
0.18226 -0.17373 -0.15713
-0.04858 -0.01709 -0.13113
-0.04876 -0.01709 0.17351
-0.16488 -0.38103 0.14176
0.18226 0.00223 0.12666
-0.14176 -0.09836 0.16408
-0.17992 -0.19434 -0.14176
-0.14176 -0.10723 0.14570
-0.13287 0.34830 -0.11261
0.14176 -0.36367 -0.15244
-0.17667 -0.00917 0.18226
0.17084 -0.24602 -0.18226
-0.13287 0.09501 -0.14377
-0.11940 0.02088 0.11120
-0.18226 0.21867 0.17906
-0.17668 -0.01709 -0.08571
-0.18226 0.08725 0.10789
-0.08988 0.02088 0.17673
-0.18226 -0.11860 -0.16569
-0.15632 0.18110 0.18226
-0.18226 -0.15334 0.17880
-0.11633 0.02088 -0.18207
0.17684 -0.38240 0.14176
0.15113 -0.39604 0.18226
-0.16951 0.06141 -0.18226
-0.18226 0.27267 -0.13882
-0.14176 -0.37156 0.15117
0.16952 -0.35215 0.14176
-0.03093 -0.01709 -0.07938
-0.14176 -0.11877 -0.14307
0.14176 -0.10719 -0.16138
-0.13287 0.37240 0.08395
0.18226 -0.25574 -0.15685
-0.13287 0.06556 0.00842
0.05069 -0.00391 0.18226
-0.18226 0.33564 0.06508
0.13267 -0.01709 -0.09741
-0.14806 -0.19570 0.14176
-0.18226 -0.39981 -0.17763
-0.18226 0.07670 -0.04482
0.18226 -0.08101 0.15054
-0.13287 0.42689 -0.01830
0.00637 -0.01709 0.08034
-0.13287 0.16599 -0.04014
-0.14176 -0.12562 -0.15746
-0.18226 -0.29098 0.15487
-0.18226 0.28562 0.00631
-0.12601 -0.01709 -0.09614
0.04677 0.02019 -0.18226
-0.18226 0.33522 -0.05158
-0.13287 0.21008 -0.18150
-0.18226 0.06039 0.13189
-0.04449 0.02000 0.18226
0.17538 -0.28042 -0.14176
-0.07715 -0.01709 0.03381
0.14176 -0.03120 0.17788
-0.18226 0.08586 -0.01611
-0.13287 0.16181 -0.01498
-0.05633 0.00817 0.18226
-0.13287 0.17461 -0.08605
0.14720 -0.42211 -0.18147
-0.18226 0.33254 0.13212
-0.18226 0.27469 -0.15450
0.09900 0.02088 0.07075
-0.13287 0.37855 0.00997
-0.18181 -0.23045 0.14176
0.15400 -0.29199 -0.18226
0.16889 0.02088 -0.15455
-0.15889 -0.32633 -0.18226
0.14842 -0.42211 -0.16795
-0.17353 0.19899 -0.18226
-0.13287 0.09674 -0.08518
-0.15081 -0.38459 0.18226
-0.18226 0.04514 0.14065
0.17099 -0.14060 -0.14176
-0.15212 -0.11817 -0.14176
0.17875 -0.12470 0.14176
-0.14176 -0.06883 0.14503
0.18226 -0.05337 0.14698
-0.13287 0.38405 0.10626
-0.18226 0.12159 0.03905
0.18031 0.02088 -0.05847
-0.16624 -0.01709 0.11891
-0.17069 -0.42241 0.14176
-0.03309 0.02088 0.03941
-0.13287 0.18103 0.16090
0.01658 -0.01709 0.07783
0.02159 0.02088 0.01080
-0.17275 0.40512 -0.10239
-0.18226 0.15607 0.04632
-0.18226 -0.28248 -0.15615
-0.18226 -0.13207 0.15304
-0.06737 0.02088 -0.17495
-0.14581 -0.31623 0.14176
-0.08328 0.02088 0.05935
-0.18061 -0.38352 -0.18226
-0.13287 0.38056 -0.10500
0.14858 -0.01709 -0.06649
-0.18226 0.15598 -0.06450
0.12873 0.02088 -0.14362
-0.15203 -0.31480 0.14176
-0.18226 0.21541 -0.03412
-0.17249 -0.25579 -0.14176
-0.13287 0.29445 0.06117
-0.13287 0.25396 0.02467
-0.13287 0.17153 -0.16868
-0.18226 0.31494 -0.11163
-0.18226 0.29784 -0.00079
0.14700 -0.02861 0.14176
-0.18226 0.12363 -0.16096
-0.14270 0.41597 -0.07475
-0.18226 0.01374 0.16320
-0.13287 0.21206 -0.12966
-0.18226 0.41519 -0.04339
0.15029 -0.39023 -0.14176
0.11354 0.02088 0.17825
-0.18226 0.20792 0.15459
-0.01880 -0.01709 0.04973
-0.15840 -0.03724 0.18226
-0.13287 0.11372 -0.05299
0.14176 -0.29373 0.14919
-0.13287 0.12695 0.02956
-0.13287 0.37198 0.00575
-0.07419 0.02088 0.08434
0.15853 -0.01709 -0.01352
-0.14802 -0.16329 0.18226
-0.18226 0.18368 -0.13454
0.11178 0.02088 -0.13691
-0.18226 0.08226 0.01384
-0.18226 0.12711 0.08374
0.14313 -0.04496 0.14176
0.05703 -0.01709 -0.06429
0.16297 -0.06610 -0.18226
-0.13287 0.26867 -0.12532
-0.09023 0.02088 -0.10034
-0.11645 0.02088 0.05537
0.15865 -0.09825 0.14176
0.01477 -0.01709 -0.16817
0.15705 -0.30935 0.14176
-0.18226 0.16952 -0.02865
0.14176 -0.19864 0.17947
-0.13287 0.15407 0.05946
0.15483 -0.41474 0.14176
-0.05976 -0.01709 0.09072
0.15096 -0.26573 0.14176
-0.13287 0.04986 0.10701
-0.18226 0.26606 -0.17636
0.09213 0.00694 -0.18226
0.16284 -0.02275 -0.18226
-0.13287 0.29406 -0.04478
-0.18226 0.23619 0.16565
-0.13287 0.07619 0.07306
-0.18226 0.22472 -0.02168
-0.18180 -0.42844 0.17708
0.14904 -0.39439 -0.18226
0.18182 -0.38457 -0.14176
-0.18226 0.15430 -0.14780
0.02146 0.02058 -0.18226
-0.18226 0.33488 0.13995
-0.16276 -0.25027 -0.18226
-0.18226 0.02057 -0.06370
-0.10016 0.01167 -0.18226
0.14176 -0.39993 -0.16826
-0.14727 -0.23683 -0.18226
-0.18226 0.35745 -0.06306
-0.18226 0.04847 0.08656
-0.12078 0.01403 0.18226
0.12776 -0.01709 -0.01845
0.04975 0.02088 -0.00818
-0.16110 0.33971 0.18226
-0.18226 0.08575 0.15365
0.18226 -0.31976 0.16923
-0.18114 -0.11110 -0.18226
-0.10354 -0.01709 -0.15517
0.00761 -0.01709 0.08757
0.13660 -0.01709 -0.13428
0.14198 -0.02324 0.14176
-0.13351 0.17424 -0.18226
0.14294 0.02088 -0.17726
-0.18226 0.36852 0.04395
-0.13047 0.02088 0.04057
0.04069 0.02088 -0.17588
-0.09459 0.02088 -0.10610
-0.18226 0.30418 0.01932
-0.15114 0.42681 0.02238
-0.18226 0.13336 0.06725
-0.13287 0.08546 0.17355
-0.18226 0.27384 -0.12358
-0.18226 0.19994 0.04010
-0.14176 -0.26061 0.17289
0.08045 0.02088 0.08468
-0.08649 -0.01709 -0.02723
0.17904 -0.42181 0.14176
0.18226 -0.23486 0.15509
-0.18131 0.22981 0.18226
-0.18226 0.22696 0.04958
0.04413 0.02088 -0.02854
-0.11860 -0.01709 0.11421
-0.06069 -0.01709 0.04446
-0.13287 0.13100 -0.15477
-0.13287 0.07679 -0.12393
-0.11505 0.02088 -0.17101
-0.18226 0.10307 -0.16925
0.08112 0.02088 -0.06626
-0.18226 0.08356 -0.13610
-0.18226 0.09774 -0.16762
0.18226 -0.42188 -0.17808
0.18226 -0.01347 0.13954
-0.02584 -0.01709 -0.11959
-0.17792 -0.01668 -0.18226
0.14942 -0.05217 -0.18226
-0.08697 -0.01709 0.15304
-0.14028 0.41751 0.07071
-0.12417 0.02088 -0.04377
-0.14661 0.01551 -0.18226
-0.18226 0.19438 -0.06165
0.07298 0.02088 -0.14405
-0.01933 0.02088 -0.10920
-0.08336 -0.01709 0.02464
-0.18226 0.35845 0.16265
-0.13287 0.38537 0.11666
-0.18226 0.28716 0.09529
-0.14176 -0.15766 -0.17694
-0.17359 0.36626 -0.16010
-0.13911 0.12028 -0.18226
-0.14538 -0.01709 -0.00787
-0.16559 0.04379 -0.18226
-0.16542 -0.36214 -0.18226
0.06677 0.02088 -0.01879
0.18226 -0.00200 -0.01510
-0.06750 0.02088 -0.12224
-0.18226 0.37988 0.03457
-0.14176 -0.07982 0.18176
0.14262 -0.42211 0.16822
-0.13287 0.14865 -0.01700
0.15736 -0.23242 0.18226
0.06251 -0.01709 -0.09094
0.16570 -0.32922 -0.18226
-0.14176 -0.23656 0.15475
-0.18226 0.27355 0.02418
0.15488 -0.38913 0.14176
0.18226 -0.37930 -0.15209
0.07395 0.02088 -0.06868
-0.13287 0.40993 -0.04191
-0.17081 0.21890 0.18226
-0.18226 0.27170 0.15634
0.16519 -0.01709 -0.01251
0.18226 -0.28792 0.15869
-0.18226 0.11272 -0.15836
-0.16462 -0.01709 -0.07444
-0.16669 0.21195 -0.18226
-0.04848 0.02088 0.08722
0.18226 -0.20046 0.16810
-0.18226 0.29758 0.02491
-0.00432 0.02088 0.08762
-0.02868 0.00141 0.18226
0.12343 0.02088 0.13311
-0.10359 -0.00954 0.18226
-0.13287 0.42002 -0.03414
-0.17109 -0.16398 0.18226
-0.15935 -0.27047 -0.18226
0.14176 -0.34314 -0.15425
-0.13287 0.20081 0.10406
-0.18115 -0.01709 -0.02362
-0.13287 0.33223 -0.02177
-0.16613 0.42535 -0.03709
-0.04981 0.02088 -0.08348
-0.13287 0.36172 0.16021
-0.18226 -0.24061 -0.15265
0.04188 -0.01709 -0.05783
-0.13287 0.35596 0.02252
-0.18226 -0.10598 0.16344
-0.04597 0.02088 -0.01448
0.16592 -0.41801 -0.14176
-0.18226 0.05946 -0.13103
-0.16784 0.33038 0.18226
-0.18226 -0.19618 0.18042
-0.14176 -0.40738 0.18198
0.18226 0.01068 0.03802
-0.00648 0.02088 -0.09091
-0.13071 -0.01709 -0.16022
-0.13287 0.08188 0.04348
-0.02371 -0.01709 0.12001
-0.13287 0.37921 0.07014
-0.14105 0.41572 0.07539
-0.16951 -0.42844 0.18136
0.11425 -0.01709 0.09674
0.06724 -0.00020 0.18226
-0.14385 -0.01709 0.03744
0.14426 -0.14866 -0.18226
-0.18226 0.16256 0.16860
-0.13287 0.39548 -0.02630
-0.01239 -0.01709 -0.00142
0.17111 -0.36803 -0.18226
-0.18226 -0.08735 0.14180
-0.18226 -0.15255 -0.16670
-0.13287 0.29659 -0.10385
-0.13287 0.14977 0.04443
0.05245 -0.01709 -0.03695
-0.14242 0.06046 0.18226
-0.18223 -0.01709 -0.01692
-0.13287 0.17525 -0.03594
0.18226 -0.11366 -0.17839
-0.05587 -0.01709 -0.01081
0.07885 -0.01709 -0.10027
0.01843 0.02088 -0.13237
-0.13287 0.16367 0.05436
-0.17749 -0.35488 -0.18226
-0.18226 0.23242 -0.10531
0.17690 -0.21404 0.14176
0.03526 -0.01709 0.00987
0.10742 -0.01709 -0.09004
-0.17589 -0.01709 0.09462
-0.00261 0.02088 -0.01696
-0.14455 0.15980 -0.18226
0.00667 0.02088 -0.00252
-0.18226 0.23556 0.05661
0.18226 -0.24744 0.15367
-0.18226 0.08932 0.11896
-0.18226 0.31899 0.06067
0.17804 -0.20808 -0.18226
-0.07353 -0.01709 -0.15140
-0.13287 0.05869 -0.09583
0.14176 -0.27225 -0.14442
0.07606 -0.01709 -0.06855
0.18226 -0.16203 -0.15873
0.14176 -0.13720 0.17337
0.17779 -0.13364 -0.14176
0.18017 0.02088 0.02922
-0.13287 0.17461 -0.10294
-0.18226 0.12049 -0.11957
0.17550 -0.01709 0.13635
-0.13287 0.24753 -0.04663
-0.18226 0.25715 -0.14558
-0.13902 0.40174 0.10845
-0.13287 0.29014 -0.13501
0.14496 -0.03394 0.14176
-0.03489 -0.01580 0.18226
0.18226 -0.39682 0.17037
-0.14338 -0.02478 0.18226
-0.18226 -0.30521 -0.16542
-0.13287 0.15144 -0.13179
0.04291 -0.01709 0.01064
0.18226 -0.31858 -0.17628
-0.13287 0.39810 0.07286
0.17671 -0.35298 -0.18226
-0.16968 -0.15804 -0.18226
-0.16372 -0.14999 -0.14176
-0.13287 0.40070 0.11017
-0.18226 0.02958 -0.09809
-0.18226 0.16675 -0.10165
-0.15522 0.09834 0.18226
-0.14176 -0.20781 0.15328
0.15324 -0.11699 0.14176
-0.17737 0.41401 0.07990
0.17229 -0.17801 0.14176
-0.18226 -0.01412 0.10490
-0.03128 0.02088 0.15003
-0.18226 -0.38142 -0.15757
-0.13287 0.14166 -0.10061
0.08337 0.00140 -0.18226
0.04984 0.02088 -0.14543
0.12131 -0.01709 0.07369
0.16237 -0.28097 0.18226
-0.18226 0.21516 -0.18026
-0.18226 0.35761 -0.13157
-0.18226 0.37727 0.14352
-0.14002 0.25502 -0.18226
-0.18226 0.22427 0.13351
-0.14176 -0.09872 -0.16139
-0.13287 0.04757 -0.10995
-0.13287 0.03827 0.06508
-0.16001 -0.01709 -0.02004
-0.00260 -0.00952 -0.18226
-0.16764 0.00318 -0.18226
0.18226 0.01132 0.01618
-0.16859 -0.01709 0.03689
-0.17845 0.33386 0.18226
-0.13287 0.29931 0.17555
-0.13287 0.37077 -0.01188
-0.18226 -0.01309 -0.00441
-0.16989 -0.12327 0.18226
0.17622 0.02088 0.03933
-0.02181 -0.01709 -0.00688
-0.13287 0.36242 0.03914
-0.14328 -0.04604 0.18226
-0.14370 -0.23277 0.18226
-0.03317 -0.01709 0.03792
-0.00326 -0.01709 0.05568
0.04615 0.02088 0.14587
-0.13287 0.21141 0.05484
-0.17489 -0.23394 -0.18226
-0.13287 0.25283 -0.03546
-0.15181 -0.02815 0.14176
-0.13822 0.12516 0.18226
-0.10013 0.02088 0.06952
0.18226 -0.00254 -0.06783
-0.17514 -0.19310 -0.18226
-0.06408 0.02088 -0.10864
-0.16003 -0.29298 0.18226
-0.16944 -0.11761 -0.14176
-0.18226 0.26941 0.07145
0.14176 -0.25326 -0.15226
-0.14176 -0.06599 0.18027
-0.13287 0.06012 -0.11879
-0.18226 0.14511 0.11309
0.18226 -0.04459 0.15851
-0.16376 -0.03264 0.18226
-0.13287 0.30846 0.05531
0.01262 -0.01709 0.14766
-0.18226 0.11416 -0.16604
-0.18226 0.21290 0.08893
0.15007 -0.01709 0.03091
-0.18226 0.01711 0.06331
0.01986 0.02088 0.10013
-0.18226 0.29780 -0.11789
0.16024 -0.01709 -0.10206
0.07067 -0.01709 0.00822
0.14431 -0.08532 0.18226
0.04513 -0.01709 -0.10173
-0.08015 -0.01709 0.13958
-0.15823 -0.37165 -0.14176
-0.18226 0.03245 -0.15068
-0.15765 -0.32294 -0.14176
0.15396 -0.24015 0.14176
-0.18226 0.02321 -0.13195
-0.01899 -0.01709 -0.12849
-0.18226 0.18631 -0.02208
0.14176 -0.35152 -0.16047
-0.18226 -0.27707 0.14783
-0.15448 -0.02401 -0.18226
-0.14480 -0.38179 -0.14176
0.16681 -0.20292 -0.18226
-0.13287 0.24130 0.10905
-0.05035 -0.01709 0.11717
0.07795 0.02088 -0.11830
-0.18226 0.18062 -0.09017
-0.15957 -0.38819 0.14176
-0.04589 0.02088 0.01782
0.17914 -0.41609 -0.14176
-0.01079 -0.01709 -0.16935
-0.14176 -0.32666 0.17015
-0.13287 0.22119 -0.07817
-0.18226 -0.22768 0.15873
-0.14176 -0.06713 0.17477
0.07343 0.02088 -0.03167
0.01231 -0.01709 0.16372
-0.18226 0.11985 -0.15405
-0.14882 0.30325 -0.18226
-0.11683 0.02088 0.16835
-0.13287 0.29539 -0.14743
-0.18226 0.17499 -0.10403
0.17405 -0.22208 -0.14176
-0.13287 0.37733 0.12370
0.14176 -0.08058 -0.17692
0.03856 0.02088 -0.04588
0.17064 -0.24872 -0.14176
-0.18226 0.08178 -0.14148
0.17685 -0.38483 -0.18226
-0.13287 0.24459 -0.17751
0.11252 -0.01709 -0.11323
-0.04147 -0.01709 0.01384
-0.18007 0.09883 -0.18226
-0.18226 0.07548 -0.10614
0.18226 -0.21368 -0.14341
-0.14562 -0.19970 0.14176
-0.17999 -0.01709 -0.04667
-0.12732 0.01697 -0.18226
0.15328 0.02088 -0.02028
-0.02957 -0.01709 0.06027
-0.18226 0.16042 0.00265
0.00735 0.02088 -0.01614
-0.18226 0.22189 0.02449
-0.10126 0.02088 -0.04889
0.13403 -0.01709 -0.12844
-0.18226 0.12440 0.00662
0.18226 -0.36452 0.17917
-0.18226 -0.01294 -0.13387
0.06481 -0.01709 -0.08588
-0.16847 0.40726 0.09763
-0.18226 0.11177 -0.05898
-0.13287 0.11534 -0.01852
-0.10207 -0.01709 0.12563
0.18226 -0.22301 -0.14352
-0.17717 0.32319 -0.18226
-0.18226 0.27646 0.16590
-0.14176 -0.07889 -0.16433
-0.12339 -0.01709 -0.14502
-0.05109 0.02088 0.02019
-0.14692 -0.41157 -0.14176
0.15778 -0.20682 -0.14176
-0.18226 0.17899 0.16930
-0.18226 0.32375 -0.16834
0.14673 -0.16605 0.18226
-0.05153 -0.01709 0.01250
0.14176 -0.07718 -0.14668
-0.18226 0.33812 0.01898
-0.18226 0.16356 0.11827
-0.13287 0.19806 -0.09890
0.17238 -0.01709 -0.11643
0.13995 0.02088 0.04032
0.04053 0.02088 0.02972
-0.12335 0.02088 -0.09986
-0.18226 0.11931 0.07284
-0.17844 0.17823 0.18226
-0.15308 -0.33579 0.18226
-0.13287 0.09087 0.17661
0.18226 -0.27704 -0.18090
0.05054 -0.01709 -0.08538
-0.18226 0.12089 -0.07889
-0.13287 0.10023 -0.10836
0.03433 -0.01709 -0.16966
-0.18226 0.12689 0.16659
0.16340 -0.01709 -0.13472
0.14176 -0.10700 0.16108
0.00750 -0.01024 0.18226
0.00859 0.02088 0.15282
0.16367 -0.31345 -0.18226
0.16758 -0.35934 -0.14176
-0.09408 0.02088 -0.15028
-0.18226 0.19188 0.07153
0.15602 -0.09563 -0.14176
-0.11371 0.02088 -0.05683
-0.15642 -0.13847 0.14176
0.14176 -0.09121 0.14435
-0.17059 -0.01709 -0.12728
-0.10064 -0.01709 0.05659
-0.18226 0.21610 0.00140
-0.18226 0.38140 -0.02070
-0.18226 -0.16082 0.15235
0.05681 0.01547 -0.18226
0.16284 -0.14533 0.14176
0.14176 -0.28552 -0.16199
0.14176 -0.08665 -0.15950
-0.13287 0.09697 -0.01305
-0.13287 0.24614 0.02307
0.16429 -0.37089 -0.14176
-0.13287 0.38745 -0.09770
0.09146 0.02088 0.01500
0.18226 -0.02860 0.15067
-0.18226 0.23688 -0.17908
-0.13287 0.03776 0.00942
0.03033 0.02088 -0.01251
0.07069 -0.01709 0.15599
-0.18226 0.24679 -0.16215
-0.18226 0.21712 -0.10693
-0.13287 0.37039 -0.14854
-0.14176 -0.40657 0.15298
-0.17906 0.39058 -0.12845
-0.07029 -0.01709 0.09905
-0.18226 0.01871 -0.09157
-0.17518 -0.03963 0.14176
-0.18226 0.39925 -0.08318
-0.18226 0.22305 -0.11115
-0.13287 0.05157 0.15898
0.03619 -0.01709 0.06290
-0.13287 0.40870 -0.01685
-0.14031 -0.01709 -0.12286
-0.07192 0.02088 0.09345
-0.14176 -0.31042 0.15276
-0.18226 0.03434 0.05103
-0.13287 0.30350 -0.13995
-0.16125 -0.01709 0.08117
0.11033 -0.01709 -0.17452
0.15266 -0.33874 0.14176
-0.18226 0.31746 -0.17737
-0.15875 -0.36048 0.14176
-0.17487 -0.07449 0.18226
0.08469 0.02088 -0.11708
-0.17478 -0.02478 -0.14176
0.04794 -0.01709 0.18116
-0.18226 0.27839 0.15278
0.05077 0.02088 -0.17835
-0.18226 -0.35225 0.14917
-0.13767 0.26652 -0.18226
-0.16891 0.42515 0.03799
-0.18226 0.17922 0.12049
-0.15147 0.36402 0.16228
-0.17175 -0.02241 0.14176
-0.18226 0.15883 0.01838
-0.13287 0.20684 0.11109
0.07924 0.02088 -0.17331
0.11284 0.02088 -0.01607
-0.15755 -0.14358 -0.18226
-0.13287 0.41189 0.08016
0.14176 -0.11361 0.15651
0.14987 -0.35893 -0.14176
-0.14833 -0.01709 -0.00070
0.01108 -0.01709 -0.16358
-0.13287 0.04343 0.02420
0.14186 -0.28414 0.14176
-0.14176 -0.21033 0.17686
-0.17147 0.40228 0.10748
-0.14176 -0.18408 0.14481
-0.13287 0.33232 0.07911
-0.13287 0.13013 -0.06081
-0.06730 0.02088 -0.00521
-0.13287 0.23111 -0.11735
0.11402 -0.01709 -0.13234
-0.18226 0.20269 -0.14605
-0.13287 0.05660 -0.10172
-0.01895 -0.01709 0.16574
-0.03976 0.02088 -0.06379
-0.14176 -0.34485 0.16879
0.15502 -0.37551 0.18226
0.17189 -0.08188 0.18226
0.07925 0.02088 -0.08525
0.04571 -0.01709 0.07411
0.16414 -0.34831 0.18226
-0.15222 0.18750 0.18226
-0.13287 0.31922 -0.07461
0.14176 -0.06054 0.15342
0.14176 -0.11067 0.17616
-0.11925 -0.01709 -0.06435
-0.18226 0.01473 -0.07310
-0.13233 0.02088 0.07492
-0.18226 0.15857 0.09764
-0.18226 0.30560 -0.01126
-0.16226 0.17419 -0.18226
0.18226 0.00595 0.13337
-0.17564 -0.32786 0.14176
0.18226 -0.16397 0.17972
0.10643 -0.01709 0.05499
-0.18226 0.19514 0.13164
-0.18226 0.17175 0.02110
0.14176 -0.16293 -0.15337
-0.04082 -0.00644 0.18226
0.08545 -0.01709 0.07710
-0.09828 -0.01709 0.14303
0.17482 -0.13311 0.18226
0.18226 -0.17022 0.16326
-0.14176 -0.04639 -0.18014
-0.18226 0.13367 -0.07327
0.15221 -0.42211 -0.14361
-0.16431 0.06060 -0.18226
0.06539 0.02088 -0.14501
-0.13287 0.18005 0.09511
-0.15729 -0.01709 0.09534
-0.18021 -0.14875 0.18226
-0.13287 0.17321 -0.11716
-0.13287 0.21584 0.14927
0.05062 -0.01709 0.01032
0.09916 -0.01709 -0.07292
0.14176 -0.21960 -0.15000
-0.18226 -0.11174 -0.17266
-0.06652 0.02088 0.07105
-0.17113 -0.03579 0.18226
-0.12104 0.02088 -0.08147
-0.13287 0.12539 0.01014
-0.17699 -0.39924 -0.18226
-0.18226 -0.33197 0.17902
-0.18226 -0.04423 -0.17808
-0.13287 0.05425 -0.05639
-0.18226 0.35921 -0.13812
-0.18226 -0.04432 0.17912
-0.17675 -0.01709 -0.07217
-0.13287 0.21648 -0.09351
-0.02799 0.02088 0.06498
0.13363 -0.01709 0.04456
-0.13287 0.16202 -0.01991
-0.13287 0.28320 -0.05131
-0.18226 0.15981 -0.08993
-0.13287 0.23362 0.11464
-0.13710 0.18738 -0.18226
-0.13287 0.22954 -0.15794
-0.15893 -0.01709 0.10362
-0.18016 -0.02929 0.18226
0.15667 -0.31750 0.14176
-0.09277 -0.01709 0.17681
-0.14176 -0.29584 -0.18072
-0.13287 0.35481 -0.03227
-0.18226 0.04296 0.16573
-0.14732 0.07329 -0.18226
-0.13287 0.33724 0.04392
-0.14622 -0.26010 0.14176
0.12960 -0.01709 -0.05297
-0.14681 -0.11451 0.18226
-0.15923 0.09947 -0.18226
0.18226 -0.15846 0.17217
0.15993 -0.03346 0.14176
0.15403 -0.42211 0.16278
0.03002 0.00474 -0.18226
0.15329 -0.38350 -0.18226
0.14510 -0.14916 0.14176
-0.13287 0.15248 0.01682
-0.18226 0.39870 0.10621
0.14176 -0.11628 -0.16420
0.16530 -0.18604 -0.14176
-0.18226 0.08612 -0.09484
-0.13287 0.27302 -0.09785
-0.14176 -0.08891 -0.16195
0.01736 -0.01709 0.10795
-0.04439 0.02088 0.04472
0.14176 -0.39912 0.15146
-0.13287 0.08743 0.07247
-0.18226 0.17565 -0.06726
0.14176 -0.37390 0.14691
0.14176 -0.18684 -0.16977
0.16943 -0.27512 -0.18226
-0.13287 0.07809 0.15322
-0.13287 0.26405 -0.11003
-0.11355 0.02088 0.15581
-0.13278 0.02088 0.13422
-0.13287 0.09740 -0.00312
-0.18226 0.37128 0.06456
-0.14176 -0.15819 -0.15532
-0.13287 0.29315 0.05106
-0.15865 -0.01709 0.12208
-0.02531 0.02088 0.17792
-0.18226 -0.09164 -0.14680
-0.00124 -0.00173 -0.18226
-0.16759 -0.33795 0.14176
-0.16972 -0.11749 0.14176
-0.18226 0.03891 0.03521
-0.18226 0.27900 -0.00860
0.16890 -0.25751 -0.18226
-0.18226 -0.12706 -0.17711
0.13842 -0.01709 -0.08761
-0.13287 0.08808 0.12854
0.17862 -0.19112 -0.14176
-0.12588 0.02088 -0.15246
0.14176 -0.29740 0.17672
-0.14176 -0.03762 -0.16528
-0.06726 0.02088 -0.18084
-0.11089 0.02088 0.00491
0.14364 -0.01709 -0.05537
-0.03879 -0.01709 0.09404
0.08955 -0.01709 -0.14984
-0.12598 -0.01709 -0.05795
-0.14498 -0.02017 0.18226
-0.18226 0.15259 -0.13678
-0.13287 0.30963 -0.15846
0.12600 0.02088 -0.11244
-0.01598 -0.01709 0.11948
0.14379 -0.41492 -0.14176
-0.18226 -0.34576 0.14459
0.15732 -0.38290 0.18226
-0.18226 0.12270 0.12814
0.18226 -0.41388 -0.15955
-0.18226 0.33317 -0.11850
-0.13287 0.03311 -0.04791
0.08663 -0.01709 -0.09802
-0.18226 0.23902 0.02372
0.18226 -0.09551 -0.15387
0.18226 -0.20084 -0.17028
0.13286 0.02088 -0.03890
0.08935 -0.01709 -0.10927
-0.13287 0.25189 0.14321
-0.13287 0.30074 0.13192
-0.13287 0.39553 -0.03668
-0.18226 0.16640 -0.06445
-0.09817 -0.01709 -0.15710
0.16263 -0.17902 -0.14176
-0.13287 0.07697 0.09609
-0.05394 -0.01709 0.14478
-0.14481 -0.07742 0.14176
-0.17012 0.31661 0.18226
0.14176 -0.14201 0.17537
-0.01352 0.02088 0.05756
-0.18226 0.20683 0.02523
0.18226 0.01161 0.12403
-0.00186 -0.01709 -0.10102
-0.18226 0.23275 -0.09211
-0.18226 0.36346 -0.01738
-0.11432 0.01556 -0.18226
0.07926 -0.01709 -0.17430
0.16217 0.02088 -0.16915
-0.18226 -0.34660 -0.17502
-0.13287 0.31975 0.09797
0.11854 0.00160 0.18226
0.03722 -0.00127 -0.18226
0.17093 -0.28314 0.14176
-0.17969 -0.01709 0.07945
-0.18226 0.15427 -0.00694
0.18226 -0.23728 -0.17344
-0.13287 0.36863 0.09445
0.18226 0.00641 0.10415
0.01423 -0.01709 -0.13287
-0.18226 0.31898 -0.15456
-0.18069 -0.24918 0.18226
-0.18226 0.14223 -0.10460
-0.14275 -0.36398 -0.18226
-0.15913 -0.02933 -0.18226
0.18226 0.00739 -0.12168
0.14553 -0.29452 -0.14176
-0.15574 -0.15180 0.14176
-0.00556 -0.01709 -0.02260
-0.13287 0.03110 0.09193
-0.18226 0.19767 0.11031
-0.18226 0.38539 -0.07475
-0.14677 0.39739 0.11624
-0.03608 -0.01709 -0.16721
-0.18226 -0.41306 0.16935
-0.13287 0.18959 0.14414
-0.13287 0.32413 0.05966
-0.18226 0.18753 -0.06887
-0.15548 -0.36856 0.18226
-0.16983 -0.17374 -0.14176
-0.13287 0.20150 -0.03340
-0.18226 -0.03172 -0.17214
0.18226 0.00403 0.06756
-0.13287 0.28495 -0.07513
-0.13529 0.05553 -0.18226
0.18226 -0.07884 0.15549
0.16344 -0.24338 0.14176
-0.18226 0.04521 -0.06264
-0.18226 -0.39735 -0.14548
-0.07431 0.00907 -0.18226
-0.13287 0.26617 0.11096
0.08065 -0.01211 0.18226
0.14176 -0.27321 -0.17356
-0.14525 -0.01709 0.02126
-0.13287 0.06189 0.08247
0.15965 0.02088 0.13628
-0.13287 0.19677 0.06274
-0.13287 0.17104 0.04803
-0.18226 -0.14388 0.16144
-0.02638 0.02088 0.15056
-0.18226 0.19459 -0.07139
0.12139 0.02088 0.05147
-0.07191 -0.01709 0.06673
0.15458 -0.01101 0.18226
-0.18226 0.07872 0.14509
0.14176 -0.22745 -0.18006
-0.13287 0.38326 0.04793
-0.18226 0.14417 0.09771
-0.16605 0.40169 0.10855
-0.18226 0.05154 -0.16484
-0.06051 -0.01016 0.18226
-0.01296 0.02088 -0.18072
0.06005 0.02088 0.00160
0.17863 -0.15524 0.18226
0.18080 -0.37739 -0.14176
-0.18226 0.02347 0.01676
-0.18226 -0.00548 0.12879
-0.14802 0.34755 0.17827
-0.13287 0.35630 0.03740
-0.17219 0.01886 0.18226
0.15864 0.02088 -0.15226
-0.14176 -0.06365 0.16684
-0.17565 -0.05507 -0.18226
-0.14176 -0.35522 -0.17263
-0.18226 -0.10516 -0.14781
-0.13287 0.07599 -0.09763
-0.15549 0.10553 -0.18226
-0.15204 -0.21809 0.18226
0.09895 -0.01709 0.09263
0.18226 0.01653 0.15939
-0.18226 0.07678 0.01926
0.03675 -0.01709 -0.14061
-0.18226 -0.22227 -0.15406
-0.13287 0.40622 -0.06065
-0.12883 -0.01709 -0.17300
-0.08360 0.02088 -0.16416
-0.13317 0.00252 0.18226
0.01374 0.02088 -0.15259
-0.14176 -0.11282 -0.15997
-0.18226 0.15407 -0.03666
-0.18226 0.26025 0.12232
-0.15523 -0.09015 -0.18226
-0.15561 -0.25674 0.14176
0.14176 -0.28421 -0.18141
-0.18226 0.32050 0.08686
-0.13287 0.34011 0.02659
0.13680 -0.01709 0.10004
-0.18226 0.33537 -0.14753
-0.18226 0.22830 -0.09926
-0.13287 0.36072 0.02143
0.15470 -0.01709 0.11737
-0.03248 0.02088 0.17487
-0.00744 -0.01709 0.14347
0.16315 -0.24408 0.18226
-0.17801 -0.01709 -0.14114
-0.18226 0.36155 -0.05527
0.06033 0.01031 0.18226
-0.18226 0.03564 -0.10285
0.17490 -0.19710 -0.18226
0.07830 -0.01709 0.09947
0.05661 0.02088 0.11687
-0.18226 -0.17378 -0.16988
0.05175 -0.01709 -0.12932
-0.18226 0.38197 0.09832
-0.13287 0.02197 -0.02814
-0.10166 0.02088 -0.14228
0.07608 0.01290 -0.18226
-0.18226 0.40456 -0.08994
-0.14008 -0.01709 0.06882
-0.02679 0.02088 -0.08986
0.17466 0.02088 0.15994
-0.18226 0.18749 0.02633
-0.12944 0.02088 0.03116
-0.18226 -0.09899 0.16953
-0.13287 0.11352 0.03434
-0.13287 0.16528 0.03867
-0.18226 -0.32097 0.17295
-0.14504 -0.31180 0.18226
0.11762 -0.01709 0.06932
-0.13796 0.36223 -0.16402
0.18226 -0.04841 -0.18219
-0.13287 0.21302 0.08646
0.07787 -0.01709 -0.01910
0.15845 -0.29087 -0.14176
-0.14176 -0.33997 0.15723
-0.13287 0.12435 0.11608
0.15823 -0.01709 -0.02721
0.15940 -0.29450 0.18226
-0.14176 -0.31869 -0.15809
-0.14176 -0.35806 -0.16472
-0.13287 0.26182 -0.07615
-0.03594 0.02088 -0.09648
-0.18226 0.20035 0.16631
0.15013 -0.28574 -0.14176
-0.18226 0.42658 -0.00479
-0.02647 -0.01709 -0.13246
-0.01512 0.02088 0.06855
0.17689 -0.28124 -0.18226
-0.13287 0.23851 -0.04811
-0.13902 0.35433 0.17169
0.18226 -0.11990 0.17500
-0.05516 0.02088 -0.17419
-0.13287 0.17095 0.07865
-0.18060 0.26136 -0.18226
0.05647 0.02088 0.01204
-0.13287 0.30488 -0.16097
-0.06976 -0.01709 -0.07484
-0.07415 0.02088 -0.02359
0.02337 0.02088 0.09648
-0.13287 0.34187 0.06515
-0.01114 0.02088 -0.16248
