ply
format ascii 1.0
comment VCGLIB generated
element vertex 1787
property float x
property float y
property float z
element face 0
property list uchar int vertex_indices
end_header
0.03426 -0.20731 0.15955
-0.14328 -0.01128 0.00476
0.18931 -0.00913 -0.15187
-0.18878 0.28010 0.03062
0.21771 -0.30220 -0.06927
0.19506 -0.06287 0.07571
-0.10909 -0.00837 -0.00808
-0.05782 -0.00236 0.11647
-0.15197 -0.06895 -0.09225
-0.21152 -0.32822 -0.03627
-0.12551 0.12214 -0.13040
0.16986 -0.00200 -0.12771
-0.18034 -0.23077 -0.13780
-0.15582 0.37610 0.10484
-0.11192 0.04883 0.07464
-0.12831 0.17104 0.11754
0.18408 -0.00721 0.00228
-0.06292 -0.34792 -0.16228
0.19586 -0.09888 -0.05107
-0.12451 0.14270 0.09479
-0.18307 -0.20437 -0.05638
0.02109 -0.13152 0.15085
-0.12998 0.18346 -0.05666
0.17697 -0.09327 -0.15895
-0.18178 0.22796 -0.02427
-0.07483 -0.05379 0.13285
-0.15339 -0.07510 0.05519
0.22568 -0.37633 0.16552
0.20192 -0.15529 -0.05586
0.13826 -0.13251 -0.16279
-0.15124 -0.03373 -0.12121
0.21046 -0.23471 0.13384
0.15865 -0.12107 0.16167
0.16829 -0.02729 0.15626
0.00555 -0.38231 0.17249
0.21895 -0.31375 0.12270
0.13476 0.00388 -0.02342
-0.19273 0.37105 -0.13040
-0.10568 -0.00808 0.08266
0.10809 0.00388 0.04873
-0.17597 0.28550 0.13040
-0.07853 -0.26178 0.15283
0.19850 -0.34150 -0.16807
0.16780 -0.00124 -0.10761
-0.12702 0.16141 -0.05841
0.21570 -0.28346 0.14156
0.05784 -0.14796 0.15660
0.20187 -0.28633 -0.17783
0.07065 -0.37194 0.17828
-0.14726 0.31226 -0.08210
0.02615 -0.16559 -0.15492
-0.21696 -0.35195 -0.04892
-0.18585 -0.33274 0.14779
-0.17296 0.16217 -0.10582
-0.09934 -0.31493 0.15551
-0.17935 0.20986 0.05805
0.20308 -0.15915 -0.14610
0.21995 -0.32307 0.09649
-0.13356 0.21017 0.10507
0.02975 -0.30235 -0.16773
0.02826 0.00388 0.09312
0.20061 -0.14308 -0.03627
0.10392 0.00388 -0.07429
0.04591 -0.34301 -0.17309
0.20057 -0.14274 -0.07952
0.11143 -0.39807 0.18488
0.00515 -0.09660 0.14536
0.19572 -0.09758 0.06860
0.21117 -0.24132 0.12132
-0.00649 -0.16076 -0.15069
-0.19879 -0.27282 -0.00281
-0.08775 -0.31687 0.15689
-0.15574 0.37546 -0.02163
0.21781 -0.30315 -0.08559
0.21422 -0.26978 0.10147
-0.15495 -0.26258 -0.14407
-0.15206 0.00637 -0.05080
-0.06697 -0.21208 -0.14902
-0.15258 0.01026 -0.02920
-0.14782 -0.01595 -0.12437
-0.19494 -0.36592 0.15019
0.00991 -0.33291 -0.16845
0.21387 -0.26652 0.11580
0.22367 -0.35760 -0.13842
-0.16557 -0.19653 0.13595
-0.05024 0.00388 -0.01317
-0.19331 -0.24894 -0.09207
-0.12907 -0.01008 -0.04919
-0.11982 0.10774 0.10856
-0.19691 -0.26461 0.04719
-0.08273 0.00388 0.04054
0.08466 -0.29028 -0.17231
-0.08919 -0.13145 0.13803
0.22257 -0.34739 -0.00591
0.17972 -0.13328 -0.16286
-0.07430 -0.00282 -0.11564
0.15759 0.00017 -0.13224
0.20100 -0.34421 0.18240
-0.12562 -0.26139 0.14735
-0.08877 -0.11515 0.13638
0.20015 -0.36629 0.18565
0.05844 -0.31585 0.17192
0.06435 0.00388 -0.05751
0.20872 -0.21856 -0.09696
0.19229 -0.03008 -0.13920
0.10616 0.00207 -0.12519
-0.04479 -0.05071 0.13634
0.22182 -0.34048 -0.05428
-0.12541 -0.39095 0.15972
0.11222 0.00388 0.08833
-0.16005 -0.18132 0.13500
-0.16453 0.09931 -0.11932
0.19229 -0.02934 0.12942
-0.11046 -0.00558 0.11789
0.19744 -0.11364 -0.09224
-0.20081 -0.28159 0.10725
-0.01053 -0.21576 0.15569
-0.14407 0.28851 0.12784
-0.15837 0.39510 -0.00228
-0.03173 -0.15693 -0.14736
-0.00881 -0.20261 0.15467
-0.10965 0.03195 0.06501
0.20018 -0.13912 -0.00582
-0.19461 0.32354 -0.05890
-0.20237 0.38142 0.07408
-0.08374 -0.04169 0.13181
-0.01044 -0.33314 0.16637
0.19506 -0.06286 0.04539
-0.05413 -0.25967 -0.15517
0.20842 -0.21581 0.03264
-0.03867 -0.02578 0.13705
-0.03255 -0.34560 -0.16521
0.18393 -0.18638 0.16805
0.07090 0.00388 0.06644
0.17891 -0.07671 0.15733
-0.10813 0.02061 0.09305
0.03004 -0.11735 0.15041
-0.17855 0.32006 0.13040
-0.17867 0.20477 0.02412
-0.17986 0.21365 -0.11858
-0.10830 -0.11345 -0.13394
0.22278 -0.34941 0.02448
0.20085 -0.23538 0.15781
-0.17665 0.33020 -0.13040
-0.11197 0.04922 0.00575
0.00869 0.00388 0.09419
-0.18370 0.24222 0.09437
-0.10479 -0.00431 -0.10111
-0.18021 -0.23957 0.13873
-0.00160 -0.33220 -0.16720
0.04167 -0.17936 -0.15778
-0.10667 0.00976 -0.03932
-0.02632 -0.18405 -0.15082
-0.17797 -0.20974 -0.13589
-0.11498 0.07165 0.08031
-0.15467 0.02583 -0.00613
0.05732 -0.28657 -0.16915
0.20567 -0.19021 -0.12092
-0.03055 -0.32994 -0.16399
-0.16231 -0.12381 0.12874
0.04551 -0.28591 0.16786
0.04290 -0.06806 -0.14676
0.20125 -0.36041 -0.18419
-0.15043 -0.00578 -0.00643
-0.16398 -0.12125 -0.07683
0.16476 -0.07722 0.15738
-0.19367 0.31659 0.06409
-0.20003 0.39591 -0.05718
-0.06884 -0.39781 0.16620
0.07458 0.00388 -0.09898
-0.17927 0.20918 0.07896
-0.17029 0.14228 -0.02541
0.20502 -0.18413 0.06912
0.19505 -0.09138 -0.07322
0.19560 -0.09649 0.12762
-0.13731 0.23808 -0.06008
-0.11635 -0.32656 -0.15481
0.09184 -0.11964 0.15754
-0.20336 0.38878 -0.03125
0.21665 -0.29233 0.03962
0.19229 -0.05089 -0.09385
-0.12671 -0.00987 -0.03831
-0.13404 0.05132 0.13040
-0.00255 -0.17500 -0.15263
-0.15020 -0.00749 0.03611
-0.15140 -0.06644 0.00816
-0.16515 -0.29154 -0.14590
-0.17744 0.23919 -0.13040
0.10143 -0.32873 -0.17754
0.21085 -0.23841 0.08293
-0.17639 -0.17528 0.12618
-0.05046 -0.12677 0.14204
-0.11738 -0.00908 0.12460
-0.09497 -0.00246 0.11239
-0.03333 0.00388 -0.05466
-0.13500 -0.03391 0.12586
-0.16939 0.13556 -0.02415
-0.11878 0.09996 0.01775
-0.20209 -0.28716 -0.03584
-0.17328 0.34729 -0.13040
0.17528 -0.37929 -0.18692
0.01351 -0.27328 -0.16340
-0.19667 -0.26357 -0.00439
-0.19958 0.36064 -0.01066
-0.19116 0.29784 -0.01819
-0.10619 0.00388 -0.08117
0.20665 -0.19927 -0.03514
-0.15470 0.36776 -0.12260
0.08463 -0.15642 0.16014
-0.03190 -0.17018 -0.14872
-0.16550 0.10661 -0.12081
0.19422 -0.06439 -0.12253
-0.13579 0.22682 -0.09389
-0.21211 -0.33081 0.13120
0.10337 -0.24203 -0.16986
-0.12489 0.14555 -0.08930
-0.12348 0.13500 0.09399
0.19229 -0.02931 0.07643
-0.11149 -0.32153 -0.15485
0.21031 -0.23335 -0.00884
-0.07647 -0.28250 0.15493
-0.15812 -0.09571 0.08307
-0.20536 -0.30139 0.01017
-0.02515 -0.35390 0.16673
-0.15305 -0.07888 -0.12514
-0.10980 0.03306 0.01843
-0.04522 0.00388 -0.06038
-0.16609 -0.13043 -0.04053
0.04306 -0.00244 0.12838
0.21140 -0.34473 0.15706
-0.13942 -0.36108 -0.15556
-0.15267 0.01093 -0.07443
-0.19703 -0.26516 0.06535
0.19310 -0.35190 0.17673
-0.13852 0.24711 0.07907
0.21563 -0.28282 0.11893
-0.14430 -0.30098 0.14931
0.10307 -0.18975 -0.16508
0.05134 -0.28776 -0.16864
-0.02071 -0.32626 0.16468
0.05358 -0.09950 0.15128
-0.06608 -0.28016 0.15579
-0.11446 0.06779 0.02089
0.19620 -0.10212 0.11016
0.21198 -0.24887 0.11826
-0.17868 0.20483 0.11251
-0.14192 0.27246 0.04856
-0.17576 0.39558 -0.07606
0.21396 -0.26732 -0.06824
-0.07046 -0.32493 -0.15941
-0.13692 0.23519 -0.09691
-0.11041 0.03762 -0.12256
-0.16839 0.18762 0.13040
-0.03201 -0.01737 0.13782
0.06443 -0.27608 0.16893
0.21196 -0.24869 -0.10535
-0.18892 0.28116 -0.12629
0.09723 0.00388 0.03305
-0.15878 0.39816 -0.02678
-0.14540 0.29839 -0.03683
-0.13844 -0.03837 -0.12546
0.18563 -0.28369 0.17757
0.10658 -0.23976 0.16999
0.14461 -0.20084 0.16947
-0.20757 -0.31104 0.10418
-0.06543 -0.04013 0.13394
0.19541 -0.09472 -0.02335
-0.12800 0.16870 0.07336
-0.13088 0.19019 -0.12134
0.22323 -0.35354 0.02094
-0.18969 0.33813 -0.13040
0.19229 -0.02940 -0.02094
0.22088 -0.38331 0.16140
-0.14561 0.30000 -0.00606
-0.14045 0.11170 0.13040
0.22128 -0.33542 0.12241
-0.17307 -0.16080 -0.01007
0.21250 -0.25371 0.12406
-0.12433 0.14139 0.05106
0.20003 -0.13775 -0.02190
-0.08252 -0.10315 0.13586
-0.02921 0.00388 0.00784
0.22268 -0.34839 -0.15354
0.06560 -0.14133 -0.15680
-0.12860 0.17319 -0.07333
0.20827 -0.21434 0.13490
-0.03222 0.00388 0.07105
0.03970 -0.27582 -0.16635
0.19779 -0.11692 -0.04796
-0.17479 -0.16830 -0.00596
0.08094 -0.21433 0.16502
0.14241 0.00388 0.02463
0.19116 -0.15750 0.16523
-0.10248 -0.37006 0.16020
0.11894 0.00388 0.00092
0.14080 -0.18142 0.16757
-0.15801 0.05075 0.08307
-0.16227 -0.15134 0.13162
-0.20328 -0.29234 0.06527
-0.12624 -0.12860 -0.13343
-0.02477 0.00388 -0.01137
0.19229 -0.02071 0.09082
-0.03616 0.00388 -0.10333
-0.19052 -0.28363 0.14213
-0.15641 0.38048 0.10914
0.20892 -0.22042 0.13839
-0.18110 -0.19578 0.06173
-0.13893 0.25018 -0.12918
-0.02123 -0.38363 0.16984
0.04867 -0.11284 0.15210
-0.20253 -0.28908 0.11950
0.16346 -0.38258 -0.18724
0.07479 -0.38557 0.17995
0.10863 -0.33302 -0.17868
0.07346 -0.00977 -0.14901
-0.17151 -0.40130 -0.15589
-0.17573 0.18280 0.02448
0.18833 -0.00877 0.11773
0.16550 -0.00040 0.05826
-0.15261 -0.07174 0.11864
-0.11173 0.04742 -0.01900
0.14213 -0.09054 0.15868
0.19310 -0.07321 -0.11414
-0.08248 -0.25226 0.15141
0.21480 -0.38044 -0.15735
0.08073 -0.34958 -0.17730
0.22603 -0.37958 -0.00801
-0.13890 0.25000 -0.08732
-0.09372 -0.24079 -0.14890
0.20606 -0.19385 0.05113
-0.19172 -0.24202 -0.12537
0.11513 -0.34212 -0.18018
-0.11396 0.06405 -0.08282
-0.20204 -0.28695 0.00242
0.19378 -0.36034 0.18506
0.07886 -0.05140 -0.15070
0.10815 -0.32774 -0.17815
0.21529 -0.27969 0.05763
-0.18254 0.39896 -0.04094
-0.15904 0.38849 0.12098
-0.14810 0.31854 -0.03695
-0.15993 0.31144 0.13040
-0.10828 0.02172 -0.12301
0.22130 -0.33558 0.07843
-0.20256 0.38287 0.00731
0.19829 -0.12150 0.02709
0.14938 0.00388 0.07206
0.08031 -0.33336 -0.17578
-0.06889 -0.06303 0.13605
-0.16762 0.12239 0.06054
-0.10139 -0.05202 -0.12976
-0.11140 0.00388 0.03637
0.01995 -0.10704 -0.14816
-0.09886 -0.00026 -0.10682
-0.04410 -0.29629 0.15953
0.19215 -0.18468 -0.15840
-0.00395 -0.01924 -0.14108
-0.05294 -0.33393 -0.16204
0.21248 -0.25353 -0.12573
-0.14834 -0.15222 -0.13333
0.22440 -0.36450 0.12312
0.00869 -0.29759 0.16511
0.19229 -0.05324 -0.00099
-0.14215 0.13287 0.13040
-0.07181 -0.19755 -0.14694
0.21375 -0.26538 -0.02581
-0.18182 -0.19892 -0.08486
-0.16365 0.40140 0.02760
0.03877 -0.18784 -0.15825
-0.08422 -0.21506 0.14733
-0.01476 -0.12223 -0.14571
-0.14758 -0.08011 0.12590
0.09798 0.00388 -0.06066
-0.16818 0.12654 -0.09036
-0.18398 -0.20831 0.09952
-0.11090 -0.00853 0.08046
-0.22445 -0.38454 -0.14029
-0.14356 0.28468 0.04524
-0.02649 -0.17208 0.14955
-0.00598 0.00388 0.10467
-0.19625 0.33577 0.03868
0.22259 -0.34758 0.01349
-0.20751 -0.31077 -0.09632
-0.16453 0.09937 -0.11004
-0.11635 0.08190 -0.01101
0.11577 -0.19196 0.16660
0.19229 -0.03914 0.05917
-0.18177 -0.22537 0.13707
-0.11102 0.04217 0.02312
-0.19551 0.33026 -0.09824
-0.13951 0.25449 0.04032
-0.16489 0.10200 -0.04600
-0.16018 0.20317 0.13040
0.03002 -0.04355 -0.14502
-0.01938 -0.35729 -0.16764
-0.14685 -0.05493 -0.12449
0.02713 -0.28225 0.16563
-0.01261 -0.29042 0.16226
0.20015 -0.13526 0.12024
0.04658 -0.23886 0.16370
0.05925 -0.29933 -0.17051
-0.12414 -0.32925 -0.15424
0.12810 -0.00134 0.13569
-0.20005 -0.27827 0.02031
0.22623 -0.38150 0.07331
-0.15758 -0.36521 -0.15405
0.03497 -0.06839 0.14588
0.05817 -0.15640 0.15740
-0.10921 -0.00838 0.00966
-0.16761 -0.13703 -0.11408
-0.14078 -0.01107 0.02392
-0.19051 0.29302 -0.00521
-0.03996 -0.27572 -0.15809
-0.13750 -0.31430 0.15148
-0.03910 -0.20978 -0.15202
-0.19226 -0.24438 -0.01805
-0.15483 0.36870 0.09277
-0.14495 -0.00792 -0.02053
0.20209 -0.15686 0.05192
0.08363 -0.37135 0.17958
-0.15824 0.05247 0.05395
-0.12543 -0.21903 0.14295
0.14001 -0.08055 -0.15771
0.02284 -0.25878 -0.16305
-0.14954 0.32926 -0.12175
0.18071 -0.25296 0.17456
-0.21114 -0.32660 -0.11401
0.08745 -0.19117 0.16359
0.21760 -0.30114 -0.13174
-0.12279 -0.16250 0.13737
-0.06762 -0.19423 0.14708
0.13181 -0.27763 -0.17604
-0.16224 -0.11366 0.11660
0.15415 -0.10428 -0.16003
-0.15369 0.36024 -0.09720
-0.04744 0.00388 0.00273
-0.14539 0.29834 0.01073
0.02251 -0.31182 0.16784
0.19277 -0.07019 0.04687
0.06880 -0.20147 -0.16260
0.13277 -0.20621 -0.16965
-0.04206 -0.14607 0.14503
0.00411 -0.10369 -0.14597
-0.07887 -0.36257 0.16196
0.19220 -0.21844 -0.16166
0.13267 -0.32525 0.18046
0.01803 -0.32141 0.16825
0.10132 -0.07125 -0.15388
0.16750 -0.19849 0.16924
-0.14987 0.33174 0.05613
-0.18079 0.22054 0.01793
-0.11653 0.04833 0.13040
-0.10792 -0.28596 0.15196
0.17087 -0.12542 0.16209
-0.13123 0.19283 0.02204
-0.17126 -0.15292 -0.06944
0.16399 -0.00124 0.13549
-0.17465 0.26482 0.13040
-0.06457 -0.05712 0.13404
0.22048 -0.32800 0.15700
-0.16561 -0.12831 0.07926
-0.12025 0.00114 0.05340
-0.12115 0.00081 0.06094
0.19753 -0.34406 -0.17957
-0.15478 0.36833 -0.12836
0.19515 -0.06374 -0.04793
-0.12088 0.11563 0.08748
-0.14582 0.30156 0.06959
-0.19186 0.39334 0.08202
-0.05770 -0.34626 -0.16267
-0.13546 0.08442 -0.13040
-0.15257 0.01019 0.01436
-0.11580 -0.36181 -0.15807
0.11706 -0.03668 0.15513
0.21360 -0.26392 0.05833
-0.09262 -0.15822 0.14042
-0.16878 -0.21252 0.13724
0.16306 -0.28172 -0.17738
-0.15478 0.36835 0.11378
0.09587 0.00388 -0.05060
-0.13971 0.25602 -0.04713
-0.09633 -0.26772 0.15141
0.22096 -0.33241 -0.08647
0.07445 0.00388 0.08843
0.04362 0.00388 0.00083
0.19069 -0.37554 -0.18655
-0.14694 0.30992 0.01570
-0.04294 0.00388 -0.01282
-0.15594 -0.36289 0.15401
-0.16999 0.39683 -0.07086
-0.15124 -0.05645 0.07968
-0.16990 0.35079 0.13040
0.12400 -0.04518 -0.15594
-0.13867 0.24829 -0.07480
-0.18281 0.23562 0.09214
-0.09224 -0.32318 0.15699
-0.05571 -0.16385 0.14530
-0.16594 -0.13536 -0.12953
-0.15320 0.01490 -0.03237
0.01773 -0.16599 0.15405
-0.16583 -0.12928 -0.07498
0.00732 -0.04380 0.14239
0.14664 -0.24347 -0.17364
-0.11207 0.05001 -0.05556
0.01111 -0.15068 -0.15168
-0.16473 0.10088 -0.08539
0.07661 -0.29771 -0.17216
0.21942 -0.31809 -0.08329
-0.17926 0.20911 0.03317
-0.08881 0.00286 0.10071
0.21240 -0.25283 0.05565
-0.18076 -0.19431 -0.00222
0.21330 -0.26118 -0.12603
0.04667 -0.10577 -0.15113
0.22022 -0.32553 0.06876
-0.17433 -0.16629 0.10497
0.13589 0.00388 0.01391
-0.19478 0.39609 -0.05971
-0.16211 0.39089 -0.10950
0.19741 -0.33158 -0.17825
0.19633 -0.26526 -0.17088
-0.01721 -0.00105 0.11813
-0.18780 0.27284 0.06794
-0.16795 0.12487 -0.04663
-0.00432 0.00388 0.01037
-0.12845 0.17205 -0.12016
0.21876 -0.31196 -0.01131
-0.14553 0.29937 0.04926
0.16196 0.00090 -0.08012
-0.12751 -0.04739 -0.12673
0.18025 -0.25101 -0.17437
0.03206 -0.22087 0.16056
-0.10543 -0.02238 -0.12930
0.11493 -0.00646 -0.14611
-0.05536 -0.31088 -0.15969
-0.20838 -0.35347 0.14734
-0.16940 -0.14484 0.13005
-0.19992 -0.27774 -0.10436
-0.14268 -0.00708 0.06073
-0.12181 0.12259 -0.08954
-0.17969 -0.29227 0.14429
0.19229 -0.04282 0.11985
-0.22518 -0.38773 0.02842
-0.18209 -0.25237 -0.13985
-0.20213 0.37961 0.10671
-0.15158 0.00281 0.07233
-0.11363 0.06163 -0.03314
-0.16541 0.10593 -0.03481
0.20630 -0.19605 -0.13779
-0.19128 0.29874 0.06261
0.21943 -0.31821 0.11363
-0.15124 -0.03301 0.08957
-0.17207 -0.34268 0.15043
-0.00454 -0.09217 0.14377
-0.15304 -0.06447 0.11869
-0.19985 0.36265 0.11012
-0.19883 0.35502 -0.02878
0.07641 -0.26563 0.16922
0.20116 -0.22054 0.15930
-0.13530 0.22316 -0.09789
0.03278 0.00388 0.08830
0.09629 -0.16224 0.16188
0.20185 -0.15462 -0.06622
-0.14973 -0.01097 -0.10795
0.06056 0.00388 0.06580
-0.17625 -0.17466 -0.13106
-0.15557 0.03254 0.04839
-0.13291 0.20530 0.12331
-0.13501 -0.15710 -0.13539
-0.17231 -0.15750 -0.08390
-0.12704 0.16154 0.04211
-0.15124 -0.02516 -0.06382
-0.21311 -0.33517 -0.06844
-0.15759 0.38927 -0.03461
-0.13134 0.19364 -0.11162
0.19000 -0.14549 0.16406
-0.02770 0.00388 -0.05183
0.15536 -0.38501 -0.18748
-0.16188 0.07960 0.09808
0.22711 -0.38964 0.04806
0.07566 0.00388 -0.07676
0.10695 -0.03793 -0.15396
-0.12774 0.01498 0.13040
-0.15190 -0.06861 -0.05488
0.05534 0.00388 -0.08481
-0.03267 -0.00091 -0.11603
0.19450 -0.08625 0.06167
-0.15327 0.01538 0.06405
0.12356 -0.30382 -0.17757
-0.17310 -0.16093 -0.01849
-0.06758 -0.37125 -0.16392
-0.15482 -0.15870 0.13325
-0.16112 0.28819 -0.13040
0.19703 -0.10976 0.04130
-0.18920 0.28323 -0.05523
0.11359 -0.32920 0.17885
0.20147 -0.15109 0.15463
-0.15124 -0.01707 0.03235
-0.17376 -0.16380 -0.10521
0.06921 -0.25859 0.16783
-0.22117 -0.37028 -0.01877
0.05104 -0.13453 0.15464
-0.15157 0.00274 0.02347
-0.15023 0.18120 0.13040
0.14262 -0.22177 0.17151
-0.15412 0.22722 0.13040
-0.21626 -0.34887 0.09787
-0.05315 -0.36799 -0.16511
0.01235 -0.00240 0.12472
0.19153 -0.00994 0.14288
0.07977 -0.15241 0.15927
-0.15574 -0.25245 -0.14292
-0.19088 0.29577 0.07056
-0.15875 0.33790 -0.13040
-0.19973 0.36172 -0.11069
-0.12606 0.03496 0.13040
-0.13354 -0.01046 0.10479
-0.21727 -0.35328 -0.12510
-0.13720 -0.00508 -0.04909
-0.17828 0.20182 -0.07009
-0.15942 0.23469 0.13040
-0.03279 -0.03032 0.13773
-0.19873 0.35428 0.00312
-0.18710 -0.24902 -0.13892
-0.17854 -0.18465 -0.00440
-0.20021 0.36528 0.07124
0.16375 -0.24884 0.17416
-0.19036 -0.23609 -0.06733
0.13500 -0.34803 -0.18277
0.21079 -0.23777 -0.11945
0.19229 -0.03876 0.08158
0.19511 -0.09196 0.03045
-0.03895 -0.25816 0.15660
-0.15844 0.05395 0.01123
-0.09337 -0.38535 -0.16253
-0.16081 0.07160 -0.06636
-0.02381 -0.17718 0.15039
0.08069 -0.24757 -0.16802
-0.00395 0.00388 0.02452
-0.13624 0.23014 0.11403
-0.15759 0.38928 0.09054
0.13597 -0.02284 0.15626
0.17332 -0.09279 0.15890
0.19229 -0.05530 0.15399
-0.15078 -0.00312 0.01198
0.18221 -0.04186 -0.15626
0.04875 -0.24336 -0.16433
0.18811 -0.10663 -0.16026
-0.19343 -0.24945 -0.11891
0.07414 -0.07707 0.15133
0.17135 -0.27638 -0.17685
-0.16186 0.07948 -0.06197
-0.03118 -0.09991 -0.14148
0.20102 -0.15752 0.16523
0.12274 -0.28370 0.17566
0.00184 -0.21376 0.15679
-0.16094 0.07258 0.02391
-0.07072 -0.01606 0.13333
-0.19360 -0.25021 0.04746
-0.10530 -0.00048 0.06202
0.11418 0.00388 -0.01913
-0.07718 -0.36561 -0.16241
-0.21037 -0.32324 -0.13499
-0.14877 0.24237 -0.13040
0.19282 -0.07060 0.03394
-0.16330 -0.11827 -0.00554
0.19729 -0.11217 0.05444
0.21259 -0.25460 0.07778
-0.11836 0.09686 0.08263
0.04062 0.00388 0.09687
-0.19466 -0.25483 -0.07635
-0.21889 -0.36032 0.06530
-0.13058 0.18793 -0.07298
-0.15108 0.34078 -0.06159
-0.21332 -0.33609 0.11915
-0.20448 -0.29759 0.04776
0.21319 -0.26014 0.01477
-0.16942 0.13581 -0.09126
-0.10796 0.01935 0.12424
-0.21051 -0.32384 0.10410
0.13900 -0.24041 0.17334
-0.18460 0.24894 0.06152
-0.16763 0.38894 0.11588
0.19640 -0.28517 -0.16443
-0.07456 0.00388 0.02663
-0.05802 -0.07309 -0.13557
-0.16345 0.09131 0.11745
-0.14100 -0.14301 -0.13322
-0.17565 -0.17206 0.07310
-0.22195 -0.37366 -0.12032
0.17881 -0.14458 0.16653
-0.11779 0.09265 -0.12011
-0.16733 0.17128 -0.13040
-0.03724 0.00343 0.10536
0.18540 -0.00770 0.09090
0.20653 -0.19821 0.02577
-0.01138 -0.22631 0.15656
-0.13186 0.19753 0.05715
-0.09222 -0.18866 -0.14364
-0.12946 -0.11911 -0.13207
-0.13609 0.22900 -0.02396
-0.16971 -0.14619 0.03175
0.19940 -0.13185 0.08183
0.03630 -0.35402 0.17310
0.19289 -0.07127 -0.08979
0.19229 -0.02567 -0.12051
-0.19392 -0.33942 -0.14755
-0.16792 0.12463 -0.01716
-0.02570 -0.14388 -0.14670
-0.11821 0.09572 -0.01337
0.03754 -0.08087 0.14748
0.13870 0.00388 -0.00960
0.15229 -0.06214 0.15783
-0.15695 0.38449 -0.10000
-0.15412 -0.07828 -0.11231
-0.21574 -0.34663 0.11744
0.18705 -0.25301 0.17457
-0.11219 -0.30664 0.15343
-0.15283 0.01216 -0.08283
-0.20147 0.37468 -0.05036
0.13365 -0.17442 -0.16685
0.20093 -0.26614 0.17585
-0.13799 0.24318 0.10377
0.20751 -0.20731 0.00647
-0.11704 -0.20250 -0.14221
0.09699 -0.10154 0.15643
-0.15502 -0.08220 -0.04858
-0.09215 -0.24633 -0.14966
-0.15748 -0.09293 -0.06156
0.07993 -0.09001 0.15335
0.13892 0.00388 -0.05962
-0.11317 0.05821 0.01575
-0.11901 0.10173 0.07606
0.00438 -0.33163 0.16776
0.16110 0.00121 0.04884
-0.20385 -0.29483 0.00302
-0.15789 0.39155 0.01499
0.19812 -0.17690 0.16370
-0.09513 -0.01518 0.13049
0.19656 -0.10539 -0.05094
-0.13662 -0.01072 0.00784
-0.07384 -0.33708 0.16016
-0.18905 -0.23037 -0.06081
0.10606 0.00388 0.05788
-0.20154 0.37525 -0.05872
-0.16207 0.08101 0.08425
-0.14192 0.27252 -0.04543
-0.17406 -0.16511 0.12694
0.04985 0.00388 0.02074
-0.16653 0.11427 0.10390
0.09500 0.00388 -0.09070
0.00063 -0.22481 -0.15766
0.02815 -0.35372 -0.17223
0.13474 -0.29247 0.17769
-0.05334 0.00388 0.01891
-0.22674 -0.39452 0.13805
0.19907 -0.12882 -0.11968
0.19229 -0.03663 0.07545
0.19451 -0.08634 0.03667
-0.11598 0.07914 0.03849
-0.08124 -0.33800 -0.15948
-0.17507 -0.16953 -0.08073
-0.15017 0.33396 0.07203
-0.15168 0.34520 -0.05641
-0.16384 0.09424 0.00880
-0.11510 0.07254 0.01524
-0.02435 -0.29134 0.16113
0.07100 -0.25366 -0.16757
-0.10532 -0.00036 0.00051
0.01985 -0.17190 -0.15485
0.17772 -0.00488 0.11344
-0.13539 0.17800 0.13040
0.01800 0.00388 0.09690
0.09984 -0.11916 0.15833
-0.04927 -0.32792 0.16187
-0.02825 -0.00940 0.13635
0.22670 -0.38587 0.10245
0.20930 -0.22399 -0.10954
-0.18797 0.27409 -0.04013
0.18095 -0.12437 0.16199
-0.13617 -0.23595 -0.14347
0.02656 -0.12660 -0.15097
-0.18183 0.33633 -0.13040
0.06042 -0.37340 0.17736
0.20000 -0.37196 -0.18430
0.14844 -0.28322 -0.17752
0.05685 -0.00067 0.12587
0.16650 -0.19191 -0.16859
0.05759 -0.28536 0.16906
-0.15619 0.03720 -0.06333
0.12393 -0.29184 0.17652
-0.15506 0.02878 0.10411
0.13467 -0.33684 0.18172
0.08235 -0.06416 -0.15299
0.19430 -0.08440 -0.03762
0.10418 -0.15053 0.16163
0.18121 -0.33979 -0.18305
-0.16829 -0.13999 -0.10021
0.15051 -0.00144 0.13595
-0.21296 -0.33452 0.07729
-0.12787 0.16778 0.08195
0.02081 -0.16315 -0.15411
0.22699 -0.38858 0.11875
-0.05619 -0.27238 0.15611
0.22617 -0.38093 0.03269
0.00451 -0.00724 -0.13511
0.20686 -0.20127 0.11743
-0.16750 0.12145 -0.03924
0.05471 -0.30789 -0.17081
0.03920 -0.35517 -0.17351
0.10171 -0.37798 0.18205
0.12738 -0.13754 -0.16285
-0.07858 0.00388 -0.05516
0.05981 -0.06727 -0.14864
0.01699 -0.33928 -0.16976
-0.06404 -0.23200 0.15143
-0.16276 0.08617 -0.09555
-0.12339 -0.06252 -0.12911
-0.20170 0.37644 -0.10699
0.18762 -0.15448 -0.16750
-0.18101 0.22218 -0.10182
0.09275 -0.02115 -0.15231
-0.18827 0.27628 0.03399
0.11589 -0.06194 -0.15620
0.07065 0.00388 0.00366
-0.17116 0.14874 0.04920
-0.13252 0.17000 0.13040
0.14454 -0.00748 -0.14991
0.08159 -0.10724 -0.15534
-0.15491 0.19884 -0.13040
-0.19078 0.29502 0.12219
0.07867 -0.37566 -0.17945
-0.21331 -0.33603 -0.09635
-0.22400 -0.38258 -0.05541
-0.13209 0.19924 0.10708
-0.15542 0.37313 0.03214
-0.00406 -0.08592 0.14317
-0.12640 -0.26969 0.14812
-0.05250 -0.37043 0.16540
-0.14052 -0.25321 0.14477
-0.05941 -0.06559 0.13481
-0.11372 0.06229 -0.02560
0.20204 -0.13513 0.14117
-0.19167 -0.24182 -0.11531
-0.20037 0.36648 -0.01405
0.21294 -0.25780 0.05272
0.19227 -0.05124 -0.15626
-0.15761 -0.37848 0.15526
-0.15124 -0.04077 -0.05180
-0.13267 -0.12891 -0.13272
0.19300 -0.06524 0.00355
-0.16155 0.27544 0.13040
-0.16492 0.10225 0.08915
0.16976 -0.34493 -0.18356
-0.03506 -0.39278 -0.16924
0.19581 -0.09847 -0.06553
0.21160 -0.39581 0.16171
0.09551 -0.14118 -0.15988
-0.14030 -0.06042 0.12525
0.01765 -0.11305 -0.14852
-0.13053 -0.30135 0.15094
-0.14823 0.31949 -0.08823
-0.12891 0.17549 -0.09724
0.15149 -0.34840 0.18390
0.16440 -0.29285 0.17846
-0.20083 -0.28166 -0.08029
-0.17207 0.15557 0.04485
0.05136 -0.20087 -0.16074
0.18493 -0.01608 0.15626
-0.17068 0.14518 -0.04529
0.21918 -0.31584 -0.09890
-0.15204 0.00625 -0.12948
-0.08740 -0.15909 0.14112
-0.10029 -0.18547 0.14238
0.06742 -0.00374 -0.13426
0.08449 -0.38208 -0.18064
-0.15125 0.34203 -0.12835
-0.12463 0.14362 0.12449
-0.13719 -0.35546 0.15528
0.20200 -0.15605 0.07585
-0.20632 -0.30559 0.12298
0.15413 -0.03356 -0.15626
-0.14528 -0.00804 -0.00175
-0.20175 0.37678 -0.01384
-0.16256 0.08470 -0.02720
-0.14432 -0.19636 0.13840
0.00763 -0.12105 0.14819
0.00416 -0.17223 0.15312
-0.14561 0.12307 -0.13040
-0.21487 -0.34284 0.05485
-0.17909 -0.18704 -0.12638
0.10013 -0.38997 -0.18298
-0.18408 0.40014 0.01578
0.20070 -0.35356 -0.18440
-0.01187 -0.00521 0.12848
-0.20192 0.37807 0.09561
0.20716 -0.29444 -0.15789
0.20586 -0.19198 -0.07507
-0.22567 -0.38988 0.05671
0.10275 -0.26018 0.17145
-0.18777 0.27259 -0.12888
0.22662 -0.38514 -0.10751
-0.02290 -0.37510 -0.16889
-0.17203 0.26903 -0.13040
0.16581 -0.22183 0.17152
0.22467 -0.36697 0.02157
0.01128 0.00388 -0.10229
-0.15886 0.05710 -0.04369
-0.10965 -0.36007 -0.15855
-0.07808 0.00079 0.10679
-0.15321 -0.07434 -0.09834
0.20076 -0.25373 -0.15748
-0.12825 0.17061 0.02895
0.02359 0.00388 -0.05623
0.20148 -0.15117 0.10044
-0.00083 -0.20027 0.15528
-0.15771 0.04850 -0.01993
0.20005 -0.37150 0.18615
0.19855 -0.20553 -0.16685
0.02351 -0.25847 0.16309
0.15399 -0.15931 0.16541
-0.10941 0.03015 -0.08916
-0.01854 0.00388 -0.01332
0.08128 -0.19448 -0.16326
0.17402 -0.34887 0.18394
0.05280 -0.22826 -0.16338
-0.17614 0.18590 -0.01720
-0.17524 -0.30630 0.14627
-0.19695 0.39087 0.09401
-0.11339 -0.00184 -0.13040
0.21822 -0.30695 0.03782
-0.16340 -0.11869 0.02058
-0.12551 0.15013 -0.00671
0.13535 -0.31753 0.18004
-0.15124 -0.05506 0.09643
0.11299 -0.00973 0.15351
-0.15024 -0.00719 0.12718
-0.14468 0.29307 0.02903
0.22082 -0.33111 -0.15496
-0.10554 -0.28469 -0.15211
-0.07698 -0.25904 -0.15274
0.20841 -0.40154 0.16512
-0.15417 0.36376 -0.07563
-0.04248 -0.22594 -0.15330
-0.10235 0.00388 -0.04584
-0.10490 -0.00348 -0.00427
-0.11559 0.07621 0.06265
0.12070 -0.16676 0.16481
-0.15440 0.36553 0.12308
-0.11752 0.09063 -0.07527
0.08649 -0.38276 0.18091
0.12744 -0.01884 0.15626
0.08023 -0.36097 0.17828
-0.18393 0.24392 -0.12356
0.19229 -0.05133 -0.11678
-0.18522 0.26547 0.13040
0.22608 -0.38010 -0.04097
0.19987 -0.13528 -0.15586
-0.12174 0.00059 -0.02794
-0.15124 -0.02835 0.02908
0.01947 -0.40134 0.17566
0.05384 -0.22823 0.16348
0.06224 -0.04164 0.14877
0.20965 -0.22724 -0.06653
0.19377 -0.07946 0.01634
-0.21692 -0.35174 0.10271
0.15770 0.00246 0.06412
0.06930 -0.32287 0.17369
-0.01828 -0.18065 0.15140
0.00093 -0.22423 0.15764
-0.13271 -0.01038 -0.10827
0.21985 -0.32210 -0.04966
-0.04369 -0.05941 0.13647
-0.19913 -0.27430 0.12328
0.12757 -0.05396 0.15626
-0.18969 0.28688 0.05510
0.19593 -0.09953 0.11866
-0.14298 0.21056 -0.13040
-0.16944 0.13592 0.06198
-0.06266 0.00388 -0.06273
0.19627 -0.10271 0.04927
-0.11908 0.10225 0.03637
0.02035 -0.15562 -0.15327
-0.13909 0.22664 -0.13040
0.18190 -0.10730 0.16032
-0.18524 -0.21382 -0.08924
0.18762 -0.05361 0.15626
0.13139 -0.11950 -0.16151
0.17681 -0.00454 -0.02101
-0.04709 0.00388 -0.04042
0.03351 0.00388 -0.06325
0.19790 -0.11785 -0.15166
-0.19989 0.36296 -0.12906
0.19404 -0.08194 0.08222
-0.10767 0.00388 -0.02136
0.19905 -0.24127 0.17342
-0.07002 -0.15504 -0.14272
0.09901 -0.33899 0.17823
-0.16049 -0.30834 0.14819
-0.06420 -0.36283 -0.16350
-0.22324 -0.37928 -0.00921
0.21524 -0.27919 0.13491
-0.01600 -0.38560 -0.17056
0.20609 -0.30697 0.15793
0.19955 -0.13933 -0.16602
0.19912 -0.12923 -0.05685
-0.15866 0.05559 -0.03853
-0.16050 0.40129 -0.03372
-0.12797 0.01211 -0.13040
-0.14502 0.29559 -0.11567
0.04832 0.00388 -0.00322
0.16859 -0.15340 0.16483
-0.11475 0.06999 0.11244
0.04775 -0.36966 0.17571
0.14053 -0.05077 -0.15626
0.10797 0.00388 0.02366
-0.05046 -0.11230 -0.14053
-0.16100 -0.14446 0.13105
-0.04792 -0.33181 -0.16237
-0.06765 -0.00035 -0.11065
0.22258 -0.34752 -0.14122
-0.10929 0.02926 -0.09568
-0.07874 -0.24151 0.15072
0.12901 -0.37352 0.18447
-0.04940 -0.22734 0.15265
-0.01733 0.00388 0.04145
-0.15542 -0.13341 -0.13055
-0.15124 -0.02388 0.11602
0.01253 -0.00487 0.13050
0.22173 -0.33958 -0.02426
-0.15124 -0.05868 0.00966
0.15478 -0.35333 -0.18438
-0.17922 0.20886 -0.01772
-0.09521 -0.03669 0.13048
-0.12292 0.13086 0.11025
0.13320 -0.17392 0.16676
0.22310 -0.38187 -0.16330
-0.13009 0.18429 -0.12269
-0.13506 0.22138 0.11898
0.06030 -0.00270 0.13098
-0.18462 0.24907 0.09905
-0.15122 0.12561 -0.13040
-0.20159 0.37562 0.05669
-0.12617 0.15511 0.08971
-0.17038 -0.14910 -0.11070
-0.15404 0.36283 -0.03977
0.20238 -0.15920 0.14801
0.01137 -0.14439 0.15106
-0.11661 0.08386 0.01677
-0.18868 -0.22877 0.08168
0.07487 -0.36586 -0.17817
-0.20297 -0.29100 0.10759
-0.19217 -0.24399 -0.10183
0.20774 -0.38897 0.16448
0.14928 -0.26070 -0.17532
-0.11698 0.08658 0.12766
-0.20259 -0.28937 -0.13769
0.21178 -0.24705 0.14197
-0.18208 0.39570 0.07156
-0.14954 0.32931 0.12253
0.21551 -0.28174 -0.05632
-0.13448 -0.00408 -0.06672
0.03471 0.00388 0.09700
-0.03729 0.00388 0.00750
0.22743 -0.39265 0.07107
0.10775 -0.23165 0.16937
0.02400 -0.04375 -0.14433
0.16718 -0.34130 0.18320
-0.09725 -0.20172 -0.14442
-0.18530 0.25419 -0.10500
-0.14337 0.26388 -0.13040
-0.12616 -0.14811 0.13548
-0.18141 0.22517 0.05876
0.07870 -0.14616 -0.15860
-0.15163 0.00319 -0.07717
0.20351 -0.17009 -0.11879
-0.17237 0.15777 -0.11618
-0.11138 0.04487 0.02751
0.18991 -0.17240 0.16669
0.06552 -0.09126 -0.15181
-0.12519 0.14775 0.07497
-0.17202 0.15516 -0.00781
0.03076 0.00388 0.05746
-0.10675 0.00388 0.09202
-0.18156 0.22627 0.02057
0.19479 -0.08895 0.08865
0.19225 -0.19388 -0.16879
-0.19998 -0.27797 -0.06334
-0.15124 -0.02694 -0.07884
-0.10991 0.03386 -0.11829
0.12435 0.00388 -0.04213
0.14345 -0.25122 0.17439
-0.20716 -0.30925 0.04480
-0.14867 -0.01174 -0.01043
0.08457 0.00388 0.06079
0.17428 -0.26304 -0.17555
-0.14063 0.26284 0.05584
0.22545 -0.37420 0.14716
-0.00726 0.00388 -0.06702
0.20402 -0.17481 0.01333
-0.00600 -0.08364 -0.14271
0.21054 -0.23550 -0.03443
-0.13156 -0.36148 -0.15641
-0.10772 -0.00826 0.09453
0.18140 -0.38235 -0.18722
0.02882 -0.30297 0.16769
0.02399 -0.36997 -0.17328
-0.19675 -0.26391 0.08904
-0.06849 0.00388 0.06045
-0.00539 -0.13387 0.14802
0.21934 -0.31738 0.08280
0.20407 -0.17530 0.15105
-0.15059 0.33712 0.11189
-0.12043 0.11233 0.09340
-0.21296 -0.33451 0.03619
0.16707 -0.12233 -0.16179
-0.11368 -0.00877 -0.01647
-0.18126 0.22402 0.06700
-0.15651 0.33077 0.13040
-0.11146 0.00388 -0.01122
-0.15178 0.15476 -0.13040
-0.17049 0.14378 -0.00377
0.22287 -0.35021 -0.03206
0.18878 -0.00893 0.12301
0.02571 -0.02886 -0.14452
-0.03724 0.00388 -0.07958
0.18924 -0.00910 -0.02294
-0.14721 -0.34029 -0.15286
-0.04326 -0.20957 0.15151
-0.04479 -0.16690 -0.14688
-0.14972 -0.09771 0.12749
0.20034 -0.14058 0.15526
0.22498 -0.36984 -0.10471
-0.20463 -0.29825 0.08395
0.09867 -0.31478 -0.17599
-0.13208 -0.39448 -0.15935
-0.17418 0.17125 0.03511
0.06882 0.00388 -0.02595
0.20810 -0.21281 -0.05508
-0.18301 0.23713 -0.06544
0.21036 -0.23387 0.09675
-0.15375 0.36068 0.01616
-0.15068 0.33781 0.10088
0.21728 -0.29820 0.00270
-0.11961 -0.17668 0.13922
-0.06106 0.00388 0.04261
0.04240 -0.22891 0.16236
0.20984 -0.34903 -0.15870
-0.19303 -0.24770 -0.05420
0.21594 -0.28574 -0.09637
-0.15749 -0.09295 0.01868
-0.12436 0.02452 -0.13040
-0.06490 -0.01181 0.13400
0.13568 -0.19423 0.16882
0.19890 -0.12721 -0.02541
-0.07194 -0.35992 0.16244
-0.14308 0.28116 0.12982
-0.15953 -0.10186 -0.09799
0.11849 0.00388 -0.06069
-0.12220 -0.00949 0.02657
-0.07157 -0.20799 0.14806
0.00576 -0.28141 0.16334
-0.08114 0.00388 -0.07727
-0.18891 0.28107 0.11942
-0.11289 0.03441 -0.13040
0.21396 -0.30500 0.16245
-0.02460 -0.11151 0.14345
-0.22225 -0.37496 0.12075
0.17292 -0.25342 -0.17461
-0.17130 -0.36890 -0.15297
-0.14914 0.32630 -0.05342
-0.11389 0.00347 -0.00486
-0.14937 -0.35674 -0.15413
-0.18723 0.26855 -0.11496
0.19687 -0.10831 0.02511
-0.08721 -0.13700 0.13884
-0.14967 0.33023 0.00893
-0.12194 -0.01952 -0.12738
-0.21452 -0.34129 -0.03374
-0.15835 0.25477 0.13040
0.19927 -0.13062 0.15079
-0.17233 0.15749 0.05035
-0.14653 0.30686 0.12405
0.20654 -0.19826 -0.07817
0.19246 -0.13413 0.16295
0.05106 -0.21555 0.16204
-0.11396 -0.12894 -0.13489
0.20841 -0.21566 -0.16209
-0.15614 0.03682 0.00128
0.07477 -0.29633 0.17184
-0.13692 -0.22623 -0.14237
0.21016 -0.23197 -0.11012
-0.03075 -0.08231 -0.13970
-0.12727 -0.34517 0.15537
0.05063 0.00388 -0.00995
0.10764 -0.18421 0.16505
0.09045 0.00388 -0.05096
-0.14932 0.00270 0.13040
-0.18301 -0.20410 -0.03594
-0.14796 -0.39113 0.15740
0.21610 -0.28727 -0.10419
-0.05179 -0.17262 -0.14667
-0.14647 0.30637 0.08393
0.21891 -0.31336 -0.06268
0.20834 -0.21506 0.07229
-0.17917 -0.18736 0.02861
0.11987 0.00261 0.12553
-0.15463 -0.08050 -0.02136
-0.16961 0.13719 0.00989
-0.10923 0.02881 0.09648
-0.17280 0.31303 0.13040
-0.12641 -0.00985 0.00332
-0.13056 0.18780 0.11240
0.16181 -0.00434 -0.14265
-0.15124 -0.05902 0.04699
0.15592 0.00311 0.03895
-0.12498 -0.00973 0.12462
0.12379 -0.02530 0.15591
-0.15124 -0.06017 -0.08979
0.02342 -0.09603 0.14742
0.21743 -0.29963 -0.01842
0.22479 -0.36806 -0.02257
0.07025 -0.10657 0.15395
-0.18992 0.28858 -0.01549
-0.04144 -0.35241 0.16491
0.19467 -0.08788 -0.12577
0.20971 -0.22775 0.16215
-0.20775 -0.31182 0.05283
-0.19769 0.34655 0.12667
0.05839 -0.12767 -0.15478
-0.21096 -0.32581 -0.12015
-0.13503 0.22113 -0.00800
-0.16701 -0.30894 0.14750
-0.21448 -0.34112 -0.08849
-0.16407 -0.34869 -0.15188
-0.10922 0.02871 0.08671
-0.00913 -0.32393 0.16566
-0.15324 -0.07446 -0.01713
-0.11665 -0.02843 0.12799
0.19444 -0.08570 0.15630
-0.17337 0.16527 0.00834
0.22380 -0.35890 0.07946
-0.22498 -0.38686 0.08803
-0.11431 0.00332 -0.01625
-0.18447 -0.21044 0.07466
-0.14096 0.26535 0.03036
0.21193 -0.24843 -0.12428
-0.15336 -0.07500 0.09192
0.06585 0.00388 0.09520
-0.09064 -0.02216 0.13101
0.14381 -0.02591 -0.15626
-0.09398 -0.09368 -0.13354
0.20513 -0.18514 -0.03298
-0.18353 0.24098 -0.08391
-0.12220 -0.00949 0.10374
-0.18665 0.26425 -0.04639
0.13286 0.00388 -0.03575
0.02396 -0.08665 -0.14650
0.19667 -0.10640 -0.11690
0.21222 -0.25111 -0.13541
-0.16390 0.09467 -0.03604
-0.15535 -0.08365 0.02116
0.22124 -0.33503 0.13794
-0.14335 0.28310 -0.00791
-0.15901 0.30850 -0.13040
0.19141 -0.20496 -0.16987
0.20917 -0.22274 -0.04812
-0.19711 0.34222 -0.01621
-0.14114 -0.00652 0.10210
-0.01144 -0.15773 0.14980
-0.11007 0.03506 0.02793
0.22582 -0.40036 0.16392
0.19229 -0.03477 0.02254
-0.06164 -0.11092 0.13909
-0.06802 0.00388 -0.08246
-0.18377 0.31534 -0.13040
0.02394 -0.19686 -0.15754
0.19214 -0.29226 0.16894
0.20790 -0.21096 -0.06412
0.02285 -0.17986 -0.15588
-0.18082 0.22078 0.10242
-0.15080 -0.00303 -0.10024
-0.20116 0.37235 -0.03063
-0.15252 0.00978 0.04048
-0.19009 0.28990 -0.12591
0.22423 -0.36285 -0.00798
-0.16554 0.10685 0.12816
0.17660 -0.00447 0.07656
0.13215 0.00388 -0.04305
-0.20187 0.39519 0.06259
-0.18547 0.25545 0.10989
0.20409 -0.14032 0.14636
-0.11954 0.10569 -0.01998
-0.17569 0.18255 -0.07545
-0.19628 0.33605 -0.03005
-0.16443 -0.12320 -0.02904
0.17762 -0.39762 0.18871
0.19229 -0.02012 0.01589
-0.13059 0.18800 -0.04315
0.08854 -0.10954 0.15629
0.16324 -0.10495 -0.16009
-0.18878 0.28014 0.07817
0.00185 0.00388 -0.07671
0.19593 -0.09953 0.00917
0.20469 -0.18102 -0.11004
-0.12200 -0.12681 0.13374
-0.09190 -0.08861 -0.13325
-0.18289 0.23623 -0.05298
-0.13493 -0.04504 0.12587
-0.10070 0.00388 0.05816
0.19181 -0.18566 -0.16798
-0.15982 0.06428 0.10188
-0.16764 0.30282 0.13040
-0.14403 -0.03034 -0.12481
0.19385 -0.08020 0.02936
-0.14585 0.30174 0.00373
0.16185 -0.19962 0.16935
-0.14152 0.26953 -0.01042
-0.10922 -0.27589 -0.15076
-0.12262 -0.39776 0.16063
-0.10866 0.02452 0.12480
-0.18665 0.26424 0.11911
0.19229 -0.03752 -0.00168
-0.18859 0.27870 0.05017
-0.14255 -0.39920 -0.15870
0.20591 -0.15725 -0.15483
0.10261 -0.30248 -0.17528
-0.13293 0.20544 0.12978
0.19382 -0.07991 -0.05470
-0.08768 -0.10103 -0.13504
-0.14525 0.29732 -0.07883
0.19648 -0.39731 0.17534
0.10591 -0.34157 -0.17917
-0.10542 0.00040 0.03225
-0.12832 0.12929 0.13040
-0.09611 -0.09836 -0.13378
-0.01017 0.00388 -0.03616
0.21823 -0.30707 -0.10706
0.19328 -0.30821 -0.17997
-0.13158 -0.11987 0.13190
-0.16345 -0.32772 -0.14987
-0.12323 0.13313 -0.09587
-0.11086 0.00388 0.01570
0.19495 -0.06388 0.03291
-0.20322 0.38773 -0.06424
0.11222 -0.00455 0.14134
-0.12090 0.11579 -0.08520
-0.19906 0.35672 -0.05529
-0.17295 -0.23789 -0.13940
0.21674 -0.29315 -0.10687
-0.15048 -0.00539 0.10561
-0.18240 -0.32287 -0.14716
-0.21079 -0.32504 0.11783
-0.00862 -0.29373 0.16297
0.09509 -0.20840 -0.16595
0.19508 -0.09162 -0.09307
-0.14772 0.31568 -0.12413
-0.20289 0.38528 -0.08378
0.21219 -0.25397 0.16531
0.11309 -0.04994 0.15467
-0.09847 -0.18188 -0.14221
0.00899 -0.14114 -0.15044
0.03550 0.00388 -0.04948
-0.13645 0.23167 -0.01312
0.15908 -0.12089 -0.16165
-0.06149 -0.23892 -0.15245
-0.17384 0.16874 0.12680
-0.12465 0.14373 0.04472
0.19891 -0.21252 -0.15818
-0.12711 0.09375 -0.13040
0.13475 -0.08415 -0.15806
0.19344 -0.24652 -0.16670
0.19858 -0.12421 -0.13445
-0.09031 -0.06059 0.13105
-0.16502 0.10298 -0.10277
-0.11896 0.10131 0.11784
0.03878 0.00388 -0.02538
-0.16440 0.09834 0.04369
-0.19956 -0.27614 -0.00683
0.10097 0.00388 0.05020
-0.13406 0.21388 -0.01552
-0.13864 -0.32955 -0.15277
0.08585 -0.07368 -0.15234
0.02811 -0.29581 -0.16696
-0.12297 -0.36460 0.15758
0.13443 0.00388 -0.08311
-0.15575 0.37559 0.12914
0.22445 -0.36494 -0.06069
-0.22724 -0.39669 -0.04010
0.07593 -0.19826 0.16304
0.12416 -0.06153 0.15668
0.04561 -0.38096 0.17651
0.19423 -0.08380 -0.13439
0.05345 -0.06720 -0.14790
-0.11525 0.07372 -0.01994
0.03140 -0.20195 -0.15877
-0.13891 -0.27876 -0.14762
-0.01388 0.00388 -0.02844
-0.09932 0.00388 -0.00260
-0.10337 -0.00726 0.12261
-0.12582 -0.31789 -0.15304
-0.02495 0.00388 0.03483
-0.13198 0.19840 0.00185
-0.11832 0.09653 0.04569
-0.12055 -0.00935 -0.10486
0.01687 -0.38516 -0.17392
-0.18826 -0.38176 -0.15238
-0.08094 -0.39134 0.16436
-0.19267 0.30908 -0.11758
0.11198 -0.05864 -0.15454
-0.13123 0.19281 0.01585
-0.15176 0.34581 0.07337
-0.09578 -0.36323 0.16027
0.05860 -0.24901 0.16586
-0.19237 0.30688 0.00960
0.20943 -0.22512 0.06702
0.09055 0.00236 0.12271
0.22271 -0.39125 -0.16220
0.17021 -0.09125 -0.15875
0.12497 -0.17050 -0.16560
-0.02853 -0.23741 -0.15579
-0.15430 0.02313 -0.05773
0.22709 -0.38948 -0.01424
0.06287 -0.05307 -0.14884
-0.20465 -0.29831 -0.06225
0.00505 -0.04084 -0.14213
-0.18251 0.23336 0.00647
0.15080 -0.16409 0.16587
-0.19135 0.29930 -0.10333
-0.13450 0.21720 0.09125
-0.18310 0.23781 0.00940
-0.17302 0.40083 0.02388
0.20462 -0.18043 0.01963
-0.03057 -0.30562 -0.16178
0.20394 -0.17413 -0.16220
0.18337 -0.06235 -0.15810
0.20454 -0.14450 -0.14896
0.19229 -0.04037 -0.08833
0.08770 -0.09445 -0.15472
-0.17553 -0.17153 0.10911
0.12918 0.00388 0.02758
-0.13661 -0.00486 0.03980
-0.19633 0.33638 -0.06582
-0.11912 0.10254 -0.04845
0.02951 -0.36499 -0.17340
-0.14567 -0.31945 -0.15107
-0.19602 -0.26076 -0.09671
-0.10050 -0.27327 -0.15150
-0.19322 -0.37757 -0.15149
-0.17464 0.40109 -0.00850
-0.21937 -0.36243 -0.02219
0.20538 -0.15227 0.16146
0.12984 -0.08737 -0.15837
-0.19229 0.30630 0.08736
-0.12448 -0.00041 0.00961
-0.17618 0.18619 -0.08350
-0.15748 0.38843 -0.08619
0.06718 -0.11249 -0.15421
-0.18015 0.21576 0.00787
-0.18300 0.23702 0.06026
0.03972 0.00388 -0.07434
-0.10880 0.00388 0.02702
-0.01299 0.00388 0.08548
-0.06424 -0.37635 -0.16473
-0.11699 0.08664 -0.09553
0.13997 0.00388 -0.10384
-0.16914 0.13368 -0.01196
-0.15361 0.01792 0.10565
0.17579 -0.00417 0.12453
-0.14936 -0.04384 0.12419
-0.16747 -0.13642 0.00448
0.18238 -0.14762 -0.16885
0.19900 -0.12813 0.05495
0.22757 -0.39392 0.06526
0.09261 -0.39062 -0.18226
-0.15750 -0.10602 -0.12745
0.21607 -0.28697 -0.14837
-0.18665 0.26427 -0.08077
0.11620 0.00388 0.07007
0.19251 -0.06773 0.05962
0.20228 -0.21400 0.16075
-0.13553 -0.00446 0.02569
0.19288 -0.38155 0.18714
-0.17279 0.16093 -0.13032
-0.18573 0.25738 -0.01220
-0.19208 -0.24359 -0.00624
-0.18274 0.23508 0.12948
0.03013 -0.19098 0.15764
-0.17297 -0.16038 -0.04155
-0.13351 0.20981 0.05518
0.04275 -0.35659 0.17400
-0.19478 0.39788 0.04151
0.19229 -0.06012 -0.04488
-0.08930 -0.04843 0.13117
0.20222 -0.15811 -0.04231
0.02249 -0.00446 0.13072
-0.15782 0.35732 0.13040
0.00515 0.00388 0.05483
0.11558 0.00388 0.06229
0.07664 -0.28268 0.17079
-0.18543 -0.21461 0.00692
0.00207 -0.19190 -0.15482
-0.16922 -0.14406 -0.03801
-0.14210 0.04551 -0.13040
0.22522 -0.37209 0.10925
0.11445 -0.13605 -0.16138
-0.05490 -0.19535 -0.14868
-0.11723 0.08842 -0.04419
0.18368 -0.00707 -0.12907
-0.15589 0.37665 -0.00662
0.09467 -0.16542 -0.16200
-0.10467 -0.00520 0.05846
0.02898 -0.39505 0.17607
0.00631 -0.12861 -0.14883
-0.09799 -0.11379 0.13517
-0.12005 0.10944 -0.06132
-0.13478 0.21924 0.07463
0.21615 -0.28770 0.16537
0.09145 -0.09922 0.15565
-0.12448 -0.21106 -0.14223
0.21850 -0.30956 0.01406
0.19826 -0.30738 0.17657
0.06798 -0.06876 0.14975
-0.02287 -0.33673 -0.16541
-0.22814 -0.40059 -0.12930
0.11376 0.00388 0.03672
-0.15464 -0.15257 0.13263
0.10320 -0.13864 -0.16045
-0.17265 -0.15897 -0.13105
0.22488 -0.36890 0.11739
0.18023 -0.36062 0.18509
-0.09931 -0.25867 0.15012
-0.16337 -0.11859 0.04569
-0.12884 -0.38133 0.15849
0.04406 -0.32727 -0.17147
-0.15124 -0.02999 0.07759
0.20801 -0.21194 0.10443
-0.15079 -0.00309 0.06379
-0.00096 0.00377 -0.10878
-0.16655 0.11441 -0.04069
0.20576 -0.15587 0.13618
-0.10823 -0.20455 0.14344
0.11400 -0.24580 0.17131
-0.16886 0.39354 0.09253
-0.10685 -0.12333 0.13513
0.06546 -0.20130 0.16224
-0.18898 0.29836 -0.13040
-0.18033 0.21709 -0.07901
0.09071 -0.22661 0.16715
0.20665 -0.19928 -0.13074
0.18474 -0.33722 0.18280
0.21681 -0.29382 -0.09267
-0.20251 -0.28902 -0.09127
0.19946 -0.13239 0.09256
-0.03554 -0.32834 -0.16333
0.11250 -0.01264 -0.15460
0.15270 0.00388 -0.09653
-0.13738 0.23865 0.11665
0.02959 -0.04927 0.14497
0.22763 -0.39451 -0.14556
-0.11073 -0.29956 -0.15293
-0.14166 -0.00831 -0.13040
-0.11785 0.09306 -0.09371
-0.10899 0.02704 -0.08269
-0.12525 0.14823 0.06585
0.17182 -0.32998 0.18210
-0.07138 -0.33279 -0.16003
-0.19763 -0.26775 -0.01512
-0.21934 -0.36229 -0.12748
-0.18645 0.26272 -0.02635
-0.17121 0.14914 0.00056
0.06477 0.00388 -0.04067
0.20749 -0.20707 -0.10533
-0.01923 -0.24483 -0.15743
-0.15850 0.05441 0.04051
-0.05441 -0.09139 -0.13790
0.20704 -0.20291 0.13847
-0.03114 0.00383 0.10515
-0.15482 0.36864 -0.01742
-0.13861 -0.01089 -0.01838
0.19736 -0.11290 -0.15356
-0.13585 0.22726 -0.05691
-0.16177 0.07880 0.12327
0.07778 0.00388 0.04160
0.19653 -0.10514 0.10117
-0.21551 -0.34560 -0.09672
-0.15845 -0.09714 0.01049
-0.10008 -0.14139 0.13780
-0.05919 -0.26824 -0.15542
-0.15469 0.31849 -0.13040
0.21701 -0.29564 -0.16483
0.19656 -0.10538 -0.15605
-0.12969 0.18135 0.09724
0.02305 -0.07183 -0.14485
-0.16684 0.11653 0.08701
-0.22468 -0.38554 0.10012
0.12006 -0.19149 -0.16700
-0.15124 -0.01848 0.04351
-0.22526 -0.38807 -0.07926
0.20930 -0.22400 -0.11994
0.22806 -0.39848 -0.01833
-0.04692 -0.34495 -0.16367
0.04354 0.00049 -0.12160
-0.19752 -0.26727 0.10560
-0.13366 -0.00378 -0.00716
-0.11521 0.07336 0.07380
0.21702 -0.29574 0.03258
-0.14568 0.30049 0.09615
-0.04552 -0.34443 0.16376
-0.13845 -0.01087 0.06501
-0.11446 0.06782 -0.04695
-0.22534 -0.38842 -0.01051
-0.16529 0.10501 0.10500
-0.13442 0.21654 0.03438
-0.16882 -0.14231 0.03867
-0.16961 -0.32938 0.14933
0.07496 -0.00731 -0.14344
0.21882 -0.31256 0.15105
0.07028 -0.08636 -0.15185
0.05431 -0.32725 -0.17253
-0.15682 0.04186 -0.12341
0.19308 -0.07306 -0.02738
0.09921 0.00388 0.10055
0.18896 -0.00900 0.13345
-0.05849 -0.06494 -0.13571
0.12123 -0.00393 -0.14094
-0.19666 -0.26352 0.09596
0.21401 -0.26773 -0.14862
0.17938 -0.24440 -0.17373
0.21169 -0.24618 -0.16061
-0.15124 -0.03804 0.11488
0.21142 -0.24366 0.02768
-0.22807 -0.40029 -0.07356
-0.13872 0.24863 -0.00894
-0.17796 0.19947 0.09814
0.09638 -0.08972 0.15523
-0.18432 -0.20980 0.12222
-0.03850 -0.15318 0.14619
-0.21377 -0.33804 0.10942
0.10142 -0.04142 0.15332
-0.14533 0.20534 -0.13040
0.12235 -0.39563 0.18579
0.06394 -0.28730 -0.16990
-0.11819 0.09557 -0.07019
-0.18385 -0.20776 -0.10824
0.00205 0.00388 0.08400
-0.10779 0.01807 -0.01854
-0.11277 0.05518 -0.06383
-0.18442 0.24760 0.01077
0.08994 0.00388 0.09050
-0.14683 0.30910 -0.11158
-0.14245 0.27644 -0.00817
-0.01777 -0.08359 -0.14134
-0.20710 -0.30900 -0.14211
0.13877 0.00388 0.05152
-0.13940 0.25368 0.08716
-0.15572 0.37532 -0.06385
-0.15206 0.00637 -0.02094
-0.17506 0.17784 -0.02587
-0.14940 0.32824 0.07973
-0.16761 0.12231 -0.03045
-0.17422 0.39762 0.06184
0.21146 -0.24403 -0.11734
-0.22052 -0.36743 -0.12850
0.19325 -0.07458 -0.13211
0.05274 0.00388 -0.02127
0.11563 -0.35951 -0.18181
-0.20049 0.36740 0.02087
-0.12875 0.17430 -0.08323
-0.18507 -0.39914 0.15429
-0.19952 -0.27598 -0.03831
-0.22427 -0.38377 -0.12201
0.20678 -0.20049 -0.11576
0.22154 -0.33786 -0.13115
-0.15713 0.13860 0.13040
-0.18074 -0.31185 0.14621
-0.17782 0.19843 -0.10257
0.20149 -0.15127 0.07333
0.15595 0.00311 -0.12294
-0.14837 -0.01172 -0.09849
-0.06163 -0.00114 -0.11320
-0.19657 0.33816 0.01890
-0.11339 -0.08417 -0.13029
-0.15308 -0.06445 -0.07916
-0.17147 -0.25554 -0.14141
-0.00256 -0.36411 0.17000
-0.08858 0.00388 0.00907
-0.08283 0.00388 -0.02403
0.20101 -0.36573 -0.18559
-0.17420 0.35935 -0.13040
0.02766 -0.37081 0.17373
-0.14112 -0.33774 -0.15326
-0.16034 -0.37473 -0.15463
-0.16883 0.40140 0.01749
-0.10833 -0.00831 0.02853
0.16170 0.00100 -0.05256
-0.19731 0.34373 -0.09206
0.20406 -0.14006 -0.14001
-0.09152 -0.27294 -0.15250
-0.17673 0.19029 -0.00507
-0.15280 0.35361 0.03085
0.19229 -0.04329 0.13933
-0.18847 -0.38275 0.15245
0.19250 -0.40054 -0.17920
-0.17569 0.18253 -0.02199
-0.15227 -0.30978 -0.14930
-0.11264 -0.36940 -0.15909
-0.20248 0.39851 0.01863
0.17601 -0.00425 0.00290
-0.17745 -0.17988 -0.06365
-0.11527 0.07382 -0.08085
0.20754 -0.20761 -0.13013
-0.19124 0.39714 0.05254
-0.17605 0.39836 0.05324
-0.15903 -0.09967 -0.03324
0.19059 -0.34862 0.18392
0.20927 -0.22363 -0.02111
0.20054 -0.14248 0.10549
0.20623 -0.19539 0.05774
0.21678 -0.29358 0.13215
-0.16539 -0.12737 0.05444
-0.18026 -0.19210 0.06910
-0.18098 -0.19527 -0.10899
0.14962 0.00388 -0.10470
-0.02056 -0.14279 0.14718
0.19321 -0.38954 -0.18792
0.15298 0.00388 -0.02948
-0.01439 -0.25534 0.15889
-0.19819 -0.27020 0.01091
-0.17955 -0.18904 -0.10224
-0.22593 -0.39099 -0.07511
-0.18058 -0.19350 0.11388
-0.22172 -0.37265 0.12624
0.07928 -0.18791 0.16245
-0.17371 -0.31206 -0.14705
0.14478 -0.20969 0.17033
0.21491 -0.27613 -0.10408
0.04161 -0.04444 0.14637
-0.12126 0.11850 -0.00545
0.19229 -0.04281 -0.11073
-0.03834 -0.17397 -0.14837
-0.18804 0.27457 0.01396
-0.15114 -0.00047 0.08871
-0.16942 0.13583 0.08708
0.20336 -0.16868 0.02646
-0.09991 0.00388 -0.07860
0.20530 -0.18677 0.15080
0.04048 -0.00899 -0.14336
0.11940 -0.36822 -0.18299
0.19504 -0.06285 -0.09609
0.22103 -0.33306 0.09634
-0.17064 0.40134 -0.01312
0.20758 -0.20797 0.03564
0.19229 -0.04164 -0.10139
0.18983 -0.27043 0.17627
0.18717 -0.00834 -0.10697
0.11525 -0.09521 -0.15775
0.15036 0.00388 0.10840
-0.21217 -0.33106 -0.06329
-0.10637 0.00747 0.00860
-0.17243 -0.24776 0.14049
-0.10513 -0.00322 0.13040
-0.13548 -0.02606 0.12581
-0.01732 0.00388 -0.06605
-0.17777 -0.18127 -0.09485
-0.03580 -0.02414 -0.13738
0.19414 -0.06222 0.12846
-0.20425 0.39545 -0.00338
-0.15124 -0.05822 0.07347
-0.16218 -0.15925 -0.13245
0.22550 -0.37468 0.02610
-0.08753 -0.24456 0.15002
0.22093 -0.33217 -0.08062
-0.15304 -0.25701 -0.14371
0.20260 -0.16159 0.03014
-0.19342 0.31470 -0.03411
-0.13641 0.23139 -0.11921
0.09910 -0.25669 -0.17075
-0.00127 -0.25846 -0.16053
-0.09307 -0.12853 -0.13728
-0.13378 0.21180 0.12708
0.12917 -0.06495 -0.15728
0.21863 -0.31074 -0.05614
0.04039 -0.02874 0.14623
-0.22834 -0.40146 -0.14161
-0.22083 -0.36877 -0.08760
-0.13324 -0.00515 -0.11424
