ply
format ascii 1.0
comment VCGLIB generated
element vertex 1777
property float x
property float y
property float z
element face 0
property list uchar int vertex_indices
end_header
-0.00087 -0.19387 0.00374
-0.16380 0.23090 0.07661
-0.19886 0.13139 -0.06480
0.13306 -0.23779 0.12078
0.18361 -0.40244 -0.13283
-0.12267 -0.05903 0.20981
-0.15157 0.31636 0.20816
-0.02029 -0.13078 0.10010
-0.11964 0.37150 0.06961
-0.15221 -0.40244 -0.20523
-0.20981 -0.04177 0.11126
-0.20981 -0.12390 0.07734
-0.01554 -0.19387 0.06205
-0.12326 -0.13078 -0.13893
-0.20981 -0.14841 -0.07869
0.20981 -0.20483 0.13653
-0.16969 -0.10433 0.11688
-0.12794 -0.04300 0.15231
-0.15927 -0.02329 -0.00289
-0.20064 0.03671 -0.20981
-0.04243 -0.13078 0.14148
-0.13666 0.05495 0.07661
-0.11964 -0.00514 -0.05087
-0.14366 0.19665 -0.06480
-0.11189 -0.13078 -0.10418
-0.11770 -0.13078 0.06323
-0.20981 0.02115 -0.06318
-0.16417 0.17295 -0.09309
-0.13695 -0.19387 -0.12810
-0.07679 -0.19387 0.09285
-0.03346 -0.19387 -0.00197
-0.14142 0.14987 0.04118
-0.13193 -0.26206 0.11637
-0.04864 -0.13078 -0.11670
0.18952 -0.19387 -0.05937
0.13278 -0.40244 0.12359
-0.20981 0.27020 0.20224
-0.11964 -0.01002 0.02256
-0.00650 -0.13078 0.08198
-0.14822 0.11313 -0.02900
-0.12079 0.09551 -0.09309
0.10805 -0.13078 -0.09461
0.16332 -0.13078 0.15150
0.15079 -0.13078 0.18074
0.20981 -0.23949 -0.17749
-0.16692 -0.03720 -0.09309
-0.20981 0.14782 0.18568
0.12074 -0.13078 0.09947
-0.16467 0.07308 -0.02900
0.03166 -0.19387 0.17273
-0.20370 0.22259 0.07661
0.09902 -0.19387 -0.15735
-0.20930 -0.18727 -0.20981
-0.11964 0.31964 -0.19422
0.20452 -0.31206 -0.20981
-0.19546 0.11222 -0.15145
-0.15725 -0.08067 0.04118
-0.15965 -0.06138 -0.20981
-0.11964 -0.08111 -0.18017
-0.12626 -0.34838 0.17851
0.13161 -0.23826 0.18833
-0.20981 0.16514 0.17821
-0.20981 0.24298 -0.18682
-0.12880 0.23763 -0.00289
-0.16815 0.20224 0.04118
-0.20981 -0.00144 -0.17545
-0.01954 -0.13078 0.20076
-0.15425 -0.32801 0.11637
-0.13088 -0.06024 0.04118
-0.20981 0.15730 0.18371
-0.01426 -0.13078 0.01920
-0.11964 -0.12683 0.10160
-0.16827 0.31750 -0.20664
-0.19861 0.27452 -0.20981
-0.12696 -0.40244 0.17171
0.20981 -0.24732 0.17576
-0.12901 0.05706 0.04118
0.18369 -0.35388 -0.13236
0.20981 -0.21793 -0.15812
-0.17576 0.10582 0.07661
-0.14873 -0.38848 -0.20981
-0.14923 -0.13721 0.20981
-0.11964 -0.09058 0.18590
0.15922 -0.40244 0.19682
0.13161 -0.25139 0.16234
-0.16318 0.38277 -0.10445
-0.17997 0.16819 0.20981
-0.11964 0.32343 0.19985
-0.12626 -0.29072 0.17032
-0.12626 -0.32262 -0.14053
-0.19969 0.13012 -0.00289
0.13161 -0.37708 0.18181
-0.19698 -0.02193 -0.20981
-0.14448 -0.03178 0.15231
-0.01364 -0.13078 -0.12896
0.19551 -0.13078 0.20949
-0.12626 -0.20062 -0.16592
-0.11964 0.15959 0.11365
0.08036 -0.19387 -0.02381
-0.11160 -0.13078 -0.05229
-0.12891 -0.35449 0.11637
-0.14493 -0.10712 0.20981
-0.20981 0.09071 -0.16646
-0.16111 -0.13078 -0.12389
-0.11964 -0.05087 0.15340
0.20981 -0.13418 -0.03545
0.20072 -0.19387 -0.09085
-0.20981 0.22927 -0.04365
-0.11964 0.18043 -0.15957
-0.20981 -0.32906 -0.17770
0.14953 -0.13078 0.14927
-0.15099 0.08870 -0.20981
-0.16918 0.00347 -0.02900
0.06018 -0.16084 -0.20981
-0.20981 0.37446 -0.11208
-0.08117 -0.19387 -0.10937
-0.13805 0.26273 -0.06797
-0.11964 0.09338 0.15569
-0.20981 -0.14850 -0.18909
-0.13034 -0.40244 -0.19377
-0.20981 -0.10688 0.18584
-0.12942 0.35670 0.15693
-0.09409 -0.19387 -0.08016
-0.20981 -0.01944 -0.05780
-0.20504 -0.39988 0.11637
-0.16708 -0.09230 -0.02900
-0.12342 -0.13224 0.20981
0.20129 -0.19387 -0.05897
-0.00771 -0.19387 0.00359
-0.20564 -0.05274 -0.20981
0.08274 -0.19387 0.14165
-0.20981 -0.11875 0.19768
0.20185 -0.15683 -0.20981
-0.11964 -0.10653 -0.04945
-0.19001 0.22890 0.11688
-0.14399 0.16547 0.15231
-0.11964 0.28509 0.12549
-0.20981 0.05356 0.03593
-0.13539 -0.20985 0.20981
-0.17309 -0.29472 -0.20981
0.20039 -0.30020 0.12078
0.02550 -0.13078 0.20251
-0.20981 0.11107 0.19709
-0.15047 -0.28425 0.20981
0.19175 -0.32070 0.12078
-0.18690 0.25559 0.14007
-0.13039 -0.11620 -0.09309
-0.20981 -0.33481 0.16630
-0.20021 -0.15392 -0.20981
-0.00212 -0.17332 0.20981
-0.20981 -0.20264 0.12634
-0.14044 -0.02607 -0.15145
-0.20981 -0.10000 0.11676
-0.14108 0.18484 0.15231
-0.17259 -0.03018 0.20981
-0.12921 -0.07960 -0.06480
-0.16730 0.07127 -0.15145
-0.15602 -0.01462 -0.11974
-0.16067 -0.40244 0.20626
-0.11964 0.01690 -0.03732
-0.11964 -0.06260 -0.15902
0.20981 -0.39508 -0.19892
-0.20981 0.16832 -0.04186
-0.17892 0.12238 0.11688
-0.18254 0.09855 -0.11974
-0.13398 -0.12251 0.20981
-0.17982 -0.03016 -0.02900
-0.12626 -0.33383 0.17139
-0.10716 -0.19387 0.18960
-0.20981 -0.28945 -0.20410
-0.20981 -0.35392 -0.18295
-0.20981 0.27869 -0.19908
0.04586 -0.19387 -0.02011
-0.16667 0.09831 0.15231
0.20981 -0.16499 0.04926
-0.13085 0.11729 -0.06480
-0.14214 -0.08749 0.20981
-0.11904 -0.19387 0.08209
0.20981 -0.16721 0.19708
-0.20750 -0.20389 0.11637
-0.20981 0.04949 0.10217
-0.19329 0.19924 -0.02900
-0.19523 0.18376 -0.00289
-0.20069 0.11840 0.20981
0.13161 -0.29000 -0.17871
-0.02678 -0.19387 0.19021
-0.19436 0.11390 -0.09309
-0.09608 -0.19387 -0.15034
-0.15201 0.10553 -0.06480
-0.11964 0.26849 -0.16246
-0.20981 -0.32350 -0.17827
-0.15756 0.09957 0.20981
0.20981 -0.16388 -0.01259
-0.11964 0.20289 0.01566
-0.01557 -0.13078 -0.20069
-0.11964 0.10173 0.20095
-0.20942 -0.06708 -0.09309
0.06294 -0.13078 -0.02934
-0.03013 -0.19387 -0.06702
-0.14122 0.02714 0.20981
-0.11964 0.11864 0.18675
0.20981 -0.18541 0.06273
0.13161 -0.36716 0.20200
-0.17810 0.17818 -0.15145
0.20981 -0.13335 -0.00619
-0.11964 -0.04734 0.11253
-0.18421 0.08438 -0.20981
-0.05917 -0.18831 -0.20981
-0.12982 -0.19387 0.07701
-0.11964 0.32798 -0.02185
0.20981 -0.15108 0.18413
0.12282 -0.17769 -0.20981
0.05013 -0.19387 0.18529
-0.12579 -0.01212 0.20981
0.20641 -0.19387 0.05334
-0.12626 -0.19514 0.17870
-0.11964 0.22084 -0.04409
-0.10858 -0.13078 -0.00999
-0.11964 0.06311 -0.16835
0.16440 -0.19387 0.06492
-0.11964 -0.02982 -0.20516
-0.13571 0.10644 -0.02900
-0.12911 0.21736 -0.02900
-0.11964 0.25200 0.10205
-0.04202 -0.13078 -0.01842
-0.20286 0.12340 -0.02900
-0.09785 -0.19387 0.02050
0.13688 -0.34338 0.20981
-0.19306 0.14238 -0.06480
-0.17853 0.25046 -0.11974
-0.12618 -0.10389 0.11688
0.13161 -0.38502 -0.16873
-0.00847 -0.13078 0.11990
-0.16570 0.25869 -0.01565
-0.20981 -0.19397 0.12454
0.15499 -0.19387 -0.10555
-0.04349 -0.13078 0.01026
-0.20981 0.03548 -0.11262
-0.03098 -0.13078 0.09278
-0.12876 0.21032 -0.11974
-0.19834 0.03809 -0.00289
-0.14740 0.13367 -0.15145
-0.20981 0.38481 0.03484
0.20981 -0.18532 0.07708
0.13161 -0.37864 0.16824
-0.13557 0.20470 0.04118
-0.20981 0.28291 -0.16663
0.20399 -0.19387 0.09442
-0.14074 0.04651 0.07661
-0.16434 0.00863 -0.00289
-0.20981 -0.11091 -0.19452
-0.20981 0.37344 -0.06692
0.06640 -0.13078 0.11664
0.13898 -0.22390 -0.13236
-0.11964 0.39271 0.01839
-0.19352 0.04067 0.20981
0.05453 -0.19387 0.07955
-0.19844 -0.07632 0.04118
-0.12913 0.00938 -0.02900
-0.20981 -0.29850 0.17435
-0.13395 0.17744 -0.00289
0.20981 -0.16650 0.17824
-0.17070 -0.09881 0.15231
0.14007 -0.24565 0.12078
0.03256 -0.13078 -0.13118
-0.13586 0.24245 -0.20981
-0.20981 0.15054 0.08657
-0.08305 -0.13078 0.08447
0.18951 -0.38687 -0.20981
-0.16326 0.16371 0.20981
-0.14644 0.39802 -0.04797
0.14035 -0.24367 0.20981
-0.08159 -0.13078 -0.01606
0.17233 -0.13078 -0.12016
-0.20981 0.14616 0.20150
0.13023 -0.19387 -0.14637
0.13161 -0.21574 0.12734
-0.15403 0.24536 -0.09309
-0.11964 -0.00146 -0.20683
-0.20624 -0.05267 -0.09309
-0.12485 -0.01312 -0.06480
0.02878 -0.13078 -0.16061
-0.20517 -0.11096 -0.02900
-0.04451 -0.13150 -0.20981
-0.09121 -0.13078 -0.12273
0.16231 -0.37488 0.20981
-0.20981 -0.33408 -0.18402
-0.12626 -0.28683 -0.14803
-0.17649 0.40071 0.02633
-0.15579 -0.08126 -0.00289
0.20981 -0.20043 -0.15717
-0.18090 -0.10551 0.07661
0.20981 -0.16778 -0.16253
-0.16315 0.14212 0.20981
-0.20152 0.25589 -0.06480
0.01683 -0.14151 0.20981
0.03292 -0.19387 -0.16832
0.08579 -0.19387 0.10458
-0.20981 0.29587 -0.10550
0.00387 -0.13078 -0.11674
-0.12063 -0.07185 0.20981
-0.12626 -0.30762 -0.17358
-0.18513 0.20679 -0.09309
0.11564 -0.15743 -0.20981
0.20763 -0.19387 -0.00617
0.20981 -0.19353 0.01264
-0.12626 -0.21713 -0.20632
-0.11964 0.08875 0.18104
0.06011 -0.19387 0.13783
-0.19304 -0.19387 -0.10791
-0.20981 0.23982 -0.09921
-0.20981 0.03154 -0.20464
-0.11964 0.33099 -0.01178
0.02223 -0.13078 -0.18353
-0.15689 0.13936 -0.11974
-0.19466 -0.03576 0.15231
0.13987 -0.37796 0.12078
-0.20981 -0.22689 0.13631
-0.11964 0.32379 -0.04977
-0.20981 0.05889 0.10356
-0.20981 -0.39767 0.12244
-0.10562 -0.13078 -0.15747
-0.17761 -0.30177 0.11637
0.17658 -0.19578 -0.13236
-0.15536 -0.40114 0.20981
-0.18979 -0.32817 0.20981
-0.14079 0.10680 0.04118
-0.04623 -0.13869 -0.20981
-0.20981 0.00998 0.01793
-0.20981 -0.15795 0.09883
-0.20456 -0.02553 0.11688
-0.11964 0.06698 0.03902
0.20981 -0.37062 0.12274
-0.18461 -0.37751 -0.20981
-0.07977 -0.13078 -0.16871
-0.12832 -0.10129 -0.00289
0.14377 -0.13078 0.19672
0.08366 -0.13078 0.01941
-0.04676 -0.13078 0.09964
-0.17948 0.23048 -0.11974
-0.20981 -0.14076 -0.02673
0.13161 -0.29636 0.16451
0.15935 -0.40244 0.16307
0.18518 -0.39675 -0.13236
-0.20981 0.37642 -0.03340
-0.20981 -0.09807 0.02804
-0.11964 -0.12000 0.20643
-0.18730 0.04858 -0.11974
-0.16373 0.35761 -0.15539
0.04970 -0.13078 0.14861
-0.01768 -0.19387 -0.08878
-0.12211 0.38615 -0.09459
-0.15156 0.14979 0.15231
-0.11964 0.33505 0.03410
0.15956 -0.24171 0.12078
-0.18794 0.16090 -0.00289
-0.17829 -0.19387 0.03841
-0.19446 0.11742 -0.20981
0.20981 -0.13341 0.01182
-0.15768 -0.11738 -0.02900
-0.18074 0.29528 -0.20981
0.20981 -0.28270 0.16276
-0.20981 -0.12328 -0.19966
-0.05218 -0.13078 0.20717
0.05133 -0.13078 0.06549
0.13161 -0.35566 0.20333
0.05964 -0.13078 -0.16667
0.19033 -0.35028 0.20981
-0.11964 -0.05699 0.03738
-0.20476 0.09576 -0.15145
-0.11964 -0.06035 0.20317
-0.20981 -0.10561 0.10290
-0.18104 0.13767 -0.20981
0.03334 -0.19387 -0.13184
-0.20825 -0.08324 -0.09309
-0.13800 0.19958 0.07661
-0.11964 0.18379 -0.16417
-0.20182 -0.10840 0.07661
-0.17675 -0.34064 0.20981
0.13161 -0.30262 0.14377
-0.06117 -0.19387 0.07176
-0.16198 -0.08253 -0.15145
0.20981 -0.19306 0.13995
0.20981 -0.22815 -0.18151
-0.10014 -0.14159 0.20981
-0.13216 -0.05416 -0.11974
0.13161 -0.32250 0.18267
0.15781 -0.28230 0.12078
0.20981 -0.13367 0.13825
-0.12346 0.04886 0.20981
-0.18283 -0.13078 0.06018
-0.20981 0.28815 0.04075
-0.07352 -0.13078 -0.14865
-0.12991 0.18710 -0.00289
-0.13527 0.09455 -0.15145
-0.16443 -0.29353 -0.20981
-0.06866 -0.13078 0.09459
-0.20981 -0.16538 -0.01363
-0.09762 -0.15641 -0.20981
-0.14229 0.30945 -0.20981
0.11673 -0.19387 -0.04575
-0.12041 0.13573 -0.11974
0.20981 -0.32659 0.13703
-0.16328 0.38992 0.08376
-0.12626 -0.27998 0.16628
-0.16399 -0.26834 0.11637
-0.20981 -0.14383 -0.10612
0.14155 -0.19387 -0.00344
0.20981 -0.13980 -0.19731
-0.17102 -0.11812 -0.20981
-0.17865 -0.40244 -0.14285
0.14760 -0.33457 -0.13236
-0.20981 0.37383 0.03068
-0.20981 0.00576 0.11330
-0.19325 0.23353 0.07661
-0.01268 -0.19387 0.07540
-0.20981 0.16752 0.20271
-0.20981 -0.15781 0.06316
-0.20981 0.23444 -0.18673
-0.03604 -0.13975 0.20981
-0.20952 0.05475 -0.09309
-0.18035 -0.08959 -0.09309
-0.19970 -0.00583 -0.00289
-0.20981 0.32827 -0.14894
-0.17731 0.12177 0.15231
-0.12626 -0.37269 0.18523
-0.12558 0.16795 0.07661
-0.11964 0.26862 -0.10050
-0.20612 0.21145 0.15231
-0.16025 0.09095 -0.02900
-0.20981 0.18125 0.03298
-0.11973 0.04939 -0.11974
-0.12626 -0.33289 0.15223
-0.13397 -0.00744 -0.00289
-0.17542 -0.07257 0.07661
-0.01049 -0.19387 0.01066
-0.16332 0.14204 -0.20981
-0.10851 -0.19311 0.20981
-0.15582 0.40051 0.02943
0.10180 -0.16068 -0.20981
0.15001 -0.13078 0.08314
0.18587 -0.36572 -0.20981
-0.14355 0.19424 0.04118
-0.20981 0.06425 -0.04693
-0.13747 -0.13078 0.14233
-0.20981 0.30871 -0.07234
-0.18327 0.40122 -0.01846
0.18488 -0.29081 -0.20981
-0.14476 0.00710 -0.06480
-0.13242 -0.28582 0.20981
-0.20981 0.19769 0.02902
-0.10785 -0.19387 0.02433
0.10094 -0.13078 0.06541
0.10675 -0.19387 0.13000
-0.16261 -0.13028 0.11688
-0.15013 -0.19387 -0.03675
0.14724 -0.13078 -0.01278
-0.01666 -0.13078 0.01406
-0.12626 -0.21685 0.15629
-0.15927 -0.11205 0.15231
-0.19097 0.10219 -0.20981
-0.12266 0.20629 0.07661
-0.20981 0.36365 0.14156
-0.18576 0.21393 -0.20981
0.20981 -0.13877 0.20778
-0.20981 -0.09208 -0.03854
-0.12274 -0.18733 -0.20981
-0.16945 0.12347 0.07661
0.20051 -0.24292 -0.20981
-0.19616 0.04822 0.11688
-0.20981 0.29569 -0.08504
-0.12820 -0.31468 0.11637
-0.12281 0.28180 0.20981
-0.20981 0.16563 0.18757
-0.15786 -0.15974 0.20981
-0.13049 -0.03113 -0.15145
-0.20981 -0.19063 0.05227
-0.13778 -0.10894 0.11688
-0.16762 0.18014 -0.00289
0.18215 -0.40244 -0.15607
-0.20981 0.23405 0.20178
0.20981 -0.18497 -0.00363
-0.20359 -0.06195 -0.06480
0.05406 -0.14092 0.20981
-0.20981 -0.17260 0.11495
0.05819 -0.19387 0.17950
-0.12626 -0.37267 -0.17686
-0.20981 -0.10581 -0.17404
-0.12253 0.23794 -0.02900
0.13161 -0.30396 -0.18402
-0.11964 0.08557 -0.00268
-0.15571 -0.01672 -0.00289
-0.17844 0.09663 -0.06480
-0.11964 0.14446 0.20375
-0.20981 -0.15416 0.01131
-0.15288 0.01298 -0.06480
-0.20981 -0.15757 -0.00897
-0.11964 0.29469 0.09942
-0.20981 -0.35047 -0.19958
0.20981 -0.17681 0.03672
-0.17470 0.14458 0.20981
-0.17153 0.04317 0.20981
-0.19625 -0.40244 0.15112
-0.20075 0.05927 -0.09309
-0.12626 -0.20838 -0.16355
0.18577 -0.13078 0.07604
-0.18581 -0.15589 -0.20981
0.15650 -0.13078 -0.07294
0.20372 -0.13078 0.09891
0.20981 -0.17683 0.00313
0.06795 -0.13146 -0.20981
-0.00907 -0.13078 0.03209
-0.12626 -0.26062 -0.18146
-0.19905 0.22867 0.04118
-0.13330 0.21373 -0.06480
-0.11964 0.00251 -0.17098
-0.11964 0.15577 -0.18259
-0.14916 -0.06313 -0.02900
-0.09027 -0.13078 0.17986
-0.10565 -0.19387 -0.05233
0.03265 -0.13078 -0.10259
-0.11964 -0.02423 0.17072
0.06357 -0.13078 -0.14057
-0.16130 0.24686 -0.11974
0.16185 -0.17091 0.20981
0.19071 -0.19387 -0.00430
-0.11964 0.30288 0.19647
-0.11964 0.26168 -0.17512
-0.16068 -0.13078 -0.14203
-0.18358 0.17947 -0.00289
-0.16494 -0.13078 -0.01469
0.05498 -0.13078 -0.11396
-0.06566 -0.19387 0.15224
-0.14349 0.08292 -0.00289
-0.02710 -0.15500 0.20981
-0.19003 0.03291 0.11688
-0.20981 -0.31095 0.15008
-0.20981 -0.13115 -0.00765
-0.20981 0.26637 0.15349
-0.11964 0.13453 -0.10175
0.12726 -0.19387 -0.15270
-0.12794 -0.06891 0.07661
-0.20981 0.04395 0.16513
0.13785 -0.13078 -0.12056
-0.20120 0.09632 0.07661
-0.11964 0.15446 0.20796
-0.13022 0.15245 0.15231
0.19470 -0.27862 0.20981
-0.20981 0.23740 -0.04232
-0.20981 0.38489 0.01421
-0.11964 0.06195 0.03992
-0.08726 -0.13078 -0.07574
-0.15551 0.26643 0.20981
-0.20981 -0.23346 0.15193
-0.18429 -0.01664 -0.09309
-0.15735 0.16540 -0.20981
-0.16899 0.18849 -0.20981
-0.11964 -0.10286 -0.03428
-0.14536 0.07775 0.04118
-0.11964 0.32018 -0.16837
0.01141 -0.19387 0.15535
-0.14874 0.08998 0.15231
-0.20932 -0.36582 -0.14000
-0.20901 0.23776 0.07661
-0.20226 0.06245 -0.15145
-0.20981 -0.23319 0.17158
-0.20981 0.12272 -0.19625
-0.14852 -0.30865 -0.20981
-0.17070 -0.05086 -0.20981
-0.15185 0.04266 0.15231
-0.13439 0.25869 -0.01246
-0.13359 -0.06220 0.07661
0.13204 -0.19387 -0.12983
-0.20981 0.14588 0.15493
0.14694 -0.13078 0.09560
-0.12369 0.00564 0.20981
-0.13245 -0.26728 -0.14000
-0.20981 0.16656 0.01138
-0.15922 0.10547 0.11688
-0.13629 -0.01496 0.11688
0.17010 -0.16839 -0.20981
-0.11964 -0.05016 -0.05007
0.13161 -0.38216 -0.17486
-0.20981 0.06673 0.20205
-0.17851 -0.19387 -0.04808
-0.19022 0.16598 0.04118
-0.14636 0.16144 0.04118
-0.20981 -0.16254 -0.01992
-0.12626 -0.22733 0.14165
-0.15757 0.22311 0.04118
0.04517 -0.19387 -0.16894
-0.12626 -0.37643 -0.16744
0.13161 -0.36183 0.19914
-0.06453 -0.19387 -0.07504
-0.12931 0.20968 -0.06480
-0.00650 -0.19387 0.14469
-0.11964 0.12783 -0.20402
-0.20981 0.13864 0.08557
-0.11964 0.37894 -0.04657
-0.20981 0.23567 0.10711
-0.20981 0.18490 -0.18466
-0.19965 0.03100 -0.20981
-0.11964 -0.10840 0.11334
-0.20981 0.14454 0.02917
-0.20981 0.35673 -0.15565
0.09897 -0.13078 0.12062
-0.17388 -0.19387 -0.05365
0.16684 -0.16225 0.20981
-0.15037 0.00195 0.04118
-0.20981 -0.16779 0.00110
-0.20343 0.37080 -0.13137
0.10678 -0.19387 -0.00548
0.13196 -0.33696 -0.13236
-0.20981 0.00516 -0.05374
-0.01802 -0.19387 0.09395
-0.20848 0.04007 -0.15145
-0.16024 0.20750 -0.20981
0.09009 -0.13078 -0.00768
0.20981 -0.13935 -0.16007
0.20981 -0.36103 0.18739
-0.17088 0.27121 0.20981
-0.14596 -0.33599 0.20981
0.16049 -0.25826 -0.20981
-0.15066 -0.07933 -0.15145
-0.14503 0.08976 -0.09309
0.19628 -0.21168 -0.13236
-0.20981 -0.04510 -0.04081
-0.15091 0.05592 -0.09309
-0.12665 0.03353 0.04118
0.15816 -0.37299 0.12078
0.14298 -0.13078 0.16825
-0.12881 -0.19387 0.10186
-0.12626 -0.29537 0.20852
0.13571 -0.23217 0.12078
-0.11964 0.35105 -0.14528
-0.00006 -0.19387 -0.15576
-0.18607 -0.01155 -0.00289
-0.09434 -0.19387 0.10565
-0.18501 -0.07683 0.20981
-0.11964 0.07810 0.04099
0.17522 -0.38169 -0.20981
-0.11964 0.26449 0.09711
-0.14322 0.21371 -0.15145
-0.17797 0.10157 0.04118
-0.20981 0.32709 0.16611
0.13161 -0.25156 -0.20897
-0.20981 0.24980 0.17906
0.16663 -0.19387 -0.11966
0.08940 -0.19387 0.08835
-0.13642 0.01167 -0.06480
-0.19498 -0.13078 0.14687
-0.20695 -0.09987 0.20981
-0.12774 -0.13038 -0.09309
-0.14476 -0.00707 0.15231
-0.13683 -0.31147 0.20981
0.13161 -0.37446 0.13463
0.13268 -0.40244 -0.15701
-0.20981 -0.22402 0.17909
-0.18607 0.22190 -0.11974
-0.19047 0.25313 -0.02900
0.10222 -0.19387 -0.12714
-0.12270 0.10389 0.20981
-0.20981 0.32355 -0.16559
0.18403 -0.35794 -0.20981
-0.16009 -0.26185 0.20981
0.19156 -0.19387 -0.10141
-0.15089 -0.10565 -0.09309
-0.11715 -0.19387 0.19862
-0.20981 0.12474 -0.11908
-0.16855 0.08957 -0.09309
-0.11964 0.27872 0.07990
-0.11964 0.12538 0.20158
-0.12135 -0.06642 -0.11974
-0.13856 0.04985 -0.15145
-0.17833 0.25477 -0.09309
-0.11964 0.33728 -0.11043
0.13161 -0.36465 -0.16252
-0.11598 -0.13078 0.01147
-0.03918 -0.19387 -0.12091
0.13161 -0.22124 0.20936
-0.20981 -0.24542 -0.14332
-0.11964 0.00163 -0.15241
-0.11964 0.00466 -0.19041
0.20981 -0.33695 -0.20025
0.20981 -0.15169 -0.09719
-0.06943 -0.13078 -0.10270
0.20981 -0.17201 -0.18714
-0.19300 0.39810 -0.04757
-0.16293 0.22842 -0.11974
-0.19323 0.00843 -0.09309
-0.12332 -0.19387 0.12706
-0.19592 -0.16059 0.20981
-0.20981 -0.14019 -0.00656
-0.11964 0.01341 0.00366
-0.17021 0.27090 -0.20981
-0.18228 0.05438 -0.02900
-0.19297 0.06840 0.07661
-0.02990 -0.13078 -0.02619
-0.07246 -0.13078 0.00995
-0.11964 0.38154 -0.05849
-0.20981 -0.25393 0.19945
0.20981 -0.27097 0.12134
-0.12626 -0.23014 -0.19159
-0.05973 -0.15675 0.20981
-0.02858 -0.19387 0.02172
-0.18521 0.20432 0.11688
-0.17041 -0.07869 0.11688
-0.19070 0.10814 -0.11974
-0.19334 0.39248 0.07585
-0.11964 0.18332 0.19078
-0.20981 0.34270 0.03747
-0.11964 0.08601 -0.11557
-0.20206 -0.35594 0.11637
0.13161 -0.36414 -0.20621
-0.18524 0.21337 0.07661
-0.18440 0.12708 0.20981
-0.11964 0.37994 0.06781
-0.20981 0.25889 0.17030
-0.15004 0.04284 0.11688
0.20981 -0.21843 -0.15022
-0.04099 -0.19387 -0.01307
0.13161 -0.19631 0.15853
-0.16556 0.20023 0.07661
0.15008 -0.13078 -0.13704
-0.13830 0.12199 -0.11974
-0.20981 -0.29365 0.18758
-0.13480 0.17243 -0.11974
-0.16415 0.20541 -0.00289
0.03036 -0.13078 0.14625
-0.20981 -0.06801 0.08340
-0.16944 -0.03635 -0.02900
-0.11964 -0.02122 -0.19719
-0.20981 0.07900 0.00992
-0.20981 0.07624 0.02857
-0.11964 0.02265 0.16197
-0.11964 0.29751 0.16594
-0.00473 -0.13078 -0.14083
0.01975 -0.19387 -0.01579
-0.14669 0.11360 -0.15145
-0.17226 0.06199 0.04118
0.20981 -0.18966 0.17085
-0.11964 0.05705 0.00644
-0.19180 0.01945 0.11688
-0.18875 -0.06530 0.15231
0.17473 -0.40244 -0.20524
-0.01649 -0.13078 0.00635
0.06345 -0.19387 -0.08693
-0.20981 -0.17781 -0.00838
-0.16773 -0.05989 -0.11974
0.20738 -0.14724 -0.20981
-0.05619 -0.13078 0.08654
0.09255 -0.19387 0.04188
0.20636 -0.13078 0.05964
-0.15629 -0.03436 0.11688
-0.11964 0.35084 0.10344
-0.20981 -0.12772 -0.19143
-0.18077 0.25559 0.12123
0.20981 -0.23135 -0.14822
0.12286 -0.13078 0.15427
0.08514 -0.13078 0.19399
-0.13192 0.07362 0.15231
-0.13464 0.05943 -0.00289
0.17946 -0.29204 -0.20981
-0.11964 0.36646 0.08392
0.11884 -0.13078 -0.01099
-0.20981 -0.28984 0.16875
-0.20981 0.28187 -0.09334
-0.14889 -0.10107 0.15231
-0.17722 -0.12433 -0.15145
-0.14246 -0.05823 -0.11974
0.02490 -0.19387 0.17119
-0.17473 0.00266 -0.02900
-0.20981 0.15279 -0.15475
0.05911 -0.13078 -0.20583
-0.11964 0.34940 0.05171
-0.06840 -0.19387 0.04059
-0.15502 0.05176 0.07661
0.07334 -0.19387 0.17809
-0.05278 -0.19387 0.17529
-0.13379 0.30855 -0.20981
-0.11964 0.16143 -0.15680
-0.14467 -0.03052 -0.11974
0.15500 -0.28022 -0.20981
-0.17933 -0.19606 0.11637
-0.20981 -0.33685 0.17889
-0.18011 0.25869 -0.01530
-0.12353 0.31745 -0.20670
0.14013 -0.32535 0.20981
0.16182 -0.34213 0.12078
-0.01855 -0.19387 -0.04832
-0.20177 0.12740 -0.20981
-0.20981 -0.38434 0.15039
-0.11964 0.36188 -0.09127
0.10199 -0.13078 0.14975
-0.01915 -0.13078 0.00206
-0.20519 -0.19387 -0.07929
-0.17850 -0.16104 0.20981
-0.17665 0.00570 -0.00289
-0.20981 -0.04422 0.00148
0.14577 -0.28080 -0.13236
-0.14871 0.26056 -0.13137
-0.12626 -0.34945 -0.20516
-0.20981 -0.11971 -0.03226
-0.20935 0.22880 -0.15145
-0.11964 -0.04180 0.15392
-0.16062 -0.03367 0.04118
-0.19950 0.25559 0.15068
0.18574 -0.13078 0.17724
-0.13445 0.25255 0.15231
-0.15442 -0.38700 -0.14000
-0.06767 -0.13078 -0.02159
-0.19207 0.17320 0.04118
-0.18242 -0.25447 -0.14000
-0.12817 -0.04401 0.07661
0.20847 -0.13078 0.12452
-0.11964 0.24259 0.03553
0.20447 -0.13078 -0.02897
0.20527 -0.15019 0.20981
-0.12599 0.01596 -0.00289
-0.11964 0.29498 -0.16685
-0.20273 0.05090 0.20981
-0.20981 0.03859 0.10294
-0.20981 0.26642 -0.01259
-0.17448 0.03363 -0.06480
-0.18655 -0.09576 0.20981
0.19009 -0.15325 0.20981
-0.17062 0.32197 0.20183
0.17003 -0.26205 0.20981
-0.15972 -0.05274 -0.00289
-0.20981 -0.20359 0.17799
-0.20981 0.32624 -0.05948
-0.20981 0.33487 -0.14800
-0.12626 -0.24590 0.13384
-0.15791 0.02093 -0.11974
-0.14894 0.11322 0.15231
-0.19452 -0.06115 -0.02900
-0.13176 0.07932 -0.00289
0.03594 -0.19387 0.00696
-0.11964 0.01740 -0.05653
-0.16286 0.03823 -0.09309
-0.20981 0.18071 -0.06302
-0.17621 0.25900 0.04657
-0.12919 -0.10965 -0.15145
-0.20981 -0.12219 -0.05971
-0.16872 -0.10513 -0.11974
-0.11964 0.09360 0.03757
0.15979 -0.37857 -0.13236
-0.16564 -0.03633 -0.20981
-0.11964 -0.12999 -0.05453
-0.11964 0.05774 0.16257
-0.20981 0.02717 -0.09839
-0.07887 -0.18389 -0.20981
-0.04403 -0.19387 -0.04053
-0.13153 0.06613 -0.02900
-0.15616 -0.22271 -0.14000
0.13841 -0.40244 -0.13532
-0.20912 -0.04292 0.07661
-0.11964 0.34388 0.12926
0.14268 -0.22634 0.20981
-0.13289 0.15654 0.11688
-0.15834 0.10748 -0.00289
0.14428 -0.13078 -0.04643
-0.20981 -0.32765 -0.18834
-0.18824 -0.35999 0.20981
0.18980 -0.29412 -0.20981
-0.20981 0.24648 -0.03134
-0.19631 0.01121 -0.00289
-0.10982 -0.13078 0.00112
-0.17685 0.16518 -0.02900
-0.13146 0.26273 -0.08199
-0.19650 0.25495 -0.15145
-0.07343 -0.19387 -0.05776
-0.02851 -0.19387 0.10695
-0.20981 0.04256 0.08424
-0.15516 0.19518 -0.02900
-0.19668 0.02040 0.04118
0.15243 -0.32795 0.20981
0.15490 -0.16408 0.20981
-0.16043 0.25869 -0.02266
-0.20417 0.35807 0.15490
0.10628 -0.13078 -0.16281
-0.19749 -0.03812 0.11688
-0.20981 0.33753 0.10275
-0.20981 0.08064 0.09209
-0.12284 0.25900 0.04232
-0.16609 -0.19387 -0.09084
0.19328 -0.29830 0.20981
-0.11964 0.02075 0.01331
0.02136 -0.13078 0.19491
-0.11964 0.27714 -0.11961
-0.20696 -0.03139 -0.06480
-0.19556 -0.26524 0.11637
-0.12700 -0.40194 0.11637
-0.19071 0.02139 0.20981
-0.11964 0.31429 -0.19965
-0.11964 0.21940 0.09038
-0.11305 -0.18590 -0.20981
-0.11964 0.24906 0.15818
-0.16054 -0.06645 -0.00289
-0.15253 -0.11816 -0.11974
-0.09606 -0.13078 0.10133
-0.20981 -0.07063 0.00310
-0.08918 -0.19387 0.04157
-0.11964 0.28412 0.18340
-0.18167 0.06324 0.11688
0.19708 -0.16449 -0.20981
-0.20553 -0.03170 -0.20981
-0.11964 0.28281 0.13364
-0.16748 0.07228 -0.00289
-0.20981 -0.00307 -0.18874
-0.20981 0.29437 -0.18281
-0.11964 0.29638 0.00781
-0.07188 -0.13078 -0.05941
-0.11964 0.29533 0.15075
-0.20692 0.25037 0.11688
-0.12626 -0.33954 -0.18569
-0.19416 0.12270 0.11688
-0.11964 0.12316 0.09454
0.20981 -0.22466 0.18000
0.13161 -0.39012 -0.15897
-0.20981 0.32708 -0.15387
-0.12710 -0.35685 -0.20981
-0.11964 0.30685 0.20568
-0.04544 -0.13078 0.02256
-0.20550 -0.00290 -0.11974
-0.19978 -0.12410 -0.06480
-0.16798 -0.02999 0.11688
0.17136 -0.35683 0.12078
-0.12626 -0.35748 0.18014
-0.20266 -0.11675 -0.11974
0.17214 -0.19387 0.00798
0.01698 -0.13078 -0.12245
0.07345 -0.13078 0.17449
-0.14402 -0.01617 0.11688
-0.16144 -0.19387 -0.08536
0.04171 -0.13078 -0.17392
-0.11964 -0.02411 -0.03289
-0.11964 -0.06519 -0.20187
-0.16177 -0.11873 0.11688
-0.15642 -0.03240 -0.00289
0.14771 -0.13078 -0.20624
-0.20981 0.01205 -0.17613
0.15321 -0.13078 0.07088
-0.11964 0.26950 0.09213
-0.17142 0.34243 -0.17786
-0.20981 0.14345 0.16059
-0.18181 0.14768 -0.02900
-0.17550 0.05320 -0.20981
-0.12037 0.20938 0.11688
-0.18395 -0.22501 -0.14000
-0.11964 0.06264 -0.09369
-0.13306 0.07538 -0.15145
0.16361 -0.13078 0.00451
-0.20981 -0.23695 -0.14719
-0.11484 -0.13078 0.05493
-0.06337 -0.19387 0.06298
-0.11964 0.33205 0.04161
0.20981 -0.21920 -0.19742
-0.18436 -0.19650 0.20981
-0.20614 0.10387 -0.15145
-0.17441 0.03532 0.07661
-0.18896 0.03305 -0.09309
-0.20637 -0.13078 -0.01644
-0.16633 0.09157 0.11688
-0.17522 0.15169 0.04118
-0.20981 0.14361 -0.17125
-0.20981 -0.00518 0.16401
0.02488 -0.19387 -0.07347
0.13161 -0.38200 -0.18160
0.11477 -0.13078 -0.06783
-0.20981 0.20324 0.03168
-0.20981 -0.30526 -0.18031
0.13161 -0.30605 -0.20904
0.20981 -0.36079 0.16932
0.03125 -0.19387 -0.20676
-0.15905 0.07172 -0.11974
-0.11276 -0.19387 0.03619
-0.17528 0.19987 0.15231
0.10844 -0.13078 -0.06969
-0.14683 -0.37867 0.11637
-0.11964 0.32474 0.10834
0.14083 -0.35996 -0.20981
0.15605 -0.30368 0.20981
-0.04583 -0.19387 -0.06084
-0.11964 0.35667 -0.11064
-0.19135 0.00611 0.20981
-0.15874 0.15163 0.04118
-0.11964 0.30751 0.08589
-0.17912 0.36316 0.14695
-0.20981 0.23648 0.18157
-0.18408 0.37363 -0.12569
-0.20896 -0.26710 -0.14000
0.20981 -0.17065 0.04549
-0.11781 -0.16529 -0.20981
-0.00163 -0.13078 -0.18070
0.17175 -0.40244 0.18327
0.15364 -0.13194 -0.20981
-0.19412 0.21305 0.15231
-0.16898 0.25559 0.14861
-0.19242 -0.19387 0.10585
-0.17283 0.18717 -0.06480
-0.11964 -0.11775 -0.05615
-0.08045 -0.13078 -0.04989
-0.16978 0.09891 0.20981
-0.13955 0.25260 0.11688
-0.16778 0.14016 -0.00289
-0.00934 -0.13078 -0.18431
-0.13945 -0.11493 0.15231
-0.20981 0.05948 -0.04998
0.07480 -0.18983 0.20981
-0.17478 0.04641 0.04118
-0.11964 0.05864 -0.00289
-0.20981 -0.18926 0.09269
-0.12741 -0.37160 0.20981
-0.20981 0.28690 -0.09548
-0.16752 0.07273 0.15231
-0.20981 -0.16185 0.18439
-0.18710 0.38681 -0.09266
-0.11964 -0.11499 0.09472
0.20981 -0.26136 0.20664
0.19928 -0.19387 -0.11119
-0.20981 -0.18435 -0.18650
-0.12626 -0.30219 -0.15866
0.13161 -0.38858 0.20760
0.10112 -0.13078 -0.01658
-0.15903 0.17560 -0.00289
-0.17947 0.17124 -0.06480
-0.17731 -0.01016 0.04118
-0.17802 0.23817 0.04118
-0.20981 -0.29694 -0.16001
-0.10772 -0.13078 0.13103
-0.20981 -0.19472 0.15996
-0.01473 -0.17007 0.20981
0.05489 -0.13078 -0.09447
-0.14722 -0.08525 0.07661
0.06989 -0.19387 0.01717
-0.13317 -0.02023 0.20981
-0.20637 -0.19387 0.08403
0.20981 -0.17381 -0.09461
0.16316 -0.19387 -0.06879
0.18284 -0.19387 0.00596
-0.07670 -0.19387 -0.12684
0.20981 -0.18762 0.15622
-0.16635 -0.27703 -0.14000
-0.16740 0.06698 0.04118
-0.16673 0.16807 -0.11974
0.20580 -0.13078 -0.14302
-0.19740 -0.40244 0.12718
-0.11964 0.10623 -0.20628
-0.16201 -0.01237 0.20981
-0.20981 0.11704 0.19509
0.13161 -0.32759 0.18119
-0.17553 0.23173 0.20981
-0.19965 -0.05524 -0.15145
-0.11965 0.23831 -0.11974
-0.13674 0.10082 -0.20981
-0.18130 -0.06263 0.15231
0.20981 -0.14873 -0.06515
0.12251 -0.13078 0.18277
-0.16867 -0.09693 0.11688
-0.15375 0.04825 -0.00289
-0.00247 -0.19387 -0.18405
-0.11964 0.30214 0.11995
-0.18344 -0.12824 -0.09309
-0.20981 0.00429 0.20516
-0.20981 -0.19240 -0.04085
-0.18285 -0.11234 0.15231
-0.20981 -0.32941 0.13321
-0.20981 -0.07673 -0.04355
-0.19428 0.07952 0.20981
-0.17234 -0.05376 0.15231
-0.07964 -0.13078 -0.08710
-0.20981 -0.10832 0.02432
-0.19454 0.05354 -0.00289
-0.17604 0.19447 -0.20981
-0.19457 0.04943 0.04118
-0.11964 0.29862 0.07251
-0.15863 0.14600 -0.02900
-0.11964 0.30805 -0.18169
-0.19281 -0.38798 -0.14000
-0.12385 0.24563 -0.06480
-0.17509 -0.19387 0.08941
-0.16253 -0.16096 -0.20981
-0.12626 -0.38031 0.18664
-0.20981 0.26878 0.08596
-0.10593 -0.19387 -0.18427
-0.13326 -0.12075 -0.20981
-0.11964 -0.09506 -0.19444
0.02933 -0.17778 0.20981
-0.20981 -0.21278 -0.17689
0.03977 -0.19387 -0.05177
-0.18695 -0.00427 -0.02900
0.20981 -0.15069 -0.15236
-0.12784 0.02471 -0.06480
0.01019 -0.19387 -0.20513
0.01442 -0.13078 -0.14414
0.16059 -0.20495 0.20981
-0.12626 -0.26000 0.11685
-0.20981 -0.28248 0.14924
-0.13619 -0.34130 0.11637
0.13161 -0.23275 -0.15221
-0.19597 0.23604 0.20981
-0.20981 0.04089 -0.04713
-0.16956 0.23058 -0.20981
-0.11964 0.16726 0.19797
-0.15327 0.12868 -0.20981
-0.20981 -0.11553 -0.06290
-0.19563 -0.10739 -0.20981
-0.14238 -0.26615 -0.14000
-0.11964 0.17439 0.08479
-0.16388 -0.13078 -0.06978
0.14980 -0.29315 -0.13236
0.20981 -0.39633 -0.15041
-0.15210 0.07240 0.11688
0.18247 -0.21337 0.12078
-0.20981 0.11542 -0.18430
-0.12995 -0.39065 0.11637
-0.11964 0.12624 -0.04784
-0.18232 0.07967 0.20981
-0.20981 0.30652 -0.08001
-0.20981 0.02715 0.00339
-0.20981 -0.33181 -0.16887
-0.19925 0.08335 -0.06480
-0.11964 0.28821 -0.02144
-0.13012 -0.00101 0.04118
-0.06650 -0.19387 0.19875
-0.17697 0.04935 -0.02900
-0.11964 0.14457 0.00120
-0.20981 0.14623 -0.15970
-0.18878 0.22806 -0.11974
0.10635 -0.19387 0.06023
-0.15532 -0.02223 0.07661
0.20981 -0.14053 0.16326
0.06981 -0.19387 0.17212
-0.14371 0.22271 0.07661
0.16633 -0.21041 -0.13236
-0.11964 0.26448 -0.20756
-0.20981 0.35389 -0.07031
-0.19348 -0.40244 0.16317
-0.12456 -0.16178 -0.20981
0.07058 -0.13346 0.20981
0.13161 -0.25787 0.13693
0.17764 -0.13078 -0.20891
-0.18123 0.17875 -0.20981
-0.11964 -0.11147 0.03791
0.15490 -0.17388 0.20981
-0.16165 0.21814 -0.20981
0.00652 -0.13461 -0.20981
-0.11964 0.28494 0.09729
-0.13950 0.01359 0.15231
-0.11964 -0.07250 -0.06440
0.13161 -0.31230 0.12189
0.01697 -0.19387 -0.06458
-0.20981 0.27153 0.06611
0.13161 -0.22781 -0.14739
-0.16623 -0.12892 -0.11974
-0.14710 0.33438 -0.18763
-0.16207 -0.25334 0.11637
-0.07599 -0.19387 0.12895
-0.01660 -0.13078 0.10838
-0.20841 0.16438 0.04118
0.14863 -0.23479 -0.13236
-0.16021 0.19185 0.15231
0.13161 -0.30473 0.13518
-0.19836 0.00476 -0.15145
-0.20981 0.10140 0.15309
-0.17549 0.07525 -0.15145
0.02778 -0.13078 -0.04866
-0.20637 0.02407 -0.11974
-0.19003 0.39999 -0.03693
-0.11964 0.03113 -0.11426
0.05261 -0.19387 0.04441
0.14686 -0.13078 -0.15518
-0.20981 0.01711 -0.04829
-0.14604 0.02201 0.11688
-0.20981 -0.22202 0.14035
0.20981 -0.36343 0.12180
-0.20981 0.34812 -0.10709
0.20981 -0.17587 0.07529
0.14189 -0.31683 -0.20981
-0.06229 -0.13078 -0.15870
-0.16687 0.23966 0.07661
-0.18061 0.19192 -0.02900
-0.20981 -0.18594 0.19151
0.20981 -0.40084 -0.20344
-0.20981 -0.17721 0.08615
0.13435 -0.32936 -0.13236
0.03352 -0.19387 -0.01356
-0.12626 -0.32255 -0.18946
0.18409 -0.13078 0.11338
-0.07480 -0.19387 -0.15422
-0.20274 0.10653 -0.00289
-0.19274 0.04172 0.11688
-0.17140 0.08371 0.20981
-0.11964 0.15259 0.00390
-0.18931 0.26273 -0.06781
-0.12626 -0.38650 0.16180
0.07924 -0.19387 0.19263
-0.12952 0.36948 -0.13401
0.06752 -0.19387 -0.07579
0.19690 -0.40244 -0.15220
-0.19717 0.11973 -0.15145
-0.17536 -0.21634 0.11637
-0.18978 -0.40244 0.14309
-0.13664 0.19236 0.20981
-0.20981 -0.21063 0.20330
-0.11964 -0.02093 0.01595
0.07277 -0.16824 -0.20981
-0.20981 -0.15349 -0.04899
0.16262 -0.22536 0.20981
0.14632 -0.23968 0.20981
0.15320 -0.40244 -0.20195
0.20981 -0.13620 0.08602
0.20639 -0.23717 0.20981
-0.11920 -0.19387 0.15125
-0.14322 0.25387 -0.15145
0.13161 -0.34242 0.15480
-0.11968 -0.07609 -0.09309
0.18679 -0.26344 -0.13236
-0.20381 0.12977 -0.15145
0.20562 -0.30347 -0.20981
-0.20981 -0.04776 -0.18338
0.13161 -0.38466 -0.14813
-0.11964 0.32310 -0.10332
-0.03328 -0.19387 -0.19645
-0.11964 -0.00356 -0.15158
-0.20981 -0.17172 0.00658
-0.11964 0.21510 -0.11943
-0.20981 0.25692 0.20021
-0.18254 -0.09338 0.04118
0.15667 -0.13078 -0.01492
-0.14149 0.17042 -0.06480
-0.18345 -0.13078 -0.01027
-0.15897 0.15909 -0.09309
-0.20797 -0.00904 0.11688
-0.17385 -0.32471 -0.14000
-0.15347 0.24093 -0.20981
-0.15646 -0.24021 0.20981
-0.19746 0.08994 -0.00289
0.20672 -0.19387 0.08930
-0.18799 -0.11180 -0.20981
-0.17903 -0.02652 -0.06480
-0.16903 -0.19387 -0.00972
-0.17142 0.03666 -0.09309
-0.20981 -0.32688 0.14099
-0.17237 0.21398 0.07661
-0.15203 -0.40244 0.12142
-0.11964 -0.08304 0.07739
-0.15412 0.25541 -0.09309
0.20981 -0.28604 0.13572
-0.13964 0.01550 0.20981
-0.14480 -0.28475 0.11637
-0.06332 -0.19387 0.12482
-0.10184 -0.13078 0.18779
-0.04331 -0.19387 -0.05368
0.20981 -0.25585 -0.15394
-0.20981 0.18306 0.11352
0.20981 -0.24596 -0.17543
-0.15232 -0.10480 -0.11974
-0.20981 0.09832 -0.10769
-0.12789 0.40132 -0.01688
-0.08062 -0.19387 -0.17733
-0.15469 0.37533 -0.12227
-0.12332 -0.19387 0.11116
-0.11964 -0.01963 -0.10313
-0.04022 -0.19387 -0.08874
-0.03267 -0.19387 -0.09260
0.07726 -0.13078 -0.04797
-0.13686 -0.34586 0.20981
-0.11964 -0.05037 -0.19949
-0.07830 -0.13078 0.13780
-0.20981 0.37050 -0.10748
0.17247 -0.18497 0.20981
-0.15368 -0.23276 -0.14000
0.15090 -0.27185 -0.20981
-0.20981 -0.39605 0.18287
0.19186 -0.28800 -0.13236
-0.16892 0.10721 -0.09309
0.15747 -0.36520 -0.13236
-0.18364 -0.30454 0.11637
-0.12949 -0.08941 0.07661
-0.12227 0.06462 -0.00289
-0.13105 -0.13078 0.11747
0.00853 -0.19387 -0.19415
-0.12626 -0.37714 -0.14974
-0.15974 0.12817 -0.09309
0.13161 -0.29244 -0.16181
-0.13353 -0.38083 -0.20981
-0.09807 -0.13078 -0.05477
-0.20981 0.25314 0.08108
-0.17487 0.24220 -0.00289
-0.11964 0.18591 0.15873
-0.20981 0.14325 0.00947
0.19023 -0.19387 0.08073
0.19612 -0.19387 -0.09570
-0.20981 0.28982 0.20909
0.20390 -0.13078 0.02369
-0.19143 0.14084 0.15231
-0.20981 0.04501 0.09731
-0.01076 -0.19387 -0.16276
-0.13205 0.20208 0.07661
-0.13370 0.01801 -0.11974
0.14975 -0.24484 -0.13236
-0.12626 -0.39952 0.17827
0.17312 -0.19387 -0.06734
-0.20981 0.27478 -0.09263
-0.11964 -0.03032 0.01260
0.19072 -0.19387 -0.01797
0.15374 -0.34772 -0.20981
0.03445 -0.13078 0.08055
0.20981 -0.32167 0.16851
0.13161 -0.39249 -0.19809
0.07429 -0.19387 -0.01499
-0.20056 0.08486 -0.00289
-0.11964 0.34071 -0.02134
-0.11964 0.00786 -0.16209
-0.20605 0.30221 -0.20981
0.20981 -0.23928 0.17630
-0.17216 0.12667 0.11688
-0.15504 0.08261 -0.09309
-0.14347 0.39040 -0.08219
-0.15418 0.11087 -0.15145
-0.07017 -0.19387 -0.02022
-0.13872 0.13142 -0.11974
-0.11993 0.36413 0.14500
-0.16805 0.40021 0.03399
-0.20981 0.00098 -0.16902
-0.17166 0.34877 -0.16848
0.17356 -0.24271 -0.13236
-0.20981 0.22447 0.00860
-0.00984 -0.19387 -0.14142
-0.12626 -0.27460 -0.18910
-0.15708 0.04888 -0.20981
-0.12626 -0.25766 -0.14572
-0.03402 -0.19387 0.10852
-0.13401 -0.02084 0.11688
0.16852 -0.23096 -0.13236
-0.19336 -0.13078 0.13288
-0.11964 0.14681 -0.10901
0.20981 -0.28415 -0.14280
-0.18595 0.22645 -0.00289
0.13161 -0.39695 0.14086
-0.02347 -0.13078 0.16074
-0.16728 -0.13078 0.04375
-0.13881 -0.02557 -0.11974
-0.19467 -0.05371 0.15231
-0.14829 -0.06950 -0.11974
0.11438 -0.13078 -0.15219
-0.17831 0.26273 -0.09120
0.20981 -0.20781 0.19528
-0.08202 -0.13078 0.00637
-0.14717 -0.08306 -0.15145
-0.11964 0.20520 -0.05229
-0.11964 0.30782 -0.02528
-0.17456 -0.02132 -0.02900
-0.15932 -0.05775 0.20981
0.19861 -0.22825 -0.20981
-0.11964 0.17502 0.00145
-0.14988 0.06832 0.07661
-0.20981 0.01052 -0.20725
-0.17333 -0.29261 -0.14000
0.20509 -0.40244 0.14282
-0.18220 0.12787 0.11688
0.10236 -0.13078 -0.18191
-0.14641 0.20062 -0.15145
-0.11964 0.39233 -0.06939
-0.10509 -0.13078 0.13722
-0.20981 -0.28494 -0.17680
-0.20981 -0.02158 -0.03159
-0.11964 0.16602 0.16952
-0.12626 -0.36596 -0.19204
-0.16204 0.00009 -0.00289
-0.18526 -0.04520 -0.09309
-0.19259 -0.27778 -0.14000
0.20981 -0.17972 -0.20907
-0.12894 -0.31767 -0.20981
-0.13354 -0.20039 -0.20981
-0.20981 0.03159 0.19020
0.18080 -0.37434 0.20981
-0.20606 -0.39404 -0.20981
-0.12626 -0.33305 -0.18873
-0.19724 0.36672 -0.13957
-0.20981 0.35230 0.13237
0.15324 -0.40244 -0.14465
-0.19933 0.31886 -0.20511
-0.18882 -0.19387 -0.06126
-0.19344 -0.11566 0.11688
0.13161 -0.35416 -0.19285
-0.11983 -0.19387 0.16540
-0.11964 0.15909 -0.20980
-0.11964 0.27943 -0.15887
-0.11964 0.18879 -0.05036
-0.20238 0.10441 0.04118
0.20981 -0.17693 0.10777
-0.11964 0.10779 0.07915
0.20981 -0.16591 -0.08040
-0.12626 -0.34362 0.14690
-0.20981 0.20644 0.10529
-0.17881 0.16006 -0.02900
-0.14000 -0.09681 -0.06480
-0.17506 -0.02173 0.15231
-0.14865 -0.07367 0.15231
0.05148 -0.13078 -0.10433
-0.20981 -0.32559 -0.15858
-0.15725 0.20126 0.20981
-0.20200 0.12273 -0.11974
-0.13309 -0.25120 -0.20981
-0.11079 -0.13078 0.14360
-0.18354 -0.04528 0.07661
-0.11964 -0.11795 0.19391
-0.18494 0.01439 0.20981
0.17418 -0.16699 0.20981
-0.03172 -0.13078 0.06353
-0.15497 -0.11761 -0.00289
0.13704 -0.37866 0.20981
-0.18664 -0.25244 0.20981
0.13970 -0.19387 -0.08281
-0.20981 -0.36060 -0.17686
-0.18316 0.19073 -0.20981
-0.16566 -0.19387 -0.10578
-0.19007 0.24094 -0.00289
-0.17771 -0.07351 0.20981
-0.20981 -0.32681 -0.19538
0.17155 -0.20885 -0.20981
-0.13379 0.25988 -0.06480
-0.15787 0.19744 -0.06480
-0.11345 -0.13078 -0.02074
0.20981 -0.30923 0.16435
-0.19175 0.24270 -0.20981
-0.11964 0.05444 0.10155
-0.00334 -0.19387 -0.09319
-0.19336 0.17706 -0.09309
-0.06085 -0.19387 0.19188
-0.13390 0.20522 0.15231
-0.11964 0.23943 0.01239
0.13082 -0.19387 -0.03666
-0.20981 0.30760 0.17374
-0.20981 0.35845 0.02317
0.16493 -0.13078 -0.09441
-0.20981 0.38414 0.02001
-0.13390 0.40004 -0.03608
-0.20981 0.25046 -0.16431
-0.19545 -0.08222 0.11688
0.04863 -0.18891 -0.20981
-0.17839 -0.23980 -0.14000
-0.12626 -0.36823 -0.14614
0.03869 -0.13078 -0.16892
-0.20195 0.07506 -0.02900
-0.04294 -0.19387 0.16692
0.01450 -0.19387 0.11466
-0.20406 -0.09346 -0.09309
-0.18437 0.12871 -0.02900
0.18411 -0.25681 0.12078
-0.11964 0.08739 -0.18578
-0.20981 -0.01716 0.01157
-0.16599 -0.19387 0.05731
-0.14554 -0.02593 -0.02900
-0.18338 -0.19387 -0.07244
-0.11964 -0.10462 -0.17194
-0.11964 -0.06840 -0.03624
-0.03451 -0.19387 -0.13863
-0.15357 0.32836 0.19461
-0.16220 -0.13078 0.14663
-0.11964 0.13512 0.01041
-0.20981 -0.36704 0.11951
0.17772 -0.13078 0.19551
0.18182 -0.15331 0.20981
0.04974 -0.19387 -0.10447
-0.17443 -0.36624 -0.14000
0.01619 -0.19387 -0.11769
0.20981 -0.26530 0.13565
-0.20981 -0.25812 0.17061
0.15488 -0.19387 0.04077
0.20047 -0.13078 -0.13875
-0.14037 -0.03905 -0.06480
-0.18774 -0.32688 -0.20981
-0.01595 -0.16174 0.20981
-0.14427 -0.01819 0.07661
0.13607 -0.14830 -0.20981
0.20981 -0.19144 0.01799
-0.18382 0.23958 -0.02900
-0.11964 -0.03797 -0.19347
-0.11766 -0.13078 0.19064
-0.14528 0.14869 0.15231
-0.20981 -0.08124 0.07919
-0.19050 0.01353 -0.00289
-0.18423 -0.02289 0.04118
-0.09829 -0.19387 0.08226
0.17508 -0.20158 0.20981
-0.20132 0.03012 0.20981
-0.14673 0.04927 0.11688
-0.20981 -0.09109 0.02563
-0.12963 0.28786 0.20981
-0.12696 -0.07618 -0.15145
-0.14172 -0.13078 -0.02327
-0.04254 -0.19387 0.10874
-0.12350 0.06992 0.04118
-0.20981 -0.13403 -0.13947
-0.11964 -0.09842 0.17352
0.01713 -0.19387 -0.07377
-0.16951 -0.10589 0.04118
-0.15165 0.15474 -0.00289
-0.14680 0.24071 0.11688
-0.20981 0.39022 -0.02716
-0.13286 0.33310 -0.18906
-0.17425 0.24871 -0.20981
-0.14672 0.00941 -0.20981
-0.12626 -0.27777 0.14970
0.05639 -0.13078 -0.19139
0.05608 -0.13078 0.03331
-0.20981 -0.05830 -0.05729
-0.10892 -0.13078 0.07869
0.13355 -0.26588 -0.13236
-0.20943 -0.07726 0.20981
-0.20981 -0.08064 0.01977
0.20981 -0.22962 -0.20314
-0.13878 -0.07415 0.15231
-0.13708 0.27257 0.20981
-0.20981 0.09587 0.02974
-0.20981 0.20039 -0.17413
-0.19105 0.15204 0.04118
-0.15827 -0.25119 -0.20981
-0.16193 -0.02552 0.20981
-0.20590 0.08109 0.20981
-0.16394 -0.19387 0.06558
-0.12626 -0.33151 0.13427
-0.18245 0.36981 0.13357
0.20981 -0.26542 -0.20484
-0.16404 -0.10589 0.04118
0.03022 -0.13078 0.20671
0.04962 -0.13078 0.05706
-0.11964 0.05912 0.02805
-0.01306 -0.13078 -0.11423
-0.11964 0.20858 0.20753
-0.20981 -0.21130 -0.17092
0.20981 -0.17682 -0.09043
-0.14944 0.06401 -0.15145
0.12725 -0.13078 0.16805
-0.19892 0.10056 -0.20981
0.17011 -0.19387 -0.07830
-0.12560 0.02263 -0.00289
-0.15582 -0.01234 -0.09309
0.10082 -0.19387 -0.14124
-0.15657 0.25971 -0.15145
-0.11964 0.27060 0.20056
0.08944 -0.19387 -0.08127
-0.19320 -0.21689 0.20981
-0.06045 -0.19387 -0.06301
-0.20981 0.00258 0.18468
-0.16863 -0.30766 0.20981
-0.08817 -0.13078 -0.20810
-0.13870 0.10487 -0.00289
0.20981 -0.23044 0.17144
-0.14435 -0.01826 -0.02900
0.20981 -0.30508 -0.20511
-0.17044 0.04966 -0.20981
-0.18662 -0.01260 0.11688
0.20981 -0.14506 -0.12418
0.13161 -0.21627 0.19809
-0.11964 -0.02881 0.19969
-0.13661 -0.08783 -0.11974
-0.11964 0.10129 0.00689
-0.11964 -0.11851 0.08797
-0.13665 -0.01005 -0.15145
-0.20425 -0.31348 -0.20981
0.13161 -0.34144 -0.17468
-0.20981 0.39173 0.05659
0.19283 -0.40244 -0.17915
-0.13334 -0.10572 0.04118
-0.11964 0.03156 0.11014
-0.12626 -0.20999 0.20291
0.20981 -0.21642 0.19026
-0.13903 -0.19387 -0.11144
-0.19302 -0.19387 0.09593
-0.15859 0.36824 -0.13650
-0.20981 -0.29806 0.12523
-0.20981 -0.13812 0.04080
-0.17509 0.38718 0.09179
-0.20981 0.00696 -0.17147
-0.11964 0.36475 -0.03599
-0.20981 0.13180 -0.15939
0.18297 -0.40244 -0.18508
-0.13680 0.24935 -0.20981
-0.16117 -0.07190 -0.00289
-0.16153 -0.28927 -0.20981
-0.09516 -0.19387 0.12172
-0.11964 0.25760 -0.18867
-0.12626 -0.22071 0.14985
-0.12626 -0.36097 -0.15680
0.07403 -0.19387 -0.00955
-0.11964 0.27975 0.05897
0.13161 -0.23756 -0.20421
-0.20893 0.17502 0.11688
-0.20428 -0.21030 -0.20981
-0.16217 0.25039 0.07661
0.13161 -0.21378 0.16690
-0.20981 0.09961 0.00906
-0.13346 0.24328 0.11688
-0.09713 -0.13078 -0.06692
-0.18640 -0.19387 0.11373
0.20981 -0.34002 0.14549
-0.15063 -0.00627 0.15231
-0.20981 -0.22915 -0.14451
0.03119 -0.13078 -0.20584
-0.15550 0.24953 -0.02900
-0.15099 -0.16607 -0.20981
-0.16121 0.03483 -0.15145
0.17589 -0.13078 -0.01066
0.19684 -0.40244 0.12809
0.00847 -0.19387 -0.02752
-0.05894 -0.19387 0.01858
0.19340 -0.13078 0.07150
-0.11964 0.32917 0.06826
0.01664 -0.19387 -0.14971
-0.19917 0.30186 0.20981
-0.11964 0.32122 0.08033
0.08799 -0.13078 0.00104
-0.11964 0.07300 0.19830
-0.19368 0.40088 -0.02352
0.12341 -0.19387 -0.18952
0.20981 -0.17937 -0.06399
-0.06478 -0.13078 -0.01114
-0.15249 -0.40244 -0.18589
-0.20981 0.25334 0.10969
-0.12626 -0.31910 0.12224
-0.18912 -0.12802 0.15231
0.17473 -0.19928 0.12078
0.20981 -0.28473 -0.19281
0.04158 -0.19387 0.01356
-0.18930 0.37115 0.13087
-0.18358 0.40239 0.00078
-0.13416 0.26056 -0.14384
-0.09261 -0.19387 0.02860
-0.18111 -0.01430 0.11688
-0.20981 -0.11492 0.09349
-0.19402 -0.38437 0.20981
0.20689 -0.23663 -0.20981
-0.17097 -0.01930 -0.06480
-0.13370 -0.06717 -0.06480
-0.15838 -0.19387 -0.02753
-0.20981 0.29446 0.12271
-0.19390 0.05908 -0.02900
-0.16154 0.11793 0.11688
-0.20945 0.33333 0.18900
-0.20981 0.28817 0.15948
-0.00443 -0.13078 0.08907
-0.04209 -0.13078 0.13434
0.15727 -0.17911 -0.20981
-0.17769 0.20745 0.20981
-0.11964 0.01810 0.18598
-0.20981 -0.00091 0.09176
-0.18006 0.03885 -0.20981
0.08134 -0.19387 0.02573
-0.16409 0.24768 -0.20981
0.13161 -0.25975 0.16780
-0.20981 0.08586 0.10822
-0.09815 -0.19387 -0.07405
-0.20981 0.15624 0.19546
-0.05613 -0.13078 0.04146
-0.11964 0.35681 0.15147
-0.20832 -0.19387 0.07179
0.17871 -0.13078 0.16955
-0.13083 -0.11033 0.07661
0.13619 -0.21643 -0.13236
0.16903 -0.40244 -0.15992
-0.14910 0.12483 0.11688
-0.11964 0.11297 -0.09336
-0.11964 0.13402 -0.03778
0.02541 -0.19387 -0.05684
-0.19280 0.07094 -0.06480
-0.19105 -0.07424 -0.11974
-0.11964 -0.05524 -0.11391
-0.11964 -0.08505 0.09588
-0.19386 -0.19387 -0.09744
0.00110 -0.19387 0.16152
-0.20981 -0.29990 -0.20735
-0.11964 0.28334 -0.11811
-0.20981 0.03116 0.20033
0.20614 -0.36984 -0.20981
-0.20981 0.27724 0.03554
-0.11964 0.33120 -0.16390
-0.11964 0.03830 -0.18083
0.04684 -0.19387 0.17515
-0.12671 0.10736 0.20981
-0.20981 0.14817 -0.10293
-0.20981 -0.18334 -0.02308
-0.11964 0.02668 0.17556
-0.12626 -0.36404 0.17574
-0.14595 0.10265 0.20981
-0.11964 0.18230 0.16964
-0.18753 0.39935 -0.04136
0.13157 -0.19387 0.08645
-0.13561 0.06002 0.11688
0.15401 -0.40244 0.17625
-0.19025 0.20493 0.11688
-0.20981 -0.07784 -0.03541
-0.11964 0.25540 0.09126
-0.18585 -0.24346 -0.20981
-0.17003 0.01895 -0.15145
0.20373 -0.31072 0.20981
-0.20981 0.32766 -0.00045
-0.19513 -0.23855 0.11637
-0.20981 0.33185 0.05777
-0.15314 -0.10864 -0.02900
0.10138 -0.19387 -0.08567
-0.11964 -0.10457 0.16603
0.13161 -0.34514 -0.13797
-0.12825 0.23253 -0.09309
-0.15890 0.36696 0.13930
-0.11964 0.07079 -0.03952
-0.18199 0.23753 0.20981
0.18057 -0.40244 0.16319
0.14163 -0.40244 0.13944
-0.13404 -0.39599 0.11637
0.16072 -0.13078 -0.08509
0.19057 -0.21922 -0.13236
-0.11964 0.08118 -0.10731
0.16230 -0.22569 0.12078
-0.20981 -0.36014 -0.20244
-0.00616 -0.13078 0.15193
0.14064 -0.13078 -0.07610
-0.11964 0.32184 0.10123
0.14794 -0.32428 0.12078
-0.20981 0.30981 0.17855
-0.11964 0.24903 -0.03395
0.20981 -0.15865 -0.18657
0.08345 -0.13078 -0.03725
0.13835 -0.27553 -0.20981
-0.15574 -0.03749 -0.09309
-0.00689 -0.13078 0.02410
-0.14232 -0.34799 0.20981
-0.12361 -0.19046 0.20981
-0.13308 -0.28736 -0.20981
0.06284 -0.13078 -0.10776
-0.11964 0.21302 -0.15540
-0.18738 0.06492 0.04118
-0.13325 -0.04083 0.07661
-0.17416 -0.19387 0.01153
-0.20293 0.13600 0.11688
0.20981 -0.14497 0.00486
-0.11964 0.17063 0.09156
-0.20981 -0.15823 -0.13033
-0.20798 0.06546 0.07661
-0.20981 0.30977 0.03996
-0.13336 0.10728 -0.09309
-0.16440 0.10043 0.04118
-0.16452 0.40117 -0.01916
-0.11964 0.05574 -0.10994
-0.20981 0.28991 -0.08319
-0.14521 -0.20028 0.20981
0.08260 -0.19177 -0.20981
-0.17739 -0.03705 -0.11974
-0.11964 -0.03428 -0.03236
-0.04982 -0.19387 0.00092
-0.04764 -0.19387 0.11252
-0.20981 0.30915 -0.02870
-0.18183 0.10812 -0.15145
-0.18113 -0.05606 -0.02900
0.02630 -0.13078 -0.08391
0.15592 -0.19509 -0.13236
-0.14846 -0.11180 -0.02900
-0.19620 -0.40244 -0.14674
0.08022 -0.13265 0.20981
-0.20589 -0.23456 0.11637
-0.20981 0.33210 0.14780
-0.16382 -0.07503 -0.02900
-0.12369 -0.04269 0.04118
-0.12626 -0.22394 0.18894
-0.20981 0.01517 0.16284
-0.11964 0.28495 -0.02858
-0.20981 -0.17663 -0.03627
0.02927 -0.19387 -0.11759
-0.11964 0.29981 -0.07674
-0.12962 0.05591 -0.02900
-0.06488 -0.19387 0.18149
-0.16448 0.14885 0.20981
-0.13304 0.22119 -0.20981
