ply
format ascii 1.0
comment VCGLIB generated
element vertex 1790
property float x
property float y
property float z
element face 0
property list uchar int vertex_indices
end_header
-0.09507 -0.20180 0.15978
-0.13087 0.31465 -0.11474
-0.10874 -0.18768 -0.18966
-0.17386 0.38946 -0.12399
0.19070 -0.00184 -0.16243
-0.07424 0.38189 0.11733
-0.07337 0.00223 0.10572
-0.10778 0.29455 -0.21275
-0.01051 -0.06032 0.09242
-0.08566 0.34126 -0.15497
0.19797 -0.06032 0.19085
-0.12459 0.12696 -0.08199
0.13204 -0.06032 0.06303
-0.04359 0.00223 -0.00578
0.19152 -0.00278 0.09190
-0.11652 -0.24173 0.15978
-0.07599 -0.00435 0.19389
-0.06607 0.26263 0.17372
0.13515 -0.06032 0.17546
-0.10587 0.35077 0.16964
-0.11887 0.29244 -0.15368
-0.08370 0.00223 -0.12507
-0.17111 0.33751 -0.01123
0.09005 0.00223 -0.17970
-0.14225 0.35077 0.08522
-0.11191 0.31771 0.21230
0.15640 -0.20497 -0.15743
-0.13174 -0.23695 -0.16102
0.14895 -0.07727 -0.17516
-0.06678 -0.06032 0.16708
-0.09152 -0.21748 0.18163
-0.13487 0.33562 -0.11625
0.03826 -0.06032 -0.07158
-0.09759 0.24055 -0.16999
0.19334 -0.23942 -0.15630
0.19425 -0.00590 -0.06045
-0.18678 0.36988 0.08735
-0.11834 -0.06032 -0.09734
0.16004 -0.11684 0.15978
0.07518 -0.06032 -0.05020
0.19661 -0.14419 0.17679
0.02467 -0.06032 -0.05248
-0.09479 -0.06032 0.15546
-0.16683 0.39695 0.05387
-0.13462 0.02148 -0.11615
0.09419 0.00223 0.12546
0.04671 -0.06032 -0.20871
-0.13135 0.10408 0.17139
0.08797 -0.06032 -0.16442
-0.15611 0.13924 -0.08318
0.11686 -0.06032 0.10150
-0.03886 -0.06032 -0.18163
-0.16839 -0.06032 -0.13695
-0.12666 0.00223 -0.10019
-0.11728 -0.29056 0.15978
-0.08209 0.33518 -0.16844
-0.10148 -0.06032 0.19208
-0.10568 -0.16496 -0.16375
-0.14340 0.24099 0.07360
-0.01205 -0.06032 0.02024
0.18952 -0.09300 -0.18966
0.11880 -0.06032 0.12165
-0.13459 0.14922 -0.01053
-0.15883 0.08038 0.08356
0.19661 -0.13012 0.17366
-0.19189 0.34258 -0.07075
0.18431 -0.33478 0.16058
0.17195 -0.09990 -0.15630
-0.16313 0.39695 -0.12847
-0.11997 0.06651 0.19080
-0.14352 0.24055 -0.12217
-0.09021 0.33937 0.17568
-0.09152 -0.27763 0.18884
0.08750 0.00223 -0.07345
0.19443 -0.06032 -0.10598
0.10640 -0.06032 -0.03614
0.11340 0.00223 -0.09953
-0.15698 0.22064 -0.10778
0.16742 -0.34257 0.19298
0.05446 -0.06032 -0.18797
-0.11659 -0.37845 0.16471
0.18702 -0.08303 -0.19561
-0.13174 -0.10185 -0.15730
-0.17100 0.32428 -0.12973
-0.14179 0.27614 -0.07547
0.05468 -0.05505 -0.21349
-0.12732 -0.30943 0.19193
0.16086 -0.37162 -0.18667
-0.12311 0.20363 -0.16304
-0.15607 0.32606 0.07979
-0.15568 0.00223 0.12136
-0.18281 -0.01609 -0.10467
-0.09246 0.00223 -0.05594
-0.19446 0.38001 0.05594
0.20925 -0.02306 -0.03884
0.14291 0.00223 -0.18608
0.17326 -0.34476 -0.15639
-0.14212 0.37615 -0.17854
-0.05263 -0.00709 0.19629
-0.15385 0.26537 -0.08060
-0.08215 0.00223 0.15492
-0.15781 -0.00790 0.14273
-0.16151 0.14897 0.09676
-0.12872 0.39695 0.18277
-0.01434 -0.06032 -0.21257
0.20406 -0.06751 -0.16505
-0.07246 -0.06032 -0.15031
-0.15727 0.39695 0.03245
0.15693 -0.15452 -0.16606
-0.00908 -0.06032 -0.09148
0.19196 -0.31751 -0.18507
0.03013 -0.06032 0.19948
-0.18442 -0.00574 0.07383
0.07137 0.00223 0.11724
0.17979 -0.39695 -0.17183
-0.15019 0.00223 0.00737
0.10590 -0.06032 -0.11040
-0.12043 -0.37248 -0.15950
-0.10169 0.23761 -0.18729
-0.09211 -0.38539 -0.16204
-0.06558 0.00223 -0.05341
-0.10952 0.30234 0.02064
-0.09234 -0.36014 -0.15848
0.13015 0.00223 0.15774
-0.07234 0.39042 -0.12213
-0.08408 -0.07868 -0.18620
-0.02504 -0.03315 0.21548
0.15656 -0.35246 -0.18784
-0.11317 0.24055 -0.01715
0.02249 -0.02259 -0.20785
-0.12939 -0.36239 0.19197
-0.11024 0.20532 -0.18592
-0.13174 -0.21206 0.17142
-0.10095 0.24055 -0.10157
-0.10766 0.39695 -0.19779
0.13613 -0.06032 0.04836
-0.10475 0.00223 -0.08868
-0.11366 -0.06032 -0.15625
-0.19764 0.38905 0.04009
-0.13174 -0.09550 -0.16386
-0.03113 -0.00257 -0.19035
-0.13108 -0.33631 0.19063
0.15770 -0.33158 0.18784
-0.12325 -0.27708 0.19313
0.16569 0.00223 0.07565
-0.16055 0.32730 0.14872
-0.12818 -0.06032 0.17043
0.08570 -0.06032 0.07842
-0.12417 0.12062 -0.10943
-0.07008 0.34201 -0.12547
-0.09791 -0.14790 0.15978
-0.15208 0.10261 -0.11285
-0.18817 0.29017 -0.08527
-0.17743 0.24559 -0.11662
-0.09560 0.34736 0.07765
-0.14001 0.13638 -0.07530
0.21449 -0.05148 0.08545
-0.10955 0.26468 -0.02217
-0.05277 -0.01008 -0.19691
-0.12082 0.34829 -0.08817
-0.11842 0.00809 -0.18023
-0.08071 -0.06032 -0.09485
0.03536 0.00223 0.10291
-0.08206 0.39695 0.11600
-0.14477 -0.04693 0.19297
-0.12334 0.16234 -0.10843
-0.12623 -0.06726 0.15233
-0.12062 0.02999 -0.10351
0.04628 -0.06032 -0.07115
0.16669 -0.15415 -0.15630
0.15667 -0.34029 -0.17133
-0.14300 0.31496 -0.17723
0.18054 -0.23618 -0.18966
-0.08753 0.28247 -0.09678
-0.19356 0.39695 0.03482
0.05133 -0.06032 0.16750
0.19661 -0.25700 0.19033
0.17688 -0.39315 -0.15630
-0.09897 -0.15472 -0.18862
-0.08259 0.16903 -0.16148
-0.01332 -0.03102 0.21548
0.14324 -0.06032 -0.12028
0.04279 0.00223 0.15208
0.16940 -0.30943 -0.18570
0.18669 -0.13273 -0.18966
0.10512 -0.06032 -0.00565
-0.12018 0.24055 0.17318
-0.14180 0.11352 -0.07547
-0.05479 0.00223 -0.03932
0.02556 -0.06032 -0.12807
-0.08415 0.36283 -0.19177
-0.17152 0.20362 -0.01048
-0.03004 -0.02275 -0.20799
-0.17009 0.00223 0.00646
0.05245 0.00223 0.16253
0.21250 -0.06032 -0.07076
0.17370 -0.19270 -0.18966
0.19661 -0.19597 0.16750
-0.08031 0.38780 -0.11034
-0.06666 -0.06032 0.09712
0.03075 -0.06032 -0.03899
0.17487 -0.22914 -0.15630
-0.09367 -0.23752 -0.18966
-0.13604 -0.06032 -0.15206
0.13620 0.00223 0.07680
-0.09425 0.10064 0.15967
-0.11794 -0.08306 -0.18966
-0.15240 0.24055 0.00955
0.01396 0.00223 0.10272
0.04958 -0.06032 0.17460
-0.02514 -0.06032 -0.17553
0.01241 0.00223 -0.15749
-0.16462 0.00223 0.08198
0.18274 -0.12952 -0.15630
-0.14827 0.39695 0.11842
-0.11115 0.06022 -0.14769
-0.13174 -0.20485 -0.17054
-0.10865 0.32115 0.15170
-0.05411 0.00223 -0.11325
-0.16610 -0.00271 -0.11391
-0.13012 0.39695 0.17125
0.21449 -0.05334 -0.10110
-0.17755 -0.06032 0.11488
-0.12055 0.05163 -0.15582
-0.12170 -0.30039 -0.18966
-0.00786 0.00223 0.08090
-0.09397 0.24055 0.10051
-0.08696 0.35077 -0.17959
-0.09640 -0.31656 0.18047
-0.09152 -0.26020 0.18836
-0.03488 0.00223 0.17225
-0.16880 0.21371 -0.01445
-0.16284 0.07118 0.01734
0.15646 -0.34944 -0.18372
-0.08658 -0.06032 0.07436
-0.10406 -0.34349 0.19301
-0.13762 -0.06032 0.04239
-0.12469 -0.06032 0.12188
-0.07902 -0.06032 0.01468
-0.12392 -0.06032 -0.01996
0.15640 -0.11153 -0.18276
-0.15327 0.00447 -0.02183
-0.10042 -0.28018 -0.18966
-0.12798 0.24055 -0.03281
-0.07516 0.39266 0.18180
-0.21345 -0.04814 0.01662
-0.13116 0.02852 -0.07735
-0.04537 -0.06032 -0.02364
-0.13823 0.29468 -0.18430
0.16259 -0.06032 -0.01522
0.14424 0.00223 0.05252
-0.12385 -0.32951 -0.18802
-0.08713 0.21003 -0.15292
-0.19862 0.36020 -0.03016
-0.16627 0.01704 -0.01687
-0.14395 0.19246 0.01758
-0.12293 0.08340 -0.08431
-0.09964 -0.18431 -0.15671
-0.08294 0.36903 0.10402
-0.10820 0.34007 0.03143
-0.08197 -0.06032 0.05756
0.04744 -0.06032 0.21378
0.19351 -0.12924 0.15978
0.18835 -0.28902 -0.18966
0.16932 -0.15452 -0.16169
-0.09152 -0.29523 0.17390
0.18171 -0.06032 -0.08570
-0.12598 0.32674 -0.19844
0.20293 -0.08303 -0.19252
-0.10674 -0.29858 -0.15630
-0.12805 -0.06032 -0.13860
-0.01164 -0.06032 0.16215
-0.12872 0.07455 0.11083
-0.01194 0.00223 0.14522
-0.12267 0.00873 -0.16050
0.18795 -0.06032 -0.15333
-0.10565 -0.39529 -0.18966
-0.11693 -0.15018 -0.15630
0.03992 0.00223 0.02260
-0.12190 -0.06032 -0.07711
-0.08106 0.00223 -0.07701
0.00590 -0.06032 0.01218
-0.11787 0.03180 0.15292
-0.14955 0.13009 -0.07759
0.10920 -0.06032 -0.18773
-0.10412 -0.06032 -0.11162
-0.16663 0.31220 0.01463
-0.00862 0.00223 0.16865
-0.07905 0.00223 0.06378
-0.13174 -0.10678 0.17282
0.19602 -0.33702 -0.17587
-0.20011 0.29269 -0.00761
0.21202 -0.02623 0.11104
-0.06180 0.00223 0.17351
-0.10249 0.21050 0.15328
0.10516 -0.06032 0.18039
0.10247 0.00223 0.06937
-0.15964 0.09953 0.08502
-0.20227 -0.01757 -0.03166
-0.17638 0.39221 0.11693
-0.15363 0.06505 0.11052
0.17509 -0.13549 -0.15630
-0.12509 -0.00232 0.17995
0.20406 -0.06772 -0.19555
-0.10460 0.39695 0.15451
-0.12848 -0.06032 -0.12001
-0.05900 -0.05315 0.21548
-0.11425 -0.09590 -0.15630
0.18202 -0.35635 0.16023
0.19298 -0.00445 -0.07619
-0.09359 -0.15452 0.16125
0.15571 -0.01371 0.20207
-0.09607 0.00223 -0.13491
-0.10233 0.26971 0.15335
0.15913 -0.36632 -0.18786
-0.09564 0.24055 -0.10244
-0.04247 0.00223 -0.15044
-0.06181 0.38282 -0.13606
-0.06089 0.24325 0.16912
-0.10646 0.39695 -0.13258
-0.12093 0.18757 0.09955
-0.10978 0.28633 -0.21453
-0.09794 -0.29574 0.15978
0.07100 -0.06032 0.01512
0.15640 -0.21339 0.17738
0.03155 -0.06032 0.19220
-0.11976 0.03137 -0.09100
-0.06358 0.00223 0.11972
-0.03407 -0.06032 -0.09990
-0.12308 0.10307 -0.16289
0.16351 -0.11517 -0.15630
0.10670 0.00223 -0.00048
0.02269 -0.06032 -0.21195
-0.15613 -0.06032 -0.17541
-0.02603 -0.06032 0.09660
-0.14718 0.34948 -0.17105
-0.09059 0.24449 0.17796
0.19661 -0.26298 0.18048
-0.12907 -0.38575 0.19313
-0.16128 0.34981 0.09818
0.15773 -0.06810 0.15233
-0.12052 0.12840 -0.15576
-0.10194 0.08913 -0.14579
-0.15231 0.30449 -0.07949
0.09184 -0.06032 -0.18257
-0.10421 -0.20375 -0.15630
0.16478 -0.15342 -0.18966
-0.17223 0.06063 -0.00859
0.10276 0.00223 -0.09526
-0.15763 0.00223 -0.02611
0.19417 -0.06032 -0.19175
0.21449 -0.05156 -0.10807
0.19661 -0.23468 -0.17127
-0.17059 0.24899 -0.01195
0.19661 -0.24876 -0.17377
0.07487 0.00223 -0.07035
-0.08213 0.19648 -0.16870
-0.12640 0.21947 -0.08043
-0.09662 0.25140 -0.07665
-0.11000 0.32589 -0.01539
-0.12473 0.09135 0.10697
0.21449 -0.04300 0.07983
-0.13174 -0.22090 -0.16157
0.19661 -0.27440 0.17618
-0.16603 0.39695 0.10981
-0.03747 -0.02960 0.21548
0.16814 -0.28835 0.15978
-0.09241 -0.09796 0.15978
-0.16894 0.39695 -0.05873
0.21449 -0.03652 -0.12173
-0.09376 -0.06032 -0.11149
0.16720 -0.33800 -0.18917
-0.09888 0.06654 0.18935
-0.17373 0.24055 0.08351
0.05182 0.00223 0.14602
0.18257 -0.06819 0.15233
0.13131 -0.06032 -0.03472
-0.17919 0.39695 -0.00030
-0.10055 -0.18431 0.16654
-0.08408 -0.07638 0.16145
-0.03896 0.00223 -0.03690
0.15640 -0.30271 -0.15777
-0.14310 0.32463 -0.11650
0.01202 -0.06032 -0.11638
0.19598 -0.30943 0.16727
-0.09294 -0.36392 0.16685
-0.08331 0.39695 -0.16414
0.04690 0.00223 0.10958
0.19303 -0.30822 -0.18966
-0.15127 0.29925 -0.07874
-0.16081 0.01163 0.08813
-0.15992 0.34020 0.14998
-0.12336 -0.20295 0.15978
0.17627 0.00223 0.03531
0.07405 -0.06032 -0.14555
-0.12018 0.28700 0.09386
-0.15394 -0.06032 -0.05916
-0.09129 0.01796 -0.18384
0.19661 -0.27535 -0.18277
-0.07077 0.00223 -0.17708
-0.12843 -0.39659 0.19313
0.20716 -0.02067 -0.07137
-0.12718 0.35077 0.08335
-0.19862 0.39331 0.02818
0.15640 -0.28093 0.18489
-0.11924 -0.33990 -0.15661
-0.10329 0.26418 0.05521
-0.14012 0.00223 0.11868
0.15689 -0.35682 -0.16295
-0.09553 0.39615 -0.07985
0.14383 -0.06032 0.08208
-0.10000 -0.34279 -0.18951
0.02694 -0.06032 -0.10536
-0.20542 -0.04050 0.07276
0.19764 -0.00978 -0.04063
-0.13487 0.39695 -0.03259
-0.10157 0.00223 -0.11850
0.15398 -0.06032 -0.13328
-0.09496 -0.37343 -0.18854
-0.13509 0.24055 -0.02843
0.15745 -0.30943 -0.15944
0.14675 0.00223 0.04076
0.04367 -0.06032 0.11974
-0.06617 0.39107 -0.13115
-0.04876 -0.06032 -0.04026
-0.16704 0.34603 0.13569
-0.09161 0.00306 0.16415
-0.10579 -0.31917 0.18903
-0.16711 0.36117 0.13556
-0.08697 -0.06032 -0.16529
0.18671 -0.30338 -0.18966
-0.09449 0.24055 -0.12582
0.16781 -0.00152 0.19141
-0.10720 0.00223 -0.12601
-0.18097 0.31909 -0.10629
-0.16037 0.20612 -0.09959
-0.15711 0.13135 0.01934
-0.14792 0.10176 0.11363
-0.11115 0.00223 -0.02239
0.15640 -0.14109 -0.17897
0.17633 -0.06032 0.15697
-0.09178 0.20505 0.18084
-0.09205 0.28021 -0.14877
-0.09435 -0.30943 0.17825
-0.13464 0.28008 -0.07599
0.02719 -0.06032 0.10492
-0.00946 -0.06032 -0.18224
-0.12817 0.05119 -0.11306
0.05203 0.00223 -0.01292
-0.12972 -0.30943 0.18260
-0.09019 0.26811 0.17549
-0.07522 -0.06032 -0.04766
-0.16112 0.03378 0.09915
0.21008 -0.02401 -0.11551
-0.07905 0.27652 0.11021
0.06466 -0.06032 0.18153
-0.09853 0.32856 -0.07110
-0.13234 0.03023 0.00023
-0.13769 -0.06032 -0.10679
0.19313 -0.00461 -0.19207
-0.07085 0.00223 0.00112
0.21449 -0.04437 0.10299
-0.10200 -0.21981 0.15978
-0.09905 0.10222 0.18947
-0.09323 0.13590 0.18360
-0.15024 0.12837 0.11276
0.19015 -0.00120 0.18725
-0.19358 0.29171 0.06032
-0.03288 0.00223 0.12682
-0.04631 0.36717 0.15153
-0.14167 -0.02535 0.19159
0.01352 -0.01736 -0.20328
0.02676 -0.06032 0.02733
-0.06021 0.25509 -0.17050
-0.12268 0.18526 -0.17234
-0.12943 -0.12061 -0.18966
0.09849 -0.06032 -0.18579
-0.12360 0.23368 -0.08337
0.18337 -0.20390 0.15978
-0.13168 -0.34920 -0.17331
-0.19996 0.33319 0.00802
-0.17756 -0.06032 0.05295
-0.10695 -0.30851 0.15978
-0.17276 0.35022 -0.00718
-0.11348 0.00223 0.03202
-0.13782 0.09639 -0.07546
-0.14465 0.20203 -0.01998
0.15424 -0.06032 -0.18032
0.14895 -0.06425 -0.15250
0.10964 -0.06032 0.11101
-0.19446 0.31018 -0.05795
-0.18749 0.24055 0.01562
0.19155 -0.39023 -0.18966
-0.15318 0.18892 0.11085
-0.09897 -0.17289 0.17721
-0.13064 0.04621 0.07613
0.13715 0.00223 0.12660
0.05957 0.00223 -0.09364
0.18947 -0.38456 -0.17655
-0.12336 0.11431 -0.16823
-0.10332 -0.27581 0.15978
-0.14044 -0.05867 0.19784
-0.18604 0.39695 0.06727
-0.13174 -0.29656 -0.17686
-0.11920 0.28333 -0.09735
-0.16538 0.39695 -0.02875
0.15456 -0.06032 0.03083
0.10913 0.00223 -0.06099
-0.11083 0.34340 -0.00288
0.18319 -0.05414 0.21548
-0.07490 0.26813 -0.18355
-0.11002 -0.06032 0.06535
0.16826 -0.06032 0.02667
-0.11948 0.17242 -0.15442
-0.17269 0.24055 0.06216
-0.13872 0.00964 -0.07531
-0.13174 -0.19696 -0.18887
-0.20019 0.39650 -0.00655
-0.09279 -0.06032 -0.08157
-0.12549 0.24055 -0.13534
-0.17351 0.22035 -0.00355
-0.18159 0.24055 0.01287
-0.12188 0.07975 0.18972
-0.10765 0.13705 0.19276
-0.08502 0.26892 -0.15587
-0.09267 -0.33258 0.17085
0.16210 -0.08964 -0.15630
-0.09300 0.31253 -0.08580
-0.08963 -0.07663 0.20058
0.21240 -0.06032 -0.17648
-0.12096 0.24055 0.14079
-0.13174 -0.09727 0.19080
-0.09487 -0.06083 -0.14886
0.04355 -0.06032 -0.03011
-0.10956 0.35077 -0.18258
-0.10431 0.30890 -0.14600
-0.18090 0.26604 -0.10651
-0.11975 0.24055 -0.01542
-0.13098 0.31276 0.16858
-0.13090 0.02509 0.07595
-0.00090 0.00223 -0.01408
-0.14926 0.13845 0.07520
-0.11557 -0.38932 -0.18966
-0.11209 -0.34913 -0.18961
-0.12436 -0.00379 -0.18072
-0.15776 0.38894 -0.15538
-0.14461 0.26939 -0.01996
-0.15909 0.17935 -0.08822
-0.19793 0.30422 -0.04063
-0.04881 0.33850 -0.15070
-0.11511 -0.35415 0.19290
-0.12829 -0.36932 -0.15877
0.16679 -0.39695 -0.18921
-0.10790 -0.06032 -0.18393
-0.12576 0.00223 0.16057
-0.09442 0.38243 0.08098
-0.10968 0.30173 -0.02024
0.01532 -0.05837 -0.21349
-0.10016 -0.18664 0.15978
-0.04900 0.39695 0.15621
-0.10432 0.01819 0.19206
-0.15842 0.24055 -0.02954
-0.16592 0.00223 -0.05814
-0.19872 -0.02044 -0.06596
-0.12975 -0.04732 0.20988
-0.14247 0.35077 -0.00126
-0.17041 0.16431 -0.01220
0.17903 -0.29747 0.19313
-0.16797 -0.06032 0.03923
0.16716 -0.08313 0.19313
0.03949 -0.06032 -0.17789
-0.06704 0.32332 0.12799
0.15588 -0.06032 0.20201
-0.09337 -0.12772 -0.15630
0.16219 -0.06032 0.15535
-0.13174 -0.26333 0.19125
-0.10452 0.25038 -0.18728
0.14283 -0.05118 -0.21349
-0.12832 0.39695 0.12309
-0.10297 -0.18954 -0.15630
0.19661 -0.10613 0.16382
0.19430 -0.36865 -0.16813
0.15640 -0.30277 0.17365
-0.19969 0.26182 0.01207
-0.12726 0.18792 0.07855
0.03816 -0.06032 0.04528
0.18635 -0.36960 -0.18713
-0.11672 -0.23479 -0.15630
-0.18878 -0.01845 -0.09360
-0.16923 0.30840 -0.01386
-0.14180 0.31072 0.01654
-0.01336 -0.06032 -0.15129
-0.13664 -0.07832 0.20058
-0.11754 0.17987 0.19181
0.13622 0.00223 -0.08783
-0.10847 0.24055 -0.16962
-0.18648 0.27877 0.08823
0.11616 -0.06032 -0.03088
-0.18951 0.34638 0.07938
-0.08515 0.27725 -0.10157
-0.09142 0.33866 0.16461
-0.18959 -0.06032 0.00617
-0.10418 -0.25225 -0.15630
-0.11500 -0.11568 -0.15630
-0.08748 0.36976 -0.09689
0.16156 0.00223 -0.12626
-0.10932 0.12900 0.19298
-0.12575 0.16043 -0.08097
0.16384 -0.17356 0.18488
-0.10391 -0.08629 -0.18966
0.03102 -0.06032 -0.07828
0.18497 -0.06032 -0.01587
-0.18471 -0.00083 -0.04862
-0.08352 0.06193 -0.15901
-0.14920 0.13289 -0.11457
-0.16065 -0.06032 0.04532
0.10626 0.00223 -0.03978
-0.13174 -0.25951 -0.16524
0.03233 -0.06032 0.15822
0.21449 -0.05231 -0.00164
0.03977 0.00223 0.15802
-0.10705 0.39226 0.03718
-0.18617 0.24055 -0.05226
-0.12184 0.00223 -0.16280
-0.12195 0.31476 -0.17428
-0.10450 0.36418 -0.05183
-0.13225 0.00223 0.03088
0.15640 -0.21491 -0.15859
-0.15878 0.30714 -0.15387
-0.13550 -0.08303 -0.15468
-0.07418 0.30986 0.11742
-0.13123 0.18012 0.17412
-0.11528 -0.23842 -0.18966
-0.08898 0.33205 -0.18219
-0.12084 0.00223 -0.04709
-0.14498 0.24055 0.14056
0.13598 -0.04054 -0.21349
0.07410 0.00210 0.18825
0.05000 -0.06032 0.14627
-0.00604 -0.06032 -0.20140
-0.12131 0.31190 0.20171
-0.06250 -0.06032 0.14397
-0.11667 0.24055 0.06978
-0.18399 0.39695 -0.04016
-0.11153 -0.06032 -0.17908
-0.13288 0.08419 -0.00616
0.18177 -0.10107 0.15978
-0.01022 -0.06032 0.19193
-0.10643 0.39695 0.05883
-0.04497 0.00223 -0.05133
-0.12448 0.23570 0.10661
0.03762 -0.06032 -0.05012
-0.09152 -0.18889 -0.18891
-0.12470 -0.38539 0.18411
-0.09538 0.24055 0.19826
-0.12017 0.05549 0.09330
0.16010 -0.30943 0.16759
0.06278 -0.06032 0.12146
0.18880 -0.26025 0.19313
-0.12712 0.00223 -0.05513
0.15828 -0.06032 0.19505
-0.19234 0.39489 0.06654
0.10748 0.00223 -0.15570
0.15640 -0.15088 -0.17802
-0.10713 -0.22525 0.19313
-0.01958 -0.04737 -0.21349
-0.10212 0.29791 0.19115
0.16842 0.00223 0.15768
-0.10741 -0.33800 0.19264
-0.12770 -0.23919 -0.18966
-0.10435 0.01571 -0.14600
-0.20045 0.27632 0.00055
0.17476 -0.16211 0.18569
-0.03445 -0.06032 0.11269
-0.12056 0.33771 0.09772
-0.08301 0.39695 -0.13032
0.03488 0.00223 0.18043
-0.11967 0.26950 -0.20554
-0.02105 0.00223 0.15699
-0.13152 -0.06032 0.19576
-0.05967 -0.06032 0.06782
-0.13174 -0.38898 -0.16730
-0.16647 0.26220 0.01475
-0.12873 -0.32312 0.16484
-0.15354 0.25135 0.07770
-0.17375 0.20082 -0.00112
0.19245 -0.00384 0.15685
0.08856 -0.06032 0.19098
-0.17382 0.10360 -0.00039
0.15830 -0.25470 -0.18966
-0.14252 0.22343 0.07345
-0.10387 -0.15628 0.18569
-0.01603 0.00223 -0.17442
0.17833 0.00223 0.07494
-0.12158 0.08149 0.08689
-0.10675 -0.15868 -0.16375
-0.09152 -0.08683 -0.18670
-0.15949 0.01544 -0.08911
0.09853 -0.05401 -0.21349
0.02537 -0.06032 0.16066
-0.17221 -0.01026 -0.11646
-0.10511 0.35434 0.20840
0.03996 0.00223 -0.14033
-0.09398 -0.36854 0.16206
-0.10424 -0.06032 0.02906
-0.15277 0.01293 -0.11228
-0.15786 0.26077 -0.15524
-0.12093 0.24917 0.08873
-0.18783 0.27104 0.08429
0.13730 0.00223 0.04156
0.09053 0.00223 0.17558
-0.10555 0.00223 -0.17191
-0.09867 -0.38458 -0.17947
0.21366 -0.06032 -0.16866
-0.10929 0.36770 0.02426
0.20406 -0.07890 -0.16148
-0.13059 -0.38791 -0.15630
0.16344 -0.08490 -0.18966
-0.12142 0.24055 -0.10069
-0.13550 0.26646 0.01007
0.09266 0.00223 -0.04818
-0.00373 0.00223 0.13762
-0.09509 0.29054 0.07915
-0.16357 0.27686 -0.01892
-0.20031 0.28639 -0.00457
-0.15435 0.14539 -0.11099
0.16467 -0.28319 -0.15630
-0.14769 -0.06032 -0.01324
-0.00564 0.00223 0.06107
-0.15821 0.08795 -0.10607
-0.04642 0.24641 -0.15826
-0.05990 0.26002 0.16824
0.00091 0.00223 0.01786
-0.11475 -0.06032 0.12904
-0.11112 -0.35849 -0.18901
0.06467 -0.06032 0.05078
-0.08276 0.24176 0.10437
0.17838 -0.15392 -0.18966
-0.09152 -0.25144 0.17527
0.19381 -0.32402 -0.18427
-0.13783 0.14766 -0.01515
-0.11429 0.00223 0.07792
-0.12429 -0.17797 -0.16848
-0.14004 0.13683 0.01509
-0.20444 -0.02614 -0.06276
-0.15155 0.00223 0.00221
0.20406 -0.07246 -0.18815
-0.16081 0.24687 -0.15017
-0.09036 0.35363 0.19530
0.18916 -0.16723 0.17333
-0.12840 0.00223 0.10872
-0.03534 -0.06032 0.08877
-0.02190 -0.06032 0.04515
0.19780 -0.00995 0.18549
-0.16076 0.27143 -0.09523
-0.10936 0.31310 -0.02510
-0.11083 0.35947 0.21348
-0.06191 0.24055 0.16456
-0.06899 -0.06032 -0.09316
0.03853 -0.05849 -0.21349
-0.12179 -0.39695 -0.16759
-0.16629 0.32454 -0.01685
0.07338 0.00223 0.09466
-0.14003 0.11185 0.11495
0.17452 -0.06032 0.01348
0.21449 -0.03996 -0.15936
0.04663 -0.06032 0.06349
-0.09152 -0.19790 -0.17924
-0.09242 -0.07164 -0.19711
-0.12601 -0.38075 -0.17426
-0.17621 -0.06032 0.10255
-0.12292 -0.08351 -0.15630
0.03228 -0.06032 0.04295
-0.18002 0.33962 -0.10907
-0.11579 0.25506 0.19247
-0.05322 0.25804 -0.16429
-0.08984 0.11772 -0.15046
-0.09152 -0.15354 0.17698
-0.13471 0.16029 0.00896
-0.12429 0.00223 0.16747
-0.10780 0.00223 0.16839
-0.15786 0.36549 0.15325
-0.11734 0.24055 -0.15881
0.19661 -0.19110 -0.17397
-0.11653 0.39695 0.07068
-0.11942 -0.06032 0.06301
-0.05473 -0.02633 0.21310
-0.10857 0.36074 0.02960
-0.13174 -0.13453 -0.15764
-0.15953 0.33078 0.01860
-0.19968 -0.02249 0.07223
0.06842 -0.06032 -0.03874
0.16322 -0.14553 -0.15630
0.05065 0.00223 -0.09038
-0.10164 0.28683 0.06004
-0.04067 0.00223 0.04413
-0.09021 0.06638 0.16891
-0.04904 0.37050 -0.15044
-0.10943 0.30961 -0.14704
-0.12806 0.03689 -0.11299
-0.15036 0.00223 0.09722
-0.13174 -0.26864 0.16186
-0.08323 0.20699 -0.15978
-0.07930 0.39695 0.17283
0.18497 -0.26373 -0.15630
-0.14082 0.39695 0.07408
-0.01379 -0.00013 -0.18821
-0.10397 0.35077 -0.15034
-0.08897 -0.06032 0.14404
-0.11383 0.24055 0.19788
-0.10004 0.28901 -0.06668
0.12812 -0.00727 0.19644
0.17083 -0.39695 0.18553
-0.13837 0.00566 -0.01580
-0.13057 -0.22128 -0.18966
-0.11144 0.05171 -0.18538
-0.11886 0.34476 -0.15366
0.17818 -0.28303 -0.18966
-0.11360 0.24055 0.02958
-0.11011 0.30830 0.01174
-0.02994 0.00223 0.00914
-0.11291 -0.01597 0.20405
-0.19735 0.28591 -0.04353
-0.12878 0.18341 0.18249
0.18738 -0.06032 0.20485
-0.12358 0.30405 0.19916
-0.19998 0.38495 0.00758
-0.10224 -0.32736 0.19109
0.11886 0.00223 -0.05019
-0.15995 0.29056 -0.02057
0.18793 -0.28019 0.15978
0.02356 -0.06032 0.19770
0.20222 -0.06271 0.20058
-0.09698 -0.38002 -0.18582
0.19661 -0.08800 0.18778
-0.08249 0.12791 -0.17085
0.15241 -0.08303 -0.16192
0.17463 -0.18431 0.16115
-0.12008 0.00223 -0.09934
-0.05455 0.00223 -0.16822
-0.11089 0.39695 -0.16602
-0.13167 -0.34537 -0.16022
-0.12374 0.39695 -0.01679
0.20238 -0.06032 -0.13092
0.15687 -0.35665 0.16608
-0.09571 0.00223 0.09766
-0.15584 0.12025 0.07960
0.17035 0.00223 0.06726
-0.13285 0.16896 -0.07658
-0.12861 -0.33605 -0.15699
-0.13856 -0.06186 -0.19711
-0.18153 -0.04249 0.13656
-0.07568 0.24201 0.18226
0.08198 -0.06032 0.06929
-0.13111 -0.35825 -0.16381
-0.00404 -0.06032 -0.03428
-0.10061 0.24070 0.15406
-0.19328 0.39695 0.00903
0.02797 -0.00264 -0.19041
-0.12601 0.15890 0.10860
-0.01181 -0.01530 0.20346
-0.08826 0.00223 0.12190
-0.13899 0.10043 -0.01643
-0.10266 -0.32822 -0.18781
0.03283 -0.06032 -0.21169
-0.13174 -0.19007 -0.18934
-0.07520 0.35111 -0.18382
-0.03725 -0.06032 0.03823
-0.08408 -0.07707 -0.17786
-0.13787 0.27928 0.01332
-0.16013 -0.01309 -0.14560
-0.10110 -0.39695 -0.17379
-0.08556 0.31553 -0.17826
-0.15315 0.04202 0.11087
0.02628 0.00223 0.13506
0.19661 -0.11627 -0.17581
-0.06359 0.29798 -0.17351
0.16053 -0.27630 -0.18966
-0.09932 0.00223 0.07897
0.03836 -0.06032 -0.12996
-0.10303 -0.06032 0.11256
-0.13048 0.29438 0.07625
-0.15979 0.32619 0.08543
-0.16389 -0.06032 -0.05937
-0.17575 -0.06032 0.13382
0.19988 -0.01418 0.20248
-0.08377 0.01199 -0.17484
0.17647 -0.14490 0.19313
-0.11620 -0.14453 0.19313
-0.06965 0.38087 0.12412
0.19661 -0.20249 -0.16592
-0.07776 0.39695 -0.16021
-0.10991 0.35172 0.01482
0.16184 -0.37998 -0.17061
0.20851 -0.06032 0.02731
-0.08207 0.04007 -0.16564
0.18916 -0.17968 0.17825
-0.15712 0.08893 0.10708
0.02178 0.00223 0.01217
-0.17560 0.00223 -0.07424
0.17795 -0.27761 -0.18966
-0.07350 0.39695 -0.17196
-0.14942 0.33336 0.11307
-0.15277 0.23440 -0.02178
-0.14038 0.03140 -0.01743
0.14895 -0.08187 0.16469
0.17514 -0.39615 -0.18966
-0.10611 0.26200 -0.04384
0.17120 0.00147 -0.18682
-0.19048 0.30951 0.07578
-0.16798 0.24662 0.13381
0.15540 0.00223 -0.18237
-0.11920 0.33125 0.19112
0.17341 -0.23186 0.19313
-0.06916 0.00223 -0.09812
-0.20467 -0.01903 0.01665
-0.17385 0.32692 -0.12401
0.15897 -0.30531 -0.18966
-0.05447 -0.06032 0.12563
0.16234 -0.18638 -0.15630
0.18229 -0.06032 -0.00113
-0.08704 -0.06032 -0.08970
-0.13803 -0.06032 -0.03706
0.14260 0.00223 0.15571
-0.15343 0.24055 0.09108
-0.12419 0.00223 -0.02198
-0.13437 0.20968 0.00822
0.18001 -0.19057 -0.15630
0.06388 0.00223 0.00273
0.19661 -0.38607 -0.17312
0.13836 -0.06032 -0.03513
-0.15144 0.00223 0.12670
-0.12137 0.26587 0.10072
-0.17787 -0.06032 -0.06040
-0.03479 0.00223 0.01548
-0.14619 0.15334 -0.07633
0.16162 -0.06032 -0.14356
-0.12347 0.23393 -0.16713
-0.11620 -0.22426 0.19313
-0.12277 0.01677 0.10422
-0.12019 0.16370 0.09397
0.02547 -0.06032 -0.07456
-0.13145 0.38008 -0.19228
0.06335 -0.03575 0.21548
-0.12934 0.23076 -0.11390
-0.07798 -0.01865 0.20639
-0.12114 0.07403 0.08785
-0.16054 0.18815 0.10108
-0.08872 0.30451 -0.19583
-0.09969 0.24055 -0.07541
-0.11073 0.14918 0.15146
-0.13161 0.31821 0.19011
-0.01670 0.00223 -0.03805
-0.17609 -0.03638 -0.14549
-0.09276 0.27553 0.08431
0.09128 0.00223 0.13817
-0.04017 0.00223 -0.09130
0.19424 -0.18722 -0.18966
-0.05695 -0.03127 0.21548
-0.10960 0.37423 -0.02153
-0.08734 -0.08303 0.18965
-0.14472 0.35077 -0.00697
0.21449 -0.03107 0.16691
0.19336 -0.32208 -0.17041
-0.11304 0.08256 -0.18465
-0.04207 -0.06032 -0.16124
0.09321 -0.06032 -0.05098
-0.10791 -0.07267 -0.19711
-0.10921 0.39047 0.02546
0.17344 -0.06032 -0.09169
-0.11951 0.39695 0.03274
-0.18726 0.39695 -0.08374
-0.13139 0.00280 0.17297
-0.11242 0.24055 0.16655
0.19661 -0.12767 -0.18263
-0.04228 -0.06032 -0.00046
-0.19531 0.39426 -0.05368
-0.15027 0.20760 0.01948
0.15640 -0.22241 -0.18621
-0.11237 0.24055 -0.00434
-0.07329 0.25371 0.11874
0.10526 -0.03845 -0.21349
0.14895 -0.06914 -0.16152
-0.15579 0.13954 0.10870
-0.08796 0.04665 -0.18119
-0.10616 0.30117 0.19256
-0.12239 0.31329 -0.10727
-0.08592 0.24055 -0.16127
-0.09054 0.08012 0.16676
-0.10663 -0.34079 -0.18944
0.17461 -0.11493 -0.18966
-0.09526 0.33286 0.07866
0.11210 0.00223 -0.00820
-0.07967 -0.06032 0.18654
-0.16672 0.28606 0.13634
-0.11299 0.39695 0.13754
-0.16120 0.02143 0.08917
-0.17769 -0.00112 -0.07924
-0.12136 0.25937 0.08737
-0.12787 0.35077 0.16786
-0.10057 -0.31499 0.18775
-0.07139 0.39050 0.17845
-0.04750 0.38838 0.15019
-0.08343 0.34802 -0.19113
-0.12194 -0.14287 -0.18966
0.19583 -0.22529 -0.15630
-0.10162 0.24872 -0.06208
0.06635 -0.06032 -0.16642
-0.19866 0.24165 0.02767
-0.02977 -0.06032 0.11601
-0.18861 0.34851 -0.08401
0.08312 -0.06032 -0.12325
-0.06215 -0.06032 -0.11801
-0.12906 -0.28397 -0.15630
-0.08261 0.27674 -0.19040
-0.15850 -0.06032 -0.02371
-0.16173 0.30600 0.09542
-0.19878 0.25086 -0.02776
-0.19759 -0.01013 -0.00389
0.03828 -0.06032 0.06149
0.14385 -0.06032 -0.01366
0.12091 -0.06032 0.08747
0.13247 0.00223 -0.12352
0.04844 -0.06032 -0.01397
0.21208 -0.02629 0.08431
0.17419 -0.06032 0.06991
-0.14174 0.39695 -0.02025
-0.19346 0.32363 -0.06293
-0.07993 0.39695 -0.11491
-0.10420 0.24055 -0.18363
0.19380 -0.15452 0.17407
-0.03707 -0.06032 -0.13542
0.16263 -0.24393 0.19313
0.14895 -0.08163 0.18138
0.19548 -0.08879 0.19313
-0.12045 0.21614 -0.17740
0.09223 -0.06032 -0.17486
-0.04693 0.27181 0.15672
-0.17173 0.29473 0.00769
-0.09819 0.27099 0.20225
-0.10079 0.36756 -0.06451
-0.17025 0.24055 0.12861
-0.10031 0.14016 -0.14606
0.19661 -0.10292 0.18142
-0.14130 0.34090 0.11489
0.19143 -0.18431 -0.16491
-0.11913 0.14771 -0.09642
-0.09629 -0.06032 0.16133
-0.13366 0.39695 -0.15636
0.14472 -0.06032 0.04302
0.17764 -0.04578 0.21548
-0.12492 -0.38539 -0.16660
0.18679 -0.39695 -0.15707
-0.12980 -0.11145 -0.15630
0.08309 -0.06032 -0.07935
-0.00711 0.00223 0.16235
-0.09152 -0.09147 0.18071
0.06974 0.00223 0.14016
-0.09897 -0.16186 0.18259
-0.12341 -0.14918 0.19313
0.05520 -0.00210 0.19192
-0.11941 -0.31262 -0.18340
0.08036 0.00223 -0.04550
0.09417 -0.06032 0.08459
-0.09152 -0.20599 -0.15678
0.01208 -0.06032 0.17200
0.12847 0.00223 0.14024
-0.10521 -0.02965 -0.21349
-0.12467 0.25511 0.15701
-0.14609 0.15609 0.01855
-0.11039 0.25259 0.00758
0.12005 -0.06032 0.17772
-0.17968 0.35561 0.10808
-0.17532 -0.06032 -0.00020
0.16360 -0.38473 0.17566
0.15640 -0.26063 -0.16418
-0.09152 -0.21532 0.17644
-0.09720 0.29132 -0.20336
0.18879 -0.35177 0.19299
0.17660 -0.08303 -0.15437
-0.19059 0.28294 0.07522
-0.05169 0.33424 0.14547
-0.11393 -0.28967 -0.15630
0.18501 -0.30955 -0.16371
0.18446 -0.22876 0.15978
-0.14219 0.24338 0.17645
0.18275 -0.06032 0.18100
0.16548 -0.21257 -0.15630
-0.11474 0.39695 0.10823
0.18470 -0.06032 -0.14730
-0.04315 -0.00717 0.19636
-0.09152 -0.21003 -0.17597
0.19013 -0.23217 -0.18966
0.19661 -0.20905 -0.18711
0.17586 -0.38539 0.16612
0.15640 -0.27263 0.19199
-0.05564 0.00223 -0.02625
-0.12646 0.22842 -0.08039
-0.11802 0.38493 0.20542
-0.09862 0.39695 0.10238
-0.07714 0.32732 -0.11502
-0.19851 0.28223 0.02981
0.21449 -0.05739 -0.01765
-0.04726 0.00223 0.11879
-0.09747 -0.25058 -0.15630
-0.15779 0.21652 -0.08536
-0.11230 -0.25690 0.19313
-0.13106 -0.18431 0.16468
0.18671 -0.15340 0.15978
-0.14600 0.25499 -0.02049
0.14447 -0.06032 -0.00822
0.08505 -0.06032 0.17244
-0.00287 -0.06032 0.01466
-0.09733 0.26893 0.15643
-0.13174 -0.10712 0.19080
-0.09769 -0.31290 -0.16430
-0.06606 -0.06032 0.11996
-0.12023 0.33478 0.15390
-0.12429 -0.16674 -0.16748
0.13529 0.00223 -0.03918
-0.18971 0.29836 0.07880
0.04052 -0.06032 0.05207
0.21449 -0.03312 0.05356
0.15709 -0.23330 -0.15630
-0.11799 0.12516 0.15297
-0.08617 0.24055 -0.11323
0.01854 0.00223 0.09876
0.04759 0.00223 -0.09686
-0.15909 0.32170 -0.08822
-0.11876 -0.06032 -0.05862
0.07335 -0.01593 -0.20203
-0.05147 0.31217 0.14572
-0.14594 0.24291 -0.07623
-0.18806 0.34986 0.08362
-0.14486 0.15019 -0.11621
0.02976 0.00223 -0.03203
0.16133 -0.25192 -0.15630
-0.16112 0.04926 0.09910
-0.09829 -0.06032 -0.05759
-0.14441 0.00223 0.10762
0.05079 0.00223 0.08646
-0.13174 -0.13195 0.17150
-0.13625 0.24120 0.07385
-0.08509 0.28126 0.09971
-0.14209 0.27072 0.11482
-0.00141 0.00223 0.09973
0.19303 -0.13285 -0.18966
-0.11954 0.18274 0.15361
-0.12351 0.39695 -0.02640
-0.03386 0.00223 -0.10539
0.19661 -0.14361 -0.16580
-0.09152 -0.29949 -0.17311
-0.10852 -0.29883 -0.18966
0.11824 -0.06032 -0.14649
-0.03081 0.00223 0.05202
-0.12896 -0.06032 -0.15056
-0.15613 0.27561 -0.02146
-0.13210 -0.06032 0.06942
-0.09152 -0.12506 -0.18482
-0.08187 0.27713 -0.10802
-0.01038 0.00223 0.03540
-0.17681 0.24055 0.07479
-0.16603 0.28545 0.01506
-0.20211 -0.06032 0.03582
-0.16904 0.29721 0.01200
0.01134 0.00223 -0.09822
0.19661 -0.23461 -0.16590
-0.15543 0.35077 -0.01259
0.12268 -0.00860 0.19760
-0.11860 0.39695 -0.00206
-0.09897 -0.16181 0.16891
-0.10523 -0.06032 0.20418
0.15640 -0.11020 -0.16340
-0.17007 -0.06032 -0.12678
-0.12534 0.00108 -0.17321
-0.13174 -0.11745 -0.17293
-0.05416 0.28723 -0.14467
-0.11833 0.00223 -0.09020
-0.18235 0.00223 -0.01678
-0.17524 0.00131 0.08183
0.02673 -0.06032 -0.18588
0.19122 -0.15161 -0.18966
0.19478 -0.33927 0.19276
0.15640 -0.24176 0.17236
0.16103 -0.11334 -0.18966
-0.08473 0.19680 -0.17695
0.16019 -0.32018 -0.16269
-0.18656 0.31202 -0.08997
-0.14498 0.39695 -0.07072
-0.17050 0.24055 -0.09735
-0.12341 -0.06096 -0.14886
0.13395 -0.02644 0.21320
0.18329 -0.20456 0.19313
0.01843 0.00223 -0.11021
-0.02567 -0.04861 -0.21349
0.17515 -0.06813 -0.19711
-0.09726 0.16561 0.18810
-0.11825 0.12942 -0.18047
-0.14768 0.35077 -0.09023
0.04255 -0.06032 0.09046
-0.10452 0.27613 -0.20986
-0.05559 0.00223 -0.08046
-0.18742 -0.00479 0.05470
0.15432 -0.06032 -0.04846
0.19493 -0.15452 0.18955
0.18220 -0.22007 0.15978
-0.12961 0.16680 0.16412
-0.18663 0.00001 -0.03530
0.16493 -0.07616 -0.14886
-0.16809 0.00223 0.00091
-0.06256 -0.03808 0.21548
0.19137 -0.03239 0.21548
0.18137 -0.06032 0.20679
0.14177 0.00223 -0.09515
0.15640 -0.38920 -0.18382
-0.02575 0.00223 -0.17245
-0.10443 0.38930 -0.05220
0.15686 -0.06032 0.06368
-0.13838 0.18687 -0.07537
-0.19132 0.34747 0.07159
-0.00998 -0.06032 -0.08521
0.16190 -0.08303 -0.15563
0.07999 0.00223 0.14476
-0.09229 -0.35958 0.17902
-0.09542 -0.28982 -0.18966
-0.13119 0.25889 -0.19257
0.16244 -0.22583 -0.15630
-0.13919 -0.06699 -0.16195
-0.15083 0.31395 0.16366
-0.17044 0.08060 0.01029
-0.07403 0.24164 -0.11963
-0.09152 -0.14338 0.16856
-0.09819 -0.09592 -0.15630
-0.14035 0.24822 -0.01741
0.19661 -0.18851 -0.16572
0.21391 -0.02839 0.20664
0.01071 0.00223 0.01162
-0.09440 -0.30943 -0.17136
-0.12142 -0.04284 -0.21349
0.18916 -0.17275 -0.17174
-0.09199 0.32273 -0.08783
-0.04084 -0.06032 0.13478
-0.14806 0.11383 -0.11508
-0.12225 -0.18493 0.19313
-0.14261 0.39695 0.07940
-0.08517 0.07434 -0.15565
-0.16095 -0.05575 0.17128
-0.05872 0.39695 -0.16382
-0.09471 0.18329 -0.14756
-0.12566 0.15126 0.10826
0.19238 -0.00376 -0.18426
0.04549 0.00223 -0.08992
-0.07376 0.24737 -0.12003
0.10869 0.00223 -0.17277
-0.08592 -0.06032 0.08548
0.05940 -0.06032 -0.12220
-0.09462 0.26483 0.19908
-0.15881 0.32082 0.10490
-0.15173 0.24055 -0.12727
-0.11507 0.14595 0.19256
-0.14166 0.00223 0.08307
-0.13928 0.26021 -0.18275
-0.14320 0.08910 0.11471
0.20397 -0.06032 -0.03238
-0.15051 0.35690 -0.16612
0.18289 -0.35230 -0.18951
-0.09188 -0.30943 0.17092
-0.15156 0.17572 0.07624
-0.09152 -0.27500 -0.16475
-0.12245 0.39695 0.17442
-0.04690 0.00223 0.09911
-0.05727 -0.06032 0.10251
-0.18200 0.34424 0.10131
-0.15999 -0.06032 -0.11255
0.01674 0.00223 0.09079
-0.12975 0.10982 0.16445
-0.12381 0.00223 -0.15096
-0.06637 -0.06032 -0.01045
-0.12925 -0.36944 0.16855
-0.05427 0.25742 0.14256
0.07534 -0.06032 0.07501
0.19661 -0.29297 0.18656
-0.10291 -0.18431 -0.18946
-0.06061 0.38599 -0.17086
0.16384 -0.16948 -0.17802
-0.16789 0.09554 -0.01554
-0.06439 0.39103 0.17223
0.16623 -0.28697 0.19313
-0.11359 0.38470 -0.21238
0.17106 0.00223 0.07439
-0.12415 0.13344 0.18797
0.04089 0.00223 0.16510
0.11352 0.00223 0.13694
0.17670 0.00223 -0.04234
-0.17870 0.33370 0.11093
0.18885 -0.06032 -0.18501
-0.12368 0.17841 0.15626
0.08247 0.00223 -0.04069
-0.12723 0.19529 0.18462
-0.02873 -0.06032 0.08078
0.16892 -0.30943 -0.16285
-0.15991 0.33659 -0.09010
-0.08126 0.29870 0.10694
-0.11518 -0.35570 -0.15669
-0.05664 -0.06032 -0.15338
0.07036 -0.06032 0.05640
-0.12455 0.10057 0.08159
-0.06406 -0.06032 0.19777
-0.05430 0.39695 0.15095
-0.15328 0.13649 0.01972
0.19661 -0.29582 -0.18222
-0.06927 0.35577 0.12468
-0.08125 0.00223 0.16835
-0.14513 0.21368 0.07388
-0.13223 0.06316 0.07536
0.19661 -0.24169 0.18353
-0.14427 0.00223 -0.09897
-0.12826 0.35212 -0.19587
-0.17502 0.00223 -0.03243
0.02834 0.00223 0.15446
-0.10929 -0.38539 -0.18502
0.21324 -0.02762 0.06825
-0.00639 -0.06032 0.16712
0.01375 -0.06032 -0.18402
-0.16732 0.24055 -0.02765
-0.11714 0.00223 -0.01089
0.05581 -0.02525 0.21216
0.17162 -0.34734 -0.18966
-0.13996 0.32034 -0.01713
-0.14480 0.02493 0.11455
-0.09152 -0.08827 0.16806
-0.15044 -0.06032 0.10974
-0.09152 -0.08650 -0.16448
-0.12743 0.04435 -0.07958
0.17812 -0.30232 0.15978
0.18430 0.00223 -0.05043
0.01203 -0.06032 0.08282
0.16364 -0.06032 -0.19165
-0.07384 0.00223 -0.03700
-0.18343 -0.02025 0.11549
-0.12952 0.00223 0.01505
-0.18993 0.39695 -0.06000
0.18316 -0.15149 -0.18966
-0.13252 0.24736 0.00211
-0.15126 0.32295 -0.16502
-0.10237 -0.39695 0.17039
-0.16046 0.24995 0.10127
-0.11988 -0.38539 -0.18737
0.14895 -0.06830 0.16611
0.19881 -0.01111 0.14584
-0.10491 0.24055 0.09227
0.17075 -0.06032 -0.01612
0.10328 -0.02138 -0.20679
-0.13174 -0.14142 0.16666
-0.16178 0.27208 0.09432
0.16200 0.00223 -0.03053
-0.10792 -0.18381 0.16723
0.15640 -0.11619 -0.18851
-0.12957 -0.07636 0.20058
-0.09064 0.00223 0.02114
-0.12252 0.31911 0.18922
0.16632 0.00223 0.10450
-0.10526 0.29868 -0.18716
-0.09152 -0.23815 -0.15850
-0.19844 -0.03900 -0.09399
0.14895 -0.06447 0.15460
-0.05857 0.24977 0.13773
0.14268 0.00223 0.09602
-0.10342 -0.06032 -0.17942
-0.10102 0.30644 0.06183
0.06421 0.00223 0.08110
0.01649 0.00223 0.06026
-0.20251 -0.02038 0.04872
-0.15839 0.03511 -0.10574
-0.13286 0.28986 -0.00603
-0.09810 0.27057 -0.18693
-0.11063 0.33555 0.00386
-0.05287 0.00223 -0.13477
0.19661 -0.22436 -0.17231
0.19557 -0.36162 0.17847
-0.12129 0.20280 -0.10500
0.15640 -0.12317 0.16543
-0.00042 0.00223 0.08611
0.15910 -0.30943 -0.18064
0.15640 -0.24282 -0.17069
0.17589 -0.15634 -0.18221
-0.12682 0.24055 -0.06396
-0.13174 -0.26345 0.18386
0.21449 -0.04835 0.04604
-0.05624 0.00223 0.13917
-0.00440 -0.05631 -0.21349
-0.09868 -0.39172 0.19313
-0.15458 0.26264 0.07856
0.16745 -0.38223 -0.18339
-0.15237 0.39695 -0.12215
-0.06444 0.27573 0.13112
-0.11146 -0.28446 -0.15630
-0.09880 -0.36499 -0.15790
-0.10916 0.26107 -0.02814
-0.08454 0.10522 -0.17653
-0.11927 0.11237 -0.09776
-0.10700 0.22403 -0.18687
-0.13174 -0.19509 0.17495
-0.16592 0.28275 -0.13993
-0.12946 0.10781 0.18084
0.04581 -0.05840 -0.21349
0.09468 -0.06032 -0.20508
0.19661 -0.30626 -0.16185
-0.17916 0.39695 -0.11099
0.16745 -0.06032 0.17567
-0.13053 -0.02606 -0.20309
-0.03905 -0.06032 -0.15700
-0.15321 0.32833 0.11083
-0.19450 0.24718 0.05576
-0.19360 -0.00668 0.02051
-0.01784 0.00223 -0.03109
0.20036 -0.06032 0.14146
-0.11484 -0.08303 0.19982
-0.01548 -0.06032 -0.08470
-0.11267 0.25355 0.15171
-0.11610 0.20979 -0.15075
-0.09125 0.20459 -0.14930
-0.20142 -0.04657 0.08726
-0.17128 0.24055 0.10419
-0.15616 -0.06032 -0.00610
-0.12477 0.24055 0.05569
-0.09504 0.02094 0.18595
0.04094 -0.06032 -0.15049
-0.09897 -0.17658 -0.18932
-0.14482 0.07102 0.07383
-0.08655 0.37082 0.19192
0.03669 -0.01208 0.20064
-0.12568 0.14855 0.18663
-0.12627 0.04876 0.15873
-0.07939 0.24055 -0.17130
-0.08818 0.15057 -0.15183
-0.16581 0.24158 -0.14014
-0.07820 0.33179 0.11148
0.00605 -0.06032 0.00602
-0.10830 -0.06032 0.08641
-0.12946 -0.18567 -0.15630
0.00123 0.00223 0.18187
-0.09573 0.20612 0.18685
0.18370 -0.39248 -0.15630
-0.02986 -0.06032 -0.17766
-0.12834 -0.26792 -0.15630
0.04047 0.00223 -0.16465
-0.15947 0.03722 0.10346
-0.13040 0.14454 0.11205
-0.03400 0.00223 0.07096
0.18135 -0.26097 0.19313
-0.05119 -0.06032 0.10789
0.15640 -0.09210 -0.17453
-0.06811 -0.06032 0.05012
-0.10566 0.28050 0.04409
0.15640 -0.23514 0.16068
0.11911 0.00223 0.14805
0.10196 -0.06032 0.14122
0.15640 -0.10165 0.18141
-0.06150 0.33094 -0.17165
-0.12140 0.29468 -0.17574
0.12059 -0.03983 0.21548
-0.16009 0.39695 -0.08362
-0.17316 0.32076 0.00371
-0.13783 0.24063 -0.07546
-0.06543 0.32478 0.17316
-0.11948 0.29755 -0.09903
-0.15844 0.34862 -0.10561
-0.09748 0.31368 -0.20360
0.20142 -0.06032 -0.17798
-0.10458 0.27730 -0.05143
0.18377 -0.39695 -0.18492
0.09800 -0.06032 -0.05277
0.16856 -0.06032 0.16678
-0.06121 0.32343 -0.13674
0.06947 0.00223 0.12751
0.15938 -0.06032 0.07335
0.19345 -0.06032 -0.10077
0.04830 0.00223 0.06477
0.19650 -0.18431 0.17421
0.16894 -0.06032 -0.04238
-0.06439 0.24055 0.15740
-0.09165 0.00153 -0.18676
-0.01930 0.00223 0.13905
-0.13396 0.28850 -0.07610
0.16303 0.00223 -0.07602
-0.09636 0.37764 -0.07741
-0.10422 0.24055 0.09979
-0.13266 -0.06032 -0.16787
-0.12109 0.05776 -0.17651
0.08451 0.00223 0.08203
0.19235 -0.06032 0.20679
-0.11987 0.22321 -0.17822
-0.13892 -0.00672 -0.16705
-0.07529 0.30277 -0.18390
0.19111 -0.00230 -0.01523
-0.09879 0.33761 0.15531
-0.13724 0.35077 0.10266
-0.14908 0.00223 0.10524
0.08215 0.00223 0.07619
-0.12344 0.28202 -0.16503
-0.01911 0.00223 -0.12979
-0.10788 0.26651 -0.03499
-0.15810 -0.04255 0.17551
0.16103 -0.39695 0.15980
-0.14767 0.26702 -0.17033
-0.13174 -0.10302 -0.17644
-0.15496 0.33831 -0.11048
-0.18483 -0.02544 -0.12088
0.19472 -0.12462 -0.18966
0.20301 -0.06032 -0.16218
0.18069 -0.38539 -0.16097
-0.12865 -0.23889 -0.15630
-0.11101 0.39695 0.09772
-0.13242 0.11131 0.00108
-0.13174 -0.20491 -0.18061
-0.10442 0.34702 -0.14601
-0.17871 0.33545 -0.11289
-0.09466 -0.06032 -0.07304
0.15966 -0.12370 -0.15630
-0.07388 0.36682 0.18066
-0.06144 -0.06032 -0.03609
0.15933 -0.28784 0.19313
-0.19398 0.32958 0.05836
-0.19929 0.25126 -0.02006
0.17301 -0.06032 -0.10689
-0.18849 0.31536 -0.08436
0.17389 -0.04916 -0.21349
-0.11731 0.00223 -0.02688
0.06138 -0.06032 0.15336
-0.13323 0.33985 -0.19027
-0.13955 0.25235 -0.18234
-0.09612 0.03350 0.15736
-0.12106 -0.09122 -0.15630
-0.19224 -0.06032 0.04039
-0.00695 -0.06032 0.08509
-0.10652 -0.33328 -0.18863
-0.19474 0.29141 -0.05657
0.19401 -0.35281 -0.15648
0.19590 -0.33574 0.17648
0.19137 -0.00260 0.00736
-0.14520 0.16461 0.01815
-0.15371 0.24174 0.01968
-0.05822 0.30793 0.16675
-0.12728 0.00223 0.09347
-0.11587 -0.33413 -0.18877
0.21338 -0.02778 -0.21046
-0.12797 -0.37454 -0.18284
-0.11040 -0.31017 -0.16348
0.21449 -0.05610 -0.13634
-0.12557 0.17284 0.08035
0.08184 0.00223 -0.03092
0.19661 -0.22606 -0.16362
-0.00197 -0.04509 -0.21349
-0.09152 -0.26342 -0.15677
-0.09152 -0.12146 0.17982
-0.18157 0.24055 -0.03913
-0.03218 0.00223 -0.04727
0.19621 -0.38539 -0.18892
-0.01558 -0.00793 0.19702
-0.09488 0.18211 0.18574
-0.12402 0.38123 -0.20064
0.21333 -0.06032 0.09312
0.12346 -0.06032 0.00245
-0.09042 0.31976 0.17722
-0.06349 -0.06032 0.08546
-0.10582 0.19171 -0.14614
0.17470 0.00223 0.15613
0.10734 -0.06032 -0.13217
0.15504 -0.02117 0.20859
-0.14934 0.29539 0.01933
-0.11212 -0.16547 -0.16375
0.18797 -0.36920 -0.15874
-0.11444 -0.37566 -0.16041
-0.10582 -0.21399 0.15978
-0.07598 0.24055 0.12141
-0.14632 0.34055 0.07408
-0.19533 0.27980 -0.05358
0.17584 -0.06032 -0.21169
-0.10609 0.38295 0.04192
-0.08896 0.00223 0.03920
-0.10677 -0.17654 0.18569
-0.11156 0.00223 0.18143
-0.14404 0.39397 0.17372
0.15881 0.00223 -0.05588
-0.10219 -0.09558 0.19313
0.18080 -0.33545 0.19239
-0.10471 0.27326 0.04881
-0.16001 0.21603 -0.09070
-0.09616 -0.06032 0.18818
0.15640 -0.27970 -0.17713
0.15640 -0.24277 -0.17899
-0.05266 0.32419 -0.14636
-0.10403 -0.06032 0.04429
0.16432 -0.14861 0.19313
-0.11651 0.23066 0.19223
0.17122 -0.38187 0.18699
0.08168 0.00223 -0.16796
-0.12863 0.32149 0.11076
0.19281 -0.28886 -0.15630
-0.10742 0.27225 -0.21244
-0.09152 -0.25605 -0.17424
-0.12527 -0.14699 -0.15630
0.21449 -0.03138 -0.00373
-0.13264 0.02205 -0.00472
0.16774 -0.09198 0.15978
-0.02487 0.00223 -0.04788
0.14104 0.00223 0.17828
-0.19260 -0.02118 -0.08981
0.19515 -0.33065 0.18961
-0.13096 -0.26968 -0.18966
-0.13174 -0.08347 -0.18202
-0.09719 -0.36496 -0.18808
-0.15049 0.05919 -0.11398
0.11784 0.00223 0.01425
-0.08606 -0.06032 0.15340
0.18461 -0.39695 0.16201
-0.11944 -0.12914 0.15978
0.02954 -0.06032 0.06499
-0.14246 0.15803 0.11478
-0.11583 -0.30064 -0.18966
-0.09590 -0.38539 -0.18479
0.03967 0.00223 -0.04379
-0.09027 0.11325 0.16845
-0.15900 0.12752 0.08380
-0.10244 0.18599 -0.18736
-0.21237 -0.06032 -0.00394
0.12166 -0.03540 -0.21349
-0.16792 0.25868 0.13392
-0.14935 0.39695 0.03416
0.08173 -0.01948 0.20711
-0.13331 0.03455 -0.07637
-0.17796 0.29959 0.11309
-0.08637 0.00223 -0.11115
-0.18803 0.34103 0.08370
-0.12100 0.14102 -0.08771
-0.17114 0.03977 0.00899
-0.12194 0.28842 0.18967
-0.13174 -0.20832 0.16179
0.21449 -0.03987 -0.06283
0.10662 0.00223 0.12694
0.05968 -0.04119 -0.21349
0.01179 -0.04480 0.21548
0.04105 0.00223 0.00224
-0.00222 -0.06032 -0.19312
0.21449 -0.05778 0.18949
-0.16333 0.39216 0.14314
-0.10680 -0.08303 -0.15528
-0.08721 0.13315 -0.18027
-0.13151 0.17618 -0.07719
-0.11016 0.26081 0.21289
-0.15633 0.02883 -0.10869
-0.07201 -0.06032 -0.11616
-0.13327 0.15795 0.07496
0.16215 -0.19154 -0.18966
0.18240 -0.21974 -0.15630
-0.19077 0.36714 0.07436
-0.09859 -0.31046 -0.17883
-0.11074 -0.38539 -0.15918
-0.20325 -0.03415 -0.07996
0.15640 -0.09433 0.19297
-0.06543 -0.06032 -0.09826
0.21449 -0.05066 0.14991
-0.16295 0.36427 0.14391
0.19661 -0.08479 -0.18678
-0.05545 -0.06032 0.14214
-0.10296 0.00223 0.13851
0.16760 -0.06032 0.03595
0.10274 -0.02814 -0.21270
-0.14822 0.39367 0.16753
-0.18156 0.24055 -0.07104
-0.16146 0.15795 0.09111
-0.19249 -0.00485 0.01306
0.15640 -0.22865 0.18299
-0.13640 0.29307 -0.11649
0.16152 -0.06032 -0.06884
-0.16048 0.24055 0.00830
-0.04078 -0.06032 0.18884
-0.12878 0.24055 -0.07151
-0.14308 0.12571 0.01718
-0.04610 -0.06032 0.13866
-0.13269 0.25984 0.18890
-0.13174 -0.28269 -0.16231
-0.11432 0.16061 -0.18386
-0.09666 -0.26738 0.19313
0.07104 -0.06032 0.10786
-0.09152 -0.11164 -0.17110
-0.05600 0.38450 -0.16677
-0.12089 0.20027 0.08898
-0.10995 0.08702 0.15153
-0.13323 0.28937 0.00517
-0.16078 0.26464 -0.15024
-0.12029 -0.06032 0.08993
0.07232 -0.04536 -0.21349
0.19661 -0.09137 -0.15869
-0.20005 0.24963 -0.00864
0.16785 -0.36633 0.16159
0.20349 -0.01646 -0.01803
-0.13234 0.29488 -0.19128
-0.19861 0.27598 -0.03034
0.20427 -0.06032 -0.10691
0.10492 -0.06032 0.15899
-0.14231 0.24055 -0.08141
-0.08408 -0.08141 -0.19317
-0.10542 0.24055 -0.14029
0.19661 -0.09451 -0.17237
0.15287 0.00223 0.07722
-0.11314 0.24055 -0.20334
0.19023 -0.00129 0.11661
-0.09770 0.36774 0.20182
-0.20800 -0.06027 0.05992
-0.12835 0.00223 0.08164
-0.10336 -0.16979 -0.16375
0.17267 -0.22934 -0.18966
-0.14731 0.29153 -0.11543
-0.09457 0.11054 -0.18563
0.09034 -0.06032 0.06685
0.17854 -0.06032 -0.17154
0.04452 0.00223 0.11851
-0.12423 -0.39695 0.17268
0.00456 -0.06032 -0.06875
0.17182 -0.07245 -0.14886
0.15702 -0.35816 -0.17885
-0.10085 0.27198 -0.06433
-0.12805 0.26731 0.18355
0.18929 -0.36244 -0.15748
-0.00982 -0.06032 -0.03845
-0.08983 0.15957 0.17185
-0.08336 0.07007 -0.17393
-0.10898 0.27838 -0.02952
0.19661 -0.39308 -0.17012
-0.13783 0.00223 -0.11277
-0.11249 0.34465 0.21165
0.09154 0.00223 0.00909
-0.10851 0.39695 -0.15614
-0.12429 -0.16157 0.18330
0.01131 -0.06032 -0.12820
-0.14737 -0.06032 -0.13286
-0.09478 -0.37277 -0.16505
0.20639 -0.01979 0.09887
0.11743 -0.06032 -0.01649
0.15640 -0.13892 0.17579
-0.17225 0.24734 0.12523
-0.16608 0.34295 -0.13961
-0.19737 0.29062 0.04146
-0.13191 0.00223 0.04984
-0.12613 0.36410 -0.19826
-0.14699 0.38887 0.16934
-0.09707 -0.31457 -0.17300
-0.15713 0.15501 0.10708
0.18365 0.00223 -0.02924
-0.13207 0.24055 0.08162
0.21449 -0.04647 -0.11812
-0.11018 0.28073 0.01068
0.21449 -0.04244 0.02438
-0.13883 0.39695 -0.02499
0.19603 -0.33710 0.16312
-0.10480 0.10593 0.19226
0.21449 -0.03625 0.17016
-0.11972 0.26944 -0.10046
-0.09531 0.34203 0.07849
-0.10848 -0.19767 0.19313
-0.10013 -0.33554 0.19240
0.15232 -0.05611 -0.21349
-0.09306 -0.33016 0.18855
-0.08458 0.25699 -0.15648
0.21011 -0.06032 -0.02724
-0.14728 0.24055 -0.13222
-0.14972 0.00223 -0.08017
-0.11416 0.09395 -0.18399
0.20582 -0.06032 0.08415
0.17353 -0.06032 0.11117
0.03685 -0.06032 0.00738
0.04313 0.00223 -0.08387
0.13149 -0.06032 0.08327
-0.12354 -0.08362 0.19313
-0.20181 -0.06032 -0.03465
-0.11586 -0.27846 0.15978
0.18899 -0.33928 -0.15667
0.03844 -0.05232 0.21548
-0.08866 0.04596 -0.15143
-0.10590 0.12159 0.15206
0.14895 -0.06045 -0.16176
-0.06669 0.31084 0.17427
-0.17232 0.38521 -0.12707
-0.09152 -0.26498 -0.17886
-0.13343 0.12856 0.00571
-0.14001 0.21129 0.07347
-0.14402 -0.01325 -0.16970
-0.09152 -0.11456 -0.17881
