ply
format ascii 1.0
comment VCGLIB generated
element vertex 1784
property float x
property float y
property float z
element face 0
property list uchar int vertex_indices
end_header
-0.25344 0.13769 0.02168
-0.28291 0.26377 0.02160
-0.22028 -0.00886 -0.27533
0.24694 -0.19346 -0.27556
-0.24456 0.20621 0.24850
-0.23871 0.08145 -0.17444
-0.27193 0.28479 0.08478
0.24919 -0.16291 0.26819
0.19328 -0.02890 0.20901
-0.20825 -0.02969 -0.07935
-0.24473 0.09690 0.26829
0.02364 -0.09410 0.15916
0.12974 -0.03684 0.11394
-0.07906 -0.10701 -0.12679
-0.13031 -0.06931 0.13190
0.07174 -0.04408 -0.16072
0.05163 -0.04659 0.08285
-0.03920 -0.07632 -0.26872
0.19039 -0.07331 0.06087
-0.26070 0.16524 -0.12721
-0.25122 0.12955 0.21328
-0.20488 0.12494 -0.22352
-0.22160 0.18862 -0.05389
0.05552 -0.04610 0.02747
0.28896 -0.05872 -0.03206
0.24588 -0.17103 0.27454
-0.05362 -0.05973 -0.12739
-0.23348 0.23388 -0.19148
0.15807 -0.07740 -0.19820
0.09185 -0.04157 -0.06461
-0.11424 -0.11135 0.07640
-0.16576 -0.03104 -0.25465
-0.13618 -0.07377 -0.25930
-0.24088 0.08995 0.09345
-0.20195 0.11376 0.08604
0.29183 -0.05668 -0.20467
0.17613 -0.03104 0.03306
0.02654 -0.09376 0.11216
0.18897 -0.02944 0.21822
0.04793 -0.09113 0.01652
-0.25760 0.15341 -0.14915
-0.05767 -0.06024 -0.17759
-0.19885 -0.07016 0.09015
-0.27743 0.22941 0.23647
-0.01519 -0.09899 0.06188
-0.27262 0.26537 -0.17566
-0.24524 0.14204 0.26480
-0.16319 -0.03389 0.12019
-0.07194 -0.10605 0.12997
0.22732 -0.02618 -0.25492
-0.20683 0.13237 -0.04496
-0.25850 0.14614 0.27613
0.19366 -0.07290 0.08503
-0.20425 -0.04966 0.05331
-0.20251 -0.05645 -0.14944
-0.20087 0.10967 0.19176
-0.16461 -0.02850 0.21048
-0.25985 0.28563 -0.16676
-0.19122 0.07289 -0.13296
0.04871 -0.08598 0.26116
-0.25498 0.28403 -0.00673
-0.28180 0.24564 -0.13908
-0.03677 -0.10891 -0.25566
0.27748 -0.03335 -0.07688
-0.21423 0.16057 0.06660
0.25881 -0.06482 0.06854
0.20314 -0.02767 -0.04086
-0.07617 -0.08542 -0.26906
-0.27331 0.26526 -0.12181
-0.12609 -0.11278 0.20395
-0.28458 0.27265 0.16648
0.25543 -0.05062 -0.24403
0.22325 -0.02516 -0.23042
-0.27935 0.23167 0.07768
-0.26207 0.17046 -0.18925
-0.21788 0.00212 -0.21124
-0.21711 0.10801 0.24850
0.25266 -0.13762 0.27062
-0.26439 0.17928 -0.18005
0.02531 -0.04988 -0.19225
0.16015 -0.03304 -0.22202
-0.08722 -0.10800 0.02795
-0.26223 0.24446 -0.25068
0.06388 -0.07019 -0.26878
0.18190 -0.07442 -0.18572
-0.20179 -0.01906 0.24850
-0.19612 0.09156 -0.14032
0.19364 -0.07295 -0.17789
-0.03564 -0.10609 0.25883
-0.08413 -0.10764 -0.05466
0.19527 -0.07267 0.14198
0.00248 -0.09526 -0.25474
-0.21173 -0.02757 0.12512
-0.24223 0.07002 -0.27064
0.29918 -0.04224 -0.11944
-0.24621 0.11009 -0.01786
-0.24657 0.11139 -0.10304
0.15043 -0.14134 0.27355
-0.21219 0.06520 -0.26813
-0.19690 -0.07782 -0.24230
0.24511 -0.06972 -0.18600
-0.17299 0.00344 0.09861
-0.15878 -0.05070 0.00753
-0.20346 -0.11910 0.27159
0.15007 -0.11159 -0.27413
-0.22002 0.18261 0.20814
0.23632 -0.06762 -0.23960
-0.17797 0.02240 0.17783
-0.29237 0.28359 0.00550
0.24467 -0.25526 -0.27608
0.18256 -0.03024 0.13782
-0.19621 0.09188 -0.22727
-0.23970 0.12554 0.26568
-0.12163 -0.09858 0.26768
0.22056 -0.02549 -0.21036
-0.06656 -0.06135 0.23822
-0.19815 0.04697 0.24850
-0.26780 0.19247 0.06786
-0.25188 0.13165 -0.11001
-0.28119 0.22270 -0.03375
-0.00795 -0.05403 0.02275
0.21671 -0.02597 0.04874
-0.26730 0.26619 0.18101
-0.26018 0.16326 -0.04675
0.12277 -0.08180 -0.19142
-0.11009 -0.11084 0.05558
0.07392 -0.08787 0.05448
-0.25920 0.26749 -0.03740
0.15772 -0.25822 0.26828
-0.27989 0.26423 0.20830
-0.17095 -0.11041 0.07924
0.12920 -0.08094 0.10820
-0.18518 0.04986 -0.07091
0.06858 -0.04447 -0.12640
-0.08951 -0.06422 -0.22788
-0.18010 -0.10456 -0.07107
-0.18333 0.04282 -0.09552
-0.22949 0.04632 -0.19679
-0.12416 -0.11264 -0.07490
-0.11539 -0.06745 -0.22336
-0.00544 -0.09191 -0.24816
-0.21282 -0.02458 0.27608
0.26083 -0.06456 -0.16890
0.10032 -0.05569 -0.26796
-0.28182 0.24610 0.19260
-0.13820 -0.07030 -0.24776
0.11696 -0.04061 -0.25635
0.24709 -0.06656 0.15226
0.18408 -0.07415 -0.11753
0.21702 -0.02594 0.16764
0.02393 -0.05005 0.16960
-0.16289 -0.03505 0.19358
-0.24444 0.27158 0.23834
0.13981 -0.10167 -0.26834
0.05614 -0.04603 0.06944
0.21379 -0.02634 -0.14539
-0.01466 -0.05487 -0.15820
-0.21892 0.00617 0.02718
0.25156 -0.23805 0.26912
-0.03746 -0.05772 0.04331
-0.28365 0.26366 -0.15570
-0.19967 0.08815 0.24850
-0.15452 -0.06682 0.05886
-0.24263 0.09641 -0.16478
0.24181 -0.02284 0.24324
0.27528 -0.04680 -0.23697
-0.25032 0.12947 0.24850
-0.23369 0.06234 -0.10645
0.25544 -0.02114 0.01726
-0.23355 0.23416 -0.14656
0.08370 -0.04258 -0.20335
0.10764 -0.08369 -0.12548
-0.03762 -0.10268 -0.03080
0.16554 -0.03236 0.10930
0.15382 -0.12394 0.26839
0.20325 -0.02765 -0.20879
-0.03854 -0.10195 -0.08054
-0.26580 0.28606 -0.05516
0.19271 -0.02897 0.11538
0.29388 -0.02617 -0.00036
0.03468 -0.04871 -0.16370
-0.24125 0.26349 -0.12363
-0.08818 -0.06885 0.26097
-0.18865 -0.09548 0.13583
-0.20375 -0.05173 -0.05144
-0.00632 -0.09793 -0.17873
-0.28128 0.24393 0.13123
-0.23826 0.25208 -0.17459
0.29123 -0.04655 -0.24812
-0.21530 0.16462 0.20647
0.01764 -0.06898 0.26903
0.08976 -0.08593 -0.21817
-0.23548 0.24149 0.04061
0.21547 -0.02613 -0.06643
-0.06026 -0.06056 -0.14563
-0.19359 -0.08713 0.03545
0.02670 -0.04970 -0.05470
-0.26077 0.26720 0.20629
-0.14034 -0.11461 0.07536
0.29668 -0.05045 -0.08050
-0.19571 -0.08181 -0.22745
-0.11907 -0.11193 0.13241
-0.16456 -0.02869 0.04111
-0.21949 0.18060 -0.07513
-0.10699 -0.22997 -0.27160
-0.19388 -0.08655 -0.13754
0.27888 -0.04460 0.22092
-0.23445 0.23757 0.17827
0.24391 -0.02258 0.01196
0.06440 -0.08898 0.21908
-0.22699 0.03680 -0.09202
-0.29702 0.28978 -0.03268
-0.24662 0.11206 0.24093
-0.01115 -0.05443 -0.00651
0.27827 -0.03972 0.05208
-0.18717 0.05745 -0.22189
-0.07791 -0.10687 -0.07478
0.25044 -0.17291 0.27588
-0.00528 -0.05370 0.19254
0.26109 -0.02043 -0.17412
0.24779 -0.11652 0.26817
-0.19559 0.08954 0.00767
0.27844 -0.06132 -0.23444
0.02362 -0.09419 -0.07254
-0.19546 -0.15728 0.27285
0.10963 -0.08339 0.09236
-0.01888 -0.09949 -0.16548
0.22070 -0.06957 -0.07969
0.07209 -0.07308 -0.26786
-0.24562 0.26956 0.15965
-0.18053 0.03215 0.14815
0.04999 -0.04679 -0.19178
-0.19434 -0.08550 -0.16903
-0.21543 -0.00684 0.19311
0.23796 -0.06738 0.05102
0.14338 -0.03735 -0.25644
-0.04251 -0.10244 -0.06599
0.24418 -0.06235 -0.25986
-0.13407 -0.06978 -0.19242
0.27792 -0.04386 0.23135
0.20118 -0.04460 0.26884
-0.29239 0.28356 -0.20949
0.11991 -0.03806 0.10658
0.29419 -0.05423 0.12050
-0.23448 0.06534 -0.08984
0.11366 -0.07131 0.26683
-0.18046 0.03190 0.19697
-0.25891 0.15842 -0.16787
-0.22415 0.19834 -0.15293
-0.18699 0.05679 -0.22754
0.00304 -0.07658 0.26927
-0.27864 0.28089 -0.11389
0.05293 -0.09044 0.15510
0.26767 -0.06371 -0.08033
-0.24070 0.08916 0.01771
-0.04172 -0.10229 0.10075
0.02637 -0.09381 0.04744
-0.17268 0.00225 -0.24508
-0.20564 -0.01818 0.26274
0.27653 -0.02578 0.07730
-0.24898 0.26909 -0.21840
-0.23988 0.08591 -0.05182
0.14982 -0.03433 -0.15333
-0.01129 -0.05445 -0.09065
-0.20852 0.13878 -0.13140
0.29636 -0.05102 -0.04323
0.26731 -0.01965 0.18224
-0.13597 -0.07002 0.04302
-0.08403 -0.10388 0.25953
0.03624 -0.05399 0.26181
0.11696 -0.05829 -0.24816
-0.28161 0.27781 0.14172
-0.01106 -0.09849 0.02437
-0.26238 0.17178 0.02582
0.05827 -0.08976 0.19120
0.09033 -0.08591 0.17663
-0.21705 0.17131 -0.22245
0.07311 -0.08798 0.02168
0.14260 -0.03523 0.24707
-0.27687 0.22684 -0.16035
-0.26151 0.16831 -0.06096
-0.02964 -0.05674 -0.06917
-0.25928 0.26747 0.01786
0.15774 -0.22487 0.27060
-0.21034 0.04537 0.26901
-0.23271 0.05869 0.01187
0.08899 -0.04192 0.12896
-0.20747 -0.03742 0.04370
-0.17269 0.00229 0.06782
0.20707 -0.02718 0.05079
-0.17403 0.00556 0.25080
0.09338 -0.09228 0.15910
0.14638 -0.03476 -0.12093
0.18420 -0.07413 -0.03883
-0.03728 -0.10293 -0.10455
-0.28368 0.25308 0.13891
0.13430 -0.03627 0.22013
0.09312 -0.08718 0.15011
-0.21132 0.11716 -0.26322
0.19624 -0.02903 0.25139
-0.13233 -0.06956 0.14673
-0.21290 -0.01687 -0.17606
-0.20622 -0.04188 0.22375
0.06799 -0.04455 0.13558
0.01068 -0.09580 -0.21686
-0.20110 -0.04496 0.25970
0.16036 -0.03301 0.22559
-0.08946 -0.10831 -0.15312
-0.23493 0.23940 0.08522
0.27752 -0.03367 -0.05370
0.16384 -0.06355 -0.24816
-0.24715 0.11367 -0.02319
-0.11940 -0.06795 0.20917
-0.12526 -0.06868 0.10864
0.28812 -0.02150 0.05098
-0.26679 0.18849 -0.01445
-0.13619 -0.07005 -0.18041
0.19556 -0.07260 0.23653
-0.23585 0.04556 0.27220
0.04043 -0.04799 -0.10580
-0.29536 0.27285 0.26744
0.01297 -0.08742 0.26430
-0.02392 -0.10005 0.12632
0.06699 -0.04467 0.17697
0.11491 -0.08628 0.26890
0.13508 -0.03617 0.04046
-0.23501 0.06738 -0.03531
-0.24204 0.26650 0.13114
-0.10506 -0.15319 0.26869
-0.24064 0.26119 0.02986
0.01832 -0.08355 0.26666
-0.24999 0.12458 0.04318
-0.27212 0.22789 0.24850
0.05255 -0.09257 0.27561
-0.26179 0.28604 -0.14097
0.12443 -0.03750 -0.15042
-0.23641 0.06361 0.26824
0.22645 -0.03476 -0.26546
-0.06525 -0.07612 -0.26786
-0.24133 0.09147 -0.03040
-0.27071 0.20336 -0.20249
0.04960 -0.09086 0.14489
0.09844 -0.08484 -0.23942
0.15858 -0.07727 0.09207
0.11972 -0.08219 -0.12910
0.24486 -0.23985 0.27185
-0.18012 -0.10446 0.12027
-0.18450 0.04728 0.12680
0.17134 -0.03164 0.15600
-0.24730 0.26934 0.11106
-0.26610 0.23792 0.26739
0.00656 -0.08439 0.24850
-0.05031 -0.10342 -0.20111
0.25859 -0.06484 -0.20292
-0.26216 0.15749 0.27604
-0.19361 -0.25377 0.27502
0.24920 -0.02192 -0.17308
-0.27287 0.26535 -0.18096
-0.28604 0.26215 0.16774
0.13745 -0.03587 0.04941
-0.27822 0.22532 0.16025
-0.21958 0.00863 -0.01119
0.06659 -0.05189 0.26371
-0.22527 0.20259 0.10483
-0.15627 -0.06026 -0.19224
-0.24771 0.25124 -0.25239
-0.16690 -0.01974 0.10832
-0.26918 0.19754 -0.20842
0.27585 -0.02029 -0.04479
0.10648 -0.03974 0.20956
-0.15452 -0.06681 0.09289
-0.26243 0.17183 -0.04843
-0.28148 0.24443 -0.14997
-0.21368 -0.01391 -0.21525
0.08084 -0.08699 0.08337
-0.21576 0.08590 0.24850
-0.25495 0.14375 0.20010
-0.25415 0.14028 -0.11343
-0.08762 -0.06398 0.22998
-0.26075 0.25509 -0.24517
0.18696 -0.05100 -0.24816
-0.03179 -0.05701 -0.03878
0.05046 -0.09083 -0.15548
-0.24437 0.10302 -0.06389
-0.22321 0.05502 -0.26327
0.06618 -0.04477 0.06020
0.02158 -0.09238 0.25616
-0.24722 0.26935 0.19192
-0.27658 0.28243 -0.01624
-0.06896 -0.06234 -0.25212
-0.25669 0.14997 -0.10210
0.03474 -0.09280 -0.19770
-0.27086 0.26565 0.21975
-0.27896 0.22904 -0.13086
-0.01558 -0.10598 -0.27487
-0.22511 0.02991 0.12298
-0.20649 0.13106 0.14303
0.12867 -0.03697 0.12997
0.12761 -0.08120 -0.13001
-0.02635 -0.08300 0.24850
-0.19503 0.08742 -0.19337
0.03677 -0.04845 0.21078
-0.20922 0.13570 -0.25406
0.15424 -0.22793 -0.27595
0.22831 -0.27882 -0.26841
0.06185 -0.07236 -0.24816
-0.27819 0.26449 0.22426
0.06490 -0.07233 0.26883
-0.15390 -0.11253 0.25675
0.16545 -0.07644 0.01952
-0.15890 -0.05023 0.16890
0.18921 -0.03976 0.24850
-0.09759 -0.06523 -0.22991
0.24864 -0.02199 -0.18404
-0.14246 -0.07083 -0.20677
-0.20463 -0.04839 -0.19979
-0.10438 -0.22088 -0.27597
0.20684 -0.02721 -0.11879
0.29919 -0.03912 -0.21309
-0.27141 0.20602 -0.09347
0.09706 -0.08502 -0.21461
-0.23938 0.08430 0.12445
-0.25647 0.13333 0.27583
-0.16176 -0.11384 -0.13079
0.25544 -0.02114 0.08545
0.01859 -0.09482 -0.20121
-0.20807 -0.03527 -0.04457
-0.22962 0.21917 0.21693
-0.27204 0.26548 -0.10390
-0.28150 0.24484 0.17270
-0.27782 0.23047 -0.16467
-0.17874 0.02536 0.13222
-0.14981 -0.07633 -0.26096
0.09564 -0.08510 0.17361
0.23016 -0.06838 -0.01271
0.09239 -0.04150 -0.11804
0.17624 -0.07506 0.10670
-0.24366 0.15006 0.24850
-0.27087 0.20418 0.07341
-0.21330 -0.03514 0.18477
0.05599 -0.09014 -0.15041
-0.21496 0.16332 -0.11533
0.18770 -0.02960 0.01996
0.12768 -0.03709 -0.23147
-0.19937 -0.21432 0.26819
-0.24025 0.08734 -0.15206
-0.24783 0.26927 -0.14361
-0.21386 -0.01299 0.08363
0.16750 -0.07616 0.09051
-0.20608 -0.04266 0.07679
-0.23705 0.07555 0.19699
-0.09025 -0.06431 0.17203
-0.09537 -0.06495 -0.15715
0.23596 -0.02357 -0.14683
-0.01567 -0.09899 0.21013
-0.26262 0.28617 -0.20225
0.17779 -0.07493 -0.19730
0.10734 -0.03963 0.16439
-0.27182 0.20806 0.22761
-0.00222 -0.05332 -0.16246
-0.04579 -0.05876 0.14501
-0.06392 -0.06102 0.21341
-0.17141 -0.00258 0.00874
-0.19104 0.07219 -0.24238
-0.25072 0.12721 -0.13292
-0.02322 -0.05594 0.11675
-0.16118 -0.04155 0.05884
-0.20767 -0.03070 0.21990
-0.26032 0.13982 0.27054
-0.13508 -0.06991 0.08732
-0.21646 0.16903 -0.10263
0.03815 -0.09237 -0.15026
0.08959 -0.08597 0.13788
-0.23709 0.07539 0.02264
-0.12995 -0.27696 0.27197
0.29886 -0.03635 -0.20429
-0.15999 -0.09833 0.24850
0.26905 -0.01944 -0.10036
0.02098 -0.09451 -0.01921
-0.12748 -0.11295 0.21641
0.15472 -0.07781 -0.15967
0.24535 -0.06864 0.16702
-0.21110 -0.02328 0.22376
-0.28547 0.27013 0.03611
-0.17915 0.02691 -0.21177
-0.24027 0.25977 -0.07661
0.18322 -0.03016 -0.23813
-0.02028 -0.09967 -0.20211
0.09290 -0.09283 -0.21720
0.00709 -0.05215 0.09582
0.13926 -0.07974 -0.19434
-0.24632 0.11446 0.25100
0.20276 -0.07182 -0.19748
0.09485 -0.08520 0.17922
0.17106 -0.04712 -0.26806
0.27812 -0.06240 0.14747
-0.13770 -0.07024 0.11382
-0.20824 0.13773 -0.19404
0.03468 -0.04871 -0.02815
0.23694 -0.02345 0.16296
-0.27015 0.17970 0.26949
0.14958 -0.17027 -0.27426
-0.13378 -0.11384 -0.09758
-0.10667 -0.11040 0.09660
0.24604 -0.07262 0.07498
-0.04011 -0.10212 0.01459
-0.18569 0.05184 0.05893
0.15201 -0.07806 0.16834
-0.19509 0.02429 0.24850
0.08186 -0.04806 0.24850
-0.21240 -0.01858 0.08321
0.15942 -0.07721 -0.00398
-0.19473 0.08627 -0.13880
-0.20117 -0.15939 0.26865
0.10477 -0.08396 0.17635
0.24521 -0.04338 0.24850
-0.17353 0.00549 -0.05559
0.24511 -0.02243 -0.24114
0.04946 -0.04686 -0.06438
-0.27910 0.23534 -0.07687
-0.26338 0.20794 0.24850
-0.23953 0.25695 -0.15240
0.22180 -0.06941 0.01276
0.14998 -0.03431 0.23294
-0.27974 0.23778 -0.16958
0.09856 -0.04073 -0.14814
0.09119 -0.09377 0.14504
-0.17051 -0.00600 0.17101
-0.19566 0.02328 -0.26755
-0.20690 0.13263 -0.01007
-0.20277 -0.05529 0.27202
-0.20862 -0.02922 -0.13928
-0.28316 0.25098 0.06975
-0.20405 0.12176 0.13173
-0.00864 -0.10255 -0.27614
-0.21996 0.18238 0.02756
0.05241 -0.04649 -0.20724
-0.19670 -0.13773 -0.27467
-0.22589 0.20498 0.08937
0.11337 -0.08293 0.06161
0.22587 -0.02483 0.15243
-0.23109 0.05259 0.06402
-0.01778 -0.05526 0.19696
-0.04111 -0.10244 -0.00219
0.04516 -0.04740 -0.07828
0.29532 -0.02783 0.03065
0.14211 -0.07930 0.16411
-0.11560 -0.11150 0.11866
0.14986 -0.03432 0.24725
-0.24473 0.27422 0.05773
-0.04343 -0.09851 0.25990
0.22791 -0.02458 0.23620
-0.19450 -0.08495 0.14839
-0.18978 -0.09409 -0.22448
-0.27533 0.22547 -0.11472
-0.19575 -0.08167 -0.08732
-0.16102 -0.04216 -0.12440
-0.12553 -0.28029 -0.27604
-0.08373 -0.10759 -0.21353
-0.19046 -0.06057 -0.26493
-0.22592 0.03292 0.07782
-0.26366 0.17696 0.22844
-0.27672 0.22628 -0.03529
-0.25523 0.18596 0.26592
-0.12325 -0.10480 -0.26368
-0.18117 -0.10373 -0.14942
-0.08845 -0.10812 0.10072
-0.24564 0.10832 0.23234
-0.22677 0.18468 0.24850
-0.22582 0.20469 0.22339
-0.23688 0.24684 0.20888
0.02833 -0.09360 -0.24143
-0.21428 0.16075 0.00771
-0.22583 0.20473 -0.08645
0.01054 -0.05172 0.06193
-0.17097 -0.00428 -0.13423
-0.24933 0.26903 0.11814
0.12913 -0.08091 0.18872
-0.24601 0.10953 0.11708
-0.24659 0.11147 -0.23005
0.25214 -0.07248 0.07838
-0.24477 0.26970 0.10475
-0.26919 0.26593 -0.18792
0.05031 -0.04675 -0.11903
-0.14699 -0.07139 -0.00491
-0.23552 0.24167 -0.02534
-0.18563 0.05160 0.14350
0.15404 -0.03380 0.24400
-0.23485 0.23910 -0.15276
0.28932 -0.02224 0.22256
-0.29601 0.29010 0.21001
-0.24115 0.21005 0.24850
0.00953 -0.09589 0.09655
-0.27026 0.26575 -0.04511
-0.18063 -0.27976 -0.26951
0.29543 -0.02803 -0.07793
-0.19070 0.07092 -0.11195
-0.10925 -0.06668 0.09787
0.28835 -0.02164 -0.20680
-0.02508 -0.10027 -0.09369
-0.11073 -0.25638 -0.27097
-0.23273 0.18949 -0.26488
0.04529 -0.04738 -0.23019
0.15776 -0.07741 0.00907
-0.27204 0.20845 -0.05501
-0.26339 0.26680 0.16586
0.28863 -0.02181 0.08732
-0.21341 0.15741 -0.24639
-0.02724 -0.05644 0.11279
0.16118 -0.07692 0.16901
-0.15044 -0.11539 -0.18543
0.17027 -0.07585 0.00977
-0.04270 -0.10360 -0.17306
0.25288 -0.07102 0.19033
-0.06422 -0.06106 -0.10605
0.24761 -0.02947 0.24850
0.08476 -0.04245 -0.13991
-0.16721 -0.01858 -0.19587
0.28625 -0.06033 -0.20823
-0.15782 -0.28629 -0.27611
0.29786 -0.04812 0.07472
-0.20256 -0.10385 -0.26854
-0.20795 0.13662 -0.11270
-0.18202 0.03783 -0.13666
-0.07580 -0.06250 -0.07731
-0.23731 0.07615 -0.21963
-0.00028 -0.09706 0.21967
-0.24158 0.09280 0.20607
0.27848 -0.04136 -0.18066
-0.18865 -0.09561 -0.08415
-0.20591 -0.04352 -0.15477
-0.16837 -0.01418 0.10032
0.13415 -0.03628 -0.14947
-0.18157 -0.10334 0.11440
-0.01681 -0.05810 -0.25808
0.26772 -0.01960 0.20530
0.00446 -0.09654 0.04929
0.27649 -0.02546 -0.04255
-0.21405 0.12883 0.24850
-0.26024 0.26729 -0.00776
-0.24287 0.16897 -0.26772
0.04340 -0.09160 0.24377
-0.13943 -0.07045 -0.03982
-0.20023 -0.06469 0.23267
0.28202 -0.01913 0.06264
-0.27941 0.22000 -0.27114
-0.20545 0.12708 -0.15011
-0.22355 0.19605 -0.22124
0.29107 -0.02332 -0.14260
0.21085 -0.06634 0.24850
-0.19550 0.08920 -0.06517
-0.13638 -0.08504 0.26822
-0.16073 -0.06916 0.24850
0.26174 -0.02035 0.17324
-0.14617 -0.07129 0.19276
0.10546 -0.07913 0.26087
-0.20553 0.05463 -0.26775
-0.12690 -0.08680 -0.24816
-0.29582 0.28227 0.13884
0.17760 -0.07495 -0.02964
0.12092 -0.08204 -0.10790
-0.22182 0.18947 0.04155
-0.23225 0.22918 0.13773
-0.27429 0.21705 -0.02190
0.20430 -0.07162 -0.21007
0.27113 -0.02173 0.25123
-0.27931 0.23683 -0.26963
-0.08982 -0.10828 0.13379
-0.20561 -0.04433 0.14783
-0.22974 0.04730 -0.09835
-0.22861 0.06753 0.26216
-0.18479 0.04839 -0.14071
-0.19903 -0.06971 -0.22528
-0.16684 -0.01998 0.05245
-0.20214 0.07800 -0.26397
-0.18576 0.03529 0.26033
0.10179 -0.04033 -0.02492
-0.24661 0.26945 0.08636
-0.24580 0.11975 0.24850
0.04434 -0.09160 -0.11899
-0.21212 -0.01967 0.05646
-0.04291 -0.10249 -0.02583
0.23305 -0.06791 0.24052
0.28075 -0.05956 -0.10776
-0.28180 0.23047 0.02250
0.18899 -0.02944 -0.11199
0.23760 -0.26341 0.27457
-0.10018 -0.06555 0.08870
-0.15768 -0.05489 0.20119
0.25279 -0.21512 -0.27342
0.28151 -0.01897 0.19244
-0.10526 -0.06618 -0.19689
-0.19258 0.07808 -0.08729
-0.10787 -0.06651 0.24405
0.19753 -0.07244 0.01547
-0.19914 0.10305 0.07932
-0.21377 -0.03510 -0.23482
0.12657 -0.08129 0.04927
0.29159 -0.05693 -0.04275
-0.24059 0.08861 -0.22072
-0.26882 0.19664 0.23709
-0.17421 0.00808 -0.16120
-0.04359 -0.09892 -0.24816
0.14924 -0.18567 -0.27083
-0.03868 -0.07324 0.24850
-0.27338 0.28421 0.20873
-0.07671 -0.06879 0.24850
0.17040 -0.07579 0.09833
-0.29909 0.28541 0.05654
-0.02055 -0.05560 -0.00971
-0.24901 0.26909 -0.10632
0.16111 -0.07698 0.03600
-0.21466 0.16218 0.01758
0.19235 -0.07301 0.21529
0.29428 -0.02658 -0.12642
-0.10924 -0.09203 0.24850
-0.22508 0.20189 -0.19372
0.10046 -0.04049 -0.14102
-0.24699 0.27761 -0.04526
0.14348 -0.06104 0.24850
0.09343 -0.09221 -0.14403
-0.14023 -0.07055 -0.19227
-0.29749 0.28950 -0.13162
-0.04095 -0.05815 -0.07041
-0.17656 -0.10725 -0.06529
0.11560 -0.08511 0.27392
-0.25233 0.13334 -0.20184
-0.21024 -0.02700 -0.12603
-0.00877 -0.08718 0.26648
-0.27520 0.22047 -0.18562
0.05988 -0.04556 0.10766
0.19898 -0.07222 0.12391
-0.21409 -0.01196 0.19776
-0.18861 0.04369 0.26111
-0.27919 0.22135 -0.11097
-0.20982 0.09650 0.26709
0.12861 -0.05119 0.24850
0.13539 -0.08022 -0.01033
0.23639 -0.06758 0.04577
0.28002 -0.05371 -0.01151
0.29088 -0.02320 -0.16286
-0.24524 0.10651 0.04662
0.05757 -0.08061 0.26522
0.15407 -0.22518 -0.26833
-0.18803 0.06074 0.01112
-0.26947 0.27226 0.22566
-0.23998 0.08673 0.22094
-0.08877 -0.06412 -0.10510
-0.24570 0.10810 -0.13954
0.11190 -0.07532 -0.26377
-0.24455 0.10377 -0.01495
0.24944 -0.07399 0.08560
0.04230 -0.09185 -0.05258
-0.21668 0.16989 0.21517
-0.13525 -0.06993 -0.10475
-0.07171 -0.10607 0.01385
0.21480 -0.02621 0.18053
-0.25479 0.24190 0.26712
-0.14630 -0.08475 0.24850
-0.02030 -0.05557 -0.03224
0.26072 -0.06458 0.23831
-0.20660 0.13148 0.03525
-0.08840 -0.10715 -0.25334
0.19950 -0.07222 -0.11342
-0.23278 0.23121 -0.18475
0.20499 -0.02744 -0.18538
-0.20057 0.10849 0.03547
-0.29193 0.28492 -0.26105
-0.02988 -0.06888 0.24850
0.09265 -0.08677 0.08672
0.03580 -0.04857 -0.02314
-0.16492 -0.02732 0.07019
0.11747 -0.03837 -0.23803
0.03525 -0.04864 0.15021
0.27959 -0.06222 -0.21605
-0.24557 0.10775 0.03903
0.05030 -0.04676 0.05005
-0.25735 0.26774 -0.21983
-0.19338 0.08113 0.01982
-0.03453 -0.10140 0.07080
-0.28340 0.22631 -0.06743
-0.26743 0.28600 -0.14246
-0.16354 -0.11324 0.13880
-0.11184 -0.06701 -0.07607
-0.17335 -0.03021 0.26506
-0.03149 -0.10095 0.23279
-0.25547 0.28430 0.15663
-0.20290 -0.05498 -0.17112
-0.24080 0.26178 -0.18145
-0.14455 -0.10798 -0.25612
-0.07808 -0.06279 0.14563
-0.27453 0.27814 0.22658
0.16667 -0.03757 -0.26131
0.18768 -0.06901 0.26069
-0.10322 -0.06593 0.11410
-0.27466 0.28354 -0.10167
-0.25363 0.13843 0.03190
-0.14800 -0.11547 -0.13098
-0.20329 -0.05343 -0.02041
0.20413 -0.07164 -0.21647
-0.21522 -0.02994 0.16709
0.04627 -0.09126 0.19595
0.22030 -0.05276 0.24850
-0.00026 -0.09716 -0.03039
0.27450 -0.01876 -0.16491
0.13107 -0.03667 0.00946
-0.26127 0.16784 0.23087
-0.17779 0.02172 0.22799
-0.20261 -0.17250 -0.26959
-0.19545 -0.00778 0.26913
-0.25426 0.17671 0.24850
0.05732 -0.04588 -0.13790
0.01374 -0.06444 0.24850
-0.19976 0.10541 0.12225
-0.22498 0.20151 -0.13243
0.16469 -0.07655 -0.00099
-0.21177 0.15119 -0.17894
-0.19759 0.09718 0.09207
0.00027 -0.05300 -0.07557
-0.05345 -0.10378 0.03881
0.16504 -0.07649 0.02861
-0.26723 0.26620 -0.08401
-0.21980 0.14360 0.26566
-0.23118 0.22511 -0.06035
-0.17857 0.02470 0.10468
-0.04222 -0.10310 -0.15191
0.04918 -0.09095 0.06231
-0.12591 -0.11286 -0.17451
0.11179 -0.08318 -0.19523
0.11542 -0.03862 -0.14726
-0.06029 -0.06057 0.18893
0.26014 -0.02055 0.22638
-0.04950 -0.10327 0.06581
0.23738 -0.02339 -0.12774
-0.16960 -0.00949 0.18332
-0.21594 -0.00509 0.07813
-0.23898 0.08249 -0.08232
0.05652 -0.09007 -0.02663
-0.18463 0.04778 -0.13068
0.04298 -0.09722 -0.27587
-0.23831 0.07992 -0.15693
-0.28355 0.27485 -0.00217
-0.10199 -0.19135 -0.27596
-0.03565 -0.10621 -0.05460
-0.11853 -0.11188 0.08982
-0.06375 -0.10510 -0.18460
-0.12448 -0.06858 0.23308
-0.05619 -0.06005 0.15229
0.00337 -0.05262 -0.09348
-0.12497 -0.11271 0.02950
-0.16936 -0.11115 -0.06159
-0.25473 0.26817 0.21332
0.26523 -0.06401 -0.19007
-0.22432 0.02667 -0.03464
-0.27029 0.26575 -0.02522
0.05925 -0.08934 -0.24975
-0.26812 0.19350 -0.17072
-0.18645 0.05472 0.17825
-0.15468 -0.06627 -0.14490
-0.04263 -0.10351 -0.13380
-0.18967 0.06699 0.05305
-0.21999 0.01018 -0.03037
-0.22155 0.14536 0.24850
0.02518 -0.09391 0.14610
0.07789 -0.04331 -0.09912
0.01684 -0.10278 -0.27099
0.22355 -0.06913 0.16706
-0.20084 -0.08698 -0.26866
-0.09768 -0.06524 -0.02074
0.05034 -0.09085 -0.13603
-0.16722 -0.11208 -0.23067
0.13673 -0.07995 0.22720
-0.25544 0.28423 -0.08727
-0.11871 -0.09265 0.26331
0.26269 -0.02031 0.24621
-0.12424 -0.11265 -0.11128
0.05920 -0.08963 0.23465
-0.21335 0.13314 -0.26127
-0.01587 -0.10175 -0.26848
-0.26527 0.26652 0.22224
0.21341 -0.06966 0.25253
0.15253 -0.11715 -0.26947
-0.17697 -0.03913 0.24850
-0.27192 0.28479 0.12252
0.09191 -0.08566 -0.03806
0.10161 -0.06788 0.24850
-0.25850 0.15693 0.00321
0.11968 -0.08209 0.18643
-0.20359 0.12002 0.07182
-0.04945 -0.09662 -0.26281
-0.21570 -0.03203 -0.06399
0.15140 -0.07811 0.22798
-0.00086 -0.05314 0.03496
0.16907 -0.04106 0.26516
-0.22204 0.07104 0.24850
-0.21651 -0.00265 0.23723
-0.20434 0.12286 -0.04896
-0.13669 -0.11370 0.24850
-0.22859 0.11568 0.24850
-0.19730 0.09604 0.07271
-0.07218 -0.10610 0.06949
-0.17428 0.00833 -0.10181
0.15553 -0.07437 -0.25863
-0.24279 0.26934 0.11369
-0.23625 0.24444 -0.21913
-0.12346 -0.11256 -0.13473
-0.26926 0.28556 0.01161
-0.09866 -0.06536 0.19815
-0.28079 0.23213 0.26815
0.17387 -0.07540 0.00506
0.07679 -0.05188 -0.24816
0.03009 -0.09327 0.21446
0.11717 -0.03840 -0.18855
0.08840 -0.08635 -0.13428
0.10152 -0.08437 0.17073
-0.17631 0.01608 0.20487
-0.10658 -0.06635 -0.01876
-0.21377 0.15878 0.08839
-0.23463 0.06592 -0.07388
0.25300 -0.07010 0.11137
0.14958 -0.19741 -0.27008
-0.21295 0.15566 0.00600
-0.18829 0.06172 -0.05685
-0.02972 -0.10082 0.03226
0.21515 -0.02617 0.15260
-0.03888 -0.10196 0.04380
0.08651 -0.09133 0.14518
0.28247 -0.02575 0.25080
0.28359 -0.06114 0.04661
-0.18043 0.03179 -0.23884
0.29047 -0.05780 0.12276
-0.18398 -0.10103 -0.17758
0.25838 -0.06487 -0.03778
-0.21962 0.01059 0.26960
-0.02833 -0.10068 -0.13111
0.16206 -0.07690 -0.20170
-0.27355 0.26984 0.23651
-0.20915 0.14119 0.21087
-0.24212 0.26680 0.07681
-0.21307 -0.00727 -0.25568
0.13989 -0.07774 0.25585
0.17419 -0.03128 -0.00489
-0.14241 -0.07082 -0.15228
-0.21438 0.16111 -0.06868
0.02069 -0.09443 0.24822
-0.19346 0.08143 -0.11484
0.17936 -0.07471 0.00615
0.25387 -0.06536 0.13500
0.24515 -0.07066 0.17220
-0.09175 -0.09301 0.26841
0.04504 -0.09151 -0.04177
0.28028 -0.05576 -0.08186
-0.17519 0.01183 0.09689
-0.19729 -0.07629 -0.02626
-0.18592 -0.09910 -0.13164
0.15395 -0.07781 0.20586
-0.26540 0.18333 0.05683
0.13967 -0.03559 0.06909
-0.22692 0.03653 -0.09811
0.26212 -0.06440 -0.12921
-0.03454 -0.10145 -0.21183
0.15318 -0.07794 0.10247
-0.15812 -0.05320 0.15300
-0.20742 -0.03773 -0.16033
-0.22463 0.20017 -0.06978
-0.06991 -0.10578 0.15510
-0.22984 0.21985 -0.24833
-0.22451 0.12434 0.24850
0.09707 -0.08501 -0.18194
-0.24791 0.27900 0.14075
0.27846 -0.04120 0.17767
0.14996 -0.03431 0.01578
-0.03473 -0.05737 0.20036
-0.17029 -0.00685 -0.17710
-0.22548 0.20341 -0.05955
0.27332 -0.01890 -0.07216
-0.20394 0.12133 -0.02673
-0.19519 -0.08358 -0.06275
-0.24213 0.26686 0.12211
0.04779 -0.07497 0.24850
0.19701 -0.02843 -0.17199
-0.21935 0.00798 0.12437
-0.25330 0.13710 -0.00872
-0.26637 0.21285 0.24850
-0.00533 -0.09780 -0.04459
0.16202 -0.07685 0.07343
0.24957 -0.07397 -0.04722
-0.17939 0.02782 -0.04976
-0.06007 -0.06054 -0.19950
-0.11749 -0.06771 -0.13761
-0.10735 -0.11054 -0.13157
-0.15169 -0.07112 0.10454
-0.20173 -0.05942 -0.13342
-0.23213 0.05651 0.02482
0.16963 -0.03185 0.21375
-0.20949 -0.02955 0.15784
0.25271 -0.11464 -0.27028
-0.26522 0.28608 -0.02136
-0.29147 0.28583 0.15157
-0.26427 0.17894 0.00584
-0.24170 0.09302 0.04853
-0.26545 0.28607 -0.06518
-0.13317 -0.06967 -0.06456
-0.26834 0.26603 -0.15992
-0.21374 -0.01326 0.21813
0.01420 -0.09527 0.17564
-0.11175 -0.06779 0.25306
0.15036 -0.03436 -0.24876
0.17859 -0.03073 -0.17969
-0.12303 -0.27209 0.27129
-0.12226 -0.06831 -0.10626
-0.10203 -0.10987 -0.03337
-0.16371 -0.03190 0.06222
-0.10358 -0.06597 0.00152
-0.01340 -0.09881 -0.19281
0.06835 -0.08859 -0.01423
-0.23274 0.05885 0.03538
-0.25999 0.27302 -0.25378
-0.19913 -0.06900 0.15384
0.15916 -0.03316 -0.03865
0.26710 -0.03891 -0.22414
0.25569 -0.06520 -0.05537
0.24775 -0.02630 0.26024
-0.15597 -0.06139 -0.04422
-0.14399 -0.11245 -0.25026
-0.18264 0.04019 -0.05856
-0.15625 -0.11493 -0.09273
-0.20031 -0.06438 0.24324
0.04434 -0.04750 0.03248
-0.10569 -0.17450 0.26911
-0.17688 -0.08007 -0.24816
0.19167 -0.07320 -0.07706
-0.03798 -0.10973 0.19368
0.20945 -0.02688 -0.04146
0.17507 -0.07516 0.22154
-0.20333 -0.17717 -0.27347
-0.18205 0.03793 -0.00708
-0.20689 0.09315 0.24850
-0.24209 0.26670 0.20915
-0.28021 0.23961 -0.02612
0.25078 -0.07361 -0.02715
0.25142 -0.06688 -0.20785
0.13998 -0.07965 -0.01848
-0.15585 -0.06187 0.09605
-0.13235 -0.06957 -0.08435
0.09412 -0.09058 0.02662
0.11051 -0.08327 0.10726
-0.22221 0.15272 0.26567
0.24512 -0.06967 0.14561
-0.25681 0.15065 0.08465
-0.21455 0.16176 -0.13091
-0.15806 -0.11462 0.00950
0.19877 -0.02821 -0.19330
-0.11960 -0.11207 -0.24509
-0.23023 0.04957 0.20649
-0.12091 -0.11214 0.17149
0.12165 -0.05411 -0.24816
-0.27233 0.20962 -0.01091
0.16232 -0.07676 0.20764
0.27805 -0.03543 -0.26119
-0.16087 -0.04274 -0.01089
-0.24573 0.10857 0.18502
-0.27990 0.27962 0.05062
-0.22379 0.19696 0.00767
0.00409 -0.09663 -0.24539
-0.17409 0.00764 0.20440
0.01527 -0.05113 -0.00648
-0.04782 -0.05901 0.24479
-0.25273 0.13507 0.06859
-0.12555 -0.11277 0.07471
-0.16985 -0.08502 0.24850
0.29148 -0.02366 -0.18221
0.11047 -0.08334 -0.15739
-0.21717 0.15581 0.24850
-0.06576 -0.06125 -0.01597
0.15695 -0.25766 -0.26825
0.24773 -0.09116 0.25879
-0.15084 -0.11537 -0.01857
-0.00853 -0.07853 -0.26887
0.29773 -0.03216 0.08602
-0.23617 0.24413 0.05143
0.22331 -0.02515 0.12821
-0.23173 0.05485 -0.11390
0.05112 -0.04760 -0.25358
-0.24482 0.10475 -0.07248
-0.22822 0.21383 -0.00187
-0.20008 0.10665 0.16930
-0.16288 -0.03508 -0.07094
-0.14752 -0.07146 -0.12151
0.13549 -0.08011 0.21542
-0.18338 -0.10158 0.03469
-0.19996 -0.08953 -0.27527
0.19776 -0.02834 -0.03025
-0.28068 0.24152 -0.03090
-0.21486 0.16294 0.03933
0.17647 -0.03832 0.24850
-0.11289 -0.11113 0.19374
-0.23205 0.05645 0.16956
0.14072 -0.03546 -0.16529
-0.09381 -0.10883 0.00480
0.04594 -0.09131 0.16575
0.18739 -0.06107 -0.24816
-0.24457 0.27366 -0.09321
0.07108 -0.08826 -0.13003
-0.18267 -0.03196 0.26909
-0.23309 0.05638 -0.26867
0.10546 -0.03987 0.10361
-0.28230 0.22634 0.24558
0.23950 -0.02313 0.24774
0.01806 -0.09488 -0.14480
0.11646 -0.08258 -0.01015
-0.21081 0.14754 -0.02806
-0.18843 0.06224 0.17194
-0.02820 -0.08959 -0.24816
-0.08446 -0.10766 0.00618
-0.02066 -0.05562 0.15414
0.27860 -0.06234 -0.17730
0.24550 -0.25625 -0.26823
0.09311 -0.09263 0.06787
-0.20573 -0.04380 0.19811
-0.23779 0.25029 -0.07214
-0.26568 0.26647 -0.00411
-0.18146 -0.10338 0.21329
-0.22780 0.21223 0.14179
-0.22851 0.04293 0.15873
-0.19237 0.07727 -0.17767
-0.22002 0.18261 -0.02044
-0.21114 -0.02351 -0.01282
-0.28140 0.24432 0.07407
-0.02635 -0.10035 0.14786
-0.25716 0.26780 0.20200
-0.27470 0.21857 -0.12226
-0.19309 -0.08786 0.24850
-0.04600 -0.10278 0.20725
-0.26765 0.26571 0.22764
-0.28418 0.27393 -0.10430
-0.21633 0.16854 0.18108
-0.23739 0.06680 -0.26822
-0.23892 0.25460 0.16894
-0.18451 -0.10039 0.15326
-0.20897 -0.03141 0.23249
-0.17399 0.00725 0.03471
0.05863 -0.08979 0.00629
-0.01891 -0.09950 -0.08498
-0.24641 0.23863 0.26681
0.23241 -0.06800 0.23229
-0.20841 -0.03365 -0.16930
-0.27785 0.26456 0.08307
-0.09511 -0.06492 -0.24391
-0.24171 0.14794 0.26769
-0.26415 0.18280 0.27304
-0.21600 0.10667 -0.26707
-0.09400 -0.10888 -0.13301
-0.08075 -0.10718 0.05747
-0.23872 0.08150 -0.21605
0.12609 -0.08131 0.13667
0.09461 -0.07632 -0.26462
0.29917 -0.03760 0.20766
0.21550 -0.02612 -0.15620
0.29918 -0.04162 -0.02757
-0.15412 -0.11515 0.24376
-0.21411 -0.01215 0.01856
-0.19945 0.10423 0.18330
0.04453 -0.08289 0.26474
0.16326 -0.07661 0.24860
0.25260 -0.02149 0.06334
-0.26613 0.26641 -0.21703
0.00447 -0.05248 -0.03047
-0.27839 0.23345 0.26085
-0.19498 0.08723 0.05223
-0.18979 0.06746 -0.02765
-0.15643 -0.05966 -0.18016
0.25196 -0.07897 -0.24702
-0.06769 -0.10554 0.07299
0.10605 -0.08387 0.01293
0.16837 -0.03201 -0.09105
-0.21479 0.16268 0.05678
-0.18722 -0.09744 -0.12062
-0.03203 -0.05704 -0.05895
-0.18119 -0.10367 0.04753
-0.23174 0.22724 0.00889
-0.26149 0.16848 0.09412
-0.19087 -0.08942 0.25362
-0.16544 -0.11277 -0.12633
0.00835 -0.05200 0.15649
0.20703 -0.02718 -0.06349
0.17200 -0.27824 0.26906
-0.25367 0.26835 0.14522
-0.16374 -0.04985 -0.25948
-0.25337 0.11195 -0.27096
0.05790 -0.08983 0.13820
-0.14727 -0.11547 -0.20137
-0.21132 -0.03552 -0.12575
0.15975 -0.25541 0.27549
-0.18383 0.04473 -0.02688
0.26997 -0.06342 -0.18793
-0.07950 -0.06445 0.25516
-0.20799 0.13677 -0.14633
-0.04684 -0.05889 0.21708
-0.07642 -0.10660 0.14659
-0.23169 0.22704 -0.19372
0.26236 -0.02027 -0.11082
-0.25871 0.15787 0.09535
0.24633 -0.06625 0.24346
-0.23707 0.07523 -0.11527
-0.17829 -0.08356 0.26822
-0.04171 -0.10955 -0.21669
0.18920 -0.07252 -0.25313
0.24633 -0.06714 -0.13741
0.23337 -0.27358 0.27614
0.24838 -0.23021 0.26826
-0.25052 0.12647 -0.03339
0.20504 -0.02743 0.05718
-0.10671 -0.20656 0.27038
0.19643 -0.02851 -0.23879
-0.19887 0.10203 -0.18383
-0.20996 -0.02806 -0.15614
0.08626 -0.09031 0.25491
-0.25958 0.16147 0.24850
0.29833 -0.04635 0.21894
0.27753 -0.03381 0.03721
-0.22381 0.02531 -0.26960
-0.11432 -0.10924 -0.25607
-0.19320 0.08044 -0.04549
-0.21520 -0.02998 0.22094
-0.21165 0.15073 -0.19226
-0.06442 -0.10514 0.04753
-0.04311 -0.05842 -0.23476
-0.21399 0.15962 0.02543
0.04857 -0.04697 -0.14682
0.14434 -0.03501 0.19034
-0.19621 0.09188 -0.04408
-0.09082 -0.06438 -0.08770
-0.27521 0.22053 -0.14083
-0.22229 0.01892 -0.09197
0.22589 -0.05349 -0.24816
0.23461 -0.06778 0.08429
-0.19910 -0.06930 0.03076
-0.26387 0.17756 0.09696
-0.25799 0.15504 0.02284
0.26702 -0.01969 0.19191
0.25876 -0.02072 -0.21026
-0.26153 0.26713 -0.19706
-0.28250 0.26384 -0.21382
-0.04245 -0.10328 -0.20515
-0.27589 0.27780 -0.24154
0.15430 -0.03377 0.07694
-0.10325 -0.11003 -0.09895
0.06654 -0.06670 0.26952
-0.24004 0.25887 -0.08867
0.05604 -0.08691 -0.25837
0.29850 -0.04574 -0.14537
-0.21599 0.16728 0.10328
0.04908 -0.04691 0.11720
0.22379 -0.02509 -0.16084
-0.23781 0.07809 -0.01038
-0.27948 0.23680 -0.18811
-0.19496 0.08712 0.21947
-0.09710 -0.10211 0.26360
0.01423 -0.07332 0.24850
0.21529 -0.07017 0.15059
-0.27316 0.21277 -0.00403
-0.20753 -0.05475 -0.27615
-0.27936 0.23676 0.21669
-0.25290 0.28048 -0.22445
-0.01502 -0.05491 -0.14530
0.14385 -0.04724 0.26709
-0.11377 -0.11130 0.06458
-0.17697 -0.10693 0.02720
-0.24226 0.26734 -0.16184
0.07576 -0.04358 -0.02893
-0.07971 -0.06299 -0.10282
-0.25868 0.15787 0.14528
-0.00124 -0.09726 0.02300
0.11930 -0.03814 0.06460
-0.27802 0.26301 0.24941
-0.11903 -0.09001 0.25237
0.27486 -0.01897 -0.23417
0.16502 -0.03243 0.09637
0.25428 -0.06538 -0.18622
-0.28541 0.25915 -0.20447
-0.21915 0.00734 0.20459
0.26970 -0.06345 -0.01634
-0.15493 -0.06537 0.19241
0.03492 -0.09275 0.02475
0.25175 -0.06560 0.19801
-0.20075 -0.03221 0.26389
0.08889 -0.04562 -0.24816
-0.26024 0.26729 -0.13267
0.12259 -0.03773 0.24336
-0.20130 -0.06105 -0.18364
-0.22161 0.18867 -0.07051
-0.24896 0.26908 0.21501
-0.19545 0.08899 -0.19963
-0.22936 0.04585 -0.13662
-0.22114 0.01454 -0.20357
-0.21355 -0.01440 -0.08673
-0.24431 0.10279 -0.08727
-0.17902 -0.07594 -0.25673
-0.17025 -0.00700 -0.22104
0.15877 -0.07180 0.24850
-0.07932 -0.06294 0.00734
-0.21528 -0.03290 0.23574
0.27236 -0.06312 0.16739
0.22145 -0.06949 -0.05033
-0.19239 -0.08972 -0.02728
0.21579 -0.02979 -0.24816
0.28655 -0.06019 0.20735
-0.11145 -0.11106 -0.11498
-0.06646 -0.10535 0.16353
-0.27048 0.20407 -0.24999
0.10810 -0.08364 -0.14557
-0.23518 0.06844 0.22419
-0.27302 0.21216 -0.20964
-0.22616 0.01349 0.26932
-0.22117 0.01510 0.24004
-0.21521 -0.00765 0.20908
0.05856 -0.04572 -0.14714
-0.07465 -0.10636 0.19809
0.23226 -0.06813 -0.09473
-0.24041 0.09509 0.24850
-0.28472 0.25662 -0.13394
0.10461 -0.08407 -0.09379
0.01219 -0.09555 0.11683
-0.20014 -0.06539 0.01499
0.19830 -0.02827 -0.24421
-0.03899 -0.10201 -0.12845
-0.17650 -0.10686 -0.24816
0.17637 -0.03101 -0.14684
-0.16267 -0.03589 -0.22767
-0.07494 -0.10650 -0.18498
-0.27482 0.26502 -0.00145
-0.17913 0.02684 0.04324
0.27587 -0.01863 0.14609
0.27986 -0.05243 0.15943
-0.20948 0.14244 -0.05168
-0.21197 -0.03551 0.17039
-0.26641 0.18720 0.08714
-0.25846 0.22377 0.26885
-0.10433 -0.08215 0.26866
0.15757 -0.21782 0.27418
0.26153 -0.02038 -0.07323
-0.17045 -0.00622 0.11991
0.09573 -0.08321 -0.25562
-0.03302 -0.10788 -0.26921
-0.03549 -0.05747 0.18857
-0.10627 -0.17392 -0.26981
-0.23495 0.07694 -0.25613
-0.01268 -0.09872 -0.03905
-0.20615 0.10456 -0.26161
0.08177 -0.04283 -0.11624
-0.21534 -0.00753 -0.02409
-0.17454 -0.09496 -0.26407
-0.20052 -0.06405 -0.11797
0.14042 -0.05858 0.26938
0.25838 -0.06487 -0.00068
-0.29147 0.28582 -0.21998
-0.19911 -0.04421 -0.26161
-0.21735 0.00052 0.21957
0.26820 -0.01954 0.01446
-0.18048 -0.27969 -0.27503
-0.18672 -0.09799 0.06294
0.24617 -0.06877 -0.23554
-0.29803 0.28338 -0.03710
-0.23581 0.24275 0.03520
-0.22667 0.20796 0.04213
-0.10075 -0.13446 0.27535
-0.00096 -0.09726 -0.12794
0.09084 -0.04169 0.18602
-0.11579 -0.06750 -0.24634
0.24876 -0.09310 -0.26964
-0.19663 -0.07874 -0.20395
0.16931 -0.03646 0.26069
-0.02116 -0.09969 0.16591
0.11494 -0.08278 -0.10737
-0.22192 0.18986 -0.21318
0.26435 -0.02002 -0.23374
-0.01285 -0.05464 0.08554
0.08747 -0.09280 -0.07377
-0.08833 -0.07915 -0.26792
-0.21623 0.16817 -0.21334
0.08382 -0.04257 0.19385
-0.23404 0.06412 0.23095
-0.25133 0.12953 -0.07785
-0.20013 0.10682 -0.20959
0.26454 -0.02000 -0.04156
0.22116 -0.03082 0.24850
0.09855 -0.08483 -0.05493
0.16855 -0.07608 -0.02864
0.28035 -0.05631 0.00583
-0.20488 0.12493 0.01906
-0.17861 -0.10571 -0.20603
-0.23967 0.25291 -0.24730
-0.04083 -0.10993 -0.25181
0.05801 -0.08725 0.25745
-0.04270 -0.05837 0.22996
-0.20004 0.10650 -0.17247
-0.26299 0.26686 -0.09199
0.15699 -0.07744 0.16438
-0.01530 -0.05495 -0.18015
-0.13056 -0.11337 0.12635
0.29540 -0.05269 -0.02456
-0.15588 -0.06174 0.17756
0.17730 -0.03090 -0.11965
0.13895 -0.05664 -0.24816
-0.20801 -0.03550 -0.24531
0.07953 -0.04311 0.08456
0.07515 -0.04365 0.00670
-0.25239 0.13403 0.23565
0.29679 -0.03047 -0.20454
-0.20454 -0.04860 0.03448
0.02312 -0.10222 0.27264
-0.25241 0.26851 -0.03614
-0.22020 0.18329 0.05970
-0.04045 -0.11002 0.18830
-0.24150 0.26443 0.19486
-0.28319 0.27552 -0.14568
-0.22680 0.03609 -0.03671
-0.17675 0.01777 0.07123
-0.20976 0.14350 0.24462
-0.19410 0.08387 -0.08247
-0.17708 0.01902 0.05573
0.23698 -0.02344 -0.17248
-0.25313 0.28315 0.09757
0.28513 -0.02009 -0.02138
-0.04914 -0.05917 -0.06916
0.19337 -0.05950 0.26757
-0.19076 -0.09232 0.12277
0.20598 -0.02731 -0.12691
-0.12428 -0.11266 -0.21621
0.25231 -0.06563 -0.09028
-0.19593 -0.17472 -0.27304
-0.19758 0.09711 -0.10462
-0.11530 -0.06744 0.11281
0.02404 -0.09405 0.15204
-0.28583 0.26126 0.12046
0.21623 -0.07013 -0.15243
0.18770 -0.07360 0.18320
-0.23085 0.22385 -0.20508
-0.25993 0.28568 0.10783
0.19457 -0.07211 0.25200
-0.20986 0.14392 -0.03988
-0.10339 -0.11005 -0.19178
-0.01955 -0.09949 0.17328
-0.05519 -0.10403 -0.05588
0.06163 -0.04534 -0.22751
-0.22975 0.21969 0.05957
0.27909 -0.04622 -0.16285
-0.27090 0.20447 0.19322
-0.01080 -0.05439 -0.18646
-0.24557 0.15497 0.26690
0.16261 -0.07675 0.14866
-0.28177 0.26395 -0.09718
-0.27607 0.22751 -0.12408
-0.11004 -0.06678 0.11080
0.10441 -0.08410 -0.23922
0.20794 -0.07117 -0.16713
-0.10600 -0.10265 -0.26368
0.00721 -0.09624 -0.21188
-0.20314 -0.05397 0.01209
-0.15512 -0.06466 0.13087
-0.26019 0.28453 0.23375
0.09409 -0.08895 0.07446
-0.24491 0.12761 0.26151
-0.06104 -0.06594 -0.26122
0.27307 -0.06303 -0.21426
-0.15507 -0.11512 -0.15600
-0.00852 -0.05410 -0.02515
-0.15790 -0.05406 0.22947
0.24031 -0.02483 0.25586
-0.28302 0.22741 -0.07961
-0.14867 -0.11535 0.21531
-0.05467 -0.05986 -0.15118
-0.22449 0.02734 -0.01424
-0.27841 0.22468 0.12057
0.01743 -0.09496 -0.23558
0.13405 -0.08040 -0.22781
-0.15728 -0.05643 -0.09005
-0.21684 0.00372 0.27195
0.17977 -0.03059 -0.12940
-0.26003 0.28570 0.16144
-0.27652 0.23056 0.21407
-0.21036 -0.03531 -0.00159
-0.16376 -0.03172 0.09213
-0.19744 0.09659 0.11305
0.04339 -0.04762 0.22306
-0.22457 0.02759 -0.13921
0.25294 -0.07053 0.14689
0.08666 -0.08622 0.18455
0.21908 -0.06973 0.06547
0.03329 -0.04888 0.00519
-0.27964 0.26427 0.18997
0.00638 -0.05224 0.16681
0.11626 -0.03852 0.14994
0.01298 -0.09547 0.06174
-0.28598 0.26329 -0.06525
-0.20168 -0.09829 -0.27616
0.04142 -0.04786 0.01642
0.19636 -0.02852 0.01591
-0.21224 -0.01635 0.24955
-0.24605 0.10983 0.20061
0.06810 -0.04690 -0.25675
0.27952 -0.04973 0.18501
-0.22155 0.01626 0.06034
0.03992 -0.04805 -0.06285
0.17150 -0.04981 0.24850
-0.21130 -0.02255 0.20137
-0.26393 0.17753 -0.08824
0.24564 -0.06799 0.13932
-0.20017 -0.21608 -0.27611
-0.26622 0.23008 -0.26529
-0.12690 -0.07840 0.24850
-0.08663 -0.06386 -0.03402
-0.03834 -0.05783 0.21651
0.12230 -0.08186 -0.20810
0.21989 -0.06967 -0.08899
-0.24483 0.27423 -0.15841
0.17385 -0.07419 0.25433
0.18128 -0.07449 -0.01582
-0.16842 -0.01399 0.23081
0.29701 -0.04986 0.22736
0.23872 -0.06726 0.10174
-0.19821 0.08904 -0.25647
-0.00360 -0.05349 0.00523
-0.20606 -0.04293 -0.06810
-0.27313 0.21259 -0.21971
-0.25665 0.28484 -0.01377
0.16888 -0.03195 -0.22341
-0.03604 -0.10446 0.07792
0.04833 -0.04700 -0.18331
-0.28264 0.26381 0.03104
0.08853 -0.08630 -0.10633
-0.26747 0.28600 0.04973
-0.09679 -0.13932 0.27009
0.06790 -0.09433 0.26856
0.14128 -0.03539 0.12136
0.26361 -0.02012 -0.16301
-0.16945 -0.01004 -0.03006
-0.07486 -0.06239 0.18537
0.28889 -0.05876 -0.01732
-0.08686 -0.08975 0.24850
-0.26633 0.18667 -0.18362
-0.27893 0.23469 -0.05076
-0.27630 0.26481 -0.21730
-0.09620 -0.13005 0.27609
0.16459 -0.07658 -0.05490
0.08685 -0.04219 0.17597
-0.29283 0.28918 -0.00164
-0.02580 -0.10036 -0.23247
0.05576 -0.07531 0.26813
-0.01257 -0.05461 0.19175
-0.19643 -0.07909 0.16002
-0.16911 -0.01136 0.19794
-0.09944 -0.10946 0.17395
0.17480 -0.07523 0.14105
-0.25015 0.12505 -0.19373
-0.24605 0.26950 -0.07892
0.22706 -0.02468 -0.18806
-0.02459 -0.08474 -0.26803
-0.18660 -0.09810 0.12186
-0.24310 0.08523 -0.26825
-0.17308 0.00377 0.16739
-0.24973 0.12345 -0.11711
-0.25044 0.12989 -0.27328
-0.19912 -0.06935 -0.03295
-0.27809 0.24299 0.25669
-0.28618 0.26582 0.06118
0.04215 -0.09182 0.08229
-0.22295 0.19378 0.02738
-0.20160 0.11245 -0.05323
-0.16420 -0.03003 -0.18808
0.24846 -0.18133 0.27610
-0.16663 -0.11228 0.06650
0.18240 -0.07429 0.11316
0.08003 -0.04304 0.20633
-0.26256 0.16838 -0.27572
0.20769 -0.02710 0.01550
0.01872 -0.09480 -0.08886
-0.16797 -0.11175 -0.03642
0.27081 -0.01922 -0.00000
-0.01298 -0.09876 -0.20385
-0.23515 0.06790 -0.08268
-0.12240 -0.10472 0.24850
0.27685 -0.02829 0.03010
-0.22261 0.19246 -0.03224
0.21018 -0.07083 0.10299
0.27284 -0.06306 0.11565
-0.19181 -0.09070 -0.24558
0.25071 -0.17085 0.26858
-0.19112 -0.09186 -0.06142
0.12701 -0.08832 0.27363
0.25168 -0.24835 -0.27199
0.08576 -0.04233 -0.18487
0.09087 -0.09381 -0.16187
0.28021 -0.05518 -0.16638
-0.22065 0.01274 -0.00393
-0.04326 -0.10776 -0.09134
-0.23552 0.24164 0.00118
0.03113 -0.04915 -0.00317
0.10024 -0.05543 0.24850
-0.26567 0.18429 0.01455
-0.21263 -0.03243 -0.27606
-0.16376 -0.03172 0.11472
-0.22277 0.19308 -0.07829
-0.15269 -0.07043 -0.23688
0.14469 -0.07906 -0.03458
-0.06533 -0.06120 -0.07222
0.15422 -0.20592 -0.26839
0.04170 -0.04783 -0.21580
0.24543 -0.24647 0.26911
0.26965 -0.01936 0.12159
-0.02377 -0.10000 0.20830
-0.17181 -0.00108 -0.03587
-0.20739 -0.07567 0.27345
0.04295 -0.04767 0.24347
-0.03342 -0.05721 -0.20876
-0.21333 -0.02798 0.14232
0.23518 -0.06180 -0.24816
0.04234 -0.09179 0.10147
-0.25518 0.24534 -0.25564
0.02662 -0.04971 -0.22356
0.14039 -0.04451 -0.26472
-0.23975 0.22191 0.26521
-0.20860 0.01835 0.24850
-0.27073 0.23162 -0.26247
-0.21173 -0.03556 0.08006
-0.18989 0.06783 -0.00447
-0.23791 0.07857 0.05421
0.08628 -0.08635 -0.00630
-0.20034 0.10764 -0.05939
-0.17602 -0.10753 0.04012
-0.21675 -0.00209 0.01565
-0.12374 -0.06849 -0.12614
-0.01890 -0.09946 0.05408
0.24548 -0.07173 -0.00616
-0.26384 0.26673 0.10552
0.16578 -0.03233 0.12704
-0.25382 0.13929 0.11406
-0.28016 0.27352 -0.22444
-0.04048 -0.10214 0.09248
0.08828 -0.04612 0.24850
0.08999 -0.08592 0.00126
-0.23986 0.25818 0.00662
0.08974 -0.09059 0.26826
-0.01149 -0.09857 -0.17696
0.25788 -0.02083 -0.11692
0.24029 -0.06713 -0.20470
0.21624 -0.06551 -0.26026
-0.24261 0.26867 0.16667
-0.22825 0.02061 0.27479
-0.20258 -0.05597 0.09184
-0.06663 -0.10545 -0.03531
-0.12379 -0.11260 -0.06260
-0.23218 0.22894 0.08936
0.25602 -0.02106 0.22154
-0.28641 0.26395 -0.13480
-0.16245 -0.03672 0.22807
0.20174 -0.02784 -0.23329
0.17528 -0.06766 0.24850
-0.18767 -0.02496 0.26949
-0.27532 0.22190 -0.24324
-0.27172 0.28484 0.19286
-0.27049 0.20253 -0.10951
-0.25013 0.21783 0.24850
-0.12826 -0.11082 0.25677
0.29918 -0.04009 -0.01663
0.15390 -0.03382 0.12615
-0.20076 0.10923 -0.08957
0.06176 -0.04532 -0.17913
0.23632 -0.02352 -0.15662
0.15692 -0.07743 0.21498
-0.26774 0.26616 -0.20982
-0.27703 0.22760 0.03993
-0.04970 -0.06831 0.24850
0.20105 -0.28288 -0.27439
0.12922 -0.05267 0.26854
-0.16848 -0.01375 -0.10938
-0.10495 -0.25457 0.26834
-0.21590 -0.00519 0.11442
-0.22643 0.03477 0.00835
-0.20886 0.14011 -0.10048
0.29205 -0.02426 0.09114
-0.21388 -0.03217 0.27462
0.15726 -0.07750 -0.23777
0.29893 -0.04411 -0.01328
-0.26024 0.16370 0.07194
-0.01450 -0.09895 -0.14106
0.15798 -0.26535 0.27091
-0.25469 0.28385 -0.16185
-0.19209 -0.06191 0.24850
-0.14411 -0.11507 0.09563
-0.10310 -0.10992 0.16423
-0.17404 0.00744 0.07952
0.23898 -0.02319 0.04709
-0.23167 0.05486 0.09435
-0.27191 0.21632 0.25536
-0.28441 0.22938 0.25306
-0.05116 -0.10353 -0.10163
-0.29618 0.28233 0.07457
-0.03679 -0.10892 0.01373
-0.24379 0.21275 -0.26705
-0.13229 -0.07747 -0.26391
-0.10973 -0.11084 -0.22929
-0.21467 0.16221 0.12756
-0.25102 0.25659 -0.26169
0.27792 -0.03693 0.02592
-0.25275 0.13536 0.19937
-0.19959 -0.06752 -0.01465
-0.23686 0.24675 -0.20685
0.23686 -0.03705 0.26766
-0.00085 -0.09724 -0.17278
0.19836 -0.02827 -0.15807
-0.27462 0.21841 0.03658
0.07315 -0.06989 0.24850
0.17190 -0.07555 0.23906
0.29918 -0.04058 -0.10755
-0.00148 -0.09729 0.03452
-0.23952 0.08485 0.14026
0.00969 -0.09581 0.23138
-0.25384 0.13784 -0.27524
-0.23200 0.05592 -0.14129
-0.13913 -0.11442 0.16854
-0.20846 0.10369 0.24850
0.04194 -0.04780 0.02335
-0.21792 0.00227 -0.10711
-0.19047 0.07002 -0.05195
-0.09624 -0.10905 0.20517
-0.21385 -0.03495 -0.02880
-0.26742 0.27961 -0.23055
-0.25912 0.15926 -0.01887
-0.24107 0.26280 -0.13248
-0.22244 0.01962 0.03889
0.11382 -0.08289 0.03537
-0.06749 -0.06147 -0.08196
0.25343 -0.02139 0.00600
-0.17163 -0.00322 -0.24987
0.24978 -0.06614 0.00442
0.24910 -0.06605 -0.19732
0.05650 -0.04598 -0.03344
-0.10137 -0.06570 0.18071
-0.15584 -0.06189 0.09087
0.03596 -0.04855 -0.19893
-0.10591 -0.14816 -0.27414
-0.27294 0.21223 0.18358
-0.26095 0.28586 -0.18978
-0.18113 0.03445 -0.08609
0.12609 -0.08131 0.14712
-0.05802 -0.10438 -0.24747
-0.28249 0.27649 0.03731
0.24018 -0.06711 0.02057
-0.24275 0.26919 0.07101
-0.19128 -0.09141 0.18848
0.15806 -0.19205 0.27191
0.10121 -0.04040 0.15968
0.08693 -0.08625 0.03537
-0.15639 -0.11488 0.03418
-0.20611 -0.08965 -0.27325
-0.27885 0.23483 0.23337
0.07715 -0.08750 -0.09401
-0.18962 0.06678 0.17414
-0.04983 -0.10031 0.25833
-0.21088 -0.03547 -0.05776
-0.24071 0.08907 -0.08050
-0.21504 -0.00870 -0.14672
0.28979 -0.02253 -0.16878
-0.05392 -0.05977 0.12368
-0.02131 -0.07307 -0.24816
0.15460 -0.16580 0.26824
-0.16411 -0.03042 -0.11050
-0.23385 0.23528 0.05947
-0.16480 -0.02778 0.23440
-0.24350 0.27107 -0.02515
0.27110 -0.06328 -0.03625
-0.26638 0.18716 0.12856
0.13356 -0.03636 -0.20993
-0.22606 0.03332 -0.00940
-0.09585 -0.10906 0.05967
0.01504 -0.09526 -0.16500
0.10035 -0.04355 0.24850
0.27840 -0.04070 -0.07687
-0.13978 -0.09561 0.24850
-0.28117 0.24320 -0.21784
-0.26903 0.19709 0.03647
-0.16360 -0.11327 0.04536
