ply
format ascii 1.0
comment VCGLIB generated
element vertex 1799
property float x
property float y
property float z
element face 0
property list uchar int vertex_indices
end_header
-0.12937 0.15386 0.07993
0.03604 0.03133 0.04815
0.23097 -0.31364 -0.13133
-0.17073 -0.02848 -0.00700
-0.14900 0.39586 0.05068
-0.09534 -0.10488 0.11958
-0.23592 0.33069 -0.00052
-0.11944 0.32751 -0.11787
-0.12153 -0.02848 0.03909
0.21647 -0.32062 -0.13727
0.22578 0.01035 0.02062
0.09251 0.03133 -0.03167
-0.14141 0.09073 -0.09143
-0.16484 0.26201 -0.04117
0.12859 -0.02848 -0.11967
0.02184 -0.02848 0.11601
0.01766 0.03133 0.09551
0.24521 -0.06112 -0.14722
-0.13549 0.16502 0.03007
-0.16532 0.20415 -0.03518
-0.16162 0.05426 -0.02728
0.21078 -0.10599 -0.13717
0.11627 0.03133 -0.00588
-0.15467 0.31105 -0.09919
0.10868 -0.02158 0.14540
-0.13718 0.32751 0.00455
-0.05328 0.03133 0.01409
0.23342 -0.06123 -0.15820
0.22351 -0.02848 0.03290
-0.13016 0.04622 -0.11321
-0.15343 0.20859 0.01318
-0.14100 0.12912 -0.02717
-0.11949 -0.29603 0.11294
-0.23536 0.35620 0.01404
-0.07888 0.03133 0.03408
-0.12033 0.32751 0.13516
-0.10632 0.34713 0.17753
-0.18572 0.32751 0.00382
-0.08071 0.32751 0.11282
-0.07878 0.39586 0.10603
-0.09370 -0.11207 0.08464
-0.12398 0.08857 0.08493
-0.15005 0.07911 -0.09389
0.23097 -0.36829 0.09924
-0.14772 0.22805 0.10046
-0.09940 -0.12206 0.10945
-0.17375 0.39586 0.06835
0.09098 -0.02848 -0.16261
-0.02908 -0.02848 0.06328
-0.09058 0.33122 0.07142
0.21647 -0.26221 0.10552
-0.17650 -0.02848 0.05355
0.23750 -0.00137 -0.09814
-0.15450 -0.02848 -0.12621
-0.12807 0.14628 -0.10783
-0.11389 -0.20381 0.10405
-0.13153 0.38996 0.02322
-0.16430 0.05302 -0.04256
0.22785 -0.10768 -0.12249
0.16470 0.03133 0.01219
0.08425 0.03133 -0.03828
-0.23380 0.00048 -0.03636
-0.15244 0.05507 -0.11516
0.23321 -0.02848 -0.04737
-0.15716 0.03133 -0.03012
0.21687 -0.02848 -0.16290
0.20509 0.03133 -0.15435
-0.16335 0.24799 0.02627
-0.15036 0.37868 -0.14683
-0.04227 0.03133 0.03976
0.10006 0.03245 0.04816
0.23097 -0.32844 -0.15284
-0.13872 0.32751 -0.11196
0.16950 0.03133 0.07342
-0.13751 0.14824 0.01872
-0.13118 0.13183 -0.11462
0.13488 0.03133 -0.12543
-0.09632 0.03133 0.08898
-0.14892 0.26185 -0.05093
-0.11389 -0.33502 0.11245
-0.08752 0.39586 -0.06702
0.04794 -0.02005 -0.18211
0.23431 -0.02848 0.00903
-0.12784 0.35829 0.16638
-0.14412 0.29633 0.10401
0.22756 -0.03349 0.07420
-0.13470 0.16809 -0.11761
0.06779 0.02217 -0.15595
0.23619 -0.02848 -0.11657
-0.19824 0.32751 0.03954
-0.08622 -0.02848 0.04031
0.23097 -0.35387 0.08850
-0.13440 0.36181 0.00408
-0.03943 -0.02848 0.09467
-0.10199 -0.28536 -0.12369
0.22792 0.00821 0.06639
-0.10984 -0.08971 -0.12846
0.07672 0.00914 0.12718
-0.15339 0.32891 -0.14526
-0.04830 -0.02848 -0.05563
-0.15968 0.32751 -0.11120
-0.14677 0.15246 0.10158
0.22718 0.01591 -0.08379
-0.15101 0.39586 0.13821
-0.15828 0.03133 0.09420
0.20661 0.03133 -0.06164
-0.09940 -0.12203 0.09762
0.23997 -0.03816 0.07420
-0.10360 -0.29145 -0.15920
-0.17233 -0.00360 0.11654
0.15810 -0.02848 -0.14637
-0.10064 0.03133 -0.10090
-0.22920 0.35442 -0.04291
-0.21508 -0.02765 0.08010
0.20125 0.03133 -0.05280
-0.14463 0.00055 0.12912
-0.09939 -0.35703 -0.13177
0.01102 -0.02848 0.04623
-0.11283 -0.15472 -0.15363
-0.12895 0.22312 -0.10006
-0.15174 0.13559 -0.09526
-0.00528 -0.02848 -0.12160
-0.12187 0.05603 0.09302
-0.10330 -0.06267 0.11104
-0.11419 0.32751 0.12252
0.08831 0.03133 0.09163
-0.15013 0.14500 0.09335
0.19815 0.03133 0.08778
0.18141 0.03133 0.08623
0.11556 0.03133 -0.01855
0.23078 0.03034 -0.14186
0.02873 0.03133 0.04792
-0.14670 0.39586 -0.11612
-0.13631 0.32751 0.11585
-0.15719 0.00033 -0.15957
0.04749 0.03133 -0.02251
-0.17256 -0.02848 -0.06178
-0.13378 0.22174 -0.09400
0.21904 0.02732 -0.06974
-0.12791 0.09194 -0.10710
0.21462 -0.11795 0.11958
-0.18717 -0.02848 -0.12896
0.04828 0.02730 -0.15595
-0.12806 0.05088 -0.10779
-0.12410 0.32751 -0.11120
-0.22364 -0.02848 -0.00489
-0.09940 -0.20908 0.11078
-0.12239 0.38965 0.04419
-0.21116 0.34795 0.09332
0.09686 0.04156 -0.05194
0.18352 -0.01990 -0.18211
0.06937 0.03133 -0.02491
-0.02561 -0.02848 -0.17381
-0.15064 0.20356 -0.11689
0.10705 0.03460 -0.00492
-0.11283 -0.31645 0.11389
0.22198 0.01414 -0.13149
0.12434 0.03133 0.09204
-0.05975 0.03133 0.06541
-0.13911 0.21767 -0.04430
0.09700 0.03133 0.06707
-0.10373 0.34619 0.06373
-0.08526 -0.02997 0.12813
-0.12626 -0.02848 -0.01371
-0.12075 0.32751 0.08981
0.10483 0.03190 0.04814
-0.19535 0.32751 -0.00881
0.21876 -0.06123 -0.12226
-0.11389 -0.11824 -0.15101
0.22648 -0.27883 -0.12624
-0.13775 0.31289 -0.09208
-0.10974 -0.14724 -0.12819
-0.07735 0.35768 -0.12300
0.20437 -0.06123 0.12345
0.02510 0.03133 -0.01521
-0.09443 0.32751 0.13192
0.13839 -0.02848 0.06899
-0.06493 0.32751 -0.09756
-0.10096 -0.02848 -0.13121
-0.17190 0.32751 -0.03539
-0.17425 0.03133 -0.10396
0.05677 -0.02848 -0.07607
-0.10874 -0.02848 -0.13540
0.21862 -0.02848 0.13314
-0.09869 0.38847 0.06722
0.03273 -0.02848 -0.01330
0.20964 -0.02848 0.13031
-0.23123 -0.02848 -0.01600
-0.08945 0.39586 -0.09309
-0.07964 0.03133 0.11866
-0.12323 -0.02848 0.03062
-0.10730 0.03133 -0.03990
-0.12187 0.19144 0.09311
0.23097 -0.20479 -0.14276
0.05213 -0.02848 -0.09208
0.24521 -0.04550 -0.16039
-0.10575 0.32751 0.07084
-0.08677 0.32751 0.13178
-0.14679 0.39586 0.09155
-0.12185 0.07830 0.09262
0.18873 -0.02848 -0.11056
-0.18293 0.03133 -0.00156
0.03528 0.00846 -0.16457
0.18048 0.00496 -0.16807
0.03394 0.03133 0.01825
0.23374 0.00238 0.12775
-0.03998 -0.01126 0.14540
0.18924 -0.02848 -0.12418
-0.05001 0.03133 -0.05468
0.14608 0.03133 -0.10843
-0.14872 0.07453 -0.02310
-0.15182 0.18346 0.04052
0.20780 -0.06123 -0.15401
0.16492 -0.02848 0.02015
-0.14691 0.08063 0.10142
0.23952 -0.04102 -0.11395
-0.15416 0.31593 -0.02309
0.03449 0.03133 -0.07188
-0.15459 0.30665 -0.11211
-0.07628 0.39586 0.09209
0.22739 0.00874 -0.13901
0.20194 -0.02848 0.07337
0.10902 -0.02848 0.00525
-0.18254 0.39586 0.07049
-0.10872 -0.29679 -0.12263
0.04804 -0.02848 -0.16686
-0.11389 -0.26528 0.09169
-0.11389 -0.22680 0.10140
0.20223 -0.06030 -0.13956
-0.07024 -0.02848 -0.04155
-0.12194 -0.02822 0.14540
-0.06838 0.37490 -0.10570
0.20814 -0.03959 0.12813
0.21547 -0.02848 -0.14650
0.07371 -0.02848 -0.06480
0.21904 0.02506 -0.00334
-0.05352 0.03133 -0.06185
-0.10477 -0.16255 0.11389
0.16496 0.03133 0.10761
0.18691 -0.02848 -0.05800
0.24154 -0.00541 0.02781
0.10550 0.04172 0.05050
0.21921 0.01700 0.01205
-0.14845 0.16089 0.04075
-0.07660 0.03133 -0.03861
0.21249 -0.29456 0.08277
-0.03393 -0.02848 0.07573
-0.09940 -0.24460 0.08974
0.04759 -0.00877 0.14510
0.23951 -0.00339 -0.17327
-0.08391 0.03133 -0.04577
-0.13794 0.30675 -0.03242
0.02018 -0.01742 0.14540
-0.18833 0.32751 -0.11584
0.06488 0.03133 -0.14603
0.21647 -0.19030 0.10874
-0.18075 -0.00887 0.11654
-0.14448 0.30798 0.03996
-0.15959 0.03133 -0.12182
0.15066 -0.02848 -0.04341
0.11821 -0.01015 -0.18211
-0.14756 0.39586 -0.13557
-0.04254 0.02948 0.11924
-0.09811 0.32751 0.11827
0.13550 0.03133 0.08093
-0.14930 0.25892 -0.11769
-0.14985 0.19129 0.08956
0.03447 0.03133 0.09230
-0.10094 -0.21348 0.08844
0.01039 -0.02848 -0.13994
-0.10234 -0.32429 -0.12819
-0.10758 -0.21112 -0.15363
-0.12774 0.39586 -0.09858
0.22887 0.00726 0.09446
-0.20230 0.00331 -0.11296
-0.12962 0.22977 0.10507
0.15014 -0.02848 0.08669
0.01183 -0.02848 0.06956
-0.15024 0.39586 -0.09615
-0.14923 0.16095 -0.05096
-0.08497 -0.02848 0.11243
0.12358 0.03133 -0.00440
-0.05503 -0.00807 -0.18111
-0.15066 -0.02848 -0.06884
0.21083 -0.29291 -0.14078
-0.10305 0.39586 0.16259
-0.13744 0.04297 -0.03962
0.18822 -0.01845 0.14540
-0.11024 -0.03637 0.07420
0.23097 -0.13689 0.09386
0.04965 0.03133 0.00895
-0.13036 -0.02848 0.03135
0.07949 -0.02848 0.08681
-0.12966 0.26781 -0.09878
0.11744 0.03133 -0.03065
-0.16229 0.12293 0.03202
-0.16565 0.03133 -0.06609
-0.07434 0.03133 -0.08380
-0.17558 0.39586 0.08334
0.03562 -0.00275 0.13907
0.15918 0.03133 0.00153
-0.24312 -0.02105 -0.03930
-0.15456 0.23881 -0.11216
-0.12624 0.03133 0.07288
-0.12707 -0.02848 0.00110
-0.10399 -0.17272 0.11389
0.24103 -0.06123 -0.12614
-0.22116 0.39309 -0.06698
0.19908 -0.02848 0.12108
-0.15181 0.04791 0.01265
0.07531 -0.02848 -0.12217
0.21904 0.02632 -0.13895
0.23097 -0.20886 0.10772
-0.07755 -0.02848 0.07125
-0.07180 -0.02129 0.14540
-0.11493 0.33681 -0.16519
-0.14531 -0.02848 -0.15543
0.11446 -0.02848 0.12760
-0.08620 0.36378 0.16033
-0.14375 0.23860 -0.11968
0.21459 0.03133 -0.13821
-0.11958 -0.10575 -0.13065
0.11558 0.03133 -0.11123
-0.03704 0.00364 0.13268
0.09482 0.03254 -0.06689
-0.22544 0.32751 -0.00298
-0.07990 0.39450 -0.12793
0.21647 -0.14040 -0.13268
0.14548 -0.02848 -0.14358
-0.13689 -0.02848 0.00459
0.22607 -0.38016 -0.15363
0.02619 -0.02848 0.03960
0.23289 -0.30041 0.08338
-0.21622 0.03133 0.00195
-0.10095 -0.02848 0.03319
0.14873 0.00236 -0.17068
0.21647 -0.15751 -0.13486
-0.09189 0.03133 -0.07310
0.22227 -0.04037 0.12813
-0.10396 -0.06123 0.12275
0.22983 -0.05174 -0.11395
0.21931 0.01682 -0.09394
0.17611 -0.02848 0.01188
-0.13543 -0.01901 0.14473
-0.11904 -0.02848 0.00376
-0.09049 -0.02848 -0.13417
0.23507 -0.02848 -0.04300
-0.16274 0.25496 0.03065
-0.11495 -0.06123 -0.11959
0.17207 -0.01510 0.14540
0.06506 -0.02848 0.05812
0.23253 0.02075 -0.06645
-0.11454 0.03133 0.06915
0.18044 0.01380 0.12252
-0.04791 -0.02848 0.13818
-0.08620 -0.02848 -0.04612
-0.14277 0.06106 -0.02574
-0.10794 -0.02848 -0.06749
-0.07139 0.03133 -0.04134
-0.08677 0.39586 -0.13950
-0.16393 0.02909 0.09675
0.22219 0.01394 -0.04852
-0.11308 0.32751 -0.06173
-0.02012 -0.02848 -0.15311
0.23097 -0.37490 -0.12822
0.09701 0.03133 -0.14949
0.14808 -0.02848 -0.15557
-0.12742 -0.06123 0.11887
0.20223 -0.04777 -0.12787
0.07349 0.03133 -0.07697
-0.08261 0.38213 0.15341
0.21647 -0.14250 -0.14764
-0.21376 0.02251 0.01841
-0.11571 0.39570 0.17267
-0.16760 0.32751 -0.02923
-0.04167 -0.02848 -0.13770
-0.09112 0.39537 0.07114
0.16117 -0.02848 -0.10386
0.10524 -0.02623 0.14540
0.06359 -0.02848 -0.06639
-0.09478 0.03133 -0.06089
-0.08515 -0.05072 -0.15062
-0.15461 0.32751 -0.09170
0.19930 0.03133 -0.08924
-0.11506 0.38570 -0.04561
-0.20864 0.32751 0.03832
-0.12475 0.34285 0.03983
-0.09794 -0.27793 0.09983
0.21647 -0.19597 0.10174
0.23619 -0.29936 -0.14428
-0.14044 -0.01770 0.14214
-0.05337 0.00774 0.12858
0.07111 -0.02848 -0.13426
-0.16354 0.08891 -0.04418
-0.23236 0.00224 -0.00356
0.22993 -0.02848 0.07443
0.11000 0.04011 0.01695
-0.15091 0.12900 -0.05114
-0.21735 0.39586 -0.02904
-0.12193 0.14731 0.09453
-0.22346 0.34249 0.06945
-0.20223 0.39586 -0.03646
-0.00698 0.03133 0.05083
-0.21095 -0.00719 0.08228
-0.09939 -0.22381 -0.13708
-0.01003 0.03133 0.01675
0.02834 0.03133 -0.14985
-0.23474 0.38378 0.02028
-0.09940 -0.36361 0.11329
-0.13846 0.22014 0.01731
0.06542 0.03133 -0.05457
-0.11677 -0.30731 -0.13084
-0.09356 -0.02848 0.03619
0.20414 -0.01231 0.14540
0.22068 -0.19534 -0.12819
0.09385 -0.01584 -0.18211
0.23817 -0.02848 -0.13458
-0.05675 -0.02848 -0.00082
0.23341 -0.00781 0.14414
-0.18180 0.32751 0.12455
0.23057 0.00556 0.07029
0.17998 -0.02848 -0.08080
-0.18132 0.32751 0.08558
0.20223 -0.03793 -0.14208
0.10386 -0.02848 -0.16061
0.20187 -0.02848 -0.13372
-0.14954 0.32655 0.04080
-0.11509 0.03133 0.07400
0.03819 -0.02848 -0.02058
-0.14546 0.20506 -0.04986
0.10867 -0.02848 0.05696
-0.18295 -0.02848 0.09971
0.14051 0.03133 0.04546
0.14294 -0.02848 -0.06055
-0.19401 -0.02848 0.05697
-0.16006 0.39401 -0.14074
-0.13148 0.36381 -0.01552
-0.12813 -0.04286 0.10002
-0.12853 0.10466 -0.10969
-0.08233 -0.01754 -0.18211
0.16685 -0.00290 0.13922
-0.12767 0.03133 -0.11050
-0.13856 0.16498 0.03594
0.06513 0.01129 -0.16174
-0.13576 0.03133 0.00792
-0.16705 -0.02848 -0.13128
0.13326 0.03133 0.03975
-0.11282 -0.02848 -0.12602
0.21438 -0.30721 0.11682
0.23191 -0.06123 -0.11582
0.20570 -0.05097 -0.16787
0.14072 0.03133 -0.05354
-0.17536 0.03133 0.01146
0.13193 0.03133 -0.02813
-0.15813 0.11889 0.01562
-0.12585 0.03133 -0.12845
-0.13801 0.22611 -0.03226
-0.15801 0.01709 -0.04394
-0.01258 0.03133 0.11048
0.18502 0.03133 -0.03678
-0.19177 0.03133 -0.00921
0.21078 -0.09506 -0.13519
-0.03465 0.02283 -0.15595
-0.15558 0.25308 -0.10961
0.16492 0.03133 0.04404
0.20223 -0.05811 0.07482
-0.18876 0.39586 0.09533
-0.12543 0.20220 0.08306
0.16114 -0.02848 0.08164
0.02122 0.03133 -0.05486
0.14530 -0.02848 -0.11912
0.10848 0.03133 0.00360
-0.09939 -0.15306 -0.12947
-0.10678 -0.02848 -0.08701
-0.23537 0.36913 -0.00611
0.23466 -0.03102 -0.16787
-0.11389 -0.38528 -0.13393
-0.09999 -0.01341 0.14540
0.19016 0.03133 0.09201
-0.09324 0.03133 0.07564
-0.22306 -0.01699 0.06539
-0.13407 -0.02848 -0.02344
0.16231 0.03133 0.05477
-0.02185 0.03133 -0.02671
0.22003 -0.30810 -0.15613
-0.03237 0.03133 -0.10151
-0.00551 0.03133 0.06207
0.09754 -0.00511 -0.17814
-0.15790 0.32751 0.01647
-0.21409 0.03133 -0.04906
0.20325 -0.02848 0.01955
-0.18374 0.32751 0.09993
0.12310 0.03133 0.08259
0.03845 -0.02848 -0.17971
-0.15073 0.05064 -0.05112
-0.13362 0.09857 0.07842
-0.03502 0.03133 0.03537
-0.24227 -0.02256 0.01115
0.23097 -0.25579 0.09344
-0.13746 0.38281 0.16139
0.08783 -0.02848 -0.04014
0.23242 -0.06123 0.09594
-0.16291 -0.02848 -0.08947
-0.17485 0.32751 -0.11599
-0.09940 -0.25615 0.10763
0.17921 0.03133 0.03364
-0.11581 -0.11818 0.09648
-0.21339 0.01253 -0.07185
-0.11540 -0.02848 -0.13760
-0.10093 -0.12621 0.08844
0.08551 -0.02848 0.02490
-0.10662 0.03133 -0.02483
0.23536 0.00076 -0.15021
-0.18998 0.39164 0.12206
-0.21423 -0.02347 -0.11800
-0.08395 0.32751 -0.07428
-0.10292 0.03133 -0.01899
-0.12917 0.01751 -0.11143
-0.11389 -0.25616 0.10960
-0.10440 -0.02848 0.10143
-0.14184 0.19128 -0.02649
0.24521 -0.01303 -0.00149
0.20223 -0.04814 -0.16344
-0.11178 -0.36051 -0.15363
-0.16278 0.03133 -0.05153
-0.19226 0.03133 0.04683
-0.07337 0.03133 0.05614
-0.13935 0.12382 -0.11947
-0.16183 0.26087 -0.04653
-0.19030 0.38594 0.12167
-0.10085 -0.16170 0.08844
-0.13410 0.14297 0.10651
-0.11389 -0.36755 -0.14799
0.23666 -0.10174 0.09036
-0.16198 0.34194 -0.13919
-0.16493 0.27189 -0.03288
0.22595 -0.33891 -0.15363
0.02793 -0.02848 -0.00472
-0.19267 0.32751 -0.02491
-0.16115 0.36961 -0.13986
0.05919 0.03133 0.08135
-0.12793 0.31052 -0.10612
-0.09300 0.39586 -0.10503
0.05264 -0.02848 -0.15696
-0.13981 0.32751 0.13671
-0.08500 -0.02848 -0.17574
-0.08481 0.39586 0.09740
-0.24121 -0.02748 -0.05487
0.22458 -0.08971 -0.12940
0.12501 -0.02848 0.05831
-0.11331 0.39586 -0.13953
-0.11958 -0.11066 0.11160
0.22296 -0.32529 -0.15363
-0.09940 -0.15710 0.09519
0.11096 -0.02848 0.09151
-0.20751 -0.01361 0.08935
-0.09939 -0.16645 -0.13550
-0.05458 0.37800 0.09933
0.13134 -0.02848 0.01127
-0.22606 -0.00640 0.05421
-0.10070 -0.15498 -0.15363
0.11043 -0.02848 0.10987
-0.02695 -0.02848 0.01676
-0.14293 0.02512 0.01400
0.23097 -0.14135 0.10813
-0.03049 -0.02848 -0.00066
-0.23424 0.36043 0.02531
-0.08250 0.35615 -0.06773
-0.00633 -0.02848 0.11700
-0.16185 0.03133 0.03613
0.22453 -0.18938 0.08844
0.02829 0.03133 -0.00327
0.10458 -0.01519 0.14540
-0.06944 -0.02848 0.14148
0.03320 -0.02848 -0.18182
-0.12549 0.32751 0.08496
-0.06682 0.39586 0.10274
-0.09939 -0.13337 -0.15207
-0.09370 -0.10738 0.08945
-0.23677 -0.02465 -0.06934
-0.16513 0.04897 -0.03395
-0.12636 0.16801 0.10280
-0.16532 0.37785 -0.13651
-0.14739 0.35367 0.15625
0.17219 0.03133 0.01158
-0.12544 0.39586 0.10692
-0.04699 -0.02848 0.02623
0.15363 -0.02291 0.14540
-0.15976 0.29978 -0.04832
0.08796 -0.02848 -0.15280
-0.17068 -0.02848 0.10983
-0.12172 0.33155 0.16955
-0.09113 -0.02848 0.04951
-0.04682 -0.02848 -0.16053
-0.14088 -0.02848 -0.07953
-0.02099 0.03133 0.01196
-0.17565 0.39408 0.13609
-0.12127 -0.02848 -0.03088
-0.17067 0.03133 -0.01365
0.22840 0.01627 -0.02158
-0.09940 -0.26961 0.10894
0.12024 -0.02848 0.11635
-0.16222 0.02096 0.03223
0.24487 -0.02848 -0.02087
-0.14105 0.17103 0.01499
-0.14841 0.27894 -0.11818
0.08411 -0.02848 -0.06415
0.04042 -0.02848 -0.09152
-0.06727 -0.02848 0.00320
0.20223 -0.03699 0.11084
-0.06907 0.03133 -0.14652
0.21904 0.02868 -0.09153
-0.12944 0.03992 0.07989
-0.11389 -0.21051 -0.14883
-0.08482 0.03133 -0.11743
0.13251 -0.02848 0.10998
-0.14709 0.22992 -0.05049
-0.13232 0.16387 0.07881
-0.13473 0.07371 -0.09347
-0.22075 0.37050 0.07563
0.15463 -0.02848 -0.11138
-0.10127 -0.10068 -0.15933
-0.18076 -0.02848 -0.07312
0.04086 -0.02848 0.09752
0.07000 -0.02848 0.00760
-0.19178 -0.02848 -0.05861
-0.14904 -0.02848 0.08934
0.23195 -0.09805 0.08275
-0.15592 0.31481 -0.10845
-0.13570 0.29575 0.02249
-0.11894 -0.30056 0.10454
-0.12797 0.21592 -0.10352
0.19843 -0.02848 -0.07267
0.18220 -0.02848 0.07312
-0.16047 0.26990 0.01808
-0.17841 -0.02848 0.06713
0.23617 -0.29556 -0.12257
-0.13456 0.04840 -0.11752
-0.14241 0.39586 0.13170
0.09306 0.03133 -0.01042
-0.15752 0.00189 0.12093
0.17019 0.03133 0.07785
-0.11990 -0.06123 -0.15485
-0.07736 0.02287 0.11924
0.00226 0.03133 0.05731
-0.11389 -0.17638 -0.13636
-0.15013 0.39586 0.08446
-0.14561 0.10804 0.04033
-0.05170 -0.02848 -0.00102
-0.05612 -0.02848 0.11876
0.18705 0.00243 0.13389
0.15498 -0.02814 0.14540
-0.00560 -0.02848 -0.14973
-0.13408 0.32751 0.09998
-0.03461 0.03133 -0.07426
-0.14070 0.32751 -0.14104
-0.14632 0.04491 -0.05019
0.02104 -0.02848 -0.05324
-0.18826 0.35106 0.12412
0.23097 -0.19071 -0.13385
-0.11300 -0.06123 0.10584
-0.10065 -0.39497 -0.15363
-0.23539 0.39013 -0.00586
0.22434 -0.28071 0.08560
-0.16006 0.28584 0.01762
-0.09939 -0.27402 -0.13374
-0.10987 0.03133 0.04664
0.10024 -0.02848 -0.11057
-0.12813 -0.04018 0.10371
-0.11389 -0.17753 0.11364
-0.10701 -0.31119 0.11472
-0.11389 -0.13383 -0.13208
0.12146 0.03133 -0.04750
0.02452 0.03133 -0.00673
-0.14078 0.32751 -0.10203
-0.14653 0.32751 0.08145
0.09828 0.04259 -0.07262
0.07417 -0.02848 -0.01929
0.21882 0.03133 0.04677
0.21216 -0.11487 0.08275
-0.12573 0.32751 0.06454
-0.14597 -0.02750 0.13927
-0.12748 0.38347 0.03479
-0.10124 0.39586 0.06576
-0.02144 0.03133 -0.11013
-0.15823 0.14623 -0.04936
0.00936 0.03133 0.10566
-0.16063 0.15382 0.03496
-0.21944 0.33873 0.07805
-0.14315 0.26683 -0.09146
-0.09047 0.39586 -0.07671
0.20428 -0.02848 -0.15487
-0.01759 -0.02848 0.08616
0.21758 -0.06123 -0.15293
0.10344 -0.02848 -0.10192
-0.07962 0.00433 -0.16870
-0.15530 0.39586 -0.06961
0.14120 -0.01134 0.14540
-0.17983 -0.02848 -0.06229
0.14602 -0.02848 -0.03024
-0.21313 0.35345 -0.08180
-0.14409 0.24063 0.10403
-0.11389 -0.27238 0.11132
-0.11362 -0.32014 -0.15363
-0.15281 0.24165 -0.09638
-0.09478 -0.02848 -0.07318
0.21647 -0.35648 -0.14492
-0.23536 -0.00088 -0.00217
-0.20583 0.32751 -0.06563
-0.17839 0.33187 -0.12601
-0.14382 0.30170 0.01354
-0.09287 0.32891 -0.06236
0.07179 -0.02848 -0.15194
-0.12813 -0.05576 -0.13694
-0.11396 -0.31244 -0.12988
0.09598 0.03797 -0.03088
-0.11842 -0.30260 -0.13735
-0.24117 -0.00839 -0.05185
-0.06324 0.03133 -0.02876
-0.22507 0.33197 0.06423
-0.11393 -0.02848 -0.15152
0.07001 0.00185 -0.17119
-0.12005 0.37916 0.04750
-0.13839 0.03133 0.11231
-0.14560 0.19919 0.08213
-0.18096 0.32751 0.01459
-0.10968 -0.02848 0.09456
0.09914 0.03541 0.05438
-0.02832 0.03133 0.10502
-0.14916 0.21432 -0.09336
-0.04733 -0.02848 -0.10230
-0.20693 0.03133 0.00566
-0.15397 0.09100 0.01336
-0.11470 0.39586 0.07793
-0.20114 0.03133 0.03543
0.23097 -0.34507 0.10903
0.22361 -0.32578 0.08844
0.02656 -0.02848 0.07366
-0.11389 -0.24751 -0.13552
0.11525 -0.02848 -0.14935
0.05896 -0.02848 -0.06583
-0.06298 -0.00595 -0.17899
0.06580 0.03133 -0.05990
-0.11480 -0.02352 0.14540
-0.15005 0.39586 -0.00740
0.10736 0.03133 0.02535
-0.11389 -0.17417 0.09168
-0.16343 0.39586 -0.13532
0.24521 -0.02488 -0.13012
-0.20937 0.32751 -0.05129
-0.12303 0.20752 0.08673
-0.10870 -0.08276 -0.13103
0.19013 -0.02848 -0.08333
-0.12145 -0.02848 0.05597
0.14115 -0.00521 -0.17824
0.17749 -0.02848 0.04726
-0.08690 0.39220 0.07333
-0.16570 0.03133 -0.10898
-0.09792 -0.30094 0.11884
-0.20029 0.35535 0.10970
-0.01049 0.03133 0.00253
0.01124 0.00807 -0.16497
-0.11252 -0.23307 0.11389
0.03364 -0.02848 0.09542
0.02820 -0.02848 -0.08463
-0.17015 0.39586 -0.07631
-0.14363 0.39586 0.10275
0.17970 -0.02848 -0.06977
-0.09308 0.32751 0.12058
0.15919 -0.02848 0.12016
0.21647 -0.34821 0.11124
-0.12825 0.03133 -0.07006
0.06354 -0.02848 0.13636
-0.08982 0.02155 0.11924
0.10686 -0.02848 -0.17018
-0.15023 0.11800 -0.02287
-0.16296 0.17397 -0.02894
-0.11328 -0.28486 0.08408
-0.09940 -0.35537 0.09308
0.17189 0.03133 -0.00566
-0.06294 -0.02753 -0.18211
0.17054 -0.02848 -0.13162
0.04162 -0.02848 -0.13444
-0.13113 0.35887 0.02453
-0.12894 0.03363 -0.10008
-0.07044 0.33092 0.08186
-0.12326 0.08683 0.09877
-0.18163 0.39484 -0.12340
-0.16152 0.06997 0.01974
0.23902 -0.00289 0.05468
-0.10696 0.36182 0.06114
0.21078 -0.10364 0.11189
0.21083 -0.29507 0.09754
0.22002 -0.36368 -0.12819
-0.07869 0.34778 0.14585
-0.10446 -0.09402 -0.15933
-0.12893 0.02700 -0.10012
0.21904 0.02513 0.06497
0.04448 0.03133 0.01253
-0.21729 -0.02342 -0.11274
0.21904 0.02453 0.00342
0.23474 -0.11818 -0.15649
-0.14318 0.15331 -0.02541
-0.15008 0.30694 0.09192
0.23097 -0.32294 -0.13017
-0.16819 0.39586 -0.00004
-0.11389 -0.15924 0.09715
0.05674 -0.02848 -0.02497
0.20117 0.03133 0.09431
-0.13386 0.32751 -0.04759
0.16562 0.03133 0.00560
-0.13915 0.30414 -0.09174
-0.16129 0.07584 0.03395
0.23303 0.02285 -0.07315
0.13781 0.03133 -0.00785
0.04716 0.03133 -0.06220
-0.23410 -0.00174 0.01630
0.21091 -0.06123 -0.14453
0.08396 0.03133 0.08357
-0.12528 0.15038 0.10179
-0.15229 0.24666 -0.11531
0.01318 -0.01652 -0.18211
-0.14929 0.14198 0.08772
0.06457 0.03133 -0.06609
-0.12753 0.19033 0.10388
0.22105 -0.12444 0.11389
-0.18824 0.32751 0.05368
0.13827 -0.01606 0.14540
-0.14146 0.07318 -0.02680
-0.01260 -0.02848 -0.12577
-0.15369 0.05274 -0.02304
-0.13913 0.05493 -0.04434
-0.16102 -0.00596 0.12795
-0.09939 -0.16211 -0.14889
0.01465 -0.02848 -0.00758
0.13297 -0.02848 -0.00676
-0.15354 0.03133 -0.07475
0.06029 0.03133 0.09793
0.23097 -0.31829 0.09068
-0.15513 0.12551 -0.05068
-0.23273 -0.02848 -0.07622
-0.18710 0.39586 0.00599
0.03906 0.03133 -0.06278
-0.14045 0.01709 0.02274
0.20478 -0.02848 -0.06996
0.23651 -0.29099 -0.13952
0.22762 -0.21717 0.08844
0.23097 -0.16836 0.09118
0.22344 -0.37516 0.11389
-0.23402 0.33206 0.02749
0.23911 -0.00298 -0.13599
-0.14594 0.10910 -0.02393
0.23199 0.02855 0.10762
0.22761 -0.39586 -0.14758
0.10700 0.04041 -0.04700
-0.00907 0.03133 -0.02312
-0.15585 0.18588 -0.10868
-0.15715 0.25785 -0.02411
0.12551 -0.00134 0.13767
0.23240 -0.02848 0.10168
-0.15766 0.19923 0.03802
0.24521 -0.02587 0.06188
-0.00896 0.03133 -0.12579
-0.10368 -0.05704 0.07420
-0.07701 0.35939 -0.07057
0.12697 0.03133 0.03905
0.04522 0.03133 0.01810
-0.14787 0.08527 -0.11848
0.23028 -0.39482 0.11389
-0.08515 -0.05376 -0.11844
-0.01964 -0.02848 -0.17736
-0.15419 0.28238 -0.09833
-0.13918 0.03047 -0.02967
-0.14677 0.17373 -0.09223
0.21906 -0.02848 0.04428
-0.09189 0.33560 0.17132
0.24521 -0.01139 -0.03556
-0.10273 -0.02848 -0.15767
-0.14500 0.14678 0.08158
0.18901 -0.02848 0.02564
0.09236 0.03133 0.11679
-0.12029 -0.04243 -0.11395
-0.15104 -0.02848 -0.02792
-0.07365 0.39224 0.13613
-0.20315 0.03133 0.02000
0.23097 -0.37593 0.10777
0.19543 -0.02848 0.07443
-0.11389 -0.22343 -0.15172
-0.16064 0.39586 -0.07793
-0.05548 -0.02848 -0.02810
0.21472 -0.30966 0.09434
-0.07424 -0.02572 0.14540
-0.23337 0.34278 0.03406
-0.11389 -0.39359 0.10347
-0.09939 -0.34027 -0.13684
0.11758 0.03133 -0.11576
-0.08515 -0.05308 0.12247
-0.23428 0.39412 -0.01697
-0.14115 0.03015 -0.14901
0.20942 -0.02848 -0.06921
0.13622 0.01167 -0.16137
-0.15784 0.32751 0.07284
-0.14558 0.32751 -0.08014
0.21647 -0.31571 0.10056
-0.11104 -0.08881 0.10663
0.21395 -0.08971 -0.14868
0.23099 -0.03406 -0.11395
-0.13540 0.03133 0.03485
-0.15510 0.10821 -0.11127
0.23296 -0.28257 0.11748
-0.08768 0.36708 0.16319
0.21229 -0.02848 -0.15898
0.08933 0.03133 -0.06134
-0.22982 0.36900 0.04877
0.21078 -0.10406 0.08845
0.00916 -0.02848 -0.08580
0.00275 0.03133 0.09292
-0.14830 0.27642 0.04074
-0.07263 0.32751 -0.10722
0.20823 -0.02848 0.04945
-0.13044 0.04199 -0.09749
-0.03865 0.03133 0.03276
0.15240 -0.02848 -0.06960
-0.05944 -0.02848 -0.02033
0.21881 -0.08971 -0.13007
-0.13710 0.10393 -0.03711
-0.06757 0.03133 -0.01617
0.23318 -0.27940 -0.14066
0.23097 -0.33367 -0.15316
-0.16651 0.00395 -0.14824
0.02166 0.03133 0.02099
0.00344 0.03133 0.01813
-0.15859 0.19851 0.01598
0.15851 -0.02848 0.12469
-0.14012 -0.02848 0.07395
-0.16047 0.26189 -0.02619
0.21910 -0.35533 0.08844
0.11600 -0.02848 -0.12493
-0.16161 0.28962 0.01991
-0.13801 0.17339 0.01794
0.02644 0.03133 0.05830
-0.09650 -0.06123 0.08248
-0.13685 0.31337 0.10655
0.16552 0.00394 0.13239
0.22815 -0.35435 -0.15363
-0.13523 0.28642 0.10661
-0.09782 0.39586 0.16781
-0.19144 -0.00360 -0.13677
0.20666 0.03133 0.00169
0.23259 -0.05360 -0.16787
0.03259 -0.02848 -0.06612
-0.23449 0.37210 0.02282
0.12384 0.03133 0.06192
-0.05113 -0.02848 0.02074
-0.18010 0.39586 -0.09437
-0.15496 0.09819 -0.02326
-0.12492 0.32751 -0.04453
-0.03265 -0.02848 -0.17904
0.23097 -0.25808 -0.14771
-0.10224 -0.06189 0.10641
-0.15225 0.17290 -0.05113
-0.21187 0.37287 0.09202
-0.15346 -0.02848 -0.02233
-0.09372 -0.29439 -0.14545
0.00662 0.02245 0.11924
0.14213 -0.02848 -0.13873
-0.09783 0.03133 -0.14215
-0.15169 0.39586 0.14895
0.08276 -0.02848 -0.09482
-0.10401 0.03133 0.09381
0.23229 -0.02848 -0.13036
-0.15162 0.32751 -0.05498
-0.07871 0.38473 -0.06969
0.08762 0.03133 0.03144
-0.12672 0.36160 -0.02833
-0.15566 0.26472 -0.10176
-0.14006 0.04094 0.01588
0.19593 -0.02006 -0.18211
-0.15145 0.01709 0.02138
-0.14612 0.32751 0.02255
-0.15387 0.29701 0.01332
0.08597 0.02165 0.11924
-0.10941 0.36790 0.05917
-0.20764 0.32751 0.08404
0.23476 0.00137 -0.12631
-0.14156 0.12954 -0.11967
-0.20617 0.02761 0.04164
-0.22338 0.39447 0.06971
0.22537 0.00017 -0.17287
0.01152 -0.02848 0.13641
-0.21803 0.01592 0.00220
0.09471 0.03790 0.02303
-0.10975 -0.00455 0.14088
-0.17231 0.33585 0.13878
0.23124 0.01865 0.03931
0.19101 -0.02509 -0.18211
-0.13584 0.20233 -0.11830
0.06340 -0.02848 0.00586
0.22990 0.01742 -0.06339
0.15604 0.03133 0.08659
-0.11389 -0.32551 0.08855
-0.07317 0.35624 0.08045
0.10219 -0.02848 -0.02478
-0.14474 0.18280 0.08133
0.23097 -0.12974 -0.13261
0.23666 -0.10838 0.11527
0.10823 -0.02848 0.12136
0.15112 0.03133 0.02551
-0.14301 0.32751 0.01321
-0.13231 0.26776 0.07881
-0.15188 0.01709 -0.10296
-0.12239 0.17713 0.09634
-0.15394 0.21781 0.04007
-0.21563 -0.02848 -0.11199
-0.14005 0.06489 -0.11964
-0.11582 -0.30928 0.10423
0.21122 -0.29922 0.08957
-0.14817 0.05641 0.08533
-0.06634 0.03133 0.10916
-0.15617 0.32751 0.11638
0.05237 0.00227 0.13405
-0.11036 -0.08716 -0.15078
-0.11545 -0.02848 0.10529
-0.12788 0.29384 0.08087
0.09775 -0.02848 0.04614
-0.11417 0.35344 -0.04667
-0.13455 0.32751 -0.12823
-0.11919 -0.29887 -0.14486
-0.16107 0.19110 0.03428
-0.06884 -0.02848 0.03843
-0.16684 0.33075 0.14317
-0.13051 0.30870 -0.09737
-0.19662 0.01527 -0.09976
-0.04063 -0.02848 -0.04466
-0.23976 -0.02848 -0.00313
-0.15926 0.15762 0.01673
0.10818 0.03455 0.01616
0.24521 -0.02580 -0.04391
-0.00950 0.03133 -0.15342
0.21925 -0.02848 0.11450
-0.09817 -0.10749 -0.12249
-0.08361 0.35063 -0.13508
-0.18229 0.32751 0.10935
-0.22459 0.39586 -0.00023
-0.00235 0.03133 -0.14508
0.23003 0.00610 0.08071
-0.16883 0.03133 0.08260
0.22822 -0.06123 0.12311
-0.00135 0.03133 0.04804
0.19507 0.03133 0.10102
0.09011 0.03240 0.05696
-0.12813 -0.04075 -0.13848
0.06696 0.03133 0.05543
-0.16623 -0.02741 0.12846
0.15514 0.03133 -0.07439
0.23097 -0.12209 0.10622
-0.09940 -0.19942 0.10505
-0.10597 -0.32691 0.11389
-0.10541 -0.07597 -0.15078
-0.13333 0.09503 -0.09436
-0.21129 -0.00228 0.07283
-0.05422 -0.02848 -0.06772
-0.07398 -0.02848 -0.10554
-0.18626 0.01396 0.07885
-0.10224 -0.07191 -0.13600
-0.15900 0.10876 -0.02512
-0.19506 0.32751 -0.09361
-0.13032 0.03133 -0.10596
-0.07153 0.39342 -0.11177
-0.03298 -0.02848 0.12631
0.22030 -0.02848 -0.09072
-0.07528 0.34614 -0.11902
0.15477 0.02376 -0.15595
-0.12386 0.37352 -0.03359
-0.15606 0.09515 -0.10339
0.21647 -0.19656 0.10966
-0.10224 -0.08092 0.09925
-0.10784 0.39586 -0.05948
-0.22679 0.32782 0.05863
-0.07890 0.39039 0.14626
-0.21213 0.01278 0.03838
-0.05841 -0.02848 0.06351
-0.10932 -0.08149 0.11104
0.08473 0.03133 -0.02560
0.09053 0.03850 0.06730
0.22261 -0.16214 -0.15363
-0.15177 -0.02848 0.10884
0.23228 0.00385 0.04535
-0.13346 0.14649 0.07846
-0.09939 -0.23360 -0.14536
-0.10838 -0.06123 -0.16062
-0.15878 0.39586 -0.04349
-0.08909 0.36075 -0.06431
-0.19920 0.03133 0.00002
-0.04330 -0.00461 -0.17765
-0.11389 -0.24568 0.09442
0.21647 -0.35869 0.10490
-0.03386 0.03133 -0.01221
-0.09370 -0.09878 -0.15891
-0.12202 0.20083 0.09014
0.09298 0.03133 -0.07181
-0.09417 0.03133 0.10190
-0.18765 0.00814 -0.12298
-0.14145 0.32751 -0.05926
0.20008 -0.02848 -0.08517
-0.13173 0.14847 -0.09590
-0.15805 0.32751 -0.03597
-0.15137 -0.02848 0.06453
-0.09628 0.32751 0.17229
-0.06439 0.39585 0.08499
0.21543 -0.04026 -0.11395
-0.09716 0.39586 -0.09259
0.20399 0.02012 0.11924
-0.09970 -0.03352 -0.16787
0.10525 0.03312 -0.03608
-0.23528 0.32786 -0.00697
0.06857 0.03133 -0.11354
-0.15604 0.32751 -0.07300
-0.12846 -0.02848 0.03799
0.10123 0.03264 0.03364
0.02371 -0.00908 -0.18211
0.22028 0.01648 -0.00120
-0.01022 0.01686 -0.15617
0.22380 -0.20566 0.11389
-0.09940 -0.12916 0.09387
-0.10151 -0.33731 0.08844
-0.12160 -0.02848 -0.07374
0.04438 0.03133 0.08898
-0.22016 0.32861 0.07671
-0.11947 0.39586 0.05108
0.05406 0.03133 -0.00876
0.04606 0.03133 0.02759
-0.14375 0.39586 0.03315
0.06561 0.03133 0.02206
-0.13724 0.20674 -0.03582
0.17508 -0.02848 0.03530
-0.15989 0.13117 -0.04821
-0.06527 -0.02848 -0.14422
-0.12813 -0.06007 0.09350
-0.11161 0.39586 0.06482
0.24521 -0.01874 -0.14414
-0.09939 -0.17313 -0.14203
0.22009 -0.31324 -0.15363
-0.22060 0.32751 0.02467
-0.13418 -0.02848 -0.16622
0.23045 -0.02848 -0.01909
-0.03858 -0.02848 0.10904
-0.07297 0.35243 -0.11456
-0.09187 0.00810 0.12822
-0.14820 0.16440 0.08538
0.23608 -0.08971 -0.14683
0.23091 0.00522 0.02740
-0.10274 -0.17686 0.08844
0.24521 -0.02214 0.09991
0.12947 0.03133 0.06722
-0.07616 -0.02848 -0.13785
-0.19267 0.33201 0.11882
-0.21180 0.00176 -0.10010
-0.15963 0.38547 -0.14108
-0.07712 0.03133 -0.10419
-0.08952 0.32751 0.10822
-0.12623 -0.06123 0.11145
-0.02792 0.03133 0.01296
-0.11198 0.32775 -0.16672
0.08959 0.04222 -0.01619
-0.13726 0.39586 0.03413
0.10458 -0.02848 -0.06207
0.12283 0.03133 -0.14742
0.21932 -0.06215 0.09352
-0.06890 0.35006 -0.07477
-0.13667 0.32751 0.02109
0.16850 0.02950 -0.15595
-0.22481 0.01018 -0.02875
-0.10726 -0.22844 0.11389
-0.23482 -0.02406 0.03897
0.19224 -0.02848 -0.06531
-0.04905 0.03133 0.08449
-0.02304 0.03133 0.08026
-0.14782 0.15336 -0.11850
-0.09589 0.32751 -0.09667
0.17790 -0.00224 0.13856
-0.13203 0.32751 -0.10339
0.16711 -0.02848 0.01109
-0.18929 0.39586 -0.01876
-0.16257 0.28054 0.03117
0.23088 -0.06123 -0.16758
0.09944 -0.02848 0.07739
-0.22891 0.37991 -0.04385
-0.16367 0.32751 -0.03441
-0.16116 0.07667 -0.04718
-0.09939 -0.14248 -0.13704
-0.01467 0.03133 -0.10297
-0.12869 0.17113 -0.10097
0.05766 0.01997 0.11924
0.19873 0.03133 -0.02917
0.23030 -0.30058 0.11893
-0.09525 0.34493 -0.06112
-0.19237 0.39586 -0.01421
-0.09447 -0.28707 -0.15351
-0.12645 0.34656 -0.02883
-0.12791 0.22769 -0.10715
-0.06244 0.03133 -0.13173
0.21178 -0.09897 -0.12249
-0.19736 0.32751 0.09012
0.24215 -0.00602 0.13448
0.16334 0.01844 0.11924
-0.14063 0.27641 0.10579
-0.21071 0.32751 -0.07173
0.18516 0.02958 0.11924
0.23097 -0.24946 0.09811
-0.08747 -0.02848 -0.08572
0.20292 -0.06123 0.10110
0.03008 0.03133 0.10087
0.20929 -0.02848 -0.14261
0.22702 -0.18317 -0.15363
-0.07079 0.03133 0.00937
0.24521 -0.02787 -0.13930
0.06055 0.01734 -0.15595
-0.08700 0.38212 0.16189
0.00594 -0.02848 -0.00483
-0.23564 -0.00544 -0.06060
-0.17970 -0.00872 -0.15390
0.21798 -0.08971 -0.15717
-0.15378 0.04480 -0.02305
0.18097 -0.02848 -0.04228
0.08254 0.03133 0.07395
-0.09906 0.39352 -0.16490
-0.05383 0.03133 0.04344
0.18851 0.03133 0.07823
0.05435 0.03133 -0.15061
0.09845 0.03500 0.00057
-0.08047 0.03133 -0.05216
-0.14442 0.04543 -0.11952
-0.19044 0.33697 0.12150
-0.19768 0.01572 0.06016
0.02341 0.01135 -0.16168
-0.13113 0.14558 -0.11456
0.21078 -0.10704 -0.15339
-0.12811 0.03133 -0.01140
-0.13627 0.19898 0.02076
-0.10803 0.03133 -0.00268
0.24514 -0.02848 0.12369
-0.22639 0.32751 0.05095
-0.05362 -0.02848 -0.03719
0.21585 -0.09013 -0.12249
-0.16334 0.09748 0.02656
0.22948 -0.02848 0.13015
0.02444 -0.02848 0.11108
-0.01827 0.03133 0.00057
0.17665 -0.02848 -0.05094
0.23096 0.03020 -0.11470
-0.17448 -0.02848 0.00305
0.01846 0.00986 -0.16317
0.21769 -0.18723 0.11389
-0.02724 0.03133 0.04323
-0.10951 -0.17823 -0.12819
-0.13247 -0.02848 -0.04504
0.21904 0.02855 0.01567
-0.11104 -0.08028 0.09439
-0.14494 0.31231 -0.04966
0.09638 0.03133 -0.15458
0.22482 -0.06558 -0.13103
-0.07113 0.39586 -0.08285
-0.05426 -0.02848 0.13809
-0.20561 0.37818 0.10332
0.22281 0.03285 0.03543
-0.13504 0.32262 0.02688
-0.08628 0.34443 0.07365
-0.11104 -0.08331 0.10189
-0.13738 0.39586 0.02704
0.12160 -0.02848 -0.16616
0.09740 -0.02848 0.10660
-0.11389 -0.38016 0.09481
-0.21558 0.36213 -0.07728
-0.12821 0.39586 0.14313
-0.12295 0.01955 0.09813
0.24521 -0.03258 -0.12805
-0.13947 0.11630 0.03696
-0.16526 0.22626 -0.03935
-0.21230 -0.02689 -0.12031
-0.00436 -0.02848 0.13707
0.00263 -0.02848 0.07012
-0.10500 -0.07695 -0.13103
0.24521 -0.02896 -0.11765
0.14411 -0.00432 0.14065
0.06742 -0.02848 0.07411
0.12921 0.03133 -0.03665
-0.12631 -0.00966 0.14540
-0.10086 0.37151 -0.16836
-0.13950 0.09554 0.10614
-0.19808 0.32751 0.07068
0.08528 0.03133 -0.09156
-0.15779 -0.00910 -0.16985
-0.09940 -0.37277 0.11111
-0.19297 -0.02848 -0.09736
-0.04636 -0.02848 0.08152
-0.15516 0.27699 -0.02334
-0.11379 -0.02848 0.00538
-0.02431 -0.02848 0.10837
-0.04385 0.03133 -0.02303
0.22506 -0.25435 0.08844
-0.07316 0.38822 0.08045
-0.22366 0.37212 -0.06093
-0.12880 0.39586 -0.08955
-0.21611 0.00515 0.04834
-0.13976 0.16664 -0.02888
0.21750 -0.02848 -0.11748
0.09995 0.04096 0.03576
-0.03412 -0.02848 -0.16817
-0.12813 -0.03327 0.09479
-0.12445 0.23202 0.10065
0.23017 -0.28960 -0.12283
-0.11389 -0.31505 -0.13698
-0.13733 0.10700 0.07829
-0.06688 0.36698 0.12307
-0.10399 -0.21199 0.11389
-0.10730 -0.01094 0.14540
-0.14396 -0.02848 -0.09409
0.02402 0.03133 -0.12117
-0.06842 0.37567 -0.07502
-0.14866 0.39242 -0.14771
-0.03408 -0.02848 -0.01405
-0.09298 0.03133 0.11063
-0.11958 -0.03099 0.12813
-0.20325 -0.02848 -0.04074
-0.09659 -0.11665 -0.12249
0.09785 0.03339 -0.01619
0.06171 -0.02793 -0.18211
-0.15099 0.01709 0.03919
0.10058 -0.02848 0.02378
-0.13013 0.32617 -0.11317
-0.05398 0.00353 0.13279
-0.16335 0.14186 0.02637
0.24521 -0.01375 -0.10505
0.05506 -0.02848 0.04939
-0.23352 0.32950 -0.02468
0.00941 0.03133 -0.05459
-0.18732 0.32751 -0.00490
0.21647 -0.19073 -0.13774
-0.14409 0.01709 -0.09834
-0.08157 0.32751 0.15027
0.23534 -0.29510 0.11953
0.03801 0.03133 0.05553
0.22918 -0.00620 0.14252
-0.23094 0.34346 0.04511
-0.15035 0.32751 -0.03642
-0.14689 0.39586 0.07680
-0.15193 0.03133 -0.12148
0.01795 -0.02848 -0.02428
-0.19066 0.36459 -0.11335
-0.09939 -0.38295 -0.13995
-0.15693 0.08435 0.03856
-0.09898 0.03133 -0.03415
-0.10355 -0.02848 -0.12636
-0.08599 0.03133 -0.06921
0.00739 -0.02848 -0.06543
-0.15771 0.25473 -0.04960
-0.15218 0.32751 -0.04518
0.08957 0.03133 -0.09399
0.24521 -0.01584 0.02231
-0.21706 0.35205 0.08243
-0.10087 -0.39586 0.10300
-0.16097 0.03133 -0.04205
-0.05684 0.39586 0.09271
0.11558 -0.02848 0.11629
0.01738 -0.02848 -0.16818
-0.09025 -0.02848 -0.05711
-0.11958 -0.10702 0.09049
0.03774 -0.02848 0.06859
0.22703 0.01587 0.06528
-0.15549 0.32751 0.03845
-0.13650 0.23983 0.10657
-0.22117 0.01242 0.00608
0.02680 0.03133 0.00199
-0.13263 0.03133 0.08249
-0.05952 -0.02848 0.13496
-0.22115 0.00236 -0.08123
0.21647 -0.32447 0.09775
0.01815 -0.02848 0.04778
-0.13779 0.27501 -0.04132
-0.10374 0.03133 -0.11375
-0.12283 -0.02848 0.01954
0.15727 0.00114 -0.17190
-0.14106 0.02607 0.11235
-0.10624 -0.11897 -0.12819
-0.10036 0.03133 -0.00252
-0.00132 0.02794 -0.15595
-0.01325 0.02107 -0.15595
0.24521 -0.02579 -0.05682
-0.10976 -0.16373 0.08844
-0.02122 0.01198 -0.16105
-0.17783 -0.02848 0.10561
0.07200 0.03133 0.09085
0.24521 -0.01928 0.08230
-0.09389 -0.08971 0.11954
-0.15007 0.05557 0.01256
-0.03995 0.03133 0.08377
-0.08195 -0.02848 0.06736
-0.14371 0.03133 -0.13560
-0.16910 -0.00944 -0.16287
0.15862 0.00614 0.13019
-0.13077 0.33398 -0.01782
0.23088 -0.18225 -0.12819
-0.17100 0.32751 0.07530
0.23917 -0.00304 0.08564
0.23097 -0.31991 -0.14943
0.21647 -0.15420 -0.14610
0.24521 -0.05767 -0.11449
-0.11057 0.03133 -0.08020
0.23284 0.02658 -0.05863
-0.15270 0.23895 -0.05106
0.14659 0.03133 -0.01188
-0.14157 0.32437 0.03853
0.15017 0.03133 -0.10404
0.21395 -0.02848 -0.01894
0.20563 0.03133 0.09502
0.02206 -0.02848 -0.09059
-0.06252 -0.02829 0.14540
-0.23272 0.37833 -0.03145
-0.13519 0.22208 0.02865
-0.11889 0.36709 -0.16314
0.23042 -0.36950 0.11389
0.02872 0.03133 -0.00988
-0.10271 0.39586 0.10383
-0.13711 0.16670 0.07829
-0.08515 -0.03888 -0.15287
-0.20281 0.32751 0.03741
-0.14599 0.20514 -0.02391
0.24521 -0.02395 -0.14957
-0.22571 0.39586 0.05988
-0.08515 -0.05420 -0.16735
-0.12450 0.39581 -0.16023
-0.11221 0.33550 0.17448
0.21647 -0.32972 0.11183
0.04111 0.03133 -0.00270
-0.11647 0.39586 -0.04748
-0.02868 0.03133 -0.08711
-0.14803 0.21107 -0.02321
-0.23322 0.37960 0.03555
0.21892 -0.02848 0.12307
-0.13119 -0.00639 0.14271
-0.10220 -0.38154 -0.12819
-0.12801 -0.06123 -0.13070
-0.00016 -0.02848 -0.02189
0.20390 -0.06017 -0.16787
-0.14322 0.22586 0.08032
-0.15603 0.32751 -0.06306
-0.05926 -0.02848 -0.12269
-0.16232 0.32751 0.03748
0.23993 -0.00380 -0.16597
-0.10633 -0.02848 0.10824
-0.19733 0.36986 0.11324
-0.06681 -0.02848 0.12765
-0.12299 -0.00509 -0.17812
-0.07303 0.34647 0.08052
-0.10608 -0.33875 0.08844
-0.12028 0.32751 -0.15958
0.24287 -0.06123 0.12099
-0.12298 -0.02848 0.11819
-0.22462 -0.02848 0.00413
-0.23686 -0.02848 -0.03135
-0.09940 -0.36158 0.10902
-0.09715 -0.02848 0.10317
0.03776 -0.02848 0.00819
-0.13379 0.32981 0.01014
0.22584 -0.39586 0.09934
0.22100 -0.08262 0.11104
-0.09417 -0.02848 0.01416
-0.14853 0.02364 0.08590
0.24521 -0.05293 0.11478
-0.12174 -0.02927 -0.16787
0.00757 0.03133 0.03720
-0.09860 0.39586 0.12438
0.03420 0.03133 -0.01993
-0.12431 -0.02848 -0.13617
0.10413 0.01570 -0.15734
-0.08517 0.34664 -0.13809
-0.15004 0.22347 0.09428
-0.22776 0.35223 -0.04758
0.23097 -0.27514 0.11240
-0.12738 0.32751 0.13733
0.15707 -0.02848 0.10510
0.21906 -0.25629 -0.12819
-0.15620 0.10316 -0.10427
-0.11135 0.34210 -0.16704
0.17618 -0.01117 -0.18211
-0.19698 0.03133 -0.04761
-0.18353 0.32751 -0.07449
0.09235 0.03202 0.06832
0.22758 -0.09218 -0.15933
-0.18018 0.01228 0.08875
-0.13721 0.03133 -0.11341
-0.13172 0.02846 -0.15390
0.21904 0.01993 0.11806
0.22343 -0.08715 -0.15078
0.01346 0.03133 0.00009
-0.16268 0.23671 0.02218
0.20094 -0.00123 -0.17426
-0.11817 -0.30358 0.09196
-0.14808 0.39586 -0.07190
0.21199 -0.30277 0.08527
0.03265 0.03133 -0.04912
-0.13781 0.14535 -0.11903
0.21647 -0.11962 -0.14286
-0.09713 0.33835 -0.06014
-0.23573 -0.02848 -0.06367
0.08286 0.01071 -0.16232
0.15689 0.00530 -0.16773
-0.01616 -0.02848 0.02832
-0.11207 -0.02848 -0.03785
-0.10538 -0.22441 -0.15363
0.11547 0.03133 -0.01312
0.04267 -0.02848 0.07852
-0.18685 0.32751 -0.09549
-0.13094 -0.02848 0.10331
-0.15788 0.32751 0.10530
-0.14587 0.31518 0.10254
-0.17140 0.00589 -0.14183
-0.03723 -0.02848 -0.08031
-0.11164 0.03133 -0.06371
-0.17177 0.00486 0.10613
0.21647 -0.17046 0.08873
-0.15762 0.28164 0.03806
0.23133 0.02960 -0.12826
-0.07338 0.37908 -0.11535
0.04081 0.03133 0.06021
-0.15092 0.32751 -0.09910
0.07272 -0.02848 -0.10049
0.24023 -0.02848 -0.09691
-0.17265 0.03133 0.04284
-0.22081 0.39586 -0.03535
0.21120 0.03133 0.06504
0.13063 0.03133 -0.13753
-0.05130 -0.02848 0.01122
-0.16420 0.24663 -0.04282
0.18458 0.03133 0.02224
0.23302 0.02559 -0.09014
-0.10858 -0.02848 0.14134
0.21213 -0.28479 0.09158
0.23097 -0.17450 0.09224
-0.08186 0.33718 -0.13171
0.23097 -0.14452 -0.13635
0.21310 -0.02848 -0.09007
0.23417 -0.28152 0.11070
0.01264 0.03133 -0.14148
-0.07153 0.39586 0.09571
-0.15027 0.01709 -0.03911
0.13479 0.03133 0.06191
0.04047 0.03133 -0.04475
-0.14485 0.32751 0.06707
-0.16319 0.32751 -0.09010
0.22520 0.01535 0.04514
-0.09819 -0.08971 -0.13527
-0.14156 -0.02848 -0.12575
0.23097 -0.39493 0.10878
0.23491 -0.02848 0.13815
-0.06150 0.34312 -0.09242
0.03009 0.03133 -0.03159
0.19786 0.03133 -0.12072
-0.08515 -0.04094 -0.13891
-0.16283 -0.02848 -0.06250
0.24228 -0.00615 -0.01560
-0.10745 0.38163 -0.16907
0.21501 0.03133 0.06022
0.11378 -0.02833 -0.18211
-0.14900 0.29643 0.08682
0.15357 -0.02848 0.12794
0.23097 -0.36928 -0.13692
0.23476 -0.30441 -0.15763
-0.13747 0.02542 -0.03980
0.03616 -0.02848 0.13187
0.17322 -0.02848 -0.05775
-0.14613 0.39586 -0.01357
0.02111 -0.02848 0.08117
0.23097 -0.33882 0.10845
-0.07416 0.35762 0.13712
-0.05975 0.37353 0.08740
-0.10698 -0.03208 0.07420
-0.11389 -0.37672 -0.14352
-0.11389 -0.13161 0.10595
-0.10573 -0.05883 -0.16787
-0.14577 0.29608 -0.02400
-0.18709 0.32751 0.04398
-0.12873 0.06119 0.10460
-0.10020 0.32751 -0.11036
-0.09940 -0.25637 0.08975
-0.15549 0.04692 0.03929
0.04570 -0.02848 0.02394
0.01861 0.03133 -0.00953
0.09283 0.03133 -0.02238
0.21932 -0.08281 0.10619
0.21238 -0.10308 0.11958
-0.05674 0.03133 0.03420
0.10083 0.03189 0.06397
-0.11389 -0.18810 -0.13229
-0.15913 0.31864 0.03670
0.00299 0.03133 0.04360
0.23097 -0.18819 -0.12981
0.21042 -0.02848 -0.11098
0.20710 -0.02848 0.08770
0.14857 -0.02848 0.07917
-0.18006 -0.02848 -0.09398
-0.08515 -0.04480 -0.13560
-0.01023 0.03133 0.01193
-0.21239 0.38226 -0.08317
-0.01149 -0.02848 -0.16421
0.16671 -0.02848 -0.10562
-0.12303 0.07545 0.09838
0.17521 0.03133 -0.06468
-0.14577 0.35912 0.15709
-0.09749 0.33986 -0.16186
-0.11671 -0.05242 0.07420
-0.21797 0.39586 -0.01735
0.23829 -0.05954 0.07420
-0.21519 0.02570 0.01374
-0.13863 0.02288 -0.03063
0.16903 0.03133 0.05330
0.11952 -0.02848 -0.10461
0.24305 -0.02848 -0.16607
-0.06909 0.03133 -0.08495
0.23051 -0.23782 -0.12819
-0.14134 0.27295 -0.11967
-0.12487 0.03133 0.08054
0.23632 -0.00019 0.02711
-0.13604 0.02206 0.11495
-0.04789 0.03133 -0.15014
0.03088 0.03133 -0.04501
-0.15584 0.11664 -0.10250
0.20963 0.03133 -0.15572
-0.09876 -0.05812 -0.11395
-0.11326 -0.38213 -0.12819
0.21647 -0.36437 -0.13399
0.18941 -0.02848 0.00381
-0.15768 0.22575 0.01533
-0.17770 -0.01515 0.11925
-0.01032 0.03133 -0.05902
0.10404 0.03133 0.01686
0.07389 0.03133 -0.06287
-0.14981 0.01709 -0.11589
0.21904 0.01928 -0.01727
-0.20373 0.03133 -0.08166
0.16802 0.00179 -0.17124
0.22740 -0.21176 -0.15363
0.06327 0.03133 -0.01115
-0.10105 0.03133 -0.08613
0.14081 -0.02848 -0.03438
-0.19742 -0.02848 0.01862
-0.16539 0.23511 -0.03563
0.23549 0.00064 -0.15556
-0.10394 0.39586 0.07591
0.10133 -0.02848 0.03546
-0.13035 0.39586 -0.12344
-0.15861 0.18496 -0.02483
0.22730 -0.27143 -0.15363
0.03368 -0.02848 -0.12627
-0.13503 0.08452 0.02714
-0.12833 0.30867 0.08059
0.15617 -0.02848 0.00389
0.21647 -0.39245 0.09756
-0.15420 0.03133 -0.02579
-0.06002 0.01447 -0.15856
0.10007 -0.02848 0.12193
-0.01798 -0.02848 -0.16811
0.24193 -0.02848 -0.15325
-0.01571 0.03133 0.00767
-0.16354 -0.02848 0.04557
-0.08953 -0.02848 -0.06877
-0.17588 0.39586 0.05595
0.23244 0.02780 0.06461
-0.13740 0.24039 -0.03936
-0.02404 0.03133 -0.08455
-0.13744 0.24769 -0.03398
-0.21834 0.37695 -0.07218
-0.15667 0.18472 -0.05006
0.21227 -0.09085 -0.15933
-0.14609 0.32751 -0.10695
0.22557 0.03297 0.03176
0.05905 0.03133 -0.06654
-0.05821 0.03133 0.03888
-0.03355 -0.02848 -0.07667
-0.14371 0.13900 -0.02499
-0.08245 -0.02848 -0.05140
0.13928 -0.02216 -0.18211
-0.13243 0.39586 0.14814
-0.16555 0.19268 -0.03665
-0.03234 -0.02848 -0.10258
0.03374 -0.02848 0.03767
-0.22942 -0.02848 0.00993
0.23097 -0.38918 -0.13835
0.00015 -0.00624 0.14257
0.23372 -0.02318 0.14540
-0.16764 0.32751 0.08490
-0.03528 -0.00754 0.14386
0.24521 -0.02488 0.03019
-0.09471 -0.30197 -0.13477
-0.14420 0.13959 0.10396
0.23599 -0.01031 -0.18211
-0.09246 -0.06123 -0.12771
0.14668 -0.02848 -0.14832
0.16696 0.03133 0.02032
0.10889 -0.02848 -0.07041
0.15279 0.01946 -0.15595
-0.08953 0.03133 0.04347
-0.16122 0.32751 0.00223
-0.14035 0.25000 -0.04588
0.16618 0.03133 -0.15031
-0.14303 0.11217 -0.11970
-0.00916 0.03133 -0.11264
-0.02115 0.01812 -0.15595
-0.12146 0.32837 -0.03794
0.14348 0.03133 0.05115
0.22308 0.01304 -0.14090
0.23097 -0.25826 0.10894
-0.06298 -0.00219 0.13852
-0.19948 -0.02000 0.09897
-0.21088 0.39586 -0.04846
-0.14121 0.19839 0.03829
-0.15106 0.12604 0.04068
0.17915 0.03133 0.05624
-0.11389 -0.34319 -0.14286
-0.11416 0.34883 0.17347
0.06169 0.03133 0.00066
0.15907 -0.02848 -0.09718
0.24521 -0.02416 0.11530
0.18616 -0.00187 -0.17490
0.20223 -0.03272 -0.16061
-0.09450 0.37773 0.17636
-0.14685 0.30427 -0.09225
-0.16557 0.03133 -0.11450
-0.01776 -0.02676 -0.18211
0.20506 -0.04280 -0.11395
-0.13832 0.03133 -0.03727
0.02008 0.03133 0.08274
-0.00186 -0.02848 0.11333
-0.15368 0.19740 -0.09740
-0.03156 -0.02848 0.04312
-0.13523 0.39586 0.10965
-0.21931 -0.02848 0.02369
-0.06327 0.03133 -0.10730
0.14991 0.03133 0.00381
0.22108 -0.21281 0.08844
0.04837 -0.02848 -0.00237
-0.18550 -0.02848 -0.10385
-0.11137 -0.02848 0.09044
0.21904 0.02132 -0.12107
-0.06750 0.03133 0.09388
0.14123 0.03133 -0.00022
0.07301 0.03133 0.06806
-0.19227 0.39586 0.01504
-0.13690 0.12495 0.03362
0.07955 0.03133 0.06335
0.24521 -0.01132 0.11823
0.11229 -0.02848 0.03346
-0.14139 0.26754 0.01478
-0.14153 0.21432 0.10551
0.22521 0.03307 -0.08602
-0.08523 -0.02848 0.07744
0.07987 -0.02848 -0.11371
0.09660 0.03133 -0.04896
0.24319 -0.02848 -0.10330
0.22560 -0.21695 -0.12819
0.21433 0.03133 0.09837
0.22193 -0.08980 0.08275
0.22812 -0.07730 0.10272
-0.22314 -0.02848 -0.06607
-0.15208 0.29519 -0.02287
0.22412 -0.17020 0.11389
-0.14635 0.39586 0.00774
0.23666 -0.09279 -0.13307
-0.06286 0.33656 0.11530
-0.18384 0.39586 0.05839
-0.11958 -0.10158 0.09860
-0.10421 -0.39586 -0.14186
-0.09939 -0.34724 -0.13503
-0.08183 0.32751 -0.11095
-0.14621 -0.02848 -0.06968
0.06248 -0.02848 0.03467
0.24367 -0.02848 0.09394
0.20725 0.03133 0.00902
0.21647 -0.25022 0.10274
0.10507 0.03133 -0.14744
-0.13612 0.33238 0.16209
0.20999 -0.02848 0.12085
-0.12056 0.03133 -0.11591
-0.12071 0.03133 -0.07441
-0.14391 0.16744 0.01350
0.11881 -0.02848 0.09440
-0.09830 0.32751 0.10315
-0.09801 -0.09414 0.08275
-0.16548 -0.02848 0.11190
0.05667 0.00614 0.13018
-0.05557 0.38974 0.10125
-0.14843 0.02143 -0.09291
0.17276 0.02486 0.11924
-0.15390 0.16698 -0.09781
-0.09998 -0.36480 0.08844
-0.13311 0.03133 0.09417
-0.13072 0.26164 0.07930
-0.09112 0.39586 0.13273
