ply
format ascii 1.0
comment VCGLIB generated
element vertex 1817
property float x
property float y
property float z
element face 0
property list uchar int vertex_indices
end_header
-0.18480 0.13341 0.01014
-0.11028 0.00078 0.10819
-0.18674 0.07987 0.07318
0.24045 -0.31549 0.22092
-0.08372 0.00240 0.09864
0.23534 0.01460 0.00176
-0.07847 0.01508 0.01284
-0.19454 0.22203 0.08151
-0.00772 0.00502 0.02148
-0.19151 0.00051 0.06273
-0.21546 0.33058 0.04990
-0.14646 -0.00143 -0.13658
0.14570 0.03426 -0.14631
0.09042 0.01438 -0.04292
-0.09656 0.01354 0.01553
0.24188 0.02050 0.03307
0.05276 0.11282 0.21212
0.22739 -0.16195 -0.20267
0.02927 0.19549 0.21546
0.08046 0.02868 0.10621
0.21347 0.03494 0.05495
0.05592 0.02658 -0.02550
-0.16243 0.15651 -0.16305
0.09656 0.01487 -0.13350
0.16443 -0.35383 0.21256
0.21872 0.01834 -0.15909
-0.10079 0.01318 0.08635
0.06736 0.18759 -0.22882
0.06624 0.02746 0.17450
-0.16237 0.23571 -0.18591
-0.22218 0.34225 -0.04480
-0.16169 -0.00236 0.11676
0.11455 0.01632 0.14666
0.01543 0.01111 0.16097
0.11371 -0.00562 0.00420
-0.20927 -0.00421 0.00590
-0.19995 0.27886 -0.13140
0.00469 -0.35652 -0.19817
-0.22253 0.31540 0.05019
-0.16346 0.00781 0.08755
-0.22322 -0.00043 0.08129
-0.21514 0.01732 0.09150
-0.23023 -0.36665 0.04710
-0.18289 0.24542 -0.10827
-0.18945 0.11477 0.10279
-0.19745 0.24404 0.08539
-0.19494 0.12443 -0.07029
-0.19005 0.09138 0.00635
-0.21237 0.04296 -0.05083
-0.11376 0.00056 -0.08511
-0.20602 0.02683 -0.02043
0.05823 0.01179 -0.08889
0.21564 -0.17517 -0.21105
0.23263 0.02936 0.09608
-0.22858 -0.00652 -0.05658
-0.18213 0.16248 -0.04533
0.17970 0.01102 -0.02399
-0.00251 0.01381 0.17636
0.02256 0.02373 -0.17632
-0.05031 -0.34764 0.19378
-0.16495 0.27588 0.19428
-0.20024 0.04593 -0.01897
-0.20543 0.07596 -0.00287
0.09242 0.01576 -0.01049
-0.19304 0.16389 -0.06962
-0.06772 0.21299 -0.19585
-0.08756 0.00216 -0.10597
-0.18008 0.20669 0.14222
-0.21660 -0.00371 0.08181
-0.20545 0.03881 -0.11647
0.17134 -0.36457 -0.19834
-0.24655 0.36430 0.01167
-0.18659 0.25355 -0.15934
0.23740 -0.23261 -0.20402
0.21380 -0.15032 0.20767
-0.18399 0.13315 -0.04058
-0.21662 0.01394 -0.10180
0.14772 0.01899 -0.06185
0.03420 0.07975 -0.22697
-0.06822 -0.35376 -0.19806
0.02776 -0.34835 -0.19576
0.01237 0.00825 -0.13840
0.23217 -0.29392 0.22032
0.13327 0.01783 0.06134
0.05624 0.01163 -0.10658
0.14155 0.01850 0.09291
0.14541 0.01881 -0.19427
0.19532 0.02157 0.04050
-0.10797 0.01256 0.08542
-0.18165 0.26698 0.12893
-0.22395 -0.34457 0.06481
0.23152 -0.12081 -0.21059
-0.19993 -0.00195 -0.03097
-0.22747 0.32500 -0.04647
0.22512 0.02555 0.19486
-0.16171 0.20080 0.15998
-0.03025 -0.00164 -0.01238
-0.16858 0.14300 -0.14088
-0.18998 0.24810 -0.05692
-0.08560 0.00228 0.06470
0.23231 0.02955 0.00427
-0.18351 0.14067 0.03175
-0.20339 0.08800 0.00224
-0.18426 0.13409 -0.13126
0.17815 -0.36221 -0.19994
0.04558 0.20968 0.21342
0.21016 -0.33852 -0.21048
-0.17814 0.20379 0.08730
-0.16335 0.23994 0.17339
-0.02239 0.01557 -0.18374
-0.18539 -0.36659 0.18190
-0.17912 0.15085 -0.14989
-0.22713 -0.00397 -0.07120
0.22200 -0.02137 0.20308
-0.20852 0.32086 0.14648
0.15887 0.03538 -0.05538
-0.21726 0.36562 0.15113
0.04625 0.02576 0.13681
-0.18805 0.11194 0.11268
-0.10213 0.00127 0.14349
-0.22000 -0.00951 -0.02333
0.00257 0.02202 0.09813
-0.19311 0.14899 0.06377
-0.00639 0.04082 -0.21177
-0.17363 0.25224 0.19023
-0.13830 -0.36712 -0.18566
-0.02519 0.01964 0.05579
0.17084 0.03587 -0.20005
-0.20324 0.02004 0.07589
0.04162 0.01045 0.12947
-0.23753 0.34716 -0.04371
-0.21514 0.29056 -0.04047
-0.20970 0.27659 0.04976
-0.19428 0.34299 -0.21500
0.00770 0.01569 -0.01241
-0.16406 0.14286 -0.16250
-0.14305 0.20200 0.21707
-0.13092 -0.35936 -0.17800
0.04614 0.09155 0.20495
0.22766 0.01625 -0.01397
-0.03431 0.01886 0.09540
0.02457 0.00908 0.12009
-0.14219 -0.00117 0.11197
-0.16898 0.17882 -0.13941
-0.22604 0.34259 0.10901
0.16648 0.03569 -0.06668
0.21842 -0.20115 0.21428
-0.17178 0.21758 -0.14104
0.01579 0.03596 -0.20690
-0.04548 0.00473 0.16576
0.01526 0.01784 -0.21639
-0.19345 0.16892 0.05607
0.20261 0.01216 0.02060
-0.17140 0.18660 0.11849
-0.19747 0.10516 -0.06978
-0.04893 -0.36313 0.19436
-0.10595 0.01273 -0.10179
-0.09920 0.01211 -0.18374
-0.21322 0.35675 0.14067
0.08866 -0.36287 -0.17966
-0.18077 0.31464 -0.20014
-0.19384 0.27834 0.14562
0.17428 0.03601 0.14643
0.21462 0.01929 -0.14785
-0.17373 -0.00309 0.00210
-0.04476 0.21092 -0.19707
-0.21460 0.30166 -0.08697
0.21735 -0.19252 -0.21067
0.24062 0.02225 -0.09341
-0.09005 0.00201 0.15935
-0.20547 0.01392 0.07547
-0.00293 0.00827 0.19875
-0.18160 0.16718 -0.05528
0.16197 -0.36193 -0.21098
0.01083 0.02273 0.13589
0.05522 0.02652 0.03005
-0.22836 -0.00055 -0.03759
0.04674 0.20909 -0.20222
0.22039 -0.00264 0.19043
0.21407 0.01942 0.12726
-0.23371 -0.34737 0.14186
-0.00849 0.00969 -0.18374
0.17864 0.02148 -0.05720
-0.21309 0.32371 -0.05948
-0.24536 0.36690 -0.00719
0.22580 -0.05931 0.21271
-0.20730 0.06069 0.04364
0.16919 0.02072 0.09940
0.15751 0.01978 -0.00909
-0.17723 0.10581 -0.11581
-0.19695 0.32904 0.15249
0.20483 -0.00635 -0.12934
-0.22053 -0.36534 0.12869
-0.17189 0.19662 0.16992
-0.18123 0.11184 -0.08756
-0.20297 0.29508 0.04020
0.21901 0.00873 -0.05993
0.07910 0.15080 -0.20540
0.10267 0.03058 -0.06976
-0.20718 -0.01316 -0.05959
0.20165 0.03712 -0.19131
-0.23705 -0.35799 0.05880
-0.22715 0.32624 -0.05588
-0.19911 0.11558 -0.01332
0.22506 0.01685 -0.13975
-0.21082 0.05339 0.01704
0.03346 0.07249 -0.21607
-0.21564 0.34789 0.10907
-0.09787 0.00153 -0.01562
0.02238 0.01522 0.01282
0.19901 0.00762 0.11674
-0.19188 -0.00307 0.07867
-0.18489 0.12804 -0.13104
-0.22079 0.35637 -0.17489
-0.00929 0.00693 -0.00135
-0.22784 -0.34431 -0.12432
0.22599 -0.07806 0.21696
-0.15333 0.17156 0.18082
0.03979 0.01030 0.06145
-0.22418 -0.36707 -0.12109
-0.22886 0.33862 -0.08991
-0.02974 0.01925 -0.13489
-0.17627 -0.00325 0.05796
-0.23473 -0.36319 0.12376
-0.01839 -0.35241 0.19628
-0.18782 0.23808 0.13173
0.01539 0.01672 -0.16097
0.13909 0.02586 -0.19600
-0.17363 -0.00308 -0.04774
0.17291 0.01369 -0.01854
0.19576 -0.35527 -0.20246
0.16532 -0.00705 0.01245
-0.18432 0.21551 -0.06480
-0.17244 0.16202 -0.11959
0.23855 0.01659 0.11772
0.16897 0.00531 -0.00187
0.20184 0.01262 0.08564
-0.08513 0.01452 -0.15752
0.00437 0.04620 0.22530
-0.15667 0.00839 -0.15242
0.16084 0.02005 0.12952
-0.14722 -0.00148 -0.07992
-0.16212 0.25644 0.18700
0.17174 0.03591 -0.14362
-0.20528 0.28084 0.09454
-0.20126 0.04702 -0.11937
-0.20219 0.23114 0.00538
-0.08075 0.01489 -0.14956
-0.20991 0.31216 -0.04285
0.22944 -0.24968 0.22102
-0.19134 0.24365 -0.13076
0.01596 0.00847 0.05494
0.08937 0.01429 -0.15532
0.13360 -0.00706 -0.01348
0.21327 -0.14994 0.21318
0.20986 0.02005 0.02932
-0.20163 0.24795 -0.07028
0.22855 -0.10485 -0.21840
0.21964 0.00649 0.08602
-0.19555 0.20607 -0.06566
-0.15486 -0.36355 0.19406
-0.15693 0.19699 -0.21630
0.20324 0.01297 0.17022
-0.05382 0.01719 0.14016
-0.16771 -0.34425 0.18707
-0.18698 0.10281 -0.04485
-0.21455 -0.36430 -0.15988
-0.18392 0.32244 0.18725
-0.17724 0.20534 0.09355
0.21635 0.01132 0.17426
-0.21411 0.28463 0.00987
-0.18874 0.26464 0.15096
-0.19777 0.18883 -0.00693
-0.21348 0.03609 0.04744
0.21391 -0.10140 -0.22180
-0.06539 0.00351 -0.03699
-0.19502 0.03424 -0.10829
-0.12617 -0.00019 -0.16658
-0.17846 0.25001 -0.18491
-0.16293 0.00786 0.02051
-0.06770 0.01601 0.12058
0.07601 0.16591 -0.21303
0.16452 0.03561 0.14201
0.16146 0.03549 -0.18892
-0.20466 0.07654 -0.03244
-0.17819 0.11559 0.09179
0.02484 0.02392 -0.11459
-0.11101 0.01230 0.13650
-0.19530 -0.01502 0.01210
-0.01108 0.02085 -0.10797
0.22609 0.03247 -0.11908
-0.19659 0.21332 0.05405
-0.22131 0.33929 -0.03583
-0.09259 0.20980 -0.20038
-0.21776 -0.00627 -0.00017
0.02175 0.05210 -0.21427
-0.16879 0.27520 0.20045
-0.03245 0.01902 0.16107
0.10800 0.03104 -0.12888
0.00336 0.20667 -0.22524
0.11316 0.01621 -0.18502
-0.18392 0.21889 -0.14660
-0.22499 0.00674 0.04127
-0.11397 0.01205 -0.01642
-0.17909 0.13842 -0.14711
0.09948 0.01511 0.12989
-0.19467 0.28800 0.15259
-0.06068 0.01661 0.02235
-0.22057 -0.00312 0.01736
0.03339 -0.00085 0.01897
0.20217 -0.02900 0.20463
-0.14000 0.00982 0.12175
-0.11731 0.01176 -0.15996
-0.20708 0.30031 0.11733
0.08849 0.11832 -0.22357
0.19301 0.03677 0.08825
0.15620 -0.35127 0.20718
-0.10619 0.20814 -0.21481
-0.19525 0.09996 0.08122
0.20174 -0.00408 0.11593
-0.12513 -0.00013 -0.07859
0.10075 0.03042 0.12193
0.16598 0.03567 -0.17698
0.21461 -0.34036 0.21924
-0.18531 0.27490 -0.13454
-0.16778 0.20164 0.13810
-0.16430 -0.36558 0.18085
-0.11108 0.01229 0.12743
-0.20900 0.04693 0.06533
0.03746 0.07899 0.21189
0.01421 0.21293 0.22585
0.05719 0.01170 -0.01089
0.12172 -0.00717 -0.00910
0.15720 0.01976 0.10504
-0.09222 0.01391 -0.00635
-0.10707 0.01264 0.07875
0.02159 0.08377 0.20376
0.22264 0.01742 0.07808
-0.16092 0.19042 0.19769
0.04238 0.08404 -0.20698
0.08585 0.02914 -0.14838
0.22804 0.01616 -0.18734
-0.19013 0.22737 0.11207
-0.01741 0.00644 -0.12737
-0.10921 0.00084 -0.01874
-0.15043 -0.00167 0.11353
-0.03084 0.01332 0.02137
0.21984 0.00442 0.05643
-0.15940 0.19906 0.16789
-0.18556 -0.01364 -0.08049
-0.00510 -0.36437 0.17944
-0.13490 0.01026 0.05750
0.19467 0.02160 0.14841
0.20442 0.02087 0.10708
-0.18284 0.13360 -0.05645
-0.19481 0.14553 -0.05889
-0.02586 0.00592 0.09128
0.21788 0.03408 -0.01435
-0.23706 -0.35375 0.05021
0.10067 0.02220 0.18108
0.13719 0.03354 -0.06546
0.07331 0.02807 0.03623
-0.18643 -0.00478 -0.07779
-0.00842 0.01472 -0.00861
0.16008 0.02042 0.19441
-0.18704 0.00579 0.10845
-0.19065 -0.36622 0.18894
-0.18988 0.09074 -0.02827
-0.21266 0.36357 0.15742
0.16748 0.01531 0.01322
0.23676 0.02698 -0.03088
-0.19941 0.30438 -0.10899
0.08456 0.14788 0.22978
0.04710 0.02583 -0.15422
-0.14720 0.00920 0.11935
0.08815 0.16644 -0.22998
0.01610 0.02318 -0.07490
-0.04126 0.21578 -0.20997
0.20080 -0.00291 0.06385
-0.19847 0.33568 0.20276
0.11188 0.01611 -0.00967
0.07725 0.01332 0.01625
-0.18271 0.29142 0.15123
-0.16509 -0.36736 0.18608
-0.21609 -0.35360 0.07823
-0.03039 0.21373 0.19781
-0.19906 0.05133 -0.00180
-0.23420 0.35543 0.09949
-0.17848 -0.01225 0.05456
0.20606 0.03640 0.11748
-0.12191 0.00007 -0.05933
-0.16850 0.00738 0.07229
-0.22265 0.33608 0.10973
-0.22405 0.35142 -0.07391
-0.18531 0.28744 0.18407
-0.19700 0.04077 0.07162
0.19585 0.03688 0.19278
-0.21220 0.35936 0.19692
0.05300 0.02633 -0.05409
0.13432 0.03329 0.11064
-0.18702 0.11041 -0.01396
-0.21649 -0.35946 -0.03445
-0.15726 0.19753 -0.18562
-0.01922 0.00633 0.01952
-0.08802 0.20361 -0.19483
0.12760 0.03271 0.07133
0.01756 0.02330 -0.06833
0.12533 0.02901 0.18554
0.02517 0.00913 0.04854
-0.21905 0.02444 0.02981
-0.07333 0.00303 0.12868
-0.16040 0.15777 0.15800
0.10706 0.01572 -0.04463
-0.18953 0.31654 -0.17396
-0.18808 -0.34503 -0.18285
-0.01388 0.02061 0.01764
-0.19842 -0.00158 0.07439
-0.15982 0.24464 -0.20857
-0.20485 0.02805 -0.03954
-0.08605 -0.35122 -0.19739
-0.22071 0.31264 -0.07122
0.06438 0.20346 -0.22865
0.12858 0.03280 -0.06354
-0.16898 -0.00809 -0.09897
-0.19798 0.12662 0.00728
-0.20347 0.03089 -0.04411
0.13810 0.01822 0.03995
-0.19641 0.15269 0.01556
0.05240 0.10915 0.22798
0.00853 0.02883 0.22332
-0.12990 -0.34547 0.18170
0.16795 0.02062 0.17033
0.08567 0.01400 -0.14692
-0.07612 -0.36570 0.19172
-0.12763 0.01088 0.01510
-0.18085 0.00633 0.09759
-0.19914 0.10212 0.04390
-0.02019 -0.34442 -0.18995
0.00115 0.02190 -0.13295
0.03795 0.02505 -0.16906
-0.18415 0.21806 0.05641
0.21642 -0.11103 0.22107
-0.20541 0.33214 0.12150
0.02602 0.08626 0.22651
0.11607 0.01645 -0.06091
-0.17162 0.14002 0.13841
-0.18544 0.12063 -0.02163
0.07685 0.15695 -0.22059
-0.21579 0.31974 0.11111
-0.21119 0.32068 0.05515
-0.22396 -0.34456 -0.11934
-0.21347 0.30803 0.10014
-0.22680 -0.36737 0.06224
-0.19739 0.28965 -0.08711
0.01111 0.00988 -0.18374
-0.18361 0.17028 0.01077
-0.19635 0.17639 -0.03464
0.01924 0.06266 0.22613
-0.01600 0.01450 -0.01029
-0.18111 0.23025 -0.10491
0.05435 -0.00071 0.00029
-0.18323 0.18566 0.03695
-0.00971 0.19845 -0.19932
0.23232 0.02954 -0.13154
-0.07575 -0.35859 -0.17780
0.19035 0.02178 -0.08312
-0.23126 0.36539 -0.07337
0.15854 0.03536 -0.11096
-0.16116 0.20088 -0.19508
-0.19268 -0.00508 0.03243
-0.19582 0.11497 -0.07114
-0.04108 0.00499 0.11499
-0.19926 0.28696 0.05290
0.03634 0.01003 -0.05944
-0.23489 0.34087 0.02342
-0.17201 0.24169 0.18914
0.03901 0.19310 -0.20977
-0.07762 0.01516 0.03701
-0.20216 0.22931 -0.00345
-0.06816 0.01597 -0.13148
-0.01476 0.02054 -0.07299
-0.19063 -0.35145 0.17505
-0.17590 -0.01175 0.00549
0.18555 -0.34647 0.21711
0.08778 0.01477 0.01393
-0.18185 -0.00383 0.01850
-0.07065 0.19386 0.19905
0.21905 -0.34971 -0.20290
-0.11003 0.00079 -0.00398
0.18703 0.03652 0.18997
-0.19425 0.06867 -0.01871
-0.16425 0.00775 0.02928
-0.15645 0.00841 0.09377
-0.03934 -0.35755 0.19662
-0.02770 0.01943 0.16203
-0.18927 0.19854 0.09786
-0.16417 0.24843 0.17519
0.07191 0.02795 -0.01756
0.20311 -0.04453 0.21097
0.03244 0.08625 -0.22687
0.13612 0.03344 0.06419
-0.07194 0.21245 0.19640
-0.21538 0.34216 -0.16799
0.00212 0.21578 -0.21611
-0.21764 -0.34422 0.16547
-0.18552 0.14923 0.10998
0.15052 0.03468 -0.15616
-0.10268 0.01301 0.04423
0.11656 0.01648 -0.00224
-0.17110 0.21088 -0.18793
-0.22546 0.36705 0.15774
0.06302 -0.00090 -0.02041
-0.07289 -0.34704 0.17961
0.12920 0.03285 0.01746
-0.20194 0.03982 0.00765
0.07261 0.13286 0.21887
-0.18780 0.17504 -0.11077
-0.13566 -0.35158 -0.17817
0.15515 0.01959 0.02843
-0.03472 0.01883 0.04363
0.03722 0.10400 -0.21626
-0.16010 0.14797 -0.17194
-0.12263 0.01131 -0.17428
-0.18324 0.18758 -0.04714
0.15193 0.01296 -0.01789
0.09174 0.17476 0.23018
0.11847 0.03193 -0.06922
-0.02382 0.01976 0.07742
-0.16300 -0.00244 -0.04232
0.19878 0.00180 0.15892
0.04031 0.10565 0.21232
0.10225 0.01533 -0.14456
0.20417 0.02090 -0.20441
-0.17377 -0.00309 0.05015
-0.20496 0.34911 0.20237
0.05989 -0.34506 -0.19183
-0.20869 0.31396 -0.06845
0.00487 0.20124 0.20007
-0.18165 0.21385 -0.08361
0.03697 0.20343 -0.22712
-0.20535 0.33253 -0.13502
-0.22612 0.00503 0.03134
0.04538 0.01075 -0.04173
0.08187 0.19677 0.20477
0.06574 -0.35675 0.19669
0.04990 0.02607 0.08072
-0.16875 0.14617 -0.17393
0.18196 0.02175 -0.09813
0.10265 0.01536 -0.01362
-0.19745 0.05558 0.01566
0.03430 0.00814 -0.02087
0.22746 0.03220 -0.13560
-0.06479 0.01626 0.09241
-0.16841 0.29012 -0.20854
0.01128 0.00819 -0.15645
-0.18049 0.21453 0.14544
-0.18711 0.26713 0.10347
-0.02627 0.00590 0.15128
-0.19521 0.16484 -0.04447
-0.08454 0.00235 -0.04338
-0.21763 0.35347 -0.12447
-0.22569 -0.34426 0.08087
-0.08789 0.01428 0.02451
-0.16587 0.26367 -0.19435
0.06012 0.02694 -0.01372
-0.18275 -0.00396 0.06001
-0.20006 0.21747 0.00568
0.08909 0.15624 0.20583
0.00459 0.03779 -0.20389
-0.15509 0.22248 0.19820
-0.19626 0.11216 0.05946
-0.22610 0.34772 -0.00649
-0.19760 0.35409 0.19179
0.07922 0.15741 0.20525
-0.19723 0.13698 0.01504
-0.07227 0.21241 -0.19758
0.02886 -0.36228 0.17777
-0.17384 0.14259 -0.11755
0.08191 0.02881 0.06454
-0.21902 -0.34756 -0.01576
-0.14890 -0.00158 -0.11087
0.00700 0.00793 -0.03052
-0.22586 0.34904 0.02163
-0.17214 0.00707 -0.03042
-0.14602 0.19251 0.21691
0.01613 0.00848 0.03575
-0.02765 0.01943 -0.09331
-0.21232 -0.00495 -0.03054
-0.16785 -0.34691 -0.19447
-0.21566 0.32415 -0.13202
-0.22581 -0.36731 -0.10237
-0.17038 0.19769 -0.13777
0.19542 0.01086 -0.03899
0.21457 -0.14120 0.20491
-0.22671 0.35288 -0.05525
-0.17912 0.22050 -0.16624
0.09884 0.03025 0.00537
-0.07427 0.00297 -0.17446
-0.14244 -0.36529 -0.18191
0.05624 0.02661 -0.10688
-0.21440 0.32183 -0.02654
0.05563 0.01503 0.00594
-0.19378 0.06967 -0.03172
0.22376 -0.20100 0.22054
-0.00938 0.02100 0.08948
0.05280 0.02130 -0.18423
0.22432 -0.14330 -0.20247
0.17890 0.03619 -0.09221
-0.11850 0.00027 0.04267
0.04415 0.02558 0.02585
0.23484 -0.15451 -0.21115
-0.03562 0.00533 -0.04802
-0.13942 -0.00100 0.12471
0.08672 0.18747 0.21446
0.10235 -0.34758 -0.19520
0.15038 0.01921 -0.10213
0.15417 0.01951 -0.03856
-0.01142 0.00680 -0.14622
-0.20369 0.25584 -0.06773
-0.16447 0.17072 -0.15603
-0.22445 -0.00453 0.01439
-0.21346 0.28814 0.04135
-0.07012 0.01580 0.06931
0.09848 0.16709 0.21520
-0.19089 -0.00366 0.06747
-0.21588 -0.00581 -0.10111
0.07397 0.13857 0.22918
-0.16846 0.00739 -0.08990
0.22410 0.02838 -0.20459
0.11653 0.03177 0.06759
-0.16820 0.24373 0.20035
-0.20095 0.22238 0.00099
-0.20477 0.02977 -0.11580
-0.07485 0.00294 -0.03243
0.21281 -0.00057 0.03238
0.09523 0.01477 -0.00473
-0.07366 0.00301 -0.06402
-0.18469 0.21060 0.03927
0.15036 0.01920 0.08396
-0.15054 0.00892 -0.13185
-0.19768 0.29791 0.09237
0.17921 0.02153 0.08040
0.03954 0.01028 0.15352
-0.18857 0.22654 -0.02223
-0.16069 0.16134 0.19904
-0.19251 0.10362 -0.10805
-0.17869 0.12786 0.08200
-0.21658 0.32757 -0.02495
0.08661 0.01550 -0.18681
0.05269 0.09655 -0.22800
0.19336 -0.36368 -0.22006
0.06079 0.02700 0.03287
0.15999 0.01998 -0.16167
-0.04813 0.01768 0.02477
-0.00538 0.00592 -0.02247
0.07798 0.02847 -0.17690
0.08430 0.15667 -0.22976
-0.19163 0.26776 0.14306
0.15488 -0.34546 -0.19147
-0.05840 0.21428 -0.20717
-0.16614 0.16509 -0.14800
-0.19181 -0.01487 0.08021
0.24370 -0.24741 0.21025
0.03807 -0.36701 0.18388
0.13766 0.03358 -0.17721
0.05983 0.01272 -0.18457
0.15648 0.03519 0.14578
0.14102 0.01845 -0.14606
0.18478 0.00777 -0.00659
-0.08333 0.00242 -0.14418
0.21812 -0.00208 -0.11674
-0.17579 0.10654 0.11151
-0.19195 0.00538 -0.04301
-0.01770 0.00642 -0.06043
-0.12201 0.01136 -0.16409
-0.16595 0.17599 -0.19680
-0.19535 -0.34462 -0.18816
0.02661 0.02407 0.03772
-0.20736 0.34554 0.14236
0.18707 0.02192 -0.06878
-0.21259 0.35942 -0.16156
-0.08932 0.01416 -0.01462
-0.17680 0.23544 -0.13229
0.12412 0.01709 0.10787
0.07370 0.01580 -0.01086
-0.21291 0.00637 0.02007
-0.16182 0.17370 -0.16656
0.22673 0.03235 -0.18387
-0.04695 0.01778 0.17334
-0.19762 0.13654 -0.01390
0.00272 0.00005 0.01934
0.08431 0.17731 0.20506
0.20355 0.03689 0.05182
-0.18052 0.16891 -0.14445
-0.22399 0.36006 -0.10748
0.02392 0.02384 0.10729
0.14009 0.03378 0.04856
-0.17145 0.20814 -0.13625
0.09839 0.03022 0.06414
-0.01939 -0.00708 0.01743
0.07839 0.01837 0.17839
-0.06692 -0.36593 0.18142
-0.19991 0.10845 -0.02454
0.04551 0.01076 -0.00442
0.19317 0.01205 -0.01329
0.17554 -0.36627 0.21195
-0.16399 0.19961 -0.20642
-0.18059 0.21767 0.08357
-0.21488 0.33949 -0.10084
-0.23186 0.36631 -0.11615
0.23913 0.02433 0.07894
0.19099 0.02175 0.03625
0.10887 0.01586 0.08641
0.21184 0.03526 -0.01770
-0.16253 0.15898 0.19340
0.01792 0.01758 -0.16877
-0.18753 0.06872 -0.09753
-0.19050 0.15421 -0.09210
0.05504 -0.34422 -0.18742
-0.21990 0.30178 -0.01414
-0.00023 0.19738 0.20461
0.22450 -0.14704 0.22163
-0.17490 0.18230 0.15728
0.23462 -0.34267 0.21682
0.23649 -0.17681 -0.21612
-0.07112 0.21270 0.21655
0.08974 -0.00427 0.00262
-0.19446 0.26565 -0.05590
-0.07425 0.19349 -0.21261
0.05804 -0.36346 -0.19559
-0.00510 0.01200 0.18855
-0.21129 0.33127 -0.09951
-0.22905 -0.34452 0.01745
-0.08359 -0.35766 0.17615
0.11389 -0.34426 0.18718
0.11487 0.01635 -0.14277
0.05574 0.20672 -0.22665
0.21224 0.01970 0.20650
-0.19596 0.33865 -0.18330
-0.19582 -0.01494 0.03938
-0.18587 0.11299 0.02545
0.21170 0.03529 -0.08624
0.11572 0.03170 0.00280
0.00735 0.07032 -0.21643
0.22030 -0.00152 -0.18606
0.18421 0.03641 0.00192
0.15216 0.03482 -0.16769
0.03959 0.02519 -0.12744
-0.02007 -0.34442 0.18847
-0.14981 -0.36058 -0.17841
0.13387 0.03325 0.05343
-0.16123 -0.00233 -0.09285
-0.18052 0.28233 0.15017
0.23468 -0.29220 -0.20275
-0.18256 0.26903 -0.18849
-0.15279 0.20321 0.18820
0.18524 0.03645 -0.18240
-0.21421 0.28364 -0.00294
0.18142 0.02171 -0.17176
-0.19109 0.17762 -0.08997
0.18198 0.02175 0.10476
0.24054 -0.21886 -0.20961
-0.20376 0.26533 -0.08789
0.22036 -0.19213 0.21880
0.00501 0.02726 -0.22250
-0.17828 0.24065 -0.12897
-0.17784 -0.00486 -0.07641
-0.17634 0.22283 -0.12422
0.01200 0.00823 -0.09530
0.24161 0.02088 -0.03113
-0.21833 -0.01141 0.02038
-0.17197 0.18445 -0.17931
-0.17321 0.13258 0.11118
0.01914 0.19738 -0.20440
0.09431 0.01469 0.10558
0.12408 0.03241 0.15536
0.04646 0.19521 -0.20253
-0.14286 -0.00121 0.00236
-0.19351 0.21382 0.07961
0.19725 0.03694 0.06272
-0.15643 0.00841 0.06523
-0.19798 -0.00244 0.09393
-0.07934 0.00266 -0.08768
-0.18849 -0.00277 -0.09745
-0.22658 0.32992 0.06656
-0.21702 -0.36088 0.01121
0.19119 0.03669 0.03813
-0.10258 0.01302 0.15616
-0.07727 0.00279 0.08160
-0.20049 0.28065 0.00605
0.23078 0.01552 0.13570
0.01711 0.00854 0.02958
0.21890 0.00040 0.05346
-0.19063 -0.00347 -0.08051
-0.02896 0.00573 -0.03241
0.21080 -0.12379 -0.21471
-0.19138 0.05036 0.09223
0.01716 -0.34643 0.19248
-0.19626 0.16207 0.00371
-0.17835 0.00654 0.05440
0.09683 0.15583 0.21380
-0.21094 0.05220 0.02391
-0.18212 0.16986 -0.05000
-0.19737 0.07922 -0.10107
0.12398 0.03241 -0.16625
-0.03473 0.00538 -0.03253
0.22681 0.01645 0.18485
-0.20765 0.06370 0.03011
-0.20242 -0.35321 0.16837
-0.17786 0.28976 0.20194
-0.21730 0.02024 0.06708
0.04885 0.01103 -0.12324
0.01378 0.08215 -0.22385
-0.01413 0.02059 -0.15707
-0.13840 -0.36614 0.19098
-0.18427 0.24532 -0.16171
0.08404 -0.34618 -0.19368
0.23013 0.02492 -0.17590
0.22052 -0.21280 0.21653
0.01390 0.21578 -0.21026
0.11370 -0.35748 -0.17760
-0.20103 0.28769 0.12616
-0.20936 -0.35501 -0.16239
-0.12001 0.00018 0.03648
-0.03378 -0.35911 0.17647
-0.01515 -0.35402 -0.17760
-0.23024 0.36578 -0.10269
0.21502 -0.05100 -0.20244
0.22877 -0.30232 -0.20793
0.22967 0.03107 0.15718
-0.19680 0.17965 -0.02451
-0.19353 0.03729 0.10133
0.21331 -0.13384 -0.21847
0.21496 0.03465 0.03156
0.12460 0.01713 0.09182
-0.18571 0.23472 -0.07745
-0.17281 0.30104 -0.20726
-0.19207 0.20144 0.08011
0.17086 -0.34902 0.21408
0.21124 0.01985 0.20129
-0.12105 0.19160 0.21830
0.18577 0.03647 0.09671
-0.19506 0.06226 -0.12252
-0.03656 0.00527 -0.09327
-0.22460 -0.36718 0.00606
0.22876 -0.24559 -0.22238
-0.02910 0.01931 0.03901
-0.19351 0.28919 -0.17008
0.09897 0.01727 0.18094
0.00549 0.00783 0.12141
-0.17735 0.11841 -0.10589
-0.20448 0.08123 0.00102
-0.20229 0.31858 -0.17890
-0.19447 0.20407 -0.07578
-0.16775 0.25583 0.17019
-0.17401 -0.00311 0.13472
-0.15871 0.16962 -0.17597
-0.18640 0.22658 -0.05993
-0.13941 -0.00100 -0.04541
0.02186 0.02367 -0.16399
-0.21714 -0.34925 0.14473
-0.23121 0.34341 0.07836
0.00905 0.00805 0.10074
-0.12249 0.20006 0.19299
-0.18605 0.10353 0.04461
0.22043 -0.04077 -0.21989
0.20595 -0.00423 0.02443
-0.06560 0.00350 -0.06816
-0.21435 0.32134 -0.01708
0.14006 0.01838 0.07319
0.19333 0.02165 -0.04221
0.20749 -0.02585 -0.21826
0.22703 0.01639 -0.12508
0.12854 0.01745 -0.14049
0.04464 -0.34964 -0.17905
-0.20628 0.31789 -0.09896
0.16376 0.02028 -0.13264
-0.19528 0.29446 0.09928
-0.20972 0.01446 -0.04037
-0.12876 -0.00035 0.01399
-0.16065 -0.00229 0.10063
0.23075 0.02166 0.16675
0.04506 0.00396 -0.00075
0.01465 -0.35223 0.17653
-0.15100 0.20089 0.19753
0.01835 0.04649 0.21708
0.05682 0.09990 -0.20535
-0.07235 0.00309 0.11579
0.21089 -0.00058 0.20245
0.18170 0.03631 0.03621
-0.00815 -0.35002 -0.19682
-0.21883 -0.36374 -0.07497
-0.22591 0.35740 0.07071
-0.22586 -0.34888 0.16956
-0.20389 0.31753 0.10051
-0.23307 -0.34663 0.01290
0.03838 0.01019 0.05456
0.23257 -0.13547 -0.21609
0.19854 -0.00240 0.04352
-0.17164 0.00711 0.14835
-0.20320 0.02648 0.05544
0.22212 -0.03154 0.21375
-0.18313 0.17419 0.02681
-0.16644 0.17323 -0.14854
-0.17402 0.00691 -0.08852
-0.02645 0.00589 0.10168
-0.00015 -0.36170 -0.17895
0.22692 -0.31256 -0.21022
0.06404 0.10116 0.22863
0.12899 0.01749 -0.15973
-0.24604 0.36645 0.04825
0.00970 0.00809 0.00479
-0.22247 0.34054 0.00586
-0.07747 0.00278 -0.10239
0.09910 -0.34618 -0.18201
0.22638 -0.31719 0.21472
-0.20786 0.06350 -0.03904
0.10329 0.01542 -0.10668
-0.19880 0.22088 -0.05362
-0.05315 0.00426 -0.14573
-0.00988 0.19738 0.20811
-0.18511 0.21666 0.04453
0.24109 -0.26419 0.21960
0.15246 0.01580 0.00994
-0.16749 0.27574 0.18666
0.03559 0.00997 -0.14841
-0.15502 0.00854 0.17050
-0.17304 0.20693 -0.17982
-0.09618 -0.36428 0.17934
-0.17548 0.18023 0.09640
0.14341 -0.00495 0.00335
-0.19623 0.15102 0.02506
-0.19255 0.28227 0.09455
-0.00387 0.01656 0.16661
-0.21262 0.04642 -0.02969
-0.14177 0.18595 0.21715
-0.18319 0.19953 0.04460
-0.21628 -0.00591 0.01296
-0.07991 0.19955 -0.19538
-0.19476 0.27312 -0.07338
-0.20223 -0.01394 0.04696
0.20647 0.02056 -0.15172
0.20450 -0.00617 -0.11807
0.20774 -0.00727 0.10333
0.08052 0.10655 -0.22426
-0.19545 0.19610 -0.06078
-0.14814 0.20261 0.20117
0.09305 0.01459 -0.03089
-0.18722 0.24868 0.07242
0.07516 0.16747 0.21217
0.20982 -0.00736 -0.13977
-0.20006 0.33209 -0.20337
-0.20317 0.27211 0.09303
-0.16806 0.00742 0.16287
-0.18424 0.17711 -0.00324
-0.08796 0.21054 0.21931
-0.18024 -0.01260 -0.05476
0.19260 -0.35472 0.20100
0.10898 0.03112 0.16911
-0.10707 0.00097 0.09402
-0.10355 -0.34956 -0.17909
0.02681 0.00926 -0.15741
-0.18504 0.24043 0.07803
0.13712 0.01814 0.14772
-0.21689 -0.01164 -0.01142
-0.01337 0.19738 -0.22222
-0.18818 0.25228 -0.08157
0.24477 -0.28507 -0.21950
0.01775 0.00858 -0.02122
-0.20253 0.30029 0.06457
-0.01281 0.00672 0.01193
-0.07050 0.21279 -0.21776
-0.15307 0.15996 -0.20731
0.19928 -0.00380 -0.18651
-0.15725 0.00834 -0.05460
0.19854 0.00373 -0.08831
-0.06260 0.01644 0.14182
-0.18841 0.25716 -0.08984
-0.12237 0.00004 -0.05209
-0.20064 0.28968 0.04631
0.12764 0.01738 -0.06724
0.15165 0.01931 0.16449
0.06639 -0.34778 0.19388
0.12634 0.03261 0.01072
-0.18382 0.32208 0.20292
0.09081 -0.35135 -0.19745
0.21452 0.03474 0.15235
-0.21651 -0.35952 -0.08473
-0.22553 -0.34428 -0.06725
-0.19873 0.22937 0.05843
0.17330 0.02105 -0.12880
-0.19032 0.19316 0.08941
-0.19697 0.33727 0.16578
-0.17980 0.18130 -0.07913
0.21508 0.01389 0.09870
-0.19730 0.03125 0.08754
-0.15788 -0.00213 0.07468
-0.13430 0.01031 0.16716
0.01711 0.02326 0.14781
-0.12801 0.01085 -0.00048
-0.12819 0.01083 0.06799
-0.19562 -0.01002 -0.10820
-0.15037 -0.34446 0.18862
-0.18012 0.14495 0.06599
-0.15624 0.18286 0.21570
0.00327 0.06233 0.20654
-0.17922 0.30206 -0.18900
-0.03438 0.01886 -0.10406
-0.19018 0.17209 0.08268
-0.20682 -0.00362 0.00134
-0.12890 -0.00036 -0.04362
-0.19181 0.31188 -0.15821
0.17332 -0.36602 -0.21275
-0.18278 -0.00396 0.03317
-0.15369 0.00865 -0.00574
-0.17633 0.17742 -0.10238
-0.10333 0.19844 -0.21929
-0.22873 -0.36715 0.05755
0.05057 0.19114 -0.22788
-0.18893 0.22496 0.11623
-0.19798 0.05546 0.00380
0.00939 0.02260 -0.06633
0.04990 0.02607 0.08789
-0.16977 0.14614 -0.13552
-0.16900 0.17974 0.17610
0.02826 0.00863 -0.02074
0.07183 0.01288 0.09660
-0.02998 -0.35219 0.19622
-0.19481 0.13413 0.05419
-0.18588 0.00472 -0.12481
-0.16989 0.17723 0.12318
-0.02264 0.00612 -0.12176
-0.22608 -0.36731 0.14564
-0.19671 0.32778 -0.20792
-0.18158 0.26496 0.17630
0.11204 0.01612 -0.05651
0.00736 -0.35538 -0.17748
-0.06496 0.00354 -0.13647
0.20994 0.03564 0.00229
-0.16833 0.00740 0.13415
-0.09453 -0.34667 -0.18148
-0.18092 0.19223 0.06364
0.12097 -0.34428 -0.18884
-0.13015 -0.00044 0.08488
0.10081 0.03042 -0.05960
0.03779 0.02503 0.10748
0.01170 0.00050 0.16077
0.18120 0.03629 -0.19276
0.17949 0.03622 -0.18390
0.02333 -0.34419 0.18655
0.01399 0.02300 -0.14078
0.06431 0.01228 -0.17965
0.08687 0.11879 -0.22990
-0.07551 0.01534 0.01947
0.22885 -0.15337 0.22062
-0.06764 0.00338 -0.11004
-0.21237 0.27798 -0.02138
0.07578 0.02828 0.07281
-0.22377 0.00068 0.07314
-0.18822 0.13852 0.09992
-0.03809 0.01854 -0.15609
-0.17228 0.00706 -0.10778
0.09602 0.17067 -0.22206
-0.18683 0.25147 0.07867
-0.16287 -0.00243 0.13215
-0.18509 -0.00324 0.11830
-0.18014 0.09007 0.11403
-0.04870 0.00453 -0.11004
-0.18218 0.08683 -0.10624
0.06795 0.11156 0.22885
-0.22293 0.35191 -0.08474
-0.19796 0.06872 -0.11226
0.14655 -0.36171 0.18100
-0.12919 0.01075 -0.06070
-0.06301 0.01641 -0.01239
-0.20559 0.02827 0.00616
0.23292 -0.32776 -0.20256
0.21348 0.03494 0.02105
0.06821 -0.36598 -0.18297
-0.00483 0.01574 -0.01207
-0.22410 0.34995 0.05622
0.21561 0.03452 0.12888
-0.10025 0.00582 -0.18374
0.01101 0.00297 0.17456
0.04247 -0.34436 0.18464
-0.21144 -0.00474 -0.09337
-0.22773 0.35986 -0.15342
0.20696 -0.07618 0.21544
-0.16875 -0.36670 -0.18442
-0.00174 0.00739 0.01912
-0.12598 -0.00018 -0.10742
-0.23157 -0.36598 0.12076
-0.04988 0.01753 -0.11162
-0.19446 0.18798 0.05575
-0.20048 0.03389 0.05500
-0.17389 -0.00429 0.02061
-0.09785 -0.36696 0.18374
0.16273 0.02020 0.11453
-0.17799 0.26737 0.14454
0.09984 0.03034 0.03146
0.01787 0.00859 -0.12138
0.19017 -0.00681 0.02243
-0.20861 0.35577 0.20214
-0.19471 0.25823 0.00182
-0.09654 0.01354 -0.15777
-0.14132 0.00971 -0.09322
-0.19063 -0.00511 -0.05551
-0.10850 0.00088 0.06977
-0.13512 -0.36010 -0.19748
-0.17251 0.12641 0.11676
0.20666 -0.00704 0.08107
-0.15017 0.18799 0.19223
0.07227 0.12898 0.21248
-0.07622 0.01528 0.15457
-0.10904 0.00085 0.01063
-0.21953 -0.00494 -0.09646
-0.10309 -0.36407 -0.19512
0.19013 0.03665 0.14225
-0.19637 0.17443 -0.03008
-0.19772 0.20457 -0.03758
0.00197 0.03218 -0.22431
0.21919 0.00815 0.11743
-0.19129 0.34535 0.19712
-0.24182 0.36328 -0.08176
-0.17665 0.00668 -0.03536
-0.11031 0.01236 0.15436
-0.02389 0.21578 0.20319
0.04047 0.21100 0.21791
0.12015 0.01677 -0.03404
-0.14347 -0.35057 0.17715
-0.20949 0.01394 0.03696
0.02389 0.00902 0.07158
0.23816 0.02567 -0.05101
0.20288 0.02110 0.15360
-0.14529 0.20291 0.19167
-0.17537 0.26899 0.15565
-0.19072 0.24968 0.04011
-0.14944 0.00901 0.02269
-0.01695 0.00647 0.15684
0.07497 -0.36721 0.18474
-0.18682 0.23344 0.05375
0.16608 0.02047 0.03248
0.01263 0.05620 -0.20391
0.23572 0.01530 0.13897
0.14544 0.03424 0.11328
-0.19567 0.30380 -0.12789
-0.18511 0.12182 -0.03296
-0.18039 0.18773 -0.07712
0.01434 0.03378 0.20447
0.19549 0.02156 0.06709
0.01628 0.04776 0.20431
-0.19589 0.16908 0.02578
0.17166 0.02092 0.16289
-0.21034 0.31477 -0.14064
-0.13585 0.01018 -0.18170
-0.22938 0.36043 0.13550
-0.18254 0.07209 0.11031
0.21519 0.01916 -0.16583
-0.23594 0.34489 -0.05189
-0.22145 -0.36591 0.01192
-0.11778 0.18777 -0.20356
-0.13202 -0.00055 -0.15685
0.22497 -0.08135 -0.22005
-0.01844 0.19738 -0.21822
0.15442 -0.34920 0.18526
-0.19239 0.11661 -0.09464
-0.19287 0.00058 -0.04519
-0.00767 -0.36736 0.18609
-0.18844 0.14525 0.09725
0.18215 0.03633 -0.01849
0.00468 0.04524 -0.22532
-0.13703 -0.00085 -0.10716
0.07318 0.02806 -0.15155
0.18665 0.02194 -0.05044
-0.04469 0.01797 -0.15313
0.14066 0.03383 0.11542
0.10749 0.03099 0.17674
0.20885 0.03585 -0.19981
-0.07402 0.00299 -0.13961
0.23626 0.01442 0.06465
0.08962 0.02947 0.08460
-0.18358 0.14475 -0.13211
-0.12481 0.18695 0.21643
0.16804 0.03576 0.05167
-0.16949 0.22757 0.18981
-0.19194 0.07852 -0.01689
0.21770 -0.13492 0.20199
-0.23910 0.36605 -0.02002
0.06634 0.01244 -0.17472
0.21661 0.00564 -0.19132
-0.23408 -0.34754 0.09442
0.14533 0.01880 -0.13662
-0.19401 0.27488 0.07267
-0.11303 0.00061 -0.06128
-0.04107 -0.34735 0.19348
0.19073 0.03667 -0.05100
-0.18396 0.20132 0.12529
0.19454 0.02160 -0.03185
0.13966 0.01834 0.04808
-0.18216 0.19634 0.13203
0.16130 0.02009 0.05165
-0.19767 0.05253 0.02941
-0.18263 0.17406 -0.04576
-0.06431 0.01630 -0.12404
0.05850 0.01014 -0.02002
0.03439 0.02474 -0.08512
-0.22244 0.35422 -0.16468
-0.23079 0.36721 -0.15074
0.01353 0.02296 -0.16130
0.22067 0.03353 0.05144
-0.05641 0.00406 0.01806
0.05582 0.02657 0.06427
-0.12353 -0.34803 0.17870
0.21651 -0.18520 -0.21392
-0.16755 0.14374 0.13279
-0.17921 0.31625 -0.21219
-0.03566 0.00533 -0.16787
-0.18153 0.13409 0.05750
-0.18698 0.00521 -0.11589
0.01178 0.06500 -0.20366
0.21594 0.03446 0.03748
-0.17896 0.27964 -0.20898
-0.08937 0.01415 0.01418
-0.21791 0.36562 -0.20000
-0.16556 0.18687 0.14331
-0.19281 0.13171 -0.08403
-0.23359 0.36440 -0.02431
-0.19313 0.18078 -0.07668
0.07136 0.01284 0.08856
0.07229 0.13331 -0.22608
0.15683 0.01973 0.14208
0.24017 -0.21097 0.20955
0.21457 0.01423 -0.15477
0.06399 0.20458 0.21968
-0.18735 0.17358 0.10093
0.11621 0.01646 0.11878
0.12523 0.01718 0.13841
0.00233 0.02200 0.07723
-0.19682 0.31010 0.12191
0.20084 0.03708 0.02595
0.22575 -0.11761 -0.22193
0.08472 0.12577 0.22978
0.08458 -0.35751 0.19662
-0.18212 -0.01297 -0.02519
0.01461 0.02305 0.09762
-0.21848 0.30916 -0.07970
0.00529 0.02225 0.03543
0.05865 0.09402 -0.22580
-0.23872 0.35280 0.05402
0.05744 0.20656 -0.20664
-0.16931 0.16279 0.12251
-0.15225 0.18955 -0.19927
0.02547 0.00915 0.13775
-0.17826 0.20607 -0.16088
-0.05401 0.01718 0.16310
0.20001 0.01010 -0.09226
-0.21897 0.34057 -0.15062
0.04808 0.10271 0.20480
0.02316 0.02378 -0.08137
-0.19468 0.05695 0.05203
-0.20558 0.00894 -0.09976
-0.07999 0.21144 0.20046
-0.19926 0.30544 0.15907
-0.01078 0.02088 -0.00770
-0.22892 -0.36708 0.07408
-0.21950 0.02448 -0.02867
0.15426 0.03500 0.13157
0.17273 0.00314 0.02152
-0.15519 0.00852 0.12853
0.11270 -0.00411 0.01689
-0.16520 0.23837 0.16698
-0.20075 0.10086 -0.03656
0.03752 -0.35116 0.19590
0.07523 0.14424 -0.22925
0.00946 0.02769 -0.20420
0.00334 0.00770 -0.04881
-0.17455 0.20603 0.10861
0.00632 0.02281 -0.22077
0.17565 0.02124 0.05896
-0.21627 -0.35291 -0.10628
-0.04437 0.00479 0.09595
-0.20254 0.28839 -0.00625
0.09732 0.03012 -0.11607
-0.19037 0.27723 -0.11107
0.23223 -0.34015 -0.20414
0.08762 0.01415 0.13361
0.06545 0.02740 -0.10018
-0.18372 0.18486 0.02595
0.01498 0.02779 0.22138
-0.21961 0.31700 -0.09287
-0.10005 0.01324 -0.00567
0.18151 -0.00703 0.01194
-0.23211 0.33447 0.01084
-0.12908 0.01075 0.05570
0.13588 0.03342 0.04473
-0.19182 0.22384 -0.11256
-0.18892 0.30103 0.18775
-0.18918 0.09970 0.11460
-0.20225 0.31921 0.16826
0.01983 0.05131 -0.22616
-0.14038 0.20085 0.19197
-0.15752 0.16112 0.16777
0.16857 0.02067 -0.20028
-0.00968 0.00082 0.00166
-0.16386 0.21784 0.19964
-0.05766 0.20023 -0.19660
0.20118 0.01186 0.10800
0.13027 0.03294 0.03652
-0.16411 0.26936 -0.20375
0.05697 0.01169 -0.13117
0.00944 -0.00260 -0.00275
-0.20307 0.33115 -0.14277
-0.03291 0.00549 0.03008
-0.06407 0.01632 0.10243
-0.15813 -0.36459 -0.18114
0.17201 -0.00343 0.00349
-0.18588 0.24019 0.07246
-0.04785 -0.34601 -0.19343
-0.13221 -0.00056 -0.13346
0.00148 0.21067 0.22514
-0.14406 -0.00128 0.08158
-0.05110 0.00438 -0.06685
0.19688 0.03692 -0.07918
-0.22204 0.00747 -0.07842
0.22405 -0.13959 -0.22307
-0.16445 0.18280 0.19091
-0.16822 0.21784 0.14398
-0.18185 0.15111 0.04546
-0.22114 0.31655 0.06907
-0.20319 0.25005 -0.05565
0.23966 -0.23278 0.21821
-0.21749 -0.36183 -0.06757
0.22118 -0.06147 -0.22154
-0.10568 0.01276 -0.16475
0.17882 0.02150 -0.18379
-0.08141 0.01483 -0.08640
-0.20191 -0.01399 -0.05998
-0.23756 0.35370 -0.07907
-0.14556 0.00934 -0.11476
0.09801 0.01499 0.02221
-0.21064 -0.01262 -0.10571
-0.19790 -0.01462 -0.08511
-0.22779 0.35252 -0.02942
0.09213 0.16489 0.20579
-0.18136 0.23111 0.09211
-0.19704 0.09597 0.07298
0.18192 0.03632 0.02876
-0.20740 0.06136 -0.05210
0.03968 0.01029 0.01527
0.08342 0.01266 0.00257
0.10306 0.01540 0.10474
0.06136 0.11348 -0.22848
0.02164 0.20237 0.22626
0.20564 -0.03780 -0.20404
0.21180 -0.09955 0.21901
-0.18626 0.10477 -0.05067
0.01671 -0.36211 -0.17914
0.18952 0.02181 0.14480
0.04349 0.01060 0.11547
0.18685 0.01402 0.02297
-0.19506 -0.00208 -0.09315
-0.21766 0.29543 -0.00316
-0.19422 0.27670 -0.15416
0.05973 0.18775 -0.21593
-0.22585 0.33289 -0.09148
-0.15181 0.00881 0.10060
-0.20892 0.35280 0.15121
-0.16982 -0.00619 -0.08882
0.06740 0.01253 0.00953
-0.11727 0.01176 -0.09502
0.11312 0.01621 -0.17903
0.14142 0.00219 -0.02134
-0.20657 0.31606 -0.09126
-0.05716 0.01691 -0.11346
-0.16734 0.23894 0.20021
0.05116 0.02618 0.03950
-0.09661 0.01353 0.15615
0.01768 0.00453 0.17304
0.13159 -0.00680 0.01280
0.21162 -0.10792 0.21802
-0.24169 0.36495 -0.08927
-0.01813 0.02025 -0.05736
0.13031 0.03295 0.15810
0.03527 0.00987 0.00064
-0.05646 0.01697 0.00761
-0.15009 0.00896 -0.10408
0.24433 -0.25472 0.21291
0.04019 0.02524 -0.01252
-0.21479 0.34218 0.15859
-0.18721 0.07007 0.10989
-0.21710 0.30480 -0.07771
0.00586 -0.36520 -0.19387
-0.11718 0.00036 0.10215
-0.17268 0.18646 0.11249
-0.03808 0.01854 -0.07837
0.07725 0.02841 0.04166
-0.02396 0.19738 -0.20108
-0.23263 -0.36533 0.04172
0.18021 0.00306 -0.00378
-0.12479 -0.35864 -0.19788
0.22338 -0.25295 0.21439
0.06447 0.02731 -0.12287
-0.21485 0.33870 0.15140
0.12960 0.03289 -0.13024
-0.18147 -0.01284 0.03319
-0.17774 0.15796 0.07806
-0.23646 -0.35143 0.01776
-0.17100 -0.01079 -0.01184
-0.19054 0.08905 0.00023
0.22418 -0.32384 0.20638
0.13436 0.03329 0.02192
-0.20511 0.34153 -0.15490
0.20572 -0.00691 0.05103
-0.18159 -0.01286 0.06742
0.08390 0.11875 -0.20642
0.20470 -0.00904 0.17895
-0.16817 0.22863 -0.16301
0.21168 -0.13500 -0.21300
0.11122 0.03131 -0.11104
0.08569 0.01400 0.16098
0.18361 0.02188 0.00613
0.07370 0.02810 -0.12964
-0.08532 0.19195 -0.19770
0.01290 0.07991 -0.21648
-0.13112 0.01058 0.08008
-0.09823 0.19625 0.19443
0.21955 0.00162 0.13348
0.08421 -0.34730 -0.18079
-0.18141 0.08764 0.09936
0.11032 0.03124 -0.03997
-0.14983 0.16728 0.19119
-0.20423 0.01255 0.08876
-0.18861 0.09791 0.01638
0.19824 0.02144 0.10092
0.08032 0.01357 -0.13866
-0.20668 0.27304 -0.08173
-0.18690 0.21936 -0.03706
-0.16882 -0.00844 0.08783
-0.20326 0.24457 0.03291
0.21150 -0.00871 0.17521
-0.01488 0.21471 -0.19865
0.18803 0.02862 -0.21105
-0.03352 0.00546 0.00615
-0.17559 0.24216 -0.18986
0.21510 -0.12403 0.21975
-0.18716 0.32481 0.18077
0.07861 0.20044 -0.22505
0.02157 0.00884 0.02501
-0.18037 0.27581 -0.15569
-0.03921 0.01844 -0.07008
-0.24220 0.36648 0.00334
-0.02650 0.00588 -0.08935
0.23367 0.02602 -0.15247
0.10013 0.01516 -0.04583
-0.19284 0.26453 0.05787
0.22057 -0.09190 0.20118
0.05613 -0.35311 0.17629
-0.21293 -0.01226 0.06213
0.00307 0.02206 0.00658
0.08977 0.12469 0.22435
-0.20024 0.06846 -0.09863
0.18178 0.02173 -0.19633
-0.20315 0.29987 0.05669
-0.19622 0.29714 -0.17010
-0.00960 0.00691 -0.02820
-0.21735 0.03140 -0.01188
0.14418 0.00062 -0.00129
0.09789 0.03017 0.07505
-0.16582 0.24807 -0.20969
-0.04494 -0.36433 -0.19482
0.07823 0.01340 0.06049
-0.19023 0.14964 0.08396
-0.04551 0.00472 -0.02010
-0.04641 -0.34868 0.17821
-0.18300 0.08342 0.09344
-0.21647 0.32998 -0.04527
-0.20151 0.30187 -0.15670
0.02957 0.02433 -0.08474
0.20419 0.02090 0.19579
-0.02084 0.02002 -0.07268
0.23457 -0.34491 -0.21142
0.21554 -0.17568 0.21169
-0.16753 0.22120 -0.20442
-0.08522 0.00230 -0.00430
0.22343 0.03299 -0.17343
-0.19042 0.10053 -0.12007
-0.24310 0.35890 -0.04468
0.05144 0.01124 0.07594
-0.16936 -0.00282 -0.02411
-0.01524 0.02049 -0.09642
-0.18608 -0.01374 -0.10179
0.03650 0.19358 0.22103
-0.18057 0.20306 -0.15133
0.21571 0.01154 0.04541
-0.18440 0.11054 -0.06431
-0.20976 0.34314 0.12571
-0.23608 -0.35062 -0.09640
-0.04744 0.01774 -0.14649
0.21494 -0.03982 -0.22210
-0.22382 0.31376 0.02351
-0.21493 0.32447 0.12455
0.00651 0.01784 -0.17349
0.20971 -0.11141 0.20901
0.05988 0.19511 0.20328
-0.20060 0.10533 0.00554
0.02500 0.00911 0.01657
-0.17900 -0.01092 -0.10820
-0.09043 0.00199 -0.07192
-0.16859 0.13692 -0.14194
0.01284 0.02290 -0.11771
0.00459 0.01784 -0.18527
0.22386 -0.23380 0.20435
0.20595 -0.07452 -0.21341
0.19509 0.01402 0.03100
0.09039 0.12836 -0.22699
0.09824 0.03020 -0.02517
0.18554 0.00936 0.00612
-0.20157 0.23239 0.03037
0.22240 -0.23481 -0.21760
-0.19767 0.12660 -0.03042
-0.18344 0.31686 -0.19428
-0.07631 0.01527 -0.00299
0.02968 0.00949 -0.17919
-0.16556 0.28410 0.19992
0.04724 0.09686 -0.20489
-0.16015 0.24169 -0.19637
0.23411 0.01484 -0.08656
-0.11564 0.18810 -0.21078
-0.18407 0.00605 0.02570
-0.21830 0.30281 0.04389
-0.16170 0.21559 -0.17741
0.02898 0.01421 -0.00592
-0.18776 0.22578 0.02710
-0.22124 0.33948 0.02267
0.05049 0.02612 0.06413
-0.15922 -0.00221 -0.06545
0.21316 -0.09622 -0.20392
0.05764 0.02673 -0.13426
0.16223 0.03552 -0.12667
-0.16204 0.19185 0.21414
-0.18641 0.21668 0.02546
-0.18521 -0.00516 0.02717
-0.17170 -0.00297 0.11569
0.21387 -0.05435 0.20099
-0.21876 -0.00358 -0.07318
-0.18550 -0.01363 -0.09521
0.05433 0.02645 0.16456
0.21864 0.01835 -0.17342
-0.20556 0.27435 0.08037
-0.01102 0.21578 -0.20542
0.07249 0.02800 -0.02358
-0.23361 0.33939 -0.04687
0.21553 -0.11723 0.20224
0.08204 0.01370 -0.07021
-0.21250 0.04279 0.03801
0.23928 -0.33349 0.21742
-0.09727 0.00157 0.07026
-0.21771 0.34191 0.14674
-0.05926 0.00389 -0.11763
-0.07870 0.00270 -0.09682
-0.04304 0.21578 -0.19831
0.21873 -0.00091 0.09435
-0.22097 0.34296 -0.06607
-0.20244 -0.01390 0.00162
0.08117 0.00420 -0.00073
-0.07733 0.00279 -0.04611
0.20440 -0.05355 -0.21576
0.08754 0.17112 0.22994
-0.13978 0.19430 0.21726
-0.18990 0.27867 -0.11567
-0.08760 0.00216 0.11376
-0.21056 0.29848 0.09532
-0.18906 0.06800 -0.08705
-0.22954 0.36456 0.14426
0.21937 0.00092 0.06489
-0.21770 -0.36225 -0.09541
0.22407 -0.20204 -0.20347
0.15480 0.01956 -0.07409
0.24755 -0.29232 0.21433
0.08219 -0.00693 -0.00837
-0.20103 0.02769 -0.08187
0.20467 -0.02741 -0.20045
-0.22348 0.35606 0.08481
-0.19374 -0.01525 -0.07920
-0.21387 0.03695 -0.05187
0.23345 0.02889 0.14016
-0.09324 0.00182 -0.13623
0.17618 0.02128 0.00136
-0.18431 0.18180 -0.01518
0.11811 0.03190 0.18148
0.04322 -0.00709 0.01192
-0.18973 0.06577 0.07583
-0.08939 0.00418 0.17636
0.23009 0.03083 -0.09851
-0.05792 0.01684 -0.04926
-0.18538 0.12773 -0.00025
-0.17960 0.13973 0.13734
0.07517 -0.36591 0.19137
0.10570 0.01561 -0.01834
-0.21693 0.33146 0.03837
0.22395 -0.25502 -0.21693
0.18186 0.03631 0.01037
0.09100 0.12929 -0.21949
-0.19280 0.07390 -0.02387
-0.20062 0.28209 0.01194
-0.15774 0.19914 -0.19104
-0.18281 0.13075 0.04633
0.13748 0.03356 -0.09173
0.10874 -0.36600 0.19122
-0.22242 0.34503 0.04859
0.21733 0.01866 -0.21152
0.22019 -0.32924 0.21430
0.05586 0.11489 -0.22113
-0.14840 0.20268 -0.21569
-0.21952 -0.00669 -0.07956
0.17419 0.03600 0.17982
-0.03684 0.01865 -0.00508
-0.20697 0.35146 -0.21191
0.20566 -0.01607 0.21190
0.02471 0.00909 -0.06621
-0.17485 0.21102 0.11048
-0.01114 0.02085 0.10124
-0.03035 0.21578 0.21729
-0.18110 0.12612 0.06597
-0.16748 0.20077 0.18444
-0.09065 0.00197 -0.01524
-0.21185 0.05122 -0.01206
-0.05689 0.00403 0.09567
-0.02169 0.00618 0.14294
0.23292 -0.14782 -0.20768
0.02918 0.02430 0.10234
0.09682 0.16668 0.20601
-0.21260 0.33891 -0.17228
-0.12586 -0.36720 -0.18964
-0.05559 0.01704 0.02683
-0.07641 -0.34462 -0.18516
-0.15028 -0.00166 -0.05034
-0.04741 0.01774 -0.03587
-0.20308 -0.00271 -0.10463
0.05260 0.18949 0.22081
0.08771 0.01416 0.14993
-0.04149 0.01825 -0.14756
0.06275 0.09599 -0.21381
-0.11013 0.18883 -0.21216
0.03873 -0.00722 0.00803
-0.18224 0.10345 -0.08993
0.19906 0.03701 -0.15441
0.23193 0.02977 0.01035
0.11144 -0.35863 -0.19788
0.15116 0.03473 -0.05948
-0.17644 0.22476 0.11327
-0.15436 -0.00191 -0.04760
0.05657 -0.34606 0.19204
-0.19805 0.20603 0.01683
-0.18735 -0.00449 0.05120
0.14989 0.01917 -0.11584
-0.13753 -0.00088 0.09476
-0.17767 0.12752 0.08857
-0.18542 0.33233 -0.20747
0.23680 -0.22454 -0.20412
-0.11407 0.01204 -0.03303
-0.22830 0.32455 0.00914
0.09093 0.02958 0.01425
-0.01088 0.00684 -0.09676
-0.04393 0.19738 0.21092
0.23064 0.01555 -0.04226
-0.21570 0.36574 -0.17159
-0.01507 0.00909 -0.02507
0.15834 0.01985 -0.02873
0.22081 -0.12090 0.22171
0.18370 0.03639 0.08989
-0.19192 0.06882 0.04822
-0.08322 0.01468 0.02850
-0.15416 -0.00190 0.01458
-0.16479 -0.00255 -0.06957
0.01065 0.02271 0.10302
-0.20554 0.32416 0.10613
-0.18935 0.13691 0.09489
-0.06694 0.19444 0.21194
0.11874 0.01666 -0.14612
0.08466 0.01392 -0.04526
0.01168 0.00821 0.08373
-0.18145 0.21274 0.07314
-0.21467 0.35270 0.12458
-0.18225 0.20233 -0.14464
-0.21990 0.35454 -0.11552
0.20014 -0.01162 -0.19925
0.22857 -0.09082 -0.21533
0.19868 0.00579 0.16694
-0.18000 -0.36652 -0.18384
-0.20650 0.26260 0.04388
-0.19372 0.28157 -0.09902
0.06648 0.01245 -0.11223
0.22629 -0.18526 -0.22312
0.23974 0.01688 -0.11436
0.08391 0.01385 -0.17688
0.02548 0.02398 -0.05211
-0.19926 -0.35019 0.17169
-0.20369 0.29311 -0.01784
-0.04314 0.00487 0.00839
-0.15314 0.22179 -0.20628
0.08372 0.01384 -0.10043
-0.18449 0.27353 0.17460
0.19758 0.00740 -0.04813
-0.11909 0.00124 0.17636
0.18619 0.03649 -0.08658
0.23360 -0.34478 -0.21666
-0.17723 0.00664 0.07300
-0.18917 -0.00490 -0.03448
0.21174 0.00425 0.19753
0.04677 0.08695 0.21867
0.21240 -0.13963 -0.21520
0.07056 0.17418 -0.22488
0.10980 0.03119 0.00200
-0.14704 -0.00146 0.09123
-0.13565 0.01019 0.08605
0.06547 0.01354 0.01580
-0.19763 0.19661 0.01452
-0.17973 0.17204 0.06512
-0.19541 0.29400 -0.10910
0.13205 0.01773 -0.16761
-0.04019 0.00505 -0.03088
-0.17317 0.25965 0.19767
-0.19431 0.05948 -0.06223
-0.13989 0.00845 0.17636
-0.02746 -0.36688 -0.19073
0.24324 0.01856 0.03746
-0.19068 0.29186 -0.18282
0.01736 0.02328 -0.17502
-0.20896 0.00932 -0.07195
-0.21585 -0.01180 0.08502
-0.21041 0.03583 0.07626
-0.18007 0.19409 -0.08218
-0.23112 -0.00621 0.00812
0.04048 0.01036 -0.03495
-0.18716 0.21739 -0.02067
-0.21787 0.01952 -0.07627
-0.21791 0.02507 -0.05365
0.20353 0.01404 0.06575
-0.20422 0.01767 -0.08545
0.00476 0.03819 0.20389
0.14198 0.03395 0.18579
-0.18705 0.30717 0.15740
0.21873 -0.00092 0.11255
0.00928 0.00807 0.13919
-0.19031 0.24387 0.12434
0.12428 -0.00132 0.01874
-0.19689 0.11999 -0.04988
0.02125 0.02362 0.14536
-0.15742 0.14831 -0.18021
0.08976 0.02948 -0.16635
0.21115 0.01562 -0.09383
-0.06017 0.20235 0.22170
-0.19288 0.21230 -0.09414
0.07537 0.01317 -0.02309
0.18210 -0.34425 0.20870
-0.06502 0.00354 -0.11600
-0.20253 0.32243 -0.18325
-0.12335 -0.34593 0.19183
-0.21999 0.30265 0.01098
-0.17642 0.16745 0.08616
-0.21776 -0.01150 0.04301
-0.09248 0.01389 -0.04381
0.22022 0.01798 0.18274
-0.17045 0.22522 0.14020
0.11317 0.03148 -0.02090
0.08655 0.11233 -0.22989
0.00756 0.01784 0.19735
-0.15151 0.17629 0.18660
-0.07432 0.00297 -0.00671
-0.16086 0.00189 -0.17734
-0.23509 0.35423 -0.10084
-0.13646 -0.00082 -0.08715
0.17042 0.02082 0.01339
0.03145 0.00963 -0.08349
0.18062 0.02164 -0.15908
-0.10567 -0.34579 0.19159
-0.20283 0.30254 0.14088
-0.20094 0.02906 0.06838
-0.18208 0.13169 -0.06667
0.01784 0.01092 0.17010
-0.15812 -0.00214 -0.01254
-0.20824 0.26271 -0.02532
-0.03327 0.00547 0.17591
0.05692 0.19446 -0.20313
-0.16562 0.00763 -0.05255
0.24005 -0.21947 0.21581
-0.20895 -0.01288 0.00619
0.22958 0.03113 -0.05660
0.09447 0.01471 0.17611
-0.05694 -0.36370 0.17881
-0.19801 0.19798 0.00330
-0.01491 0.00659 -0.06918
0.03806 0.07953 -0.20669
-0.02668 -0.34475 -0.18475
0.18781 0.02189 0.09699
0.21540 0.00346 -0.03679
-0.18159 -0.00541 -0.10623
-0.12869 0.01079 -0.04584
0.02944 0.02432 -0.00023
0.01583 0.02315 0.05021
0.05248 0.02629 0.05896
-0.01566 0.21578 0.21662
-0.09204 0.00189 -0.03324
0.13212 0.01774 0.00511
-0.14304 0.00617 -0.18372
-0.08509 0.20031 -0.22031
0.07511 0.01315 -0.10157
0.04985 0.19204 0.20280
-0.20901 0.01708 -0.03535
-0.19536 0.07302 -0.12157
-0.16645 0.24839 0.16831
-0.18408 0.10968 0.05474
-0.04465 0.00478 0.05085
0.05607 0.01161 -0.02732
-0.17154 0.18013 -0.12888
-0.24206 0.36651 0.08047
