ply
format ascii 1.0
comment VCGLIB generated
element vertex 1793
property float x
property float y
property float z
element face 0
property list uchar int vertex_indices
end_header
-0.18279 0.01159 0.02453
-0.03561 -0.08625 0.09132
-0.10303 -0.05460 -0.05128
0.05678 -0.21120 -0.01392
-0.08525 0.00111 -0.03607
-0.02067 -0.05460 0.11540
-0.17123 -0.03332 -0.02775
0.05362 -0.08625 -0.13722
0.08320 -0.08625 0.11499
-0.07102 -0.05460 -0.07557
-0.17077 0.11310 0.07366
-0.15762 0.36172 0.06149
0.03198 -0.18836 0.01858
0.08433 -0.08625 -0.05423
-0.01485 -0.36527 0.07913
-0.16727 0.11374 0.00793
-0.20043 0.08596 0.02751
0.19798 -0.37961 0.06671
0.01088 -0.04593 -0.20112
-0.18084 0.23306 -0.02098
0.19343 -0.36815 0.04286
0.07252 -0.08625 -0.06602
-0.17478 0.12960 0.10880
0.15291 -0.08625 -0.03751
-0.12288 0.17483 0.13371
0.13518 -0.05460 -0.02005
0.09949 -0.04412 -0.20825
-0.16596 0.15302 -0.10734
-0.20242 0.17511 0.03447
0.16551 -0.08625 0.10387
-0.09418 -0.06247 -0.10220
-0.19629 0.32436 0.04986
-0.03316 0.04511 0.18608
-0.13758 0.22460 -0.12672
0.06970 -0.08625 -0.00014
-0.19228 0.27843 0.08312
-0.08719 -0.05698 -0.18608
-0.12909 0.34858 -0.01008
-0.17965 0.16382 0.11841
0.08015 -0.06929 0.18915
-0.08325 0.01901 0.19299
0.08945 0.03600 -0.19038
-0.04132 -0.05460 0.13276
-0.11767 0.26374 -0.02194
0.07042 -0.08625 -0.15382
0.14418 -0.37612 0.01560
-0.07270 -0.36455 -0.04735
-0.10534 0.09368 -0.12757
-0.16521 -0.05203 -0.01485
-0.21820 0.06006 0.00282
-0.15708 0.03305 0.00891
-0.04266 -0.05460 -0.05752
0.15763 -0.05460 -0.13581
-0.18543 0.24516 0.03511
0.10498 -0.05460 0.12876
0.04696 0.09555 -0.18608
0.14839 -0.37961 0.04824
-0.15678 0.27027 -0.10726
0.13810 0.00772 -0.20825
-0.12874 0.08251 0.12410
-0.11650 -0.07794 -0.02479
0.13535 0.00889 0.18608
-0.18536 0.36585 -0.05729
-0.16934 0.03800 -0.07393
0.00848 -0.08625 -0.14580
-0.10920 -0.01555 -0.07529
-0.09347 -0.38838 0.12658
-0.18279 0.04142 -0.01690
-0.00135 -0.05460 -0.02701
-0.19731 0.36408 -0.02385
-0.15829 0.00123 0.07735
0.15934 -0.03598 -0.18772
-0.10278 0.15043 -0.03135
-0.03629 -0.02443 0.18608
0.08020 0.06488 -0.18608
-0.11295 0.19642 -0.13024
0.02507 -0.29609 0.01690
-0.12152 0.26502 0.04548
0.15034 0.02759 -0.18608
-0.09356 -0.08625 0.03190
0.08665 -0.35046 -0.03309
-0.16889 0.19214 -0.14467
-0.10601 -0.06516 0.02350
0.06525 -0.08625 0.09587
-0.13323 0.33185 -0.07376
0.10796 0.07032 0.20825
0.03461 0.10960 -0.19901
-0.16489 0.23399 0.12572
0.12130 -0.08625 -0.15908
-0.19855 0.10631 -0.06161
-0.15659 0.08762 -0.12707
-0.12890 0.34370 -0.00223
-0.15135 0.03526 -0.10129
0.05235 -0.08625 -0.16207
-0.05536 -0.06852 0.15800
-0.19015 0.26263 0.08094
0.05540 -0.25536 -0.01634
-0.07404 -0.08625 -0.06155
-0.19814 0.04280 0.06956
-0.10568 0.12834 -0.14363
-0.19952 0.05326 0.02172
0.08276 -0.05460 0.15673
0.02208 -0.05460 -0.13209
-0.20096 0.38076 0.02287
0.07777 -0.08625 0.04061
0.04389 0.11050 0.19281
0.02926 -0.34730 -0.02403
-0.20144 0.15458 -0.05002
0.00810 -0.05460 0.07977
0.03621 -0.31728 0.02798
0.03512 -0.22786 0.02112
-0.03817 -0.03093 0.18968
-0.17582 0.34459 0.06874
-0.06221 -0.05460 0.09623
-0.02132 -0.05460 0.17774
-0.19493 -0.03060 0.00172
0.17172 -0.03990 0.18608
0.04472 -0.37961 -0.08163
-0.15883 0.09579 -0.10491
-0.09533 -0.07771 -0.08866
0.04556 0.11022 -0.19875
0.17793 -0.38908 -0.13259
0.06087 -0.35046 0.05259
-0.19910 0.36863 0.04639
0.14260 -0.05460 0.05383
-0.11249 -0.05616 0.02078
-0.01618 -0.36024 0.00713
-0.16155 0.27350 -0.11033
-0.16091 0.13186 -0.15077
0.08648 -0.36041 0.04938
0.03915 -0.07111 0.19886
-0.18346 0.26122 0.11320
-0.18616 0.34147 -0.07894
-0.11136 0.18247 0.05140
0.05968 -0.24235 0.00283
-0.20126 0.12146 -0.03516
-0.12944 0.33993 0.01638
0.17617 -0.08625 0.09555
-0.15628 -0.00014 0.07142
0.16792 -0.05460 -0.02889
0.09026 -0.37961 0.03660
0.17477 0.00264 -0.20398
-0.06932 -0.05460 0.02766
0.16725 -0.05460 -0.12725
-0.17701 0.23027 -0.08464
0.09020 -0.05460 -0.05767
0.15817 -0.36838 -0.11793
-0.14416 0.37369 0.02930
0.19454 -0.07927 0.02346
0.01658 -0.05915 -0.20825
-0.19998 0.04871 0.03169
0.05147 -0.37542 -0.10324
0.07246 -0.04610 0.19974
-0.15745 0.02492 0.03457
0.09335 -0.05368 0.19904
0.01271 0.10060 0.20825
-0.17547 0.22029 -0.08973
-0.10995 -0.39383 -0.06313
-0.01788 -0.05460 0.17276
0.04249 -0.05460 0.12985
-0.10163 -0.06174 -0.08282
-0.01046 -0.05460 -0.12949
0.19051 -0.07081 -0.06389
0.14245 -0.08625 0.04237
-0.17693 0.15220 0.09556
0.15020 -0.00883 0.18608
0.05901 -0.07077 -0.18929
-0.20711 0.21917 0.01884
-0.08319 -0.08501 0.12018
0.10096 0.06931 0.20825
-0.17145 0.12294 -0.06438
-0.00404 -0.08625 0.08805
-0.00100 -0.08625 0.12137
0.13182 0.03324 -0.20825
-0.16365 0.05222 0.08480
0.10822 0.08384 0.18608
-0.10159 0.00959 0.09615
-0.10222 -0.08611 0.07136
0.03177 -0.38574 -0.20008
-0.19856 0.07472 -0.04011
-0.16717 0.22720 -0.13059
-0.06659 0.04462 -0.19201
0.05639 -0.26649 0.01393
-0.00502 -0.35107 -0.02681
0.03659 0.07339 0.20825
-0.10712 0.05296 0.09654
0.02645 -0.36065 -0.10763
-0.12446 0.30268 0.01187
-0.02479 -0.08625 0.07214
0.18634 -0.02432 -0.19933
-0.10630 0.13905 0.05962
0.06841 -0.37961 0.19484
0.08611 0.10005 0.20673
-0.04273 -0.37871 -0.05694
-0.06232 -0.37835 0.07513
0.05645 -0.37961 0.03246
-0.02845 -0.37875 -0.05352
0.06076 -0.33093 0.01518
0.03488 -0.37928 0.07525
-0.19685 -0.02665 -0.00070
-0.05059 -0.01698 -0.20484
-0.12194 0.27003 0.04159
0.08427 0.05093 0.18608
0.00004 -0.08625 -0.08724
0.11430 -0.37961 0.00312
-0.00327 0.09550 0.18608
-0.05252 -0.08625 -0.12061
-0.08927 0.04850 -0.04180
-0.17963 0.26252 -0.11162
0.05504 -0.20225 -0.01684
-0.02878 -0.08625 -0.04523
0.14707 0.04945 0.19407
0.13040 0.02092 0.18608
-0.19369 0.32322 0.00489
-0.10471 -0.08625 -0.04897
-0.05632 -0.00943 0.20189
0.05171 -0.13856 -0.01389
0.05416 -0.08799 0.00861
0.02419 -0.27909 -0.01570
0.03484 0.08789 -0.20825
-0.16746 0.15026 -0.07359
0.05190 0.04950 0.20047
0.20078 -0.39360 0.06828
-0.12135 -0.06337 0.02684
-0.15480 -0.01579 0.08087
-0.19063 0.30022 0.00224
-0.09449 0.09876 -0.06307
0.09876 0.02923 0.19340
-0.09056 0.04409 -0.00782
0.06248 -0.06339 -0.20100
-0.20532 0.20009 0.02862
0.09238 -0.37961 0.00516
0.04685 -0.34952 -0.02966
0.07168 -0.37961 0.16096
-0.19280 0.29998 0.04260
-0.04515 -0.06255 -0.16895
0.06782 0.08377 0.18608
0.17583 -0.05460 0.02052
-0.20373 0.25028 -0.04129
-0.12488 -0.01325 0.03670
-0.17156 0.05407 0.00081
-0.14733 -0.01906 -0.04844
-0.19988 0.09988 -0.02383
-0.17849 -0.00227 0.03014
0.07076 -0.04736 -0.18608
0.06587 -0.35046 0.02374
0.05930 -0.05519 0.20825
-0.17845 0.22586 0.12936
-0.00378 0.05219 -0.18608
-0.14998 -0.02483 0.01347
0.05815 0.10813 -0.19713
0.05465 -0.08625 0.16540
0.00231 -0.05654 0.18608
0.18301 -0.05795 0.20825
0.05293 -0.20149 0.01877
0.03211 -0.06735 0.20825
-0.14531 -0.02428 0.00771
0.01638 -0.08625 0.03678
-0.10139 -0.36786 -0.04566
-0.19521 0.30977 0.06395
0.11016 -0.05460 -0.10608
-0.18034 0.22651 -0.01488
-0.16140 -0.04446 -0.02775
0.10948 -0.07097 -0.17920
-0.17822 0.03515 0.03014
0.14317 0.00936 0.20825
-0.06809 -0.36368 -0.03896
-0.20157 0.13228 -0.00514
-0.05878 -0.05460 -0.14949
-0.17227 0.28244 -0.10641
0.11235 0.01689 -0.20505
-0.06789 -0.06951 0.13629
0.08318 0.05638 -0.18608
0.02588 -0.05460 -0.16606
-0.19630 0.18795 0.05218
-0.11137 -0.38431 -0.06873
-0.15203 -0.02371 0.04845
-0.03980 -0.08625 0.14902
0.05989 -0.37961 0.13524
-0.19015 0.25456 0.09971
0.12153 -0.36805 0.00536
-0.11679 0.26769 -0.04732
-0.09299 0.09286 -0.07671
0.03471 -0.37961 0.06213
-0.10850 0.16425 0.04136
-0.01045 -0.05460 0.16946
-0.20092 0.06317 0.04399
0.19521 -0.05866 0.05850
-0.11788 0.27195 -0.03721
-0.14436 0.28542 0.10630
-0.15937 0.05577 -0.00200
-0.03600 -0.08625 -0.13967
-0.14778 -0.05171 -0.00857
-0.18948 0.26283 0.02472
-0.09944 -0.07794 0.01787
-0.20136 0.37935 0.01484
0.06714 -0.05460 -0.19315
0.08886 -0.35046 0.01551
-0.06117 -0.08625 0.14721
0.14522 0.03246 -0.18608
0.06893 0.06715 -0.20825
-0.02350 -0.07897 -0.17560
0.03002 -0.06273 0.20825
0.03440 -0.05460 -0.11239
0.05367 -0.05510 -0.18608
-0.09628 -0.07001 -0.06449
0.07463 -0.08625 -0.18472
0.05382 -0.37961 0.08870
0.01307 0.08455 -0.18608
-0.02268 -0.05460 -0.07775
0.11942 0.07880 -0.19446
-0.19579 -0.02891 -0.01942
0.03169 -0.05460 0.03739
-0.12377 0.29032 0.02789
-0.16704 0.31446 -0.09240
-0.02703 -0.02247 -0.19361
0.02783 -0.08625 0.12308
-0.14257 0.37934 -0.01307
-0.01156 -0.05460 0.08546
-0.10819 -0.38266 -0.07369
-0.16016 0.08840 -0.06343
0.01892 -0.37961 -0.04160
0.03041 -0.35046 -0.03998
-0.12023 0.25513 -0.09434
-0.18532 0.00246 0.07532
0.13558 0.06373 -0.20825
-0.13352 0.09985 0.13107
-0.10744 -0.08028 -0.01196
-0.07982 0.02594 -0.20051
0.16931 0.01128 -0.18608
-0.17771 0.18552 0.03241
-0.12815 0.30609 0.07155
-0.16662 0.12541 -0.03106
0.04167 -0.37961 0.00468
-0.16347 0.08095 0.01458
-0.09464 -0.01936 -0.04554
0.19553 -0.08326 -0.01650
-0.16733 0.15592 -0.08905
0.13227 -0.06886 0.16329
-0.14638 -0.01440 -0.07686
-0.11005 0.15367 0.09431
-0.09330 0.07141 -0.02128
0.17959 -0.04654 -0.20825
0.13774 -0.06503 0.16592
-0.09171 0.09055 -0.09497
0.02541 -0.18537 -0.00213
-0.16755 -0.04771 -0.00073
-0.17611 0.13580 0.11866
0.14994 -0.36855 0.05654
-0.04756 -0.08625 0.07084
-0.19939 0.08097 0.01012
0.18954 -0.05460 0.03901
0.11701 -0.36143 -0.07878
0.01170 0.04600 0.20825
0.00038 0.10137 0.18836
0.02494 -0.37961 -0.12623
-0.18415 0.14728 -0.06213
0.14187 0.05288 0.18608
-0.18980 0.28312 0.02685
0.01458 -0.08625 -0.00785
-0.17516 0.06915 -0.02589
-0.12615 0.18384 0.14078
0.05053 -0.37961 0.02368
-0.10771 0.17974 -0.00907
-0.14155 0.17017 -0.15347
-0.06590 -0.07213 -0.02506
-0.12925 0.34142 0.00942
-0.10393 0.12015 -0.11816
-0.08565 -0.08625 -0.04777
0.07580 -0.08625 -0.02347
-0.17504 0.12335 0.12809
0.00596 -0.05460 0.03643
-0.09808 0.07686 0.05376
0.17444 -0.07077 0.09125
-0.09493 -0.05460 -0.03296
-0.03152 -0.03765 0.19784
-0.16704 0.14344 -0.06540
0.17164 -0.08625 -0.05483
-0.11224 -0.05833 -0.19188
0.03897 -0.08625 -0.13563
-0.12977 -0.07765 0.02835
-0.10465 0.11585 0.08333
0.04920 -0.05460 0.16475
-0.11275 -0.06162 0.03137
0.09404 -0.35642 0.04306
0.08637 -0.06086 0.19600
0.07597 0.09218 -0.20825
-0.12441 0.27742 0.06967
-0.09489 0.05738 0.04049
-0.01010 -0.35646 -0.02908
0.04589 -0.07734 0.17900
-0.19128 0.27742 0.06719
0.14801 -0.05460 0.11164
0.06880 -0.08625 -0.08042
-0.20041 0.11930 0.01612
0.03145 0.10908 0.19671
0.07494 -0.36904 0.05749
0.05498 -0.07554 0.19763
-0.08672 0.01298 -0.00597
0.01626 -0.05460 0.14253
-0.16769 0.11054 0.02304
-0.10317 0.02484 0.08968
-0.17917 0.15551 0.12889
0.12911 -0.08625 0.16251
-0.18800 -0.02959 0.01938
0.06796 -0.05460 0.00513
-0.15854 0.02976 0.04334
-0.06616 -0.37361 -0.02519
0.04074 -0.37745 -0.17363
0.09370 -0.08625 -0.04598
-0.04036 -0.05460 0.08464
0.00093 -0.06240 -0.19405
-0.10546 -0.06266 -0.18608
-0.15892 0.16788 -0.15657
0.16345 -0.05460 -0.09197
-0.04124 -0.08625 -0.00860
0.02934 -0.15508 -0.00335
0.01354 -0.05460 0.08916
0.13423 -0.08625 0.04548
-0.11206 0.12995 -0.14333
-0.08096 -0.05224 0.19299
-0.04424 -0.05460 0.15982
0.04702 -0.08625 -0.05170
0.17024 0.01237 0.19161
0.04356 -0.07734 -0.17693
-0.10382 0.09889 0.10756
-0.01994 0.09098 -0.19239
0.20641 -0.39477 0.06076
0.12687 -0.08625 0.08287
-0.18321 0.20926 0.07781
0.17725 -0.06904 -0.09919
0.07315 0.06019 -0.20825
-0.08919 0.00092 0.00575
-0.05159 -0.07002 -0.00039
0.05235 -0.37493 -0.09745
0.03016 -0.10378 -0.00759
0.04844 0.07690 0.20825
-0.01981 -0.37961 -0.02711
-0.09473 0.12269 -0.11426
-0.19678 -0.01021 -0.00740
-0.15958 0.36898 0.05261
-0.17552 0.15015 0.07442
-0.10099 -0.01928 -0.19284
0.02325 -0.05460 0.09987
-0.10454 -0.38444 -0.05469
-0.10927 0.07073 0.09879
0.08757 -0.03916 -0.19592
0.07238 -0.06308 -0.20097
-0.20087 0.02491 0.05575
0.01354 -0.06369 0.20729
-0.17156 0.02613 0.01472
0.07350 -0.08625 -0.07657
-0.07228 -0.06516 0.02665
0.11551 -0.05460 0.04005
-0.03054 -0.08625 -0.01247
0.02619 -0.26697 -0.00768
0.02726 -0.23081 -0.01133
-0.11310 0.09873 -0.12863
0.18840 -0.08433 -0.07429
-0.12819 0.20700 0.12443
-0.17733 0.02296 -0.07596
-0.07172 -0.06769 -0.13842
0.03675 -0.05460 0.19953
0.01043 -0.35613 0.05205
-0.20018 0.05528 0.03302
0.01352 -0.08625 -0.14956
0.05495 -0.28700 -0.02485
-0.18799 0.38643 -0.01705
-0.10261 -0.06578 -0.07898
0.15979 -0.08625 -0.01326
0.01469 -0.37526 -0.20208
-0.03682 -0.07077 0.16193
-0.02642 0.08343 0.20825
0.03842 -0.05464 0.18929
0.14535 -0.08625 0.12182
-0.11252 0.25059 -0.08578
-0.09380 0.10238 -0.08415
-0.16517 0.11925 -0.04343
-0.10754 0.09010 0.10718
0.11565 -0.03742 -0.19191
-0.19320 0.31574 0.01335
-0.15522 0.07269 -0.11734
-0.20113 0.13470 0.02424
-0.20029 0.00869 0.05046
-0.10499 -0.06084 0.08058
-0.09319 -0.01471 -0.00123
-0.10430 -0.01671 -0.07539
0.04761 -0.35046 0.00222
0.12910 -0.08625 -0.13884
0.07087 -0.08625 -0.09029
-0.17956 0.37857 -0.04067
-0.15335 0.00270 0.01118
-0.12863 -0.01863 0.04886
-0.08651 0.01964 -0.02519
-0.14666 0.18200 0.14749
-0.20496 0.19424 0.02629
-0.08569 -0.05460 -0.03703
-0.20242 0.13942 -0.01805
-0.09555 -0.05460 -0.05961
0.03156 -0.05460 -0.05729
-0.17962 0.18296 0.07333
0.15760 -0.08625 -0.12561
-0.02609 -0.36252 -0.00708
0.18690 -0.38807 -0.11208
0.16805 -0.05680 0.12920
0.19277 -0.06232 -0.07402
-0.11873 0.12458 0.14272
0.03323 0.08584 0.20825
-0.04400 -0.36324 0.07384
0.09876 -0.03208 -0.19216
0.03519 -0.14530 0.01500
-0.09970 0.00476 0.07270
-0.09952 -0.06516 0.02473
-0.12562 0.19673 0.12384
-0.02793 -0.36119 0.06803
-0.18804 0.30388 0.09387
0.05891 -0.23437 0.00686
-0.10380 0.19472 -0.11563
0.01393 -0.05498 0.20151
0.07628 0.04274 -0.19602
-0.17612 0.16854 0.04276
-0.05101 -0.01238 0.20825
0.06368 -0.34883 0.00484
-0.11732 -0.37006 -0.05393
-0.09872 -0.01999 0.08214
-0.18279 0.04754 -0.02128
-0.03210 -0.05460 0.04737
-0.19524 0.31517 0.05205
-0.11491 0.18462 0.11144
0.04954 -0.08625 -0.19154
0.04790 -0.05122 -0.19470
-0.19940 0.10574 -0.05527
0.15432 0.02193 0.18608
-0.04185 -0.00984 -0.18608
0.04830 -0.19685 0.02211
-0.17156 0.01577 0.02838
0.03773 -0.05460 0.00763
-0.01930 -0.05460 -0.00513
0.11757 -0.05460 -0.17728
-0.19958 0.12932 -0.05817
-0.13114 0.35061 0.02267
-0.09516 -0.00889 0.02134
-0.16527 0.15549 -0.12577
0.17366 -0.05814 0.18608
-0.15973 0.07057 -0.02981
-0.05623 -0.07794 0.00765
-0.12724 0.04293 -0.09988
-0.11826 0.28255 -0.05501
-0.01475 -0.04267 0.20825
-0.15344 0.05244 -0.10278
0.03320 -0.08625 0.03362
-0.12533 0.31037 0.00985
-0.19190 0.32357 -0.02885
-0.00407 -0.05460 0.00630
-0.09196 -0.06850 -0.19275
0.11343 0.01591 0.19743
-0.20400 0.22755 -0.04347
0.18067 -0.07077 0.08466
-0.10028 -0.01759 0.19905
-0.01600 -0.08625 0.01475
-0.18649 0.03858 0.07088
0.08640 -0.05460 0.12846
-0.13947 0.00733 -0.09369
-0.06871 0.04059 -0.18608
0.07731 0.08778 0.18608
0.01607 0.09475 -0.18608
-0.15988 0.03819 0.04836
-0.14248 0.24244 0.12455
-0.10290 -0.04606 -0.18608
0.06999 -0.37538 -0.06565
-0.15343 -0.05321 -0.02775
0.18099 -0.08625 -0.02408
0.03636 -0.07734 -0.18107
0.12961 -0.02331 -0.18983
-0.04803 -0.08625 0.13939
0.18352 -0.05460 0.02471
0.11649 0.05550 0.18608
0.05633 -0.35046 -0.03199
-0.07570 0.00170 -0.20825
-0.03541 -0.08625 -0.00458
0.04130 -0.37961 0.06676
-0.01903 -0.05460 0.15163
0.12113 -0.03188 0.18909
-0.03993 -0.37961 0.08419
-0.18533 0.22419 0.08207
-0.10732 0.16041 0.02871
-0.17156 0.04510 -0.02489
0.00857 -0.08625 0.11972
-0.13287 -0.02015 0.08283
0.13144 -0.05525 0.17139
-0.18507 0.27392 -0.03847
-0.16068 -0.03454 0.01177
-0.20744 0.22374 0.00655
0.15643 -0.00280 -0.20825
-0.19173 0.27631 0.07807
0.10258 -0.35777 -0.04820
0.08760 -0.08625 0.03678
-0.05035 0.02418 -0.20825
0.04333 -0.34493 -0.03021
0.01028 -0.08625 0.02843
0.07003 -0.05460 0.13085
0.01931 -0.06544 0.18835
-0.15113 0.02310 0.10178
-0.08673 0.01143 -0.18608
-0.16593 0.13480 -0.06561
0.14407 0.05369 -0.19323
0.10491 -0.05460 0.09767
-0.06477 -0.01304 0.18730
-0.08570 -0.36981 0.10566
-0.00653 -0.37961 0.07024
0.03823 -0.35671 0.07070
0.16741 -0.37961 0.06030
-0.09629 -0.37961 -0.04961
0.04257 -0.18071 0.01805
0.09994 0.07173 -0.18608
0.04120 -0.08625 0.08677
0.07534 -0.36998 0.17145
-0.10538 0.20381 -0.10789
-0.06497 0.02788 -0.20825
-0.17983 0.20665 0.02209
-0.19167 -0.02986 0.04703
-0.10515 -0.06945 0.02049
-0.04893 0.01296 0.18608
0.03179 -0.05460 0.15354
0.06968 -0.05460 0.09462
-0.09083 -0.01196 -0.05095
0.08331 -0.37712 -0.06718
-0.04131 -0.05460 -0.11740
0.12497 -0.02786 -0.20825
0.12433 -0.02506 0.20825
-0.00116 -0.37961 0.02735
0.04973 -0.08625 0.13520
-0.19609 -0.02694 -0.01457
-0.18012 -0.02912 -0.05254
0.17217 -0.08625 -0.06306
-0.12565 -0.37797 -0.05867
-0.12829 -0.07793 -0.01754
-0.13896 0.13242 0.14517
-0.10502 -0.07654 0.05753
-0.07238 -0.36509 -0.06246
0.12678 -0.36059 0.05094
0.07837 0.09339 0.18608
-0.13650 0.37886 0.00707
0.08069 -0.04273 0.19971
-0.11039 0.17741 -0.13290
-0.20796 0.25971 -0.01887
0.06055 -0.06243 0.20344
0.15455 -0.37961 0.05239
0.13588 -0.05460 -0.00532
0.06248 -0.35046 -0.03075
-0.09015 -0.01053 -0.06662
-0.12025 0.27034 0.00989
-0.13087 0.26876 -0.11134
0.16672 -0.04049 -0.20825
-0.08416 -0.37961 -0.04978
-0.12703 0.30369 0.05654
-0.14514 0.39434 -0.00080
0.08858 -0.08625 -0.02931
0.10790 -0.08625 0.14162
0.15276 -0.02183 0.18812
-0.17807 0.21315 -0.02530
-0.16998 -0.00777 -0.00235
0.05784 -0.37961 0.02085
-0.19622 0.24425 0.03912
0.14873 -0.08625 0.01006
-0.08826 0.00055 -0.06007
0.21299 -0.37121 0.06227
-0.12672 -0.37273 -0.05257
0.05816 -0.37961 -0.02496
-0.19712 0.35967 -0.01707
0.16454 -0.07286 -0.12734
-0.13066 -0.07192 0.03014
-0.00782 -0.08625 -0.08530
-0.18228 0.00369 -0.00665
-0.11261 0.19696 0.04052
0.04068 -0.08488 0.01801
-0.17333 0.36352 0.04671
0.18624 -0.06850 0.19968
-0.18707 0.36114 0.05910
-0.15812 0.03508 0.02318
-0.09735 -0.01332 0.07172
-0.19140 0.11747 -0.06581
-0.18279 0.05699 -0.02705
0.04688 -0.20197 -0.02355
-0.09740 0.08460 0.02323
0.01438 -0.37961 0.05303
-0.08702 -0.06063 -0.11592
-0.17335 0.10961 0.12909
0.01548 -0.07077 -0.18570
0.11521 -0.05460 -0.01710
0.03391 -0.08583 -0.17022
-0.17440 0.20149 -0.06549
-0.02180 -0.04529 -0.19048
0.05580 -0.08625 0.10172
0.09567 -0.35333 -0.03027
-0.18149 0.19484 0.08000
-0.17642 -0.01778 0.07838
0.17420 0.00385 -0.19498
0.16597 -0.38789 -0.13192
-0.10074 0.00613 -0.08749
0.17844 -0.02093 -0.20825
0.05842 -0.05460 0.02089
0.02743 -0.05037 0.19159
-0.07815 -0.06516 0.00203
-0.17140 0.18219 -0.07551
0.02039 -0.06847 0.19808
-0.17666 0.00859 0.07518
0.02219 -0.05460 0.16774
-0.02494 -0.08625 -0.10805
0.05935 -0.07701 -0.19456
-0.09770 0.05611 -0.11135
0.20370 -0.37001 0.05971
0.17486 -0.03337 0.20825
-0.10189 0.14771 -0.04122
0.06484 -0.06999 -0.18892
-0.03618 -0.08625 0.01663
0.18861 -0.05894 0.08449
0.08539 -0.05460 0.05451
-0.05273 -0.08625 0.04874
0.18212 -0.07077 -0.07306
0.05737 -0.27453 -0.02193
-0.08596 -0.37298 0.12452
-0.13236 -0.07174 -0.02775
-0.15128 -0.00640 -0.00557
0.16424 -0.37403 0.05998
0.05811 -0.08625 0.11307
0.17166 -0.04731 -0.20825
-0.20552 0.20502 0.03231
0.05190 -0.08583 0.18256
-0.15473 0.09161 0.13177
-0.15574 -0.04309 0.00119
-0.18863 0.23283 0.12237
0.12840 -0.05460 -0.06188
-0.19140 0.33010 -0.05303
-0.19673 0.04901 -0.06337
0.06678 -0.35046 -0.03863
-0.10591 0.14593 -0.14191
-0.08024 -0.08625 0.04781
-0.10283 0.10763 0.06924
0.07503 -0.35046 -0.03515
-0.05375 -0.37787 0.10832
0.04083 -0.05171 0.20530
0.01514 -0.37961 -0.11857
0.00484 0.07734 0.18608
-0.08075 -0.02993 0.20825
-0.16894 0.10727 0.05362
-0.13147 0.33452 0.06372
-0.14069 -0.05685 -0.01841
-0.16729 0.11097 0.01489
0.12681 -0.00549 -0.19561
-0.00304 -0.08625 -0.01108
0.00309 -0.05460 -0.17926
0.08553 -0.04022 0.19175
-0.11170 0.17898 0.06572
0.13656 -0.08512 0.15986
0.02816 -0.37070 -0.20229
-0.04998 -0.01357 -0.20825
0.17082 -0.38603 -0.10912
-0.01297 -0.37961 -0.01485
-0.06279 -0.07077 0.13503
-0.08945 -0.07672 0.10662
-0.12174 0.26164 0.05751
0.11031 -0.07077 0.16856
0.18189 -0.06105 0.10267
-0.09430 -0.05460 0.02554
0.13246 -0.05460 0.07354
-0.18599 0.22359 0.09551
-0.09260 -0.00758 0.18608
0.19830 -0.05702 -0.04671
-0.05653 -0.05460 -0.08569
-0.12913 0.04718 -0.11013
-0.11108 -0.37961 -0.05196
-0.05300 -0.05685 0.16675
0.04642 -0.06805 0.20221
0.05716 -0.33529 -0.02222
0.14042 -0.08625 -0.04316
0.04323 -0.37961 0.06119
-0.16592 0.11932 -0.02968
-0.17173 0.16485 -0.02910
0.02683 0.08165 0.20825
-0.05385 -0.05460 0.04709
-0.08128 -0.05460 0.11159
0.04643 -0.05460 0.18537
-0.02327 -0.05460 -0.09652
0.06713 -0.35046 0.03914
0.10905 -0.37961 0.03339
0.09030 -0.05460 0.14871
-0.18176 0.22126 0.02346
-0.10116 0.16147 -0.08674
0.12180 0.07664 0.19901
0.15518 -0.07077 -0.12922
0.01785 -0.36470 0.05751
-0.13198 0.32627 -0.08353
0.09540 -0.08625 0.08554
-0.10419 0.00492 0.09443
0.15149 -0.37961 0.04075
-0.11103 0.20901 -0.01639
0.17828 -0.38425 -0.12420
0.02968 -0.08625 -0.18287
-0.15558 0.38500 0.03438
-0.13308 0.23398 -0.12426
-0.18068 0.38068 0.03209
0.17481 -0.05577 -0.20825
0.10039 -0.04926 -0.19966
-0.11938 0.29035 -0.05260
0.04961 -0.07734 0.17505
-0.04564 -0.07117 -0.16121
0.07021 -0.08625 0.07354
0.02074 -0.37961 -0.00359
-0.16712 0.31272 0.08551
0.10313 -0.02881 0.18894
-0.10114 -0.05460 -0.06848
-0.10761 0.16426 -0.15346
-0.15964 0.05985 -0.07107
0.14452 -0.37961 0.04153
-0.09227 -0.37961 0.11174
0.02647 -0.37961 -0.02051
-0.01212 -0.35706 -0.03833
-0.03141 -0.06870 0.17524
0.02741 -0.35046 -0.02094
0.11676 -0.05460 -0.08552
0.06410 -0.06559 0.19658
-0.20352 0.17893 -0.03779
0.00782 0.08810 -0.18608
0.12974 -0.36035 0.03568
0.11417 -0.08625 0.02708
0.14838 0.04296 0.18608
0.16122 -0.04001 -0.18980
0.06119 -0.35046 0.03866
-0.19310 -0.01730 -0.07689
0.13883 -0.37961 -0.07603
0.09174 -0.08253 0.18849
0.03126 -0.08625 0.18857
0.04218 -0.36843 -0.16418
0.10767 -0.08625 0.03165
-0.09026 -0.00594 -0.07536
-0.12369 0.05378 -0.10566
0.01190 -0.08625 -0.06166
-0.17156 0.02260 -0.02379
-0.15727 0.03972 -0.00314
-0.15753 0.37444 0.04732
-0.11973 0.29444 -0.05575
0.07848 -0.05388 -0.18608
0.09481 -0.05460 -0.10785
0.15739 -0.00963 0.18608
-0.10554 0.12117 0.08739
-0.17447 -0.02766 0.05031
-0.16599 0.19249 0.14546
-0.09068 0.02775 0.03236
-0.09450 0.10591 -0.07947
-0.14841 0.35922 0.06892
0.02935 -0.06296 -0.18785
0.07428 0.08944 -0.18608
-0.09399 -0.00601 -0.00690
-0.07737 -0.05460 0.04946
0.00293 -0.05460 0.11041
0.06960 -0.36277 0.12191
-0.09550 0.04884 -0.10675
-0.09590 0.10201 -0.04482
-0.00564 -0.08625 -0.09897
-0.06353 0.02695 0.20825
-0.00320 -0.05460 -0.07244
-0.05743 -0.05460 0.08467
0.03922 -0.24293 -0.02392
0.02325 -0.30054 0.01252
-0.00823 -0.08625 -0.11671
-0.09049 0.05121 -0.02579
0.06532 -0.05460 0.14093
0.02114 -0.05899 -0.19988
0.10262 -0.08625 -0.15268
0.03786 -0.37961 -0.12663
-0.15946 0.01938 0.08432
-0.16071 -0.05751 -0.02594
0.04349 0.05090 -0.20600
0.03188 -0.08583 -0.16370
0.09785 -0.37961 -0.02653
-0.12543 0.28168 -0.09987
0.12617 -0.08625 0.02079
-0.12198 0.31708 -0.06713
-0.17240 0.29084 0.10135
-0.15049 0.00971 -0.05749
0.01831 -0.37961 -0.06142
0.08654 -0.08625 -0.16599
-0.11475 0.26646 -0.08192
0.04991 -0.05460 -0.05793
0.09365 -0.03591 0.20794
0.09645 -0.08625 -0.06266
0.07140 -0.35562 0.05560
0.04390 -0.19420 -0.02432
-0.17085 0.35161 0.06094
0.14828 -0.01222 0.19676
-0.09422 -0.05460 0.06781
-0.07573 -0.07624 0.02744
-0.11053 -0.05460 -0.03622
0.03566 -0.37961 -0.03449
0.00909 0.10434 -0.20825
-0.01754 -0.03008 0.18734
-0.06141 -0.05460 -0.05120
-0.09565 0.06438 0.03821
0.08566 -0.05460 -0.12830
-0.05773 -0.07130 0.15409
-0.11833 0.22129 -0.13347
0.14357 -0.36651 -0.06979
0.05378 -0.17862 -0.01044
-0.09298 -0.00190 -0.20274
0.02502 -0.08625 -0.02592
0.06345 -0.35046 -0.02278
-0.18635 0.26663 -0.02426
-0.10433 -0.01760 -0.00336
0.19849 -0.05713 0.01701
0.11187 -0.05460 0.12154
0.03086 -0.37961 0.00796
-0.03504 0.04107 0.20825
-0.10588 0.18996 -0.06642
0.07177 -0.35924 0.08824
-0.01328 -0.35946 0.02194
0.03890 -0.35046 0.04720
-0.02597 0.01914 -0.19876
0.14440 -0.07077 0.14826
-0.06300 0.01136 -0.20825
0.17222 -0.05187 -0.18608
-0.18732 0.22446 0.11781
-0.17843 0.24860 -0.10118
-0.11232 0.24118 -0.06759
0.10355 0.09112 -0.19106
-0.15555 0.32833 0.08407
-0.11475 0.26381 -0.07567
0.17453 -0.00142 0.20825
-0.09439 -0.06830 -0.02506
-0.19688 0.32561 0.05783
0.18986 -0.05460 -0.01440
-0.00038 -0.05460 0.13839
-0.01332 -0.05164 0.20165
-0.00168 -0.36570 0.06924
0.05336 -0.24609 0.01826
-0.03787 0.00582 0.20212
-0.15268 0.01678 0.09901
-0.11360 0.21937 0.00666
-0.11622 0.19200 0.11824
0.19059 -0.07077 0.03348
-0.20671 0.22144 0.03593
0.02968 -0.20359 0.01538
0.01062 -0.08625 0.13424
-0.16226 0.03820 0.09182
0.00841 -0.07077 -0.18151
-0.09842 -0.37961 -0.07001
-0.19016 0.33143 -0.07902
0.04315 -0.08583 0.18644
0.19667 -0.06829 -0.03790
-0.19938 0.03105 0.02644
-0.18215 0.00222 0.02488
-0.08916 0.05090 -0.04941
0.14602 -0.05460 -0.08018
-0.17041 0.12477 0.03990
0.19456 -0.05282 -0.18901
-0.18307 0.18617 0.12905
0.05244 0.08379 0.20825
-0.03624 -0.07617 0.17182
0.08269 -0.37961 -0.05390
-0.18867 0.31105 -0.05892
0.13709 -0.01355 -0.19971
0.08071 -0.05460 -0.06349
-0.20026 0.09981 0.01986
-0.16474 0.16369 -0.15451
0.05676 -0.05460 0.17964
0.06961 -0.05460 -0.16386
-0.16921 -0.04466 -0.02393
-0.17018 0.10490 -0.06638
-0.11448 0.17696 0.12139
-0.16022 0.15388 -0.16065
-0.12781 0.32426 0.02294
0.13046 -0.36276 -0.07865
-0.19688 -0.03076 0.01377
-0.03356 -0.37961 -0.03774
0.02952 0.04909 0.19271
0.18295 -0.01597 0.20825
-0.10696 -0.08625 0.03211
0.02959 -0.13945 0.00372
-0.01021 -0.05460 0.13515
-0.11656 0.11142 0.13352
0.16284 -0.02591 0.20825
-0.12875 0.31264 0.06721
0.08994 -0.03892 -0.18608
-0.16248 0.21155 0.13382
-0.20291 0.15132 -0.00233
0.00038 -0.08625 -0.10243
0.06040 -0.05460 0.03383
0.11720 -0.08402 0.17417
-0.20062 0.02603 0.05082
-0.15242 -0.01629 0.03829
-0.17734 0.20182 -0.05567
-0.05097 -0.37542 0.06281
0.10190 -0.35046 -0.01358
-0.17592 0.25452 -0.11863
0.07881 -0.35046 -0.01580
-0.08044 -0.07028 0.11153
-0.17517 0.19496 -0.03620
-0.18129 0.26170 -0.07935
0.06045 -0.27425 -0.01685
-0.02837 -0.05460 0.07763
0.10705 -0.03786 0.18608
0.03009 -0.28286 -0.02480
-0.08300 -0.37961 -0.06361
0.02482 -0.08625 0.16004
-0.10250 0.16604 -0.07271
0.12654 -0.06147 -0.17421
0.14739 -0.07030 0.13799
0.00936 -0.05460 0.14991
0.05161 -0.37961 0.09435
-0.15278 0.01698 -0.03240
-0.10552 0.11349 0.10493
0.05564 -0.11691 0.00313
-0.15574 0.01994 0.01490
-0.02850 -0.04026 -0.20581
-0.02767 -0.08625 -0.03983
-0.09696 0.09428 -0.00736
-0.04067 -0.05460 0.11999
-0.06876 -0.07922 -0.13533
-0.08740 -0.06412 0.12274
-0.04307 -0.05460 -0.16313
-0.10594 0.04097 0.10278
-0.01111 -0.35423 -0.00828
-0.15711 -0.00129 0.08933
-0.13423 0.06759 0.11534
-0.15525 0.23717 -0.12624
-0.15725 -0.04085 0.01171
-0.10622 -0.06412 0.20825
-0.18454 -0.02895 0.04753
0.03479 -0.35862 0.07468
0.12087 -0.01242 -0.18744
-0.11066 0.14424 0.12739
0.01475 -0.38966 -0.18773
0.05010 -0.06768 -0.20491
0.18124 -0.07077 -0.09051
-0.16436 0.12152 -0.06340
0.07676 -0.08625 0.14830
-0.11627 0.20039 0.09972
-0.16432 0.05366 0.09372
-0.15724 0.01768 0.04768
-0.10314 -0.06736 0.08849
0.05925 -0.24588 -0.00600
-0.10450 0.18310 -0.07575
-0.16506 0.11231 -0.02914
0.17540 -0.05460 -0.01234
0.13883 -0.36475 -0.09462
-0.10004 0.11131 0.00947
0.11750 -0.08625 -0.08461
-0.15635 0.05371 -0.05252
-0.06133 -0.05460 -0.08057
-0.01877 -0.37329 -0.00377
-0.05849 -0.07794 -0.02067
-0.13508 -0.07667 -0.02247
-0.19529 -0.01491 -0.03317
-0.16848 0.18414 -0.13368
0.06099 -0.08625 -0.08625
0.12611 -0.08625 -0.15177
0.07523 -0.37113 0.13994
-0.17463 0.37779 -0.03024
0.10662 -0.08625 0.08540
0.03684 -0.35843 -0.08864
0.04110 -0.08188 -0.10888
-0.10531 0.15266 0.00982
-0.13406 0.25099 0.12446
-0.11204 0.01205 -0.08816
-0.11922 0.26753 -0.00251
0.02565 -0.18941 0.00393
-0.20074 0.08704 0.03289
0.04018 -0.09734 -0.01873
-0.01443 -0.08625 -0.09774
-0.03637 0.00794 -0.18789
0.01523 -0.08625 0.12851
0.06015 -0.08625 -0.17883
-0.17654 -0.02724 -0.02775
-0.04212 -0.08625 0.09206
-0.12871 0.21160 0.12325
-0.08177 -0.39220 0.12102
-0.10932 0.20014 -0.02705
-0.05433 0.05861 -0.18608
0.16924 -0.01962 -0.20825
-0.13519 0.26478 0.11825
-0.17800 0.22535 -0.05508
-0.19084 0.28192 0.04880
-0.14534 -0.06626 -0.02775
-0.05448 0.06078 0.20825
-0.10468 0.13851 0.03129
0.07093 -0.06352 -0.18802
0.02737 -0.35046 -0.05423
-0.13024 0.31107 -0.08011
0.12944 0.00630 -0.18608
-0.18836 0.33061 -0.08531
0.17012 -0.07074 0.09856
0.04338 -0.05460 0.16382
0.14780 -0.07420 -0.14802
0.16367 -0.08625 -0.11881
-0.03656 -0.05460 0.04443
-0.02805 -0.35869 -0.03202
-0.15292 0.02993 -0.06002
0.08975 0.03584 0.19684
0.14078 0.03787 -0.20825
-0.15404 -0.02525 0.02518
-0.09400 -0.03930 -0.20825
-0.14969 -0.00367 -0.04116
-0.15512 0.19870 0.13726
0.13662 -0.37961 -0.08793
0.04019 -0.07734 0.11778
-0.11134 -0.06661 -0.02622
-0.15329 -0.04574 0.02116
-0.00157 -0.08625 -0.02785
-0.02931 -0.02191 0.18608
0.14065 -0.05460 -0.11012
-0.20311 0.19306 -0.04464
-0.09728 -0.01945 0.01202
-0.10353 -0.04551 0.18608
0.03125 -0.36263 -0.12722
0.11924 0.04033 -0.18608
-0.12714 0.33316 -0.00988
0.14788 -0.06352 0.15458
0.07688 -0.37961 -0.05738
0.19022 -0.07077 -0.00204
0.01065 0.07039 -0.20825
-0.16840 0.13815 0.15215
0.07903 0.04311 -0.18608
-0.10864 0.06481 0.09689
0.03811 -0.08625 -0.12101
-0.12523 0.01364 -0.08840
-0.10471 -0.08191 -0.05168
-0.11559 -0.39361 -0.06793
0.04906 -0.05460 -0.18957
-0.14120 0.23498 0.12810
-0.03309 -0.03606 -0.19265
0.04491 -0.05460 0.11567
-0.03487 -0.05460 0.07486
0.05312 -0.28255 0.02542
-0.04058 -0.08625 0.08114
0.07718 -0.08625 0.01615
-0.06831 -0.05460 0.07328
-0.04756 -0.05460 -0.06285
-0.08994 -0.37072 0.11218
0.08581 -0.08625 -0.04115
-0.16899 0.38342 0.01129
0.17703 -0.03776 0.20825
-0.09931 0.07396 -0.09549
-0.14473 -0.02399 0.03750
-0.19670 0.03115 -0.02264
-0.13261 0.13236 0.14697
0.04117 -0.35585 0.06204
0.14807 -0.05460 -0.07041
-0.04538 -0.08625 -0.14724
0.12401 -0.35999 -0.04939
0.02878 0.09137 0.20825
-0.19678 0.13370 -0.06372
0.04272 -0.28672 0.02930
-0.06041 -0.05460 0.04808
-0.09086 0.04011 -0.07869
-0.06327 -0.00982 -0.19509
0.18033 -0.07916 -0.09621
-0.01432 -0.05460 0.15495
0.05684 0.10835 0.18715
-0.13878 0.19002 0.14738
-0.10030 0.11697 0.00106
-0.12871 0.03422 -0.10436
0.18504 -0.05460 -0.02008
0.00311 0.10277 -0.18789
-0.05669 -0.05460 -0.12225
0.08484 -0.08625 -0.04630
0.08577 -0.05760 -0.20670
0.14136 -0.05460 -0.13162
0.17033 -0.37004 -0.12410
-0.18455 0.27173 -0.04288
0.04086 -0.37961 -0.13231
0.04120 0.05103 0.19142
-0.17468 0.21583 -0.09377
0.05281 -0.05460 -0.07212
0.09148 -0.05460 -0.01267
-0.17133 -0.00843 0.07761
0.04576 -0.06599 -0.20825
-0.16956 0.14558 -0.02410
-0.05124 -0.36625 0.10475
-0.02628 -0.04193 0.19768
-0.15195 0.12428 0.14383
-0.19763 0.06775 -0.01780
-0.17469 0.33104 0.07953
0.08088 -0.05460 0.11572
-0.18753 0.11280 0.06186
0.17061 -0.08625 -0.01741
0.10617 0.08913 -0.20825
-0.16045 0.20247 0.13344
-0.13087 0.19379 -0.14077
0.03961 -0.05745 0.20344
0.15799 -0.08625 -0.03035
0.04412 -0.21578 0.02341
-0.12287 0.27434 0.04867
-0.11641 0.25943 -0.03503
0.04961 -0.08625 -0.12960
-0.02239 0.02239 0.19395
-0.20128 0.06345 0.00184
0.02508 -0.08625 0.09264
-0.16993 0.11411 0.05592
0.05866 -0.39750 0.18628
-0.15634 0.31387 0.08964
0.02916 0.06595 -0.20825
0.00163 -0.08625 -0.05378
-0.10386 -0.06850 -0.20794
-0.01987 -0.05460 -0.03946
-0.17421 0.17859 -0.05818
0.06268 -0.08625 -0.12365
-0.20890 0.25442 0.00125
-0.01117 -0.05460 0.09807
-0.19403 0.28472 0.10072
0.14116 -0.08625 0.03527
0.14197 0.00628 0.18608
-0.19560 0.03308 -0.04342
0.09581 -0.08625 0.16795
-0.17612 -0.02857 -0.04557
-0.18030 0.24603 -0.06105
-0.08213 0.01619 0.20825
0.15717 0.02743 0.20825
0.12059 0.02681 0.20825
-0.17346 0.17088 -0.01150
-0.00868 -0.08625 -0.07668
0.05896 -0.05406 0.18608
0.06017 -0.05460 0.05761
-0.07753 -0.36860 0.10051
-0.03740 -0.01198 0.19714
-0.18135 -0.00627 0.02351
0.06604 -0.08625 0.00403
-0.19303 0.02370 0.07222
-0.15349 0.39315 -0.00450
-0.17087 0.18085 -0.08220
-0.05626 -0.05460 -0.15480
-0.03891 -0.08625 -0.08065
0.04210 -0.34983 0.02930
-0.19415 -0.02046 -0.05227
0.13901 -0.08625 0.06504
-0.05611 -0.06516 -0.00061
-0.12063 0.28795 -0.02415
-0.05159 -0.07082 0.01890
0.15748 0.02948 0.18608
0.14092 -0.08625 -0.01850
0.10123 -0.08085 -0.18311
0.03784 -0.08625 -0.17480
-0.18487 0.25483 0.00228
0.10939 -0.08625 -0.11886
0.04373 -0.37961 -0.12585
-0.16831 -0.01478 -0.02371
0.18413 -0.39634 -0.11098
-0.01460 -0.08625 0.06184
-0.15505 -0.00386 0.05763
-0.19005 0.25295 0.11612
-0.07852 -0.07077 -0.11074
0.07142 -0.38867 0.18722
-0.11774 0.27510 -0.04716
-0.14120 -0.02323 0.07970
-0.15800 0.29818 0.09535
-0.19478 0.33738 -0.00822
-0.19553 0.30915 0.07139
-0.03273 0.06213 0.18608
-0.05974 -0.37386 0.07234
-0.18091 -0.02888 -0.00604
0.04113 -0.37961 0.03084
-0.05405 -0.07794 -0.01880
-0.11879 -0.39362 -0.07666
-0.18808 0.17186 0.05469
0.02986 -0.08625 -0.17517
-0.15031 0.35314 0.07228
-0.02012 -0.05460 0.10964
0.09304 -0.08625 -0.01189
0.04013 0.09083 0.20825
-0.17156 0.03204 -0.01388
-0.10681 0.20838 -0.09222
0.00485 -0.35046 -0.01721
0.03740 -0.05136 -0.19706
-0.05301 -0.08317 0.15983
-0.03160 -0.08625 0.03940
0.03295 0.07789 0.20825
0.03020 -0.07130 -0.19527
-0.11195 0.21348 -0.00991
0.01555 -0.08625 0.05341
-0.06664 -0.05460 0.07856
-0.19488 0.31010 0.05721
-0.12454 0.06174 -0.10926
0.13600 -0.36242 0.01190
-0.19801 0.07319 -0.01257
-0.06406 -0.05460 0.06180
-0.05843 -0.08625 0.08738
0.01122 -0.04804 -0.18608
-0.07758 -0.04057 0.20223
-0.00583 -0.03805 -0.19919
-0.19406 -0.00016 -0.06055
0.12257 -0.08331 -0.16985
0.16830 -0.08625 0.10945
0.21079 -0.37961 0.06279
0.08189 -0.04724 0.18608
0.02299 -0.08048 -0.19371
-0.19809 0.34404 0.03715
-0.15328 0.06352 -0.12001
-0.16076 0.04864 0.04018
-0.16057 0.06064 0.00877
0.02722 -0.19967 0.01032
-0.04128 -0.05460 0.00356
0.10528 -0.36900 -0.00781
0.02016 -0.05460 0.05716
0.12796 -0.05460 -0.15958
-0.15832 0.17628 -0.15289
-0.11227 0.18471 0.06287
-0.08622 -0.08625 -0.01036
0.09506 -0.08625 0.09394
-0.18793 0.27302 -0.00472
0.04855 -0.08583 0.16286
0.00804 -0.05460 -0.02399
0.04857 -0.05460 -0.03320
0.15672 -0.05460 0.14137
0.06190 0.06771 0.20825
-0.18279 0.01129 0.02929
0.12052 -0.05460 0.13701
0.14480 0.03451 -0.20825
-0.14700 0.12528 0.13943
-0.18048 0.19268 -0.05684
-0.01688 -0.08625 -0.01118
-0.17721 0.16479 -0.05987
-0.08492 0.01958 -0.05415
-0.20664 0.21459 -0.00929
-0.12160 0.24732 -0.12238
-0.11470 -0.06705 0.20825
0.01810 -0.37961 -0.07276
0.10762 -0.05460 0.10302
-0.16693 0.11316 0.00310
-0.08263 0.00367 -0.05911
0.16912 -0.08625 0.08329
-0.06576 0.00478 0.18608
-0.19907 -0.00103 0.03134
-0.03411 -0.05460 0.06929
0.02616 -0.08625 0.17039
-0.17658 0.17747 0.15092
0.09933 -0.05460 0.06083
-0.11137 0.11419 -0.13611
0.19035 -0.07077 -0.03375
0.06974 0.04608 0.19667
-0.20318 0.17932 0.04686
0.06848 0.10347 -0.20825
-0.17336 0.37593 0.02550
0.04474 -0.36179 0.11743
0.13548 -0.05460 0.05579
-0.15728 0.09540 0.13343
0.07025 -0.05460 -0.17601
0.10484 -0.35740 -0.04006
-0.01516 -0.08625 0.12548
0.14590 -0.00709 -0.19004
0.02926 -0.12648 -0.00085
0.03147 -0.05460 -0.00591
0.13736 -0.05460 0.04081
0.07678 -0.08625 -0.02958
-0.11999 -0.06406 -0.01932
-0.18569 0.01975 -0.07666
-0.03928 0.01472 0.20825
-0.18691 0.23567 0.08432
0.00506 -0.08625 -0.08160
0.13380 -0.37961 0.01313
-0.09393 0.05983 0.01733
-0.16597 0.10898 -0.00475
-0.16407 0.08140 0.02464
0.05516 -0.37252 -0.07904
0.02252 -0.30846 -0.01135
0.18910 -0.08507 0.06593
-0.02843 -0.05460 0.02607
-0.08607 0.01990 -0.03394
-0.09843 0.07195 0.07148
-0.16171 -0.02604 0.05070
-0.18652 0.21687 0.12090
0.18245 -0.08625 0.06952
-0.05190 -0.08625 0.11711
0.05515 -0.27350 0.02304
-0.03051 -0.07077 -0.16595
0.00035 0.03902 0.20741
0.05971 -0.35046 -0.00809
0.01487 -0.37204 -0.16419
0.04630 -0.25393 -0.02377
-0.09207 0.07717 -0.05719
0.07046 0.05226 -0.20825
0.13073 0.01141 0.20825
0.17129 -0.07110 0.11329
0.17157 -0.06552 -0.12654
0.09868 -0.37961 -0.04726
0.02902 -0.31644 0.02279
-0.07225 0.01991 -0.18608
0.03676 -0.07730 0.18785
0.10782 -0.08625 -0.13024
-0.10327 -0.07077 -0.05091
-0.05868 0.00025 0.20825
0.01802 0.10686 -0.18713
0.00397 -0.36151 -0.05417
-0.16906 0.18942 -0.13529
-0.16442 0.11938 -0.05746
0.12667 -0.37823 -0.05151
-0.17542 0.18084 0.00116
0.05232 -0.35046 0.01314
0.06589 -0.35046 -0.00017
-0.11836 0.15619 -0.15450
-0.19520 0.32227 0.03479
-0.15947 0.04925 0.01499
0.04196 -0.08625 0.05559
-0.15095 0.05916 -0.11783
0.14128 0.05762 -0.19719
0.15496 -0.36594 -0.08868
0.17448 -0.06850 0.19245
0.00320 -0.08625 0.03514
-0.20297 0.15807 0.05010
0.00957 -0.08625 0.10718
-0.08318 -0.07077 0.11808
-0.19175 0.06119 0.06778
-0.16964 0.12501 0.02520
-0.13137 0.09398 -0.12319
0.03931 -0.08625 -0.16290
0.03061 -0.07734 -0.14669
0.03439 -0.06774 -0.19792
-0.09944 -0.05472 0.09663
0.07386 -0.08625 0.19066
0.19828 -0.06241 0.02541
-0.03736 -0.08625 -0.14462
0.18718 -0.08625 0.03447
-0.12642 0.18831 0.13542
-0.09533 0.09507 -0.03900
-0.19532 0.36013 -0.05109
-0.16923 0.08647 0.10732
-0.18086 -0.00454 -0.02775
0.02746 -0.24940 0.01087
-0.02078 -0.05460 -0.10173
-0.12752 0.34947 -0.04100
-0.13111 0.22930 0.12606
-0.17379 0.05638 0.03014
-0.10043 0.11545 0.00697
0.12250 0.00479 -0.20071
-0.17974 -0.01689 -0.02236
0.04728 -0.07734 -0.11496
-0.18406 0.25828 -0.02063
0.05586 -0.13593 -0.00026
-0.12100 -0.07606 0.03014
-0.17124 0.20630 -0.13463
0.10400 -0.04656 0.18921
0.06260 -0.28709 0.01044
-0.15846 0.07556 -0.06467
0.02128 -0.31122 -0.00492
-0.02932 -0.05460 -0.00128
-0.03391 -0.36711 0.09343
0.03570 -0.08395 0.16117
-0.16420 0.28103 0.09971
0.07744 -0.37961 -0.01683
-0.06886 -0.01056 0.18608
-0.19617 0.33318 0.02718
0.05498 -0.08225 0.18667
0.05097 -0.36618 0.15760
0.12514 -0.05460 -0.03591
-0.09826 0.11250 -0.02584
-0.09090 0.01341 0.06973
-0.04542 0.06685 -0.18608
-0.04248 -0.37961 -0.02984
-0.12607 0.31107 0.02184
-0.10626 0.15218 0.02847
-0.09973 0.15792 -0.10470
-0.09752 0.09549 0.00007
-0.17504 0.12102 0.13351
-0.10474 0.14365 0.02032
-0.08015 -0.05460 0.12433
-0.18613 0.23743 0.06581
-0.08199 -0.01360 0.20825
-0.19578 0.03497 -0.04770
0.09563 0.08192 -0.18608
0.10719 -0.05460 -0.18185
-0.04834 -0.08625 0.01431
-0.16159 0.13587 -0.14763
0.04762 -0.37052 -0.12848
0.00941 -0.05460 0.16619
-0.17189 0.12028 0.14433
-0.16481 0.07971 0.04196
0.04466 -0.07734 0.13079
-0.19738 0.20825 -0.05599
0.05565 -0.08625 0.01369
-0.09235 0.05735 -0.00584
0.09273 -0.04365 -0.18608
-0.16816 0.13772 -0.03149
-0.15130 0.01586 -0.05698
0.05782 -0.08625 -0.02624
0.04919 -0.34968 0.02788
-0.12714 0.30192 0.06264
-0.05568 -0.08625 0.09468
-0.18162 0.26946 -0.09134
0.02598 -0.05460 -0.04960
-0.09083 0.03714 0.01323
0.17131 -0.06850 -0.20775
-0.01389 -0.05460 0.10339
-0.05566 0.00696 0.20825
0.17232 -0.05460 -0.07746
0.05498 -0.08360 0.11000
-0.16311 0.09397 -0.02224
-0.01372 -0.05460 -0.11920
0.19400 -0.07698 0.04564
0.21043 -0.38916 0.05677
0.04460 -0.36969 0.13937
-0.13192 0.36945 -0.00672
-0.18279 0.05224 0.01714
-0.19140 0.13040 0.05946
-0.03023 -0.05460 0.04292
0.02331 -0.35952 -0.09634
0.03252 -0.08850 0.01176
-0.09770 0.06505 -0.10418
-0.19978 0.10487 -0.05051
-0.17387 0.28979 -0.10319
-0.09302 -0.07794 0.02562
-0.18765 0.10562 0.06271
-0.07514 -0.01596 -0.18608
-0.07792 -0.08625 0.03799
-0.11454 0.22214 0.01746
-0.16169 0.12573 -0.12210
-0.12829 0.33565 0.00539
0.08379 -0.08625 0.01246
0.03657 -0.15520 -0.01702
-0.11265 -0.38826 -0.05319
-0.18326 0.15823 -0.06086
-0.12877 0.35978 -0.04207
0.01227 0.05509 -0.20825
-0.20703 0.22542 -0.01165
-0.12393 -0.01625 -0.04268
-0.17895 0.31432 0.09027
-0.13770 -0.05860 -0.00886
-0.21714 0.05502 -0.01490
-0.14823 0.39161 -0.02498
-0.14208 0.34165 0.06572
-0.13664 0.30751 -0.09455
-0.10550 0.16698 -0.01995
-0.16529 0.11069 -0.02122
-0.20043 -0.00935 0.05910
-0.00173 -0.35946 0.06928
-0.11395 0.20035 0.05720
-0.14494 0.07984 0.11886
-0.18760 0.22967 0.11077
0.04186 -0.05460 -0.06444
-0.00984 0.08835 -0.18608
-0.21688 0.03411 -0.01280
-0.09842 0.04839 0.08910
-0.18039 0.15394 0.15493
0.03561 -0.05460 -0.09156
0.11347 0.01587 -0.19039
0.12512 0.07363 -0.20156
-0.10668 -0.38931 -0.06322
-0.19988 0.09641 0.01393
0.05024 -0.11578 0.01475
-0.17376 0.13404 0.07974
-0.11457 0.25446 -0.09463
-0.17398 0.15750 0.02916
-0.12990 -0.01408 0.06171
-0.04054 -0.05460 0.03850
-0.19774 0.33843 0.04378
0.08937 -0.05460 -0.13387
-0.20091 0.12014 -0.04238
0.02730 0.10839 0.20374
-0.03850 -0.05460 -0.13919
-0.03296 -0.08625 -0.03784
-0.13344 0.01399 0.08977
0.06805 -0.05460 0.03180
-0.17118 0.16510 -0.03987
-0.08082 -0.37019 0.11764
0.18946 -0.03514 0.18727
-0.18493 0.24346 0.02979
-0.05614 -0.05460 0.07310
0.11774 -0.08625 0.06178
-0.21078 0.06269 -0.00844
-0.04247 -0.05460 0.14392
0.08502 -0.08625 0.01854
0.17334 -0.08625 0.00699
-0.15724 0.11707 0.14291
0.17664 -0.08625 0.02302
0.06267 -0.38866 0.18166
-0.02331 -0.08625 -0.13844
0.19944 -0.05789 -0.02174
0.04094 -0.36360 0.11520
0.08784 -0.37961 -0.03555
-0.03572 -0.08625 -0.10690
0.19732 -0.37304 0.06794
-0.18112 0.06915 0.02894
-0.10593 -0.06516 0.01164
-0.20283 0.14613 0.05153
-0.10249 0.17913 -0.10339
0.02062 -0.05460 -0.15876
0.03900 -0.05460 0.17319
-0.15948 0.00913 0.07632
0.03612 -0.05460 0.02375
-0.10670 -0.07904 -0.04214
0.04506 0.09294 0.18608
-0.04830 0.03903 -0.20825
-0.20835 0.24266 0.00076
-0.13076 0.31776 -0.08614
-0.03234 -0.37961 0.07087
-0.17732 0.22490 -0.06652
0.15788 -0.05460 0.10108
-0.09271 0.08667 -0.06760
0.08280 -0.05460 -0.10573
-0.10886 0.22910 -0.10288
-0.18279 0.01397 -0.00036
-0.15730 0.07606 -0.08705
-0.10695 0.19573 -0.06029
0.10798 -0.05460 0.08952
-0.00227 -0.05740 -0.19438
0.18516 -0.07077 0.05592
-0.00321 -0.08475 0.18945
0.09659 0.08552 0.20825
-0.10819 -0.39660 -0.07110
0.04867 -0.05115 -0.20492
-0.17261 0.00090 -0.02775
0.03858 -0.08625 0.16500
-0.17938 0.18486 0.06445
-0.12169 0.13265 -0.14300
-0.16225 0.10015 0.13551
-0.04491 -0.02411 -0.20397
-0.04286 -0.37961 0.09134
-0.20190 0.13192 -0.03035
0.02117 -0.35046 0.02841
-0.20322 0.26724 -0.02046
-0.01542 -0.08625 -0.04871
-0.12047 0.24857 0.06450
-0.15058 -0.00634 -0.01854
-0.18125 0.20345 0.05542
-0.09935 0.08104 0.06720
-0.06450 0.04757 -0.20462
-0.18321 0.24654 -0.00891
0.12579 0.05870 -0.18608
-0.00484 -0.03856 0.20589
-0.12045 -0.06354 -0.00579
-0.15507 0.05472 -0.07823
-0.11885 -0.01385 -0.02939
0.02199 -0.31351 0.00771
0.13632 0.06346 -0.19988
-0.01156 0.05938 0.20825
0.05581 -0.14589 -0.00317
-0.13124 -0.02233 0.03071
0.01357 0.06738 0.18608
-0.01011 0.03354 0.20082
-0.19397 0.19464 0.05154
-0.07556 -0.05460 0.12282
0.02445 -0.05528 0.18608
-0.18258 0.17864 0.13767
0.08753 -0.35583 -0.04227
-0.00846 -0.05460 0.19323
-0.16632 0.10705 0.00619
-0.10710 0.15381 0.03993
-0.16803 0.12346 -0.00075
-0.11637 0.21817 0.06009
0.09510 -0.37961 -0.00657
-0.07581 -0.06388 -0.13593
-0.14913 0.13642 0.14417
0.03923 -0.35046 0.02375
-0.03319 -0.35995 -0.04881
0.10999 -0.05460 0.00335
-0.17326 0.21985 -0.12906
-0.09039 -0.05460 0.11306
0.01914 -0.36458 -0.14334
-0.08381 0.01782 0.20174
0.03680 -0.23242 0.02210
0.10546 -0.05460 0.18457
0.11249 -0.02089 0.19915
-0.13324 0.25371 0.10820
-0.15880 0.05284 -0.00549
0.05711 -0.06698 0.19998
-0.07157 0.03759 0.19965
0.04820 -0.08235 -0.15696
0.19901 -0.06850 -0.20480
0.00516 -0.08625 0.01055
-0.12219 0.22692 -0.13016
-0.01240 -0.08625 0.00475
-0.15639 0.03999 -0.01980
-0.13050 0.23206 0.10834
0.15827 0.01741 -0.20825
-0.18073 0.21977 0.00805
-0.07708 -0.07794 -0.01266
-0.09510 -0.37534 0.11068
0.03578 0.07900 0.18608
-0.11860 0.22515 0.08485
-0.15268 0.10494 -0.13822
0.17376 -0.05460 -0.05849
-0.17475 0.22757 -0.11975
-0.09031 -0.05460 -0.04973
-0.20453 0.17506 -0.00391
-0.14556 0.39059 0.01554
-0.16852 0.08093 -0.06903
-0.10334 0.11916 -0.12672
-0.07516 -0.05460 0.00346
0.11772 -0.06983 0.16815
0.03167 -0.15776 0.01032
-0.18853 0.30203 -0.04043
0.19960 -0.05947 -0.02836
0.07191 -0.05460 0.14360
-0.09578 0.04059 -0.08241
-0.12080 0.24471 0.07965
0.17756 -0.08625 -0.06095
0.06757 -0.37961 0.14069
0.10497 -0.35715 -0.02804
-0.16306 0.11223 -0.06572
0.13681 -0.05460 0.07152
-0.09971 -0.06850 0.20150
0.13797 -0.05460 -0.10068
0.15500 -0.05460 -0.10963
0.01688 -0.08625 -0.18721
0.06119 -0.08625 0.00694
-0.12330 0.18046 0.13121
-0.17061 0.18246 -0.09063
-0.14018 0.07477 -0.12353
-0.02608 0.03768 -0.18608
-0.15299 0.24600 -0.12035
-0.06818 0.02547 -0.18608
-0.01401 -0.37961 0.02276
-0.10371 0.12730 0.03957
0.00874 -0.07268 -0.18961
-0.09487 -0.37961 -0.05842
0.10039 0.03675 0.20825
0.16084 -0.03495 0.20825
0.05703 -0.29536 0.02149
0.10523 -0.35180 -0.00767
-0.14684 -0.00610 -0.08770
0.16944 -0.07502 -0.11983
-0.10481 -0.06921 -0.02682
-0.17202 -0.02766 0.00789
-0.19058 0.30522 -0.01025
0.17781 -0.39474 -0.12220
-0.20164 0.07155 0.05451
-0.11023 0.20254 -0.11714
-0.20230 0.08152 0.06314
0.09666 -0.08625 -0.10428
-0.19251 0.34187 -0.06009
-0.13835 0.15032 0.15396
0.03484 -0.05460 -0.17245
-0.06839 -0.08625 0.10795
-0.09154 -0.05460 0.04484
-0.07563 -0.08625 0.09376
0.16514 0.00794 0.18608
0.04244 -0.08625 -0.11732
-0.07552 -0.37961 -0.03930
-0.17901 -0.01939 -0.00575
-0.16320 0.12521 -0.09326
0.02339 -0.05460 -0.03503
-0.15101 -0.06782 0.01618
-0.17804 0.22050 -0.04295
0.08434 0.04921 0.20825
0.03419 -0.39420 -0.20502
0.18770 -0.05460 -0.06272
-0.19671 0.03714 -0.02444
0.01265 -0.05460 -0.18915
0.16798 -0.06307 -0.20360
-0.18796 0.27698 0.00746
-0.16418 -0.02394 0.07998
-0.16697 0.16972 -0.12783
-0.10041 -0.08625 0.06544
0.13692 0.02079 0.18608
-0.07242 0.02844 -0.20825
0.11596 -0.37666 -0.03993
0.05530 -0.10707 0.00488
0.03759 -0.05976 -0.20825
-0.15366 0.26209 -0.10747
-0.04804 -0.08625 -0.11205
-0.03025 -0.08625 0.03049
-0.07958 -0.08625 0.03364
0.20621 -0.39103 0.06828
-0.10148 -0.07077 -0.03112
0.04011 -0.37217 0.10977
0.11229 -0.05460 -0.09100
-0.09876 0.06848 0.08565
-0.20458 0.17965 0.00947
-0.14945 -0.02541 -0.07591
0.20964 -0.37961 0.04543
-0.19154 0.31687 -0.01984
0.14545 -0.05460 -0.02537
0.03151 -0.09960 -0.01085
-0.10424 -0.08625 0.05894
-0.11031 -0.05460 -0.01288
0.06272 -0.37767 -0.06856
-0.17468 0.25119 0.11860
-0.11335 0.17003 0.11686
0.07129 -0.35046 -0.02737
-0.17144 0.00785 0.02395
0.03791 -0.20713 0.02251
0.07510 -0.37220 0.10376
-0.02121 -0.36185 -0.05179
-0.03735 -0.36299 0.04804
0.00921 -0.07077 0.18585
-0.17883 0.19443 0.03216
0.03609 -0.10003 0.01572
-0.03087 0.08303 -0.19861
-0.09504 -0.05460 -0.01669
-0.12572 0.28362 0.07919
-0.19840 -0.00564 0.02070
-0.11507 0.08076 0.12748
-0.11612 0.25127 -0.02149
0.03049 -0.32192 0.02421
0.09491 -0.05460 -0.15514
0.14014 -0.36166 0.03775
