ply
format ascii 1.0
comment VCGLIB generated
element vertex 1807
property float x
property float y
property float z
element face 0
property list uchar int vertex_indices
end_header
-0.16969 0.02979 0.16710
-0.12416 0.03041 0.01738
-0.15576 0.07295 -0.20052
-0.05856 0.20851 -0.19320
0.22369 0.03553 0.05256
-0.18511 0.29457 0.02076
0.22993 -0.14756 -0.16961
0.18362 0.03553 0.06207
-0.09060 0.03553 -0.15314
0.12529 0.07281 -0.20052
0.22993 0.02086 0.16432
-0.21120 -0.27451 0.19584
0.09387 0.19649 0.22280
-0.18626 0.29968 -0.11605
-0.17646 0.24847 0.20052
-0.18218 0.29422 -0.18426
0.21477 -0.00903 -0.11425
-0.16059 -0.20955 0.18139
-0.14649 0.13510 -0.19189
-0.18134 0.27774 0.12843
-0.18635 -0.06084 -0.18494
-0.13652 -0.01100 -0.16710
-0.16400 -0.01966 0.12090
-0.06140 0.02883 0.20052
-0.19755 0.35003 -0.14927
0.01615 0.03553 0.11522
-0.06513 0.03329 -0.20052
-0.21819 -0.33464 0.17978
-0.09262 0.03553 0.15930
0.13938 0.09650 0.21912
0.22993 -0.01485 -0.19429
-0.15267 0.03553 0.03154
-0.15989 0.18211 -0.10487
-0.15028 0.00131 -0.20052
-0.16927 -0.25477 -0.17456
-0.15060 0.14068 -0.10295
-0.18693 -0.34683 0.18944
-0.18946 0.31396 0.08239
0.19876 -0.29664 0.18912
-0.01101 -0.00462 -0.20052
-0.15547 -0.18285 0.16813
0.22341 -0.07471 0.20052
0.09849 -0.01966 0.19822
-0.20601 -0.34999 0.20052
-0.15657 0.16729 -0.11887
-0.21361 -0.29527 0.17866
0.19570 0.00230 -0.20052
-0.18405 0.28982 0.15235
-0.19757 -0.36182 0.20052
0.10355 -0.01706 -0.20881
0.17062 0.04110 0.17426
-0.00305 0.22139 0.23804
0.20344 -0.14719 0.20052
-0.10295 0.03553 -0.03101
0.20037 -0.31063 0.18117
0.11857 -0.01966 -0.19822
0.11594 0.20049 -0.23919
0.05154 0.03553 0.03046
-0.18249 0.01999 -0.02303
-0.19450 0.31054 -0.16710
0.00007 0.03553 -0.15103
-0.15102 0.10943 -0.20052
0.13976 0.03239 -0.22147
-0.18864 0.08779 0.18617
-0.16269 -0.22047 0.16909
-0.12801 -0.03974 -0.18900
0.22155 -0.22475 -0.20052
0.05720 0.20018 0.21562
0.22993 -0.00371 0.10372
0.17908 0.04110 -0.18826
0.10479 -0.01966 -0.18787
-0.12416 0.03065 0.16004
0.07699 0.03553 -0.13327
0.19341 -0.18870 0.16710
0.22993 -0.00441 -0.09268
0.15882 0.03553 0.05296
-0.20959 0.27760 0.20052
0.05740 0.20018 0.19791
-0.17987 0.27120 -0.09424
0.19562 0.03553 -0.04600
-0.19147 0.10698 0.16787
-0.16985 0.20117 0.19825
0.20976 -0.11271 0.16710
-0.18790 0.30700 -0.03488
-0.12416 0.02755 0.09286
-0.17338 0.12577 0.01648
-0.19228 0.32652 -0.01070
0.13065 0.03553 -0.18611
-0.16410 0.20090 -0.00831
0.12980 0.03553 -0.02810
-0.15310 0.01950 0.20052
-0.16924 0.19770 -0.20052
0.20183 -0.20157 -0.20052
0.22993 0.00291 0.12264
-0.18235 0.20018 0.23017
0.19952 0.02973 0.20052
0.11967 0.01855 0.22280
0.08760 0.22246 0.19846
-0.14945 -0.01966 -0.00958
-0.16694 0.11858 0.20052
0.20566 -0.35652 0.19236
0.10355 0.01219 0.22211
0.17151 -0.06000 -0.18922
-0.19467 -0.13238 0.18645
0.03104 0.03553 -0.04271
-0.11444 0.03212 -0.20052
-0.20124 0.36649 -0.13384
0.20485 -0.15053 -0.16710
0.06379 0.20018 0.20638
-0.11676 0.03553 0.17708
0.22993 -0.07185 -0.19794
-0.20015 0.32246 0.15999
-0.14278 0.11857 0.18310
-0.19338 0.15168 0.20052
0.19881 -0.04100 -0.16710
0.08100 0.03553 0.08181
-0.12416 -0.01405 0.08989
-0.15448 0.14360 0.20052
0.19376 0.03553 -0.15395
0.22108 0.00532 0.20052
-0.02351 0.20018 -0.23166
-0.18333 -0.13237 0.20052
0.18537 0.01387 -0.08685
-0.19940 0.32263 -0.15472
0.21987 -0.28368 0.20052
0.22993 -0.36746 0.19651
0.18537 -0.00364 -0.09707
0.22796 -0.00903 -0.02002
0.14397 0.03553 -0.00496
0.04946 -0.01966 0.18382
-0.06190 0.03553 -0.19708
-0.17330 0.12542 -0.00091
-0.17949 -0.12591 -0.20052
-0.17046 -0.26099 0.17277
0.16924 -0.04024 0.17843
-0.22615 0.36116 -0.03637
0.20861 -0.00903 -0.02167
-0.00610 0.20018 0.19230
-0.21133 0.24134 0.17692
-0.18694 -0.27920 -0.16710
0.22993 -0.28130 0.17100
-0.22122 -0.36068 -0.17494
-0.18148 0.06831 0.20052
0.20710 -0.00903 0.14791
-0.10247 0.03553 -0.08215
-0.20758 0.37216 -0.17825
0.12688 0.13487 -0.22280
-0.12416 0.00128 -0.11891
-0.21389 0.22246 0.23048
0.15378 0.01838 -0.20052
-0.07122 -0.01722 -0.20052
-0.18358 0.05356 -0.18084
-0.07849 0.20018 0.20534
0.22993 -0.11101 -0.16998
-0.17023 0.03553 0.10074
-0.02130 0.03553 0.11254
-0.14730 0.20018 -0.23362
0.22993 -0.18919 -0.18824
0.08036 0.03553 0.12849
-0.19690 -0.15155 -0.19536
-0.21848 0.32687 0.10223
-0.16430 -0.11980 0.20052
-0.10175 0.03553 -0.10471
0.06145 0.03553 -0.15147
0.22993 -0.07395 -0.16806
0.06801 0.20444 0.23873
-0.05269 0.21367 -0.23756
-0.16641 0.21120 0.04708
-0.17169 0.23473 -0.07087
-0.02465 0.00933 0.16710
-0.20500 0.19851 -0.18284
-0.19975 -0.17603 0.18067
-0.01117 0.03553 0.09851
-0.01985 -0.01508 -0.20052
-0.20169 0.24524 -0.16710
-0.15831 0.03553 -0.12052
-0.11555 0.03553 -0.15036
0.09382 0.03553 0.08841
-0.15333 -0.01966 -0.05638
-0.20405 0.27309 0.20052
0.00828 0.03553 0.18755
-0.18013 0.15591 0.10394
0.02376 0.22246 -0.22543
-0.14656 0.20641 -0.23665
-0.16676 -0.15445 0.20052
-0.22384 0.35083 -0.00470
-0.06758 0.03553 -0.03382
-0.16491 -0.01966 -0.13476
0.00626 0.00381 0.20052
-0.17983 0.27104 0.07464
-0.09419 0.21010 0.19481
-0.17007 -0.06655 -0.20052
0.19940 -0.27314 0.20052
0.21176 -0.36562 -0.20052
0.07140 0.20620 0.18730
-0.12053 0.22246 -0.21871
0.20935 -0.06068 0.20052
0.20199 -0.11183 -0.20052
0.20040 -0.29700 -0.20052
-0.20195 -0.37386 -0.19974
-0.04397 0.22246 -0.23605
0.19978 -0.30547 -0.18895
0.06920 0.02645 0.20052
-0.13254 -0.06337 0.18134
0.07490 0.20018 0.23555
0.09082 0.03553 0.02350
0.13264 -0.01966 -0.17370
-0.15834 0.17522 0.13937
0.19024 -0.00903 -0.12047
-0.19928 0.35776 0.06376
-0.22021 0.33461 0.13642
-0.16982 -0.07981 -0.16710
-0.20324 -0.35181 -0.20052
-0.10050 0.20018 -0.22301
0.15058 -0.01966 0.18615
0.18537 0.00469 0.02784
-0.19129 -0.28088 -0.20052
0.22993 -0.00420 0.05927
-0.12416 0.01719 -0.08514
-0.15972 0.19409 0.19089
0.06304 0.22246 0.23309
-0.19398 -0.14796 -0.20052
0.17306 0.03553 -0.07986
0.20986 -0.05819 -0.16710
-0.07771 0.03553 0.13368
-0.18723 0.31675 -0.18196
-0.20848 0.36150 0.16710
-0.17405 0.25796 0.19496
-0.18249 0.02276 0.12960
0.13577 0.22246 -0.19964
-0.17121 0.04126 0.20052
-0.17842 0.16705 -0.16710
0.00421 -0.01966 0.19851
0.22993 -0.22463 0.18439
0.22993 0.00258 0.02448
-0.18643 0.30044 -0.06003
-0.17622 0.25490 -0.16521
-0.18358 -0.05537 -0.20052
-0.18208 0.16463 -0.03322
0.10355 0.08798 -0.20722
-0.19626 0.13935 0.18905
-0.21107 0.36568 -0.09196
-0.02931 0.00150 -0.16710
0.00939 0.03553 -0.14405
-0.16518 -0.01966 0.02260
0.01527 -0.01966 -0.17420
0.20661 -0.34052 -0.16710
0.10781 0.22139 0.18565
-0.12416 -0.01261 -0.12737
-0.13364 -0.01946 -0.20052
-0.20234 0.36763 0.08486
0.22042 -0.11119 0.20052
0.13668 0.03553 -0.19051
-0.14974 0.14960 0.18854
-0.09221 0.20027 0.19473
0.06567 0.02955 -0.16710
-0.14923 0.13459 0.02425
0.22993 -0.10621 -0.17616
-0.00629 0.20018 0.22203
-0.19253 0.32765 -0.09523
-0.19997 0.19313 -0.20052
-0.21200 0.36547 0.03581
-0.19049 0.31853 -0.16360
0.17442 0.03553 0.04730
0.19080 -0.09523 -0.20052
0.07677 0.03553 -0.19576
-0.18249 0.03564 -0.17009
-0.20399 0.19166 -0.19239
-0.16286 0.19537 -0.06613
0.19903 0.03553 0.12309
-0.18283 0.20018 -0.23416
0.12650 0.10765 0.22280
0.11825 0.06777 0.20052
-0.16156 0.17128 0.05212
-0.16188 -0.21626 0.19968
-0.08180 0.03553 -0.04630
0.07339 0.03553 0.03668
-0.19012 0.31690 -0.01369
0.02005 0.03553 0.13809
0.03222 0.20018 0.22649
-0.18707 0.30331 0.03439
-0.17424 0.03553 -0.00696
-0.18025 -0.01966 0.13744
-0.15475 0.15918 -0.01212
0.19822 -0.17077 0.16710
0.10834 0.03553 0.07138
-0.08885 0.03553 0.15335
-0.20123 0.29679 -0.16710
-0.17893 0.22246 0.21391
-0.22422 0.36718 -0.20052
0.07122 0.21230 0.18731
0.18537 0.03078 -0.07919
-0.15907 0.17847 -0.03015
-0.18249 0.00524 0.00797
-0.18249 0.01940 -0.05487
-0.20913 -0.27954 -0.20052
0.11240 -0.01676 -0.22280
0.02176 0.03553 0.00148
0.22729 -0.00903 -0.10224
-0.09188 0.01452 0.20052
0.13981 0.03553 -0.15102
0.22052 -0.18705 -0.16710
-0.16389 -0.06016 0.20052
-0.19221 0.16987 -0.16710
0.20825 -0.25203 -0.20052
-0.18017 0.15611 -0.08403
0.10182 0.03553 -0.16291
-0.12416 0.00434 0.16104
-0.12416 0.02766 -0.04505
-0.06586 0.20167 0.23743
0.06044 0.22246 -0.22662
-0.05180 0.03553 0.14308
-0.16726 0.22769 -0.19518
0.21819 -0.21315 0.20052
-0.12631 0.00385 -0.16710
-0.06658 0.03553 -0.07756
-0.15426 0.16975 0.18163
0.22993 0.03472 0.17875
-0.12805 0.03553 -0.04350
-0.13900 0.07132 0.20052
0.11871 0.07942 -0.22280
-0.04993 0.03553 0.11546
-0.17769 0.14500 0.07986
-0.13445 0.21329 -0.19664
-0.22639 0.36220 -0.10849
-0.02974 0.21570 -0.19189
-0.16723 0.12435 -0.06864
-0.10410 0.03553 -0.18826
-0.12416 0.02403 0.15404
-0.10840 -0.00821 0.20052
0.18305 -0.16024 -0.17180
-0.15868 0.17670 -0.09470
0.18537 0.03077 0.16118
0.09810 0.11702 0.20729
-0.21699 -0.32427 -0.17675
-0.13372 -0.01966 -0.06699
0.09996 0.20018 -0.20951
-0.17095 -0.00991 0.20052
0.20274 -0.00903 -0.16455
-0.03141 0.20018 0.22324
0.12116 0.20018 0.18743
0.00636 0.22246 -0.22544
-0.17090 0.23119 0.00652
-0.17667 -0.13970 -0.16710
-0.04513 0.03553 -0.12133
-0.17343 -0.16255 0.20052
0.11339 0.20810 0.23917
0.03658 -0.00197 -0.16710
-0.00700 0.03553 -0.02314
0.08457 0.03553 -0.10916
-0.16509 0.20473 0.16710
0.13120 0.03553 -0.18099
0.02338 0.21857 -0.23830
-0.19338 0.33144 0.04612
-0.12045 -0.01966 0.18733
0.12424 0.08558 -0.22280
-0.11286 0.21073 0.19566
0.19912 -0.00903 -0.12259
-0.02247 0.21773 -0.23785
-0.21441 0.31927 0.11239
0.02363 0.03553 -0.17078
0.14832 0.20313 0.20209
-0.17668 0.03553 -0.00044
-0.16997 -0.22533 0.16710
0.11892 0.17530 -0.20822
-0.14086 0.05542 0.20052
0.18433 -0.15817 -0.16710
-0.16390 -0.22681 0.18365
0.12003 0.03553 0.11733
-0.20984 -0.26286 -0.19555
-0.10799 0.21839 -0.23702
0.22993 -0.00972 -0.17304
0.18574 -0.03418 0.20052
-0.15197 0.11996 -0.20052
-0.22401 0.35156 -0.15485
0.18651 -0.13023 0.16710
-0.19762 0.24118 -0.20052
-0.17688 0.14141 -0.01570
0.13773 -0.03584 0.20331
-0.04078 0.22246 -0.21391
-0.09051 0.22246 0.21876
-0.02240 0.20018 -0.22162
-0.17269 -0.13215 0.20052
-0.16378 0.19945 -0.02743
-0.21712 0.28049 0.18831
-0.15580 0.16389 0.06199
-0.21397 -0.32423 -0.20052
0.03353 0.20018 -0.19367
-0.16590 0.20890 -0.03863
-0.12416 0.01044 0.04521
-0.03327 0.03041 -0.16710
0.10910 -0.01070 -0.20052
-0.15813 0.17429 -0.06291
-0.05834 0.20018 0.20402
-0.03560 0.20018 0.20739
-0.20305 0.35817 0.20052
0.13889 0.20018 -0.21435
-0.15096 -0.15934 0.18026
-0.16004 0.16937 -0.16710
-0.21260 -0.37386 -0.18463
-0.18153 0.27861 0.13845
-0.20075 0.36430 -0.16165
-0.18183 -0.32022 0.17157
-0.17452 0.13570 -0.16710
0.22862 -0.20298 -0.20052
-0.15155 -0.14693 0.16710
0.22278 -0.31761 -0.16710
0.10601 0.19648 0.22280
-0.14162 -0.06946 0.16710
0.07637 0.03553 0.15364
-0.04730 0.03553 0.17351
-0.13076 -0.01966 -0.14724
0.07050 0.03553 0.06798
0.21010 -0.31636 0.20052
0.07634 0.03553 0.19726
0.11439 0.01494 0.20052
-0.16058 0.03553 0.16235
0.01751 0.22246 -0.22404
-0.17587 0.06657 0.20052
-0.18249 0.00916 -0.05056
-0.19699 0.32317 0.04450
0.07677 0.20432 0.18705
0.20210 -0.29437 -0.16710
0.22993 0.02635 -0.09662
0.19151 -0.20784 -0.16710
-0.22195 -0.36699 -0.17203
-0.17712 0.14246 0.08982
-0.01633 0.03553 0.13884
0.22492 -0.37386 -0.18376
0.09229 0.14045 0.21368
-0.10761 0.20610 0.23703
-0.19246 0.34008 -0.18001
-0.21171 -0.30940 -0.16710
0.12253 -0.01966 -0.16730
0.10362 -0.01966 0.19011
0.16821 -0.03133 0.19852
0.18537 0.03086 -0.06403
0.04239 0.03553 -0.16723
0.10218 0.03553 0.19677
0.11981 -0.00494 -0.20052
0.22866 0.03553 -0.08873
-0.21885 0.29261 0.20052
-0.16771 0.21697 -0.02464
-0.19892 0.15734 -0.17560
-0.16945 0.04693 -0.16710
-0.20703 0.21224 -0.19904
-0.02145 0.03553 0.15303
-0.08352 0.22163 0.23726
-0.19723 0.14591 0.17816
0.22045 -0.33864 0.16710
0.15837 0.03553 -0.09494
-0.15778 0.12647 -0.10699
0.07766 0.19944 0.22264
0.22762 -0.00903 -0.14324
0.22993 0.00818 -0.02688
-0.12416 -0.00014 0.16986
-0.18534 0.06547 -0.19219
0.21964 -0.04718 -0.20052
-0.19840 0.36653 0.16797
0.15134 0.01437 0.16710
-0.18875 0.31078 -0.16037
-0.19031 -0.36443 -0.17810
-0.18249 -0.01649 -0.06755
0.19287 -0.09462 0.16710
0.10672 0.20018 -0.19758
-0.12416 0.02508 -0.03780
0.02366 0.03553 0.17823
-0.18480 -0.09861 -0.16710
-0.14791 0.14142 -0.19434
0.10016 0.10962 0.20052
-0.19126 0.32197 -0.09549
-0.18249 0.03161 0.13500
-0.20389 0.31599 0.20052
0.22092 -0.15245 0.16710
-0.18249 0.00535 -0.08967
-0.17089 -0.01966 -0.07933
0.01703 0.03553 0.15505
-0.15676 -0.18709 0.20052
-0.00428 0.03553 -0.03797
0.10502 0.00357 -0.22280
-0.17522 0.06338 0.16710
-0.16998 0.22712 0.06470
-0.07427 0.22246 -0.20445
0.20814 -0.09129 0.16710
0.12661 0.03553 -0.15435
-0.18426 0.29078 -0.11942
0.22846 -0.20693 0.20052
-0.05344 0.03553 0.03451
0.02798 0.20018 -0.21211
-0.18086 0.27563 -0.10297
0.22993 -0.00838 0.15829
-0.18249 -0.02197 -0.17603
0.17994 -0.12499 -0.20052
0.02959 0.21645 -0.23836
0.04178 0.03553 -0.14203
-0.12416 -0.00910 -0.11285
-0.15343 0.15329 -0.10366
-0.12457 0.03735 0.17723
-0.19864 0.34103 0.20052
0.11556 -0.00967 0.16710
-0.15065 0.02345 0.16710
0.18537 0.01969 0.05970
-0.17187 0.03553 -0.16515
0.09127 0.22246 0.18710
-0.17673 0.14073 0.00827
0.09567 0.03553 0.18050
-0.15744 0.12654 -0.05383
-0.11051 -0.00977 -0.16710
0.20609 -0.02349 -0.16710
0.14172 0.03553 -0.14077
0.11681 0.00111 0.16710
-0.16397 0.20018 0.21737
-0.14289 0.03553 -0.09649
-0.18505 0.29430 -0.02892
-0.19073 0.10192 -0.18073
-0.18249 -0.00352 -0.03652
0.11283 0.04812 0.22280
0.12060 0.01538 -0.20052
-0.15382 0.11377 0.20052
0.22993 -0.25494 0.19124
-0.21202 -0.28154 0.17158
0.16140 0.01762 0.20052
-0.12724 0.03553 0.05121
-0.17219 0.23696 0.02804
0.06856 0.20018 0.19004
-0.17267 -0.27252 0.16930
0.12340 0.10357 -0.20052
0.05686 0.03553 -0.15547
-0.22045 0.33564 0.05311
0.00024 0.03553 0.03875
0.22709 -0.16439 0.20052
-0.13409 -0.01966 0.03195
-0.14613 0.03553 -0.08800
0.14219 0.03553 -0.13497
0.12003 0.00721 0.16710
-0.14816 0.12981 0.00166
-0.06190 0.22246 0.21528
-0.20583 0.32119 0.13953
-0.19863 -0.37386 -0.18488
-0.20376 -0.31456 -0.16710
-0.00931 -0.00670 -0.16710
-0.17501 0.11030 0.16710
-0.15805 0.17392 0.03278
0.18537 0.02932 -0.07247
0.15132 0.03553 0.13517
-0.02575 0.21073 -0.19171
0.21136 -0.00903 0.03178
-0.22137 -0.36197 0.19256
0.12570 -0.00572 -0.16710
-0.18167 -0.01966 -0.09077
-0.21732 -0.32712 -0.18905
-0.19846 0.35410 0.09126
0.03479 0.03553 0.13201
-0.17771 0.26156 -0.08116
-0.12416 0.00500 0.19389
-0.17257 0.23863 -0.10760
-0.10529 0.00640 -0.20052
0.03002 0.02465 0.20052
0.19676 -0.16576 0.20052
-0.15200 0.12776 -0.00802
-0.09314 0.03553 -0.04029
0.17690 -0.00918 -0.20052
0.19924 -0.17008 -0.16710
-0.20256 0.32307 -0.16710
0.20019 -0.00903 0.16371
0.07648 0.03553 0.06694
-0.12416 0.01262 0.08672
0.21757 -0.37386 -0.19344
-0.18249 0.03120 -0.11321
0.05551 0.03553 -0.01466
0.13003 0.08960 -0.20052
0.01159 0.22246 0.22305
-0.19947 -0.17364 0.19686
-0.19889 0.35601 -0.09919
-0.04145 0.02272 0.20052
0.02865 0.21362 0.18924
0.22405 0.03553 0.12173
-0.15312 0.15302 0.16710
-0.10657 0.21144 0.23704
-0.19575 0.34200 -0.12821
-0.21142 0.34478 0.16710
-0.18114 0.24313 0.16710
-0.03447 0.02222 0.16710
0.21334 0.03553 0.16435
0.18537 0.01744 0.04451
-0.07312 0.22246 0.20341
-0.00317 -0.00994 -0.20052
-0.05963 0.03553 -0.16333
-0.04414 0.03553 -0.10332
0.20023 0.03553 0.15992
-0.00616 0.22246 0.20401
0.19832 -0.00498 0.20052
-0.18938 0.31362 0.09998
0.21836 -0.10203 -0.20052
0.10243 0.19244 0.22280
-0.15335 0.15295 0.16004
0.19569 0.04110 -0.18874
-0.18857 0.26341 0.16710
-0.16307 0.03553 -0.06295
0.22993 0.02924 0.04312
-0.16036 0.18420 0.00239
0.21390 -0.02429 0.20052
-0.20168 0.17604 0.16998
-0.21048 0.36581 -0.13658
-0.14467 0.20185 -0.19711
0.19220 0.03553 -0.02068
-0.15721 0.17016 -0.10768
0.22993 0.02319 -0.17231
0.19417 -0.02798 0.20052
0.19403 -0.00903 -0.10812
0.19195 -0.00903 0.09464
0.18195 -0.04183 -0.16710
-0.22597 0.36033 0.04595
0.16515 -0.01966 0.19471
0.22148 -0.26693 -0.16710
0.18353 -0.06927 0.16710
-0.19704 0.34777 -0.14211
0.15805 0.02471 0.20052
-0.15653 0.22246 -0.22200
-0.17533 -0.12476 -0.16710
0.10950 0.01720 0.22280
0.18913 -0.08452 0.16710
0.22434 -0.12737 -0.16710
-0.18474 -0.33541 0.18469
0.18443 -0.17215 0.20042
-0.21775 0.32359 -0.03519
0.16482 0.03553 0.12367
0.01967 0.22246 -0.19381
-0.16116 0.20049 -0.17875
0.12440 0.03678 0.20052
-0.22226 0.31527 0.16957
-0.22231 0.34398 -0.11682
-0.15811 0.12639 0.01167
-0.17387 -0.00163 -0.20052
-0.17732 0.03553 -0.13449
0.20902 -0.01432 -0.20052
0.13187 0.12543 -0.20598
0.22993 0.00270 0.10994
-0.15550 0.07311 0.16710
0.22993 -0.31981 -0.18043
-0.15546 -0.02647 -0.16710
-0.18195 0.19496 -0.20052
-0.18015 -0.25150 -0.20052
0.22839 -0.18216 0.16710
0.14496 0.03553 0.07011
-0.18249 0.03349 0.11841
-0.19993 -0.17757 0.16803
0.12770 0.03553 -0.06516
0.11789 0.22046 -0.23921
-0.04389 0.01522 0.16710
-0.12763 0.05100 -0.16969
-0.21995 -0.34978 -0.17424
-0.02136 0.01491 -0.20052
-0.16139 0.18880 -0.04418
-0.21906 0.32945 0.01766
0.01907 0.03553 -0.12152
0.16171 -0.01587 0.20052
-0.16754 -0.01113 0.16710
-0.18723 0.30401 -0.13300
0.10926 0.15998 0.20052
-0.20418 -0.31055 0.16710
-0.18590 -0.16144 0.20052
0.10497 0.22246 -0.19585
-0.15935 0.00983 0.16710
-0.17346 0.16862 -0.06756
-0.18066 -0.15944 -0.20052
-0.14397 0.03553 0.14260
-0.19298 0.22246 0.23264
-0.16551 0.20716 0.01506
-0.02699 0.20018 -0.19809
0.22560 -0.15397 -0.20052
0.06276 0.01403 -0.16710
0.10743 0.17189 0.22280
0.20692 -0.22115 0.16710
-0.15337 -0.09286 0.16710
0.18568 -0.05323 -0.20052
-0.22079 0.30529 0.18463
-0.16204 0.17117 -0.15380
0.22993 -0.31935 -0.19693
0.22423 -0.27662 -0.20052
-0.14116 0.03553 0.07985
-0.13652 0.20018 -0.21780
0.06518 0.03553 0.13916
-0.12889 0.05664 0.19393
-0.00094 0.03553 0.02712
-0.18191 0.16390 0.08414
0.09340 0.21581 -0.18630
-0.16847 0.22037 0.14264
-0.18249 0.01168 0.15037
-0.15532 -0.01966 -0.16134
-0.17107 0.23195 -0.03449
-0.17449 0.22246 -0.20367
0.22993 -0.28604 -0.17925
-0.19895 0.15757 -0.18132
0.15574 0.02578 0.16710
-0.18249 0.01835 0.17654
-0.14669 -0.13710 -0.17966
0.05562 0.03553 0.09025
-0.13254 -0.06334 -0.17032
-0.20070 0.21075 0.16710
-0.06937 0.03553 -0.10717
0.19989 -0.00903 -0.00701
0.20402 -0.34229 -0.19709
0.04993 0.03553 0.13858
0.21833 -0.16436 -0.20052
0.22455 0.03553 0.14027
-0.22890 0.36019 -0.19104
-0.19106 0.32111 -0.10673
0.12342 0.01130 0.20052
-0.12721 0.04912 -0.18395
-0.15952 -0.01966 -0.09079
-0.16794 -0.00404 0.20052
-0.16481 0.00762 -0.16710
-0.22345 0.32333 -0.19393
0.20406 0.01450 0.20052
0.00850 0.03553 0.10188
-0.02677 0.03553 0.11404
-0.19103 0.17186 -0.20052
0.17759 -0.04476 0.16710
-0.17458 0.24762 -0.16596
0.20983 -0.26784 -0.20052
0.21285 -0.31785 -0.16710
0.06753 0.03553 0.12213
-0.18793 -0.35204 -0.19385
0.11973 0.02633 -0.22280
-0.16609 -0.23819 0.18099
-0.17276 -0.01966 -0.09544
0.21520 -0.21264 0.16710
0.11146 0.03553 0.02342
0.20319 0.03553 -0.10834
0.19300 -0.05241 -0.20052
0.08614 -0.01966 -0.18830
-0.15882 0.17736 -0.08210
-0.17444 0.24701 0.01909
-0.00273 0.00031 0.20052
-0.21380 0.33597 -0.20052
-0.05347 -0.01966 0.19371
-0.19744 0.34955 -0.13333
-0.00593 0.03553 0.06890
0.22993 0.00634 -0.19245
0.07211 0.03553 -0.05579
0.22993 0.01762 -0.03832
-0.18249 0.03038 0.09860
-0.04388 0.22246 0.21768
0.17727 0.03553 -0.11562
-0.16096 0.18690 0.01865
-0.05329 0.03553 -0.00428
-0.20233 0.26321 -0.20052
-0.05585 0.02523 0.16710
-0.20055 0.36339 0.12541
-0.16375 0.19932 -0.13636
-0.20390 -0.21174 0.18814
-0.15723 -0.04027 0.16710
-0.16472 0.02472 -0.20052
0.21224 -0.00474 0.20052
-0.18054 0.27420 0.01161
0.22936 0.03553 -0.05724
-0.16907 -0.10866 -0.20052
-0.18862 0.08768 -0.19541
-0.20657 0.36668 0.06758
0.19202 0.04110 -0.16796
-0.19610 0.34358 0.13716
-0.21544 -0.35995 -0.16710
0.06471 -0.01966 -0.17693
0.22201 -0.18470 -0.20052
-0.19762 -0.30883 0.20052
0.02706 0.03553 0.10897
-0.18249 -0.00417 0.09584
0.10236 0.03553 0.04963
-0.04735 0.03553 -0.08876
-0.13023 0.01968 -0.16710
0.20866 -0.28907 -0.20052
0.17399 -0.08147 0.18494
-0.16935 0.22429 0.08586
0.05990 0.03553 0.14963
-0.16860 -0.03678 0.20052
0.18353 0.02647 0.16710
-0.20736 0.32085 0.10449
0.13407 0.03553 0.06597
0.16506 0.03553 -0.03611
-0.16146 0.16689 0.20052
0.17445 -0.01186 0.16710
0.22464 -0.09964 -0.20052
0.09955 0.00526 0.20052
-0.17171 0.01686 -0.16710
-0.19998 0.25898 0.20052
-0.17801 0.26291 -0.12292
0.14425 0.03309 -0.20052
-0.13900 0.20018 -0.21209
-0.21794 0.32447 -0.13664
-0.20864 0.31955 -0.16710
-0.14855 0.13154 0.10159
-0.16893 0.22242 -0.01807
-0.21742 0.31859 -0.17081
0.02267 0.03553 0.00699
-0.20063 0.32235 -0.07334
0.20467 -0.34799 -0.19722
0.18149 0.03553 -0.10782
-0.19713 0.32314 -0.05297
-0.21849 0.28978 0.18485
0.09017 0.03553 0.17923
0.20014 -0.00903 -0.04978
-0.17341 0.24240 -0.05209
-0.15741 -0.19299 0.18277
-0.00179 -0.00942 -0.16710
-0.14103 0.11077 0.18864
-0.19121 -0.22812 0.20052
-0.18810 -0.07584 -0.17802
-0.19996 0.22246 -0.20857
-0.20727 0.32087 -0.12760
-0.21979 0.33269 -0.00864
-0.18986 0.20018 -0.20510
-0.18022 0.01491 0.20052
-0.22520 0.35689 -0.16200
-0.10769 0.03427 0.20052
0.21978 0.03553 -0.15603
0.03351 -0.01966 0.19659
-0.18161 -0.08992 0.20052
0.19756 -0.20644 0.16710
-0.21265 -0.28697 0.17457
0.09316 0.01901 -0.16710
0.10814 0.03399 0.20052
-0.11152 0.20555 -0.19560
-0.20018 0.36175 -0.15540
0.16687 0.03559 0.17236
0.11181 0.16909 -0.22280
-0.05972 0.00969 -0.20052
-0.18620 -0.12539 0.20052
-0.18249 0.03049 0.05039
0.04316 -0.01966 0.19876
0.21605 -0.00903 0.16479
-0.04268 0.21773 0.19248
-0.20952 0.36602 -0.16702
-0.07537 0.20018 0.22499
0.21940 0.03553 0.07475
0.22993 0.01456 0.02885
-0.18179 -0.08479 -0.20052
0.13276 0.03553 -0.11062
-0.16884 -0.01966 -0.05875
-0.19417 0.33217 -0.20052
0.22993 -0.31267 0.18491
-0.22412 0.35204 -0.03657
-0.16329 0.17089 -0.03759
0.11047 0.03221 -0.20052
-0.16709 0.21423 -0.01647
0.17562 -0.09023 0.20052
-0.16288 0.19546 0.01039
0.07821 -0.01966 -0.18146
-0.15996 0.18241 0.09907
-0.12692 -0.00583 -0.16710
0.03216 0.03145 -0.16710
-0.18249 0.00879 0.16505
0.19362 -0.14964 0.16710
-0.13506 -0.07650 0.19641
-0.17513 0.25008 0.05050
0.19599 -0.27259 -0.19086
0.20960 0.03553 0.10102
-0.17341 0.24241 -0.05859
-0.20311 -0.25382 0.16710
0.10147 0.03553 0.08850
-0.20783 -0.37386 -0.18163
-0.20313 0.18584 0.19524
-0.21492 -0.30652 -0.18429
-0.17996 0.15518 -0.11610
-0.14926 0.12273 -0.16710
-0.18249 0.00730 0.05608
-0.12593 -0.00023 0.20052
0.13282 0.12177 0.21593
0.01531 0.03553 0.08720
-0.12416 -0.00294 -0.09639
0.09040 0.03553 0.12557
-0.21182 -0.30063 -0.16710
0.02257 -0.01850 -0.20052
-0.12932 0.20018 -0.22283
0.22993 -0.15319 0.19883
-0.16662 -0.01027 -0.20052
-0.21368 0.36509 0.02043
-0.17462 -0.01966 -0.02617
-0.17750 -0.14463 -0.20052
-0.20082 0.36460 -0.11071
0.21750 -0.19280 -0.16710
0.05407 0.21024 -0.23859
-0.00767 0.03010 -0.16710
0.06825 -0.01966 0.17320
-0.18672 0.31448 0.19315
-0.08589 0.20429 0.19444
0.11241 0.20455 0.18544
0.18763 -0.06417 -0.20052
0.19652 -0.19838 0.20052
-0.12416 -0.01787 0.03528
0.20145 -0.22558 0.16710
-0.04908 -0.01966 -0.18813
-0.14593 -0.03585 -0.16710
-0.16843 0.03553 0.01296
-0.18260 0.28336 0.15263
0.12735 0.06712 -0.20052
0.18537 0.01315 -0.03625
0.10184 0.03553 0.17415
-0.16561 0.20762 0.02218
-0.08791 0.03553 0.11976
-0.21490 0.36131 0.20052
0.08938 -0.01853 -0.20052
0.06102 0.03553 0.03873
-0.15413 -0.07932 0.16710
0.20754 -0.37288 -0.19576
0.13111 0.00143 0.22280
0.19686 0.04110 0.17494
0.02123 0.03553 0.12669
-0.17535 0.12341 0.16710
0.14788 0.21396 -0.23950
0.15063 0.02557 -0.16710
0.20743 0.03553 -0.04610
-0.16325 0.01241 -0.20052
0.01023 0.20018 -0.20751
-0.04686 0.03553 0.08993
-0.19946 0.35854 -0.14597
-0.22353 0.34941 0.08619
0.17502 -0.09045 -0.17502
-0.04833 0.00770 -0.16710
-0.17839 -0.00199 0.16710
0.19236 -0.24109 -0.18954
0.08898 0.19106 -0.22280
0.03857 0.03553 0.10645
0.21524 -0.00903 0.08215
-0.07940 0.03553 -0.06303
0.11383 0.01915 -0.22280
0.21142 0.03553 0.15709
0.17577 0.03553 -0.00348
-0.18844 0.30940 -0.09468
-0.19455 0.34938 -0.17770
0.09031 0.18733 -0.20052
-0.04402 -0.00642 -0.20052
0.10355 -0.03501 0.20101
0.20728 -0.37063 0.17239
-0.10088 0.22246 0.20777
-0.17146 -0.26429 0.20052
0.22993 0.00572 -0.13156
-0.20160 -0.32376 -0.16710
-0.07673 0.03553 -0.09091
-0.16725 0.14799 -0.16710
-0.05397 0.00431 0.16710
-0.17517 0.25026 -0.02870
0.22993 -0.10419 0.17300
-0.18249 0.02311 -0.04772
-0.13225 0.20433 0.23679
0.04048 0.20564 0.23846
-0.22560 0.36243 0.13831
-0.17856 0.14890 0.03457
0.19369 -0.25259 -0.16977
0.10196 0.01196 0.16710
0.03259 0.03553 -0.05464
-0.18249 -0.00267 -0.01785
-0.15685 -0.13115 0.16710
-0.22652 0.36792 0.16902
-0.08114 0.22246 0.19661
0.19546 -0.17737 0.16710
-0.16614 0.15987 0.16710
0.22649 0.03553 -0.06911
0.22993 0.02597 0.09142
-0.18243 0.16661 -0.05708
0.14489 0.20018 -0.21209
-0.18771 -0.32915 -0.16710
0.17128 0.03553 0.10078
-0.17018 -0.01966 -0.14031
0.10355 0.06076 0.20554
0.10511 0.13838 0.20052
-0.13757 0.09531 0.18504
-0.17497 0.13289 -0.13296
-0.02995 0.03553 -0.09934
-0.17514 0.25010 0.11536
0.20848 -0.04801 -0.16710
-0.14165 -0.04599 -0.20052
-0.15329 0.15266 0.07915
0.20827 0.04110 0.18859
-0.12416 -0.00298 -0.18500
0.22993 -0.27560 0.17184
-0.10983 0.20108 0.19553
0.00173 0.03553 -0.07745
-0.18643 0.21870 -0.23626
-0.11133 0.03553 0.08377
-0.03593 -0.01039 0.16710
-0.17876 -0.30424 -0.16848
-0.20274 0.18321 0.17119
-0.09983 0.03553 -0.18271
-0.14081 0.03553 -0.01708
0.03447 -0.01578 -0.16710
-0.21820 0.32559 0.02722
0.18537 0.02623 0.04143
-0.17653 0.20119 0.19855
0.17181 0.04110 0.19904
-0.17434 -0.01966 -0.01795
0.18537 0.00331 0.04575
0.13976 -0.01109 0.20636
0.13553 0.03553 0.12587
0.17880 -0.02487 0.20052
0.22773 0.02746 0.16710
-0.12780 -0.03864 -0.16908
0.18537 0.02872 0.12625
-0.18249 0.00252 -0.02349
0.20556 -0.10562 0.20052
-0.21201 -0.30456 0.20052
0.21629 0.03553 -0.03396
-0.21585 0.27193 -0.18395
-0.15687 0.15584 -0.16710
0.07810 0.20018 -0.19443
-0.12416 0.01593 -0.07767
-0.22169 0.31139 -0.19296
0.10813 0.22246 0.22645
-0.18249 0.00954 -0.00004
0.03930 0.20456 -0.23845
-0.04048 0.22246 0.23714
-0.19440 0.33600 0.12581
0.20958 -0.22554 0.16710
0.22993 -0.05546 0.19895
-0.17425 0.15037 -0.16710
-0.19992 0.36062 0.04020
0.19125 -0.03295 0.20052
-0.19288 -0.18756 0.20052
-0.21512 0.22096 -0.21497
-0.18351 -0.21890 0.20052
-0.12416 0.03310 0.02555
0.21023 -0.00903 0.00116
-0.12416 0.02935 -0.17749
-0.18660 0.21887 -0.19901
0.18640 -0.01665 -0.16710
-0.00595 0.03507 -0.16710
-0.17160 0.24707 0.17829
-0.17976 0.15429 -0.06720
-0.12416 -0.00230 -0.11201
0.15562 0.03553 0.08150
0.08424 0.03553 -0.02090
-0.02366 -0.01966 -0.19769
-0.12832 0.22246 -0.22748
0.08922 0.03553 -0.12050
-0.20498 0.29545 0.20052
-0.12416 0.01217 -0.18602
0.14832 0.20032 0.20754
0.05973 0.03553 0.02957
-0.13712 -0.01966 -0.02945
-0.21006 0.31851 0.16710
-0.21854 -0.33765 0.18917
-0.08441 0.03553 0.09310
0.22145 -0.01445 -0.20052
-0.01613 -0.01966 0.19628
0.22993 -0.03517 0.17987
-0.20341 0.21617 0.19977
-0.20478 0.24724 -0.20052
0.00072 0.20804 -0.23808
0.11709 -0.01966 0.17922
-0.19826 -0.16327 -0.19711
0.22993 -0.20373 -0.16836
-0.15669 0.16784 0.07791
0.21073 0.02384 -0.16710
-0.20495 0.36705 -0.00130
-0.19200 0.32428 -0.14550
-0.19768 0.32301 0.02616
-0.01928 0.03553 -0.18449
-0.13405 -0.07122 -0.19747
-0.14793 0.12881 -0.14921
-0.13149 0.03372 -0.20052
0.03332 0.03553 0.01655
-0.14303 -0.02049 0.16710
0.04706 0.02014 0.20052
0.22993 -0.27502 -0.17987
-0.17792 0.26250 -0.00631
-0.14973 -0.15292 -0.18779
0.05828 0.20018 -0.21044
0.22993 -0.36579 -0.17645
0.21323 0.03553 -0.03943
-0.20004 0.32249 -0.19848
0.19497 -0.26370 0.17920
-0.17292 0.12371 0.07593
0.17660 -0.06861 -0.20052
-0.19606 0.34339 0.08703
-0.03533 -0.00380 0.20052
-0.20643 0.30354 0.20052
0.07355 0.03553 -0.16845
-0.06542 -0.01966 0.18251
0.22207 -0.29060 0.20052
-0.14933 0.13502 -0.07697
-0.17293 0.12557 -0.20052
0.16989 -0.04595 0.17588
-0.14726 -0.12616 -0.20052
-0.04569 0.03553 0.13940
0.02417 -0.01966 0.16781
-0.14596 0.13273 -0.17328
-0.19175 -0.21574 -0.16710
0.21874 -0.32110 0.16710
-0.16116 0.06679 -0.16710
-0.20444 0.32150 -0.01884
-0.18585 -0.06729 0.20052
0.18537 -0.00001 -0.01275
0.13618 0.03553 -0.09336
-0.20537 0.32129 0.16260
-0.13929 -0.01966 0.00084
-0.18719 0.30384 0.07126
-0.15549 0.16251 0.03146
-0.18249 0.02114 -0.17763
-0.13762 0.04397 0.20052
-0.12416 0.00022 0.15579
-0.14306 -0.11815 -0.18266
-0.01523 0.03553 0.03682
-0.19769 0.32301 -0.16255
0.22778 -0.05795 0.16710
-0.15701 0.16926 0.12006
-0.21731 -0.32708 -0.18171
-0.14732 -0.12009 -0.20052
-0.16835 0.14994 0.16710
0.06396 -0.00198 0.20052
0.08356 0.03553 0.08652
-0.17473 0.09432 0.16710
0.15887 -0.01433 0.16710
-0.18262 -0.02875 -0.19904
-0.21629 -0.34244 0.20052
0.22369 -0.35734 -0.20052
-0.13220 0.07139 -0.19972
-0.16791 0.12420 0.14494
-0.02998 0.20480 -0.19190
0.10400 0.03553 -0.15212
-0.07227 0.03340 -0.16710
0.22390 -0.24149 0.20052
0.10441 -0.00272 -0.22280
-0.13925 -0.09832 0.17132
0.22554 0.03553 -0.10304
0.21083 -0.18560 0.16710
-0.02028 0.20018 0.23316
-0.18627 0.29973 -0.10097
-0.16075 0.19867 -0.18948
-0.22718 0.36777 -0.16988
0.06717 0.20018 0.19828
-0.01941 0.01750 0.16710
-0.18406 -0.04111 0.18247
-0.06199 0.03553 0.17664
-0.09497 0.03553 -0.09897
-0.18249 -0.01342 -0.18080
-0.18647 0.30063 0.10258
-0.19288 -0.29396 0.16710
0.19728 0.02214 -0.16710
-0.19946 0.32261 -0.13764
0.13976 -0.02646 -0.21303
-0.20226 0.20018 0.22176
-0.22299 0.34702 -0.10182
0.21646 0.03553 0.12843
-0.16486 0.13843 0.16710
-0.12416 0.02788 -0.10628
-0.16635 0.21093 -0.02297
-0.01248 0.22246 0.23204
-0.21724 0.32132 0.15555
-0.17901 0.26738 0.14532
-0.20155 -0.19153 -0.18390
-0.18249 0.00809 0.03346
-0.19094 -0.10028 0.19086
-0.13708 -0.01390 0.20052
0.12887 0.07191 0.22280
-0.14706 0.11477 0.16710
-0.20347 0.26730 0.16710
-0.16069 0.12460 0.20052
0.00468 0.22246 -0.23388
0.22993 0.03253 0.18780
0.12899 -0.00021 0.20052
-0.13640 0.20018 0.22251
-0.10744 0.03553 0.15141
0.17098 -0.00705 0.20052
0.14682 -0.01966 -0.17028
-0.02116 0.03553 0.11952
-0.19540 0.34044 -0.14106
0.19468 -0.26119 -0.18080
0.04114 -0.01016 0.16710
0.21606 -0.00903 -0.07061
-0.18431 0.18545 -0.16710
0.21914 -0.34898 0.20052
-0.18249 0.00988 -0.08248
-0.00007 0.02916 -0.20052
0.04989 0.03553 0.10461
-0.16286 0.12533 0.01473
-0.22023 0.36933 0.18993
-0.18245 0.14774 0.16710
0.22993 0.02401 0.07207
0.13235 0.03553 0.16465
-0.13180 -0.01966 -0.04048
-0.12540 -0.02461 -0.20052
-0.16537 0.20653 0.03867
-0.15982 0.15532 0.16710
-0.21563 -0.31260 0.18203
-0.16302 0.19605 0.14072
0.07455 -0.01966 -0.17085
-0.19805 0.35226 -0.02347
-0.16708 -0.20532 -0.16710
-0.21288 -0.28926 0.16710
0.19186 -0.00903 0.16038
0.10636 0.03553 -0.06962
-0.15090 0.14205 -0.12104
-0.17829 0.14770 0.09627
0.11536 0.16397 -0.20052
-0.17608 0.07658 -0.16710
-0.18413 -0.33220 -0.17778
0.20926 0.03553 -0.02216
-0.21852 0.31965 0.20052
-0.21253 -0.29899 -0.20052
-0.18807 0.15983 0.20052
-0.12416 0.01173 -0.10059
-0.16368 0.21172 -0.18397
0.19555 -0.25813 -0.16710
-0.18807 -0.19343 -0.20052
-0.16072 0.17147 0.09096
-0.19174 -0.10718 0.17058
-0.22424 0.32864 -0.19385
-0.21562 -0.31250 0.19299
-0.18249 -0.00006 0.07648
0.18537 0.01838 0.13952
0.17212 0.03553 0.03877
-0.20291 0.32184 -0.02689
-0.14400 0.12398 -0.18318
0.13976 0.05748 0.21158
-0.15056 0.03553 0.06608
0.08931 0.20353 0.23894
-0.16264 -0.19506 -0.20052
0.11173 0.08308 0.20052
-0.16247 -0.12082 -0.16710
-0.10141 0.02917 0.20052
-0.16083 -0.21080 -0.17785
-0.20587 0.22246 0.22134
0.08538 0.20018 0.20296
0.21898 0.03553 -0.13466
-0.15236 -0.02622 0.20052
0.19599 -0.13151 -0.20052
-0.03940 0.03553 -0.00180
0.12995 0.20018 0.22617
0.18085 0.03553 -0.04045
-0.16708 -0.24336 -0.18363
-0.13139 0.06776 0.17841
0.18871 -0.12314 -0.20052
-0.16999 -0.05805 0.20052
-0.18487 -0.33606 0.17893
-0.14649 -0.03105 -0.20052
-0.18433 0.29106 0.08427
-0.07879 0.03553 -0.19211
0.19685 -0.28002 -0.18645
0.19359 -0.04340 0.16710
-0.14012 -0.01966 0.09739
-0.07474 0.20243 -0.23735
-0.15917 0.17182 -0.09276
-0.18557 -0.09406 0.16710
0.14512 0.03553 0.00539
-0.18178 0.23503 -0.20052
-0.19728 0.14625 -0.18816
-0.14043 0.01355 -0.20052
-0.18993 -0.21223 -0.20052
-0.17925 0.02336 -0.20052
-0.18999 -0.09211 0.18219
-0.19300 -0.30118 -0.20052
0.22993 -0.19065 0.17842
-0.15579 -0.05034 0.16710
0.09237 -0.01966 0.17169
-0.16599 0.03996 0.16710
-0.22240 0.34437 -0.16442
0.13976 0.01515 -0.20564
-0.18664 -0.34530 -0.17207
-0.17639 -0.01966 0.11960
-0.16893 0.03553 0.05366
0.16110 0.03553 -0.10647
0.18978 -0.00903 -0.05652
0.10355 0.02132 0.20756
0.04457 0.21091 -0.23850
-0.15584 -0.01966 0.04764
-0.14620 -0.08292 0.16710
0.13054 0.01820 -0.20052
-0.19728 -0.24830 -0.20052
-0.16324 0.19705 0.07243
0.11536 0.15918 -0.22280
-0.05053 0.21051 0.23758
0.15919 -0.01289 -0.16710
-0.16907 0.23578 0.19869
0.11657 0.01145 -0.20052
-0.19548 0.30615 -0.20052
0.11565 0.03553 -0.01138
0.09951 0.15462 -0.22280
0.11813 0.09461 -0.22280
-0.19939 0.35823 -0.00808
0.10645 0.03553 0.02210
0.22993 -0.21892 -0.18250
0.19111 -0.16594 0.16710
0.17775 -0.08739 -0.20052
0.14223 0.01680 -0.16710
0.11783 0.20018 0.20962
-0.12416 -0.01692 0.16039
0.22368 -0.21103 -0.20052
-0.02109 0.03553 0.12587
0.22993 -0.13086 0.18438
-0.15453 -0.01966 0.05508
0.14352 0.22246 0.23460
0.17843 0.00680 0.16710
0.15903 0.03553 0.10105
0.01217 0.03553 0.18008
-0.19062 -0.09751 -0.18817
0.19009 -0.22137 -0.18729
-0.21009 -0.26720 -0.16710
-0.05937 0.03553 -0.15323
-0.17456 0.20018 -0.21410
-0.02590 0.22246 -0.21222
-0.11815 -0.01966 0.17353
-0.12416 0.01776 -0.05363
-0.12416 0.01889 -0.12109
-0.16203 0.19167 0.14699
-0.16205 -0.01966 0.00390
-0.19033 0.12969 0.16710
-0.21851 0.36401 0.02257
-0.19202 0.32536 -0.10382
0.12857 0.22246 0.20868
-0.18249 0.02245 -0.08283
-0.18591 0.29814 -0.14861
-0.13468 0.03553 -0.07952
0.18537 0.02995 0.06646
-0.12416 0.01547 0.06126
0.20601 -0.30319 -0.16710
-0.17513 0.16825 -0.13042
-0.17182 0.23530 -0.05126
0.10355 0.03479 -0.21692
0.09815 0.03553 0.10384
-0.00947 0.22246 -0.20963
0.15482 0.03553 -0.02997
0.21709 -0.20201 0.16710
-0.17338 0.12576 -0.03034
-0.22427 0.35918 -0.16710
-0.18561 0.30804 -0.16710
0.22259 -0.05230 0.20052
-0.05908 0.20018 -0.23212
-0.21569 0.31477 0.20052
-0.14113 0.05077 -0.20052
-0.14061 0.03468 -0.20052
-0.14042 0.03553 0.09716
0.20298 -0.26254 0.16710
-0.12747 -0.03694 0.18112
-0.14389 -0.07230 -0.20052
-0.14834 0.13170 0.16710
0.01733 -0.01966 -0.19556
-0.16481 0.21617 -0.20052
0.22297 0.00062 0.16710
-0.19091 0.20018 -0.22013
-0.16933 -0.01966 0.00906
0.12963 0.01151 0.20052
-0.18032 -0.27128 0.20052
-0.13484 0.21483 0.23676
-0.22144 0.36906 -0.18553
0.14832 0.22181 0.23048
-0.14243 0.22246 0.23303
-0.22674 0.34556 0.19691
0.00664 0.03553 -0.13640
0.22993 0.01887 -0.10869
-0.03468 -0.00335 -0.20052
-0.18641 -0.34410 0.19769
-0.12416 0.00237 -0.07711
0.12638 0.20018 0.21790
-0.03738 0.03553 -0.20046
0.10130 -0.01966 -0.17373
-0.19194 0.32430 0.07747
-0.16426 0.12502 -0.03267
-0.19760 0.35025 0.14631
0.22993 0.01546 -0.02645
-0.15692 0.10353 -0.20052
-0.17007 -0.01966 0.10190
-0.04218 -0.01966 -0.17812
-0.20566 0.20295 -0.19386
-0.17463 0.03032 -0.16710
0.10361 0.16457 0.22280
0.18537 0.00350 -0.15420
0.01327 0.03553 0.17068
-0.09472 0.03553 0.01968
0.11839 0.03553 -0.09114
-0.19995 0.16433 0.18045
-0.17746 0.16772 -0.03452
-0.19041 0.33093 -0.16776
0.22993 -0.00318 -0.11164
0.22068 -0.00903 0.05700
-0.16372 -0.08046 -0.16710
0.11901 0.01598 -0.16710
-0.13270 -0.02890 -0.16710
0.19600 -0.27263 0.18751
0.22993 -0.00173 0.20023
0.14597 0.21208 0.23948
-0.17280 0.12319 -0.06700
0.17435 -0.08467 0.17487
-0.16799 -0.01966 0.11696
-0.12416 -0.01684 0.19557
0.18537 0.01929 -0.01949
-0.18399 -0.04056 -0.19107
-0.19857 -0.16588 -0.17991
-0.18249 0.16647 0.12251
0.08810 0.19418 -0.20052
-0.12898 0.03553 -0.07750
-0.11038 0.03553 -0.17206
-0.19681 0.20018 -0.21577
-0.03855 0.03553 0.13354
-0.14724 -0.13487 0.20052
0.13976 0.02321 0.20490
-0.20500 0.36704 0.04437
0.06953 0.22246 -0.22423
-0.16534 0.21916 -0.17190
0.06411 0.22246 0.19702
-0.21279 0.31963 -0.09178
-0.00883 0.03553 -0.08742
0.17298 -0.07277 -0.18558
-0.19581 -0.18862 0.16710
-0.01280 0.03553 0.08217
-0.03135 0.03553 -0.08046
0.03983 0.00260 0.16710
-0.02172 0.03553 -0.03932
-0.19683 0.20018 0.20584
0.18537 0.00401 0.08248
-0.20338 -0.29773 0.16710
-0.08991 0.20018 0.22626
-0.21824 0.32578 -0.07671
-0.16103 0.18720 -0.02027
-0.19949 -0.33302 -0.20052
0.20567 -0.06748 -0.20052
0.08897 0.03553 -0.18259
0.02839 0.22246 -0.20351
0.20034 -0.00903 0.02727
0.18537 0.00601 -0.14840
-0.19974 0.35977 -0.11616
-0.14788 -0.07141 0.20052
0.01768 0.20018 0.19957
0.06209 0.00095 -0.16710
-0.18249 0.01773 0.11004
-0.20644 0.20842 -0.16710
-0.10405 -0.01966 -0.17186
0.13976 0.00828 -0.21678
-0.07288 0.03553 -0.15613
0.13976 -0.02167 0.21038
-0.20897 0.21441 0.20003
0.21688 0.03553 -0.08588
0.22993 0.00744 0.18535
-0.18953 -0.25576 0.20052
0.01486 -0.00938 0.16710
-0.18617 -0.34286 -0.19642
0.11027 0.12603 -0.20052
-0.03507 0.03553 -0.03059
0.11116 0.11616 0.20052
0.18537 -0.00747 -0.05157
0.01295 0.03553 0.19356
-0.16418 0.20123 -0.16209
0.20700 -0.19155 -0.16710
-0.17467 -0.28290 0.17841
0.22993 -0.22082 -0.17717
-0.16615 -0.20632 -0.20052
-0.08809 0.03553 -0.19073
0.20424 -0.14178 -0.20052
-0.20928 0.32787 0.20052
-0.14587 -0.00349 -0.16710
-0.15373 0.03553 0.05236
-0.12416 0.00010 -0.13936
0.20481 -0.00903 0.10673
-0.20206 -0.19588 -0.16870
-0.14715 0.21276 0.23664
-0.01517 -0.00962 0.20052
-0.15199 0.03553 -0.13403
-0.16402 0.20054 0.07929
0.18537 0.02288 0.00404
-0.15421 -0.15942 0.16710
-0.00617 0.03553 0.01505
0.17745 -0.11156 0.18562
-0.13024 0.20959 -0.19645
-0.03721 -0.00515 0.16710
-0.16064 0.20018 -0.20092
-0.20932 0.32041 0.03579
-0.12416 0.01316 0.17314
-0.19109 -0.19473 0.16710
-0.12416 0.02312 -0.01524
0.18537 -0.00736 -0.08895
-0.17703 -0.04225 0.16710
0.10355 0.04154 -0.20780
0.12521 0.10007 0.22280
-0.16186 0.19089 0.11343
-0.19887 0.18115 0.20052
-0.14986 -0.14635 -0.16710
-0.15284 -0.10975 -0.16710
-0.20028 0.16658 -0.18050
0.10355 -0.02634 -0.21797
-0.19399 0.34689 0.17216
0.18741 -0.19806 -0.19750
0.09242 0.03553 0.19569
-0.19140 0.25166 -0.16710
0.14480 0.20018 -0.23464
-0.14296 0.04642 0.20052
0.21413 -0.26071 0.20052
-0.10055 0.01456 0.20052
-0.05383 0.00697 -0.20052
-0.18073 0.15862 -0.07695
-0.15206 0.15994 0.19898
-0.18831 0.32154 0.19672
-0.21027 0.35695 -0.20052
0.20608 -0.33937 0.20052
-0.16658 -0.22422 -0.20052
-0.22380 0.36283 -0.15029
-0.22440 0.35331 0.07191
-0.01930 0.03553 -0.11033
-0.07487 0.03553 -0.01661
-0.17631 0.08660 0.20052
0.03004 0.03099 0.16710
-0.15935 0.17970 -0.15571
-0.17405 -0.11391 0.20052
-0.10790 0.03553 -0.09773
-0.00794 -0.01326 0.20052
-0.12416 -0.00693 -0.04030
-0.18586 0.29792 -0.16403
-0.22326 0.32203 0.19961
0.16337 0.03553 0.19824
-0.13665 -0.01966 0.08556
0.14309 -0.01361 0.20052
-0.07887 0.01424 0.20052
0.20436 -0.02008 -0.20052
-0.21756 0.32274 0.06358
-0.14516 -0.01889 0.20052
-0.17783 -0.28160 0.16710
-0.20210 0.37339 0.17258
0.21926 0.04110 -0.19772
0.11040 0.05043 -0.22280
0.13375 0.03515 0.20052
-0.19296 0.32956 0.06734
-0.11673 0.03553 0.01142
0.02120 0.03553 -0.06834
-0.20827 0.20018 0.23334
-0.15108 0.14285 -0.12910
0.09350 -0.00745 -0.16710
-0.17894 0.19544 0.20052
-0.18249 -0.01810 0.02800
-0.20859 0.23705 -0.16710
0.11398 0.03553 0.14654
-0.14890 -0.01966 0.15027
-0.15022 -0.08691 -0.16710
0.19880 -0.00081 0.16710
-0.17147 -0.17561 0.16710
-0.20414 0.20662 0.19981
-0.12998 -0.01966 0.11832
-0.15621 0.16573 -0.10142
-0.01168 0.03553 -0.09380
-0.18194 0.28045 -0.06530
-0.18052 0.05379 0.20052
-0.19227 -0.14073 -0.16710
0.19893 -0.08357 -0.16710
-0.18505 -0.04965 -0.17637
0.18463 0.00626 -0.16710
-0.06465 0.00800 0.16710
-0.17735 0.16775 0.02682
0.09953 0.11126 -0.20189
0.01069 0.21202 0.23817
-0.04338 0.03553 0.15320
-0.09591 -0.00566 -0.16710
-0.14848 0.13126 -0.05122
-0.07047 0.03553 0.17061
-0.18249 0.03303 -0.18393
-0.04149 0.03553 -0.13081
-0.17867 0.14940 -0.11057
0.18422 0.03553 0.07635
-0.07453 0.03553 -0.05635
-0.18166 -0.19103 0.16710
0.20082 -0.27091 -0.16710
0.00519 0.03553 -0.02726
0.22881 -0.37386 0.18018
0.12982 0.02639 -0.20052
0.22993 -0.22431 -0.17189
-0.00917 0.03553 0.04544
0.11385 0.03553 -0.11468
0.02965 0.03553 -0.10063
-0.21793 -0.33243 0.19308
0.19427 -0.00903 -0.01988
-0.19170 -0.10683 -0.17851
-0.17461 0.26048 0.17427
-0.17900 0.26732 -0.08220
0.12629 0.14693 -0.21794
0.20760 0.03553 0.04646
0.22993 0.00782 0.05597
-0.00003 0.03553 0.05395
-0.17262 0.03553 0.07315
-0.18279 0.28421 0.01382
0.15505 0.03553 0.04857
0.14861 -0.00452 -0.20052
-0.16132 -0.15958 0.20052
0.19714 0.04110 0.18448
-0.17682 0.16886 0.20052
-0.11022 0.03553 -0.13710
-0.13532 -0.07784 0.18111
-0.22386 0.32607 0.16740
-0.18407 0.29079 0.16710
-0.18094 0.27597 0.15568
-0.06053 0.03553 -0.10504
-0.17313 0.22246 0.19950
-0.18210 0.28113 -0.09797
0.09494 0.12976 0.20150
0.10010 0.22246 0.21900
-0.20513 0.32135 -0.19057
-0.19618 0.34392 0.09517
0.20748 -0.00903 -0.14622
-0.17163 0.23447 0.06590
-0.20569 0.32122 -0.14421
-0.13328 -0.01966 -0.07604
0.22993 0.03025 -0.14616
0.04337 -0.00615 0.20052
-0.13852 -0.09450 -0.18932
0.11941 0.22246 -0.18679
0.18537 0.03166 -0.00672
0.09010 0.03553 -0.01680
-0.18249 -0.00932 0.18540
0.14790 0.22246 -0.21602
0.12735 0.20018 0.20382
0.12842 0.03553 -0.09042
-0.10977 0.03553 -0.14348
0.22993 -0.00552 -0.00683
0.11433 0.03553 0.16700
0.22550 0.04037 -0.20052
0.07718 -0.00091 -0.16710
-0.08520 0.03553 -0.20011
-0.16737 0.21549 0.07648
-0.02421 0.01019 -0.16710
-0.15271 0.15012 -0.04784
-0.13766 0.05454 0.16710
-0.16120 -0.00617 -0.20052
-0.18249 -0.01761 -0.15816
-0.08911 0.03553 0.04429
-0.10978 0.00166 -0.16710
-0.17965 0.03553 0.15621
-0.21950 0.29661 -0.19128
0.21812 -0.26530 0.20052
-0.17191 -0.26687 -0.16710
-0.18394 -0.10320 0.16710
-0.17918 -0.12235 0.16710
0.18457 -0.17338 -0.18498
-0.15528 0.16158 -0.08693
-0.18249 0.00570 -0.11071
0.18537 0.01495 0.10390
-0.05631 0.03213 -0.16710
0.12600 0.03553 -0.10967
0.22993 -0.00453 0.01526
0.22993 -0.17091 0.18773
-0.12695 -0.03422 -0.17440
-0.20111 0.23910 0.16710
-0.16490 0.01081 0.20052
0.22993 -0.17914 0.17363
0.03145 0.03553 -0.12766
0.18040 -0.13722 -0.17493
-0.17686 0.06126 -0.16710
-0.18329 -0.23072 -0.16710
-0.18164 0.27908 -0.05138
-0.21051 0.32014 -0.05715
0.17261 -0.06956 -0.19692
-0.20955 -0.26035 -0.18025
-0.20862 -0.25234 -0.19624
0.17144 -0.05940 0.17796
0.22361 -0.25026 0.20052
-0.19734 0.14665 0.16870
-0.20161 -0.19208 0.18027
0.22092 -0.18855 0.20052
-0.19276 0.20056 -0.16710
-0.09493 -0.01966 0.19216
-0.09819 0.03553 0.09647
-0.12416 0.01256 0.11870
-0.19521 0.13225 0.18330
-0.14771 0.07564 -0.20052
-0.15469 0.15895 -0.15422
0.22993 -0.17853 -0.18590
0.17372 0.03553 -0.08746
-0.14303 0.11968 -0.17215
0.22993 -0.07544 -0.19357
-0.17801 0.17629 -0.20052
-0.12416 -0.00048 0.07303
-0.15078 -0.10434 -0.20052
0.21281 -0.23190 -0.16710
-0.18536 0.29569 -0.14278
-0.16111 -0.04286 -0.20052
0.04581 0.03553 0.17283
-0.02761 0.03553 0.02292
-0.22437 0.35320 0.00973
-0.11996 0.03233 -0.16710
-0.18241 0.16611 -0.12010
-0.15500 0.20802 -0.23657
0.05264 0.03553 -0.10248
-0.16511 0.20018 0.22862
-0.12416 0.02226 0.16393
0.17636 0.03553 -0.12717
0.18537 0.00896 0.00350
0.10355 0.01364 -0.21553
0.06190 0.02902 0.20052
-0.21979 0.36373 0.13855
-0.20551 0.36692 -0.15874
0.19488 -0.19789 -0.16710
0.09997 0.01318 -0.16710
0.11612 0.21469 -0.23919
0.10449 0.22246 -0.23101
-0.19741 0.32307 -0.00454
-0.19355 -0.22514 -0.20052
0.01657 -0.01966 0.17025
-0.19433 0.33567 0.10202
-0.18123 -0.01966 -0.14470
-0.16118 -0.21261 -0.18520
-0.15755 0.02730 -0.16710
0.19119 -0.18259 -0.16710
-0.12416 0.00669 0.00424
-0.17932 0.15228 -0.10331
-0.20782 0.22246 0.20992
0.16375 0.03553 -0.14057
0.22993 -0.19218 0.19151
-0.17799 -0.15091 -0.20052
0.22993 -0.23016 -0.17349
-0.21009 0.28486 0.20052
0.19616 -0.27405 0.18166
-0.08045 0.20018 0.21167
-0.18116 0.03553 -0.15139
-0.18713 0.07763 -0.17878
-0.22184 0.34185 0.08632
-0.05410 -0.01966 0.18756
-0.19237 0.32693 0.03283
-0.10036 0.03553 -0.08813
0.00609 0.03553 0.14667
-0.09504 0.20735 -0.23715
0.20107 -0.31670 0.18751
-0.18249 0.00540 -0.13985
-0.12367 0.02353 -0.20052
-0.14379 0.03553 -0.10919
0.12928 0.21015 0.23932
-0.19370 0.34558 0.20044
0.22182 -0.19661 0.16710
-0.17416 0.16846 0.13297
-0.14362 -0.01966 0.01217
-0.16517 0.20563 0.10641
-0.14044 0.10812 0.16804
-0.14826 0.12859 0.02745
-0.16056 0.12585 -0.10204
-0.14518 0.20436 0.19713
-0.21980 0.33277 0.14757
-0.17389 0.11844 -0.20052
-0.21512 0.20785 -0.21917
-0.13470 0.08251 0.18996
0.22993 -0.30783 -0.18754
-0.19030 -0.36437 0.17839
-0.21419 0.26067 -0.19722
-0.20398 0.19160 -0.17985
-0.16581 0.07071 -0.20052
-0.18912 -0.33805 -0.20052
-0.16453 0.20278 -0.10236
0.22993 0.01868 0.11478
-0.18610 0.29898 0.08979
-0.21239 0.36538 0.02546
0.20887 -0.09259 -0.16710
-0.17627 0.13868 0.07854
0.17752 0.02052 -0.20052
-0.16138 0.12566 0.13516
0.10786 0.08389 -0.22280
-0.15399 0.16853 -0.17055
-0.03574 0.02959 0.16710
-0.12416 -0.00762 0.19264
0.14832 0.21619 0.20722
0.05269 0.20018 -0.22476
-0.08675 0.22246 0.20195
0.08661 0.00733 -0.16710
-0.16707 0.17005 -0.15490
-0.16751 0.21612 -0.15849
0.22993 -0.36380 0.18792
0.20325 -0.28075 0.20052
-0.16510 -0.09947 -0.16710
-0.14819 0.12861 0.11422
-0.06092 -0.01966 -0.17891
0.22993 0.02892 -0.04105
0.14832 0.20671 -0.18777
0.09144 0.03553 0.05379
-0.17421 -0.25865 0.16710
0.20562 -0.06457 -0.16710
-0.19875 0.30159 0.16710
-0.21838 0.32641 0.11681
-0.14755 0.03553 -0.01115
-0.22161 0.31089 0.17500
-0.17789 0.26238 -0.08704
0.22993 -0.12955 0.17724
-0.08463 0.00744 -0.16710
-0.00741 0.00345 -0.16710
0.08204 0.18178 -0.21687
-0.01791 -0.01966 -0.16757
-0.14840 0.13088 -0.09925
0.09884 0.02018 -0.20052
-0.15357 0.15396 0.11419
0.18537 0.03376 0.05367
0.22318 -0.37386 0.16873
0.17969 -0.13103 0.18713
-0.16314 0.03553 -0.12253
-0.16759 0.03553 0.02950
-0.13141 -0.04910 0.16710
-0.18249 0.01662 -0.13472
-0.02884 0.03553 -0.04715
-0.17423 0.10020 -0.20052
-0.21915 0.32985 -0.02735
0.17869 -0.10955 0.20052
0.08477 0.20018 0.22942
0.10221 0.02112 0.16710
-0.21123 0.36564 -0.02749
0.15091 0.03553 -0.18732
-0.16856 -0.08734 -0.16710
0.22170 0.03553 -0.16230
-0.19015 -0.09353 -0.19824
0.17994 -0.13319 -0.17995
-0.13629 -0.08288 0.16825
0.22642 0.00828 -0.20052
-0.16083 0.03553 -0.14830
0.03132 0.03553 -0.15356
0.09758 -0.01966 -0.18661
-0.17846 0.03553 -0.01063
-0.12416 -0.00444 0.11445
-0.17154 0.22246 -0.20886
-0.15459 0.15848 0.09294
