ply
format ascii 1.0
comment VCGLIB generated
element vertex 1788
property float x
property float y
property float z
element face 0
property list uchar int vertex_indices
end_header
-0.29400 0.18105 0.21309
-0.29399 0.23399 -0.10862
-0.14870 -0.01582 0.10612
-0.23539 0.11173 0.02979
0.05304 -0.04620 -0.20774
-0.13199 0.08373 0.02150
-0.09614 -0.04664 -0.06600
-0.02783 -0.11537 -0.15243
0.33350 -0.02232 -0.04965
-0.13926 0.09442 0.05482
-0.13480 0.08787 -0.08081
-0.08313 -0.04564 0.02844
-0.24795 0.11654 0.20603
-0.12230 -0.05467 0.13748
0.27052 -0.09729 -0.24838
-0.15353 -0.00872 -0.15257
-0.17153 0.14191 0.05306
0.15915 -0.02700 -0.18763
0.26787 -0.01864 0.08224
0.30814 -0.09412 0.08037
-0.17418 0.14582 0.00054
0.19647 0.09578 -0.23657
0.05089 -0.10932 0.14199
-0.10097 -0.05051 -0.16849
-0.18869 -0.02542 -0.05572
-0.25648 0.12751 0.20825
-0.03896 0.10838 -0.22662
-0.33893 0.19325 -0.04352
-0.31901 0.22869 0.22270
0.26622 -0.09275 -0.02084
0.29812 -0.09043 0.01583
-0.21361 0.20383 -0.14164
-0.26223 0.25222 -0.19561
0.06556 -0.10819 -0.19320
0.31826 -0.08874 0.02644
-0.23676 0.11375 0.09803
0.25538 -0.16334 0.23008
-0.16661 0.13467 0.17105
-0.22116 0.07188 0.21129
0.34092 -0.03891 0.08678
-0.17175 0.00466 0.16132
-0.23016 0.12487 0.22482
-0.21752 0.02592 0.07991
-0.06486 -0.02056 -0.12689
-0.31943 0.16300 -0.03538
-0.09515 0.10589 -0.22812
-0.24955 0.11290 0.15660
-0.32840 0.17580 0.02188
0.26482 -0.09604 -0.24297
0.30814 -0.09130 -0.18160
0.21480 0.11068 -0.24766
-0.06195 -0.18307 0.22284
-0.22729 0.09982 -0.02938
-0.21778 0.03070 0.06214
-0.15876 0.12312 -0.14809
0.31521 -0.08120 -0.23063
-0.28128 0.13149 0.10837
-0.06971 -0.02686 0.02327
-0.30129 0.22596 0.15850
0.10033 -0.04998 -0.21347
-0.13105 -0.08297 -0.17047
-0.05556 -0.13328 0.21878
-0.23715 0.03067 -0.04955
-0.25166 0.11009 0.14787
0.29441 -0.21085 -0.24987
0.11584 -0.09731 -0.20837
0.30814 -0.09436 0.08927
-0.15821 -0.07457 -0.03033
-0.12635 0.06529 0.18531
-0.21614 0.01074 0.02389
0.09676 0.11448 -0.21608
-0.30554 0.19366 -0.13691
-0.24840 0.08416 0.11062
0.16187 -0.10078 0.05598
-0.14874 0.10838 0.11097
-0.05459 -0.04345 0.05308
0.32008 -0.01462 0.10484
0.31223 -0.09398 0.24818
0.32882 -0.01606 0.01590
-0.27246 0.10815 0.02065
-0.14134 0.08363 -0.19360
-0.19502 0.00729 0.11418
-0.08571 -0.13559 0.19142
0.08086 -0.03303 0.04927
0.12555 -0.08146 -0.21582
0.25409 -0.09811 -0.24673
-0.18318 -0.03781 -0.06325
-0.14980 -0.13908 -0.04961
-0.19379 0.08249 0.20810
-0.29054 0.19289 0.01806
-0.15194 0.11308 -0.12175
-0.11091 -0.08785 -0.03150
-0.28695 0.18761 0.10578
0.10347 -0.10527 0.02726
0.29506 -0.10644 -0.09766
-0.26898 0.19419 -0.22210
-0.07688 0.00263 -0.11045
-0.08229 0.01060 -0.13900
-0.11901 -0.10627 0.21093
-0.20601 0.06851 -0.09658
-0.00821 -0.03988 0.06836
-0.23001 0.02686 -0.04369
-0.13945 -0.02943 0.06341
-0.21750 0.05059 0.11783
-0.15585 -0.13340 -0.21738
0.11507 -0.13176 -0.13488
-0.31189 0.23374 -0.14402
-0.13235 -0.06890 -0.12071
0.24649 -0.10586 -0.23733
-0.06158 -0.14286 -0.07650
0.27839 -0.05065 0.22561
-0.14871 -0.01689 0.18092
-0.22740 0.11820 0.19940
0.16011 -0.02693 -0.11988
-0.19159 -0.01230 0.07975
-0.30480 0.22430 -0.07573
-0.32955 0.19373 0.08887
-0.28406 0.18336 -0.06676
-0.24907 0.13187 0.02947
-0.24022 0.11910 -0.22440
-0.16210 0.00390 -0.09164
0.07412 -0.10753 -0.07374
-0.18775 0.15311 0.18590
0.31183 -0.07653 -0.22634
-0.04441 -0.05945 0.20446
-0.06679 -0.04439 -0.14591
0.28489 -0.11379 -0.24282
-0.19835 0.01363 -0.12466
-0.20800 0.06305 -0.20233
0.05695 -0.03487 -0.17859
0.30728 -0.09043 -0.12158
-0.18777 0.04166 -0.16003
-0.29655 0.18077 -0.13823
-0.21785 0.08592 -0.12318
-0.22767 0.14461 -0.19846
-0.22087 0.11006 0.18757
-0.00793 -0.11384 0.11724
-0.13452 -0.13045 0.16408
-0.25306 0.08546 -0.10620
-0.09482 0.02904 -0.10425
-0.19945 0.05886 -0.13114
-0.25762 0.14349 0.22452
0.25755 -0.01943 0.17257
0.04322 -0.10991 0.00465
0.31272 -0.08917 -0.00442
0.07988 -0.03310 0.10333
-0.21793 0.06794 -0.20974
-0.19351 -0.01399 -0.07356
-0.29116 0.23859 0.10704
-0.32831 0.21449 0.10738
-0.30322 0.21155 -0.03707
-0.26291 0.08400 -0.05670
0.03814 -0.12989 0.18826
-0.07442 -0.00098 -0.10594
-0.08661 -0.13662 0.21443
-0.29756 0.24599 -0.05671
-0.28885 0.17681 0.21701
-0.26937 0.24989 0.12591
-0.25970 0.14750 -0.10518
-0.16941 -0.00429 -0.16498
0.32694 -0.01409 0.00719
0.04864 -0.03550 -0.08610
0.02736 0.09002 0.22361
-0.06513 -0.04426 0.06159
0.29506 -0.10595 0.02573
-0.22281 0.03619 0.04882
0.01268 -0.11226 -0.10868
-0.14272 -0.10930 0.20052
0.04115 -0.11006 0.17272
-0.20917 -0.00119 -0.00592
-0.18278 0.03432 0.07466
-0.20538 0.05813 -0.22276
-0.27527 0.13403 -0.12279
0.29819 -0.01630 -0.21193
0.05528 -0.10898 0.01450
0.28898 -0.09099 0.06465
0.15642 -0.12236 -0.03078
0.00589 0.10594 0.23816
-0.20532 0.05091 0.16064
-0.18856 0.04698 0.18356
0.09073 -0.17302 0.22100
0.06827 -0.10597 0.22266
0.33363 -0.02252 -0.00702
0.14207 -0.10230 -0.05175
-0.13632 -0.04712 0.20219
-0.09632 -0.11970 0.17307
0.31543 -0.19405 -0.23102
-0.09447 -0.04652 0.16142
-0.16130 -0.26209 -0.22065
-0.27659 0.24839 -0.14387
0.07248 0.10306 0.21236
-0.16409 -0.01566 -0.18506
-0.18494 -0.02931 -0.06393
0.20388 0.09603 -0.22707
-0.29946 0.23616 0.04033
-0.08271 -0.11960 0.05331
-0.00693 -0.13751 -0.06422
-0.32190 0.16749 0.03260
0.03285 -0.12204 -0.20025
-0.24136 0.04723 -0.02187
0.12561 -0.02958 0.19093
0.22173 -0.02219 -0.12201
-0.32388 0.19254 -0.09863
0.28414 0.00494 -0.24145
-0.16457 -0.20162 0.22520
-0.10898 -0.05383 -0.17949
0.11649 -0.10427 -0.14770
-0.14116 -0.17503 0.20822
-0.10644 -0.05660 0.11348
-0.26645 0.15744 -0.13857
0.30153 -0.01605 -0.06875
-0.22155 0.09137 -0.10826
-0.24770 0.06298 -0.08953
-0.17156 0.14196 -0.03247
-0.30570 0.21519 -0.18144
-0.17347 -0.01137 0.12558
-0.13337 -0.05831 -0.16369
-0.07022 -0.13223 -0.20706
-0.32254 0.18702 -0.05298
-0.10090 -0.18579 -0.21643
0.10933 -0.11618 0.23341
-0.28581 0.24239 -0.15764
-0.26249 0.10883 -0.12642
-0.23202 0.14502 0.20944
0.07730 -0.10728 0.05583
0.16067 -0.17696 -0.23162
-0.26592 0.26117 0.14546
-0.10055 -0.05032 0.15644
-0.18242 0.11698 0.21347
-0.22786 0.22480 -0.05498
-0.22495 0.22052 0.17397
-0.08895 0.02040 0.16031
-0.29274 0.17526 0.18202
-0.30710 0.14732 0.04071
0.13158 0.11604 -0.21523
0.00120 -0.13609 -0.05112
-0.23298 0.04677 0.00655
0.34290 -0.04994 -0.21274
-0.27421 0.24999 -0.12301
-0.24554 0.25082 -0.17148
0.18493 -0.17647 0.23645
-0.11588 -0.07743 0.04767
-0.12446 0.10582 -0.23149
0.24938 -0.09404 -0.11082
-0.29942 0.23067 0.06736
0.34108 -0.06959 -0.10417
0.29957 -0.11805 0.25194
-0.04600 -0.11924 -0.20905
0.15322 0.09430 0.22661
-0.17737 0.02637 -0.06576
-0.28804 0.11492 -0.00662
-0.16660 -0.16481 0.21367
-0.30835 0.19350 0.12889
-0.21882 0.04832 0.16094
0.03213 -0.13080 -0.18621
0.00202 -0.03909 0.19300
-0.29761 0.20329 -0.09648
0.07536 -0.13294 -0.16428
-0.10497 -0.10704 -0.06579
-0.20325 0.18859 -0.03245
0.25529 0.10333 0.25005
-0.17992 0.09293 0.19182
-0.11046 -0.09115 -0.18573
-0.27832 0.25920 0.14311
-0.29607 0.19217 -0.20192
0.19168 0.09561 -0.23090
0.20506 -0.09745 0.09758
-0.07369 -0.17691 -0.21871
-0.14278 -0.04788 0.15151
-0.15148 -0.04147 0.14110
0.26701 0.10482 -0.25015
-0.12695 -0.04783 -0.15623
-0.05811 -0.04372 0.12846
-0.17055 -0.02423 0.10906
-0.15152 -0.06597 -0.10190
-0.24553 0.25080 -0.10539
-0.27231 0.26069 0.05823
-0.21870 0.09727 0.22647
0.03540 -0.13239 -0.00843
0.28343 0.07686 -0.23409
-0.18608 0.03918 -0.11533
-0.18546 -0.01270 0.07514
-0.32857 0.21622 0.10057
0.06669 -0.13001 -0.03182
0.05544 -0.11925 -0.20233
0.31447 -0.13850 -0.22927
0.31885 -0.01471 -0.03969
-0.13759 -0.12617 0.11678
-0.17617 0.04378 -0.22434
-0.17820 -0.04663 0.00053
0.16584 -0.16365 -0.23191
-0.33661 0.21009 -0.06155
-0.10581 -0.17017 0.22042
-0.13601 -0.03450 0.04392
-0.07961 -0.02915 -0.15424
-0.22844 0.05828 -0.12544
-0.21860 0.08704 -0.13917
-0.26309 0.25189 -0.17709
-0.19169 -0.03333 0.06577
0.28464 -0.20270 -0.23172
-0.31622 0.21736 0.02843
0.30612 -0.08968 0.01730
-0.17648 0.02506 0.11563
-0.17033 0.01600 -0.00680
-0.19009 -0.03048 -0.08284
-0.00604 -0.11997 -0.20905
-0.32925 0.22184 -0.06118
-0.09391 -0.04687 -0.17930
0.05437 -0.03506 -0.03777
-0.18961 0.16852 -0.02821
-0.33890 0.20892 0.02424
-0.27780 0.24604 -0.06193
-0.23114 0.22963 -0.16478
0.25132 -0.09058 0.21257
0.31074 -0.08932 0.17641
-0.16912 -0.00187 0.16128
-0.05394 0.09995 0.23531
0.18914 -0.02469 -0.17446
-0.23985 0.05047 0.05133
-0.26861 0.16062 0.05756
-0.29049 0.23963 0.08794
-0.25621 0.14238 -0.02297
0.13243 -0.02906 -0.08522
0.14273 -0.02826 0.14026
-0.24047 0.11280 -0.16689
0.12250 -0.09014 0.21192
-0.19897 0.18229 -0.12975
-0.17558 0.02373 0.10350
-0.24216 0.14073 -0.22481
-0.11468 0.05825 -0.15953
-0.10486 -0.10726 -0.08552
-0.07891 -0.03617 -0.17489
-0.03491 -0.12500 -0.20074
0.14443 -0.02813 -0.09641
-0.25158 0.06185 0.00819
-0.27134 0.10531 0.01078
0.23910 -0.10460 0.24786
-0.24754 0.25376 0.02290
-0.18803 0.06089 -0.22448
0.28447 -0.13624 0.23251
0.24732 -0.02022 0.19299
0.22316 0.09669 0.24802
0.29700 0.02633 -0.22386
0.00300 -0.11300 -0.08699
-0.32494 0.18220 -0.08199
0.13162 0.09434 0.21518
-0.28789 0.18899 0.03845
-0.16930 -0.21526 -0.19953
0.21042 -0.09704 -0.19308
0.21373 -0.09679 0.09540
0.30827 -0.01553 -0.06512
0.30553 -0.03233 -0.22437
0.22521 -0.02192 0.04286
0.22116 -0.02223 0.05708
0.12496 -0.11292 -0.21713
-0.16372 0.08351 0.20502
-0.23554 0.23609 0.16563
-0.28367 0.11239 -0.04584
0.17838 -0.02552 0.07591
-0.06383 -0.11814 0.13262
0.18926 0.11450 -0.24645
-0.15221 0.11348 0.01888
0.08388 0.10581 -0.21244
0.26151 -0.09175 -0.23946
-0.08339 0.00622 0.18411
-0.15179 0.11287 0.15564
-0.22660 0.11404 -0.19393
-0.23307 0.23246 0.02592
-0.10940 -0.05399 -0.05348
-0.03856 -0.16273 0.21795
-0.27032 0.16314 -0.01184
-0.01676 -0.05096 -0.20369
-0.25733 0.10994 0.13403
-0.28499 0.18473 -0.14913
0.29112 0.07873 -0.24884
-0.33778 0.19922 0.06809
0.28044 0.09864 -0.24002
-0.25297 0.13761 -0.03702
-0.26267 0.11052 -0.15288
-0.17188 0.02688 -0.22642
-0.01673 -0.14129 0.15613
-0.01794 -0.11461 0.04336
-0.25693 0.14343 -0.18744
-0.18638 -0.02106 -0.02582
0.21238 -0.09336 0.21063
0.29900 -0.11349 0.13197
-0.20833 -0.00655 -0.01094
-0.17486 -0.01055 -0.12295
-0.23388 0.05103 -0.12267
0.18910 -0.09665 -0.23113
0.29763 -0.11349 -0.20423
-0.14744 -0.12917 -0.14099
0.01774 -0.03788 0.09992
0.29437 -0.17829 0.23222
-0.26830 0.19568 -0.20463
0.04256 -0.13520 -0.17070
-0.11689 0.01220 0.19142
0.16076 -0.09949 0.23167
0.30814 -0.11253 0.12270
-0.17455 0.11368 -0.21319
-0.24834 0.05111 0.06366
0.00354 -0.08136 0.21057
-0.29528 0.24238 0.21123
-0.13904 -0.06504 -0.20970
0.25401 -0.01970 -0.16415
-0.15636 0.08376 0.21291
-0.14690 -0.05856 -0.13164
-0.07382 -0.18477 -0.20844
-0.14669 -0.12782 0.22461
-0.28002 0.13045 0.08277
-0.03401 -0.11585 0.04299
0.28309 0.01143 0.23523
-0.20000 -0.01239 0.09144
-0.14197 0.09842 -0.12463
-0.16007 0.00091 0.05161
0.21615 -0.02262 -0.02360
-0.13716 0.09133 -0.01347
-0.14123 -0.02682 -0.06335
-0.03834 -0.04220 -0.09520
-0.30516 0.19943 -0.17017
-0.30016 0.23376 0.02297
-0.18253 -0.22603 0.20926
-0.17136 -0.03018 -0.08795
-0.26002 0.18945 -0.21158
0.24984 -0.09401 -0.04809
-0.28354 0.25711 -0.07325
-0.26073 0.25971 0.17952
0.31411 0.08419 0.22908
0.28396 -0.09843 0.23353
-0.08496 -0.14516 0.08096
-0.10305 -0.04508 0.04866
-0.14998 -0.13984 -0.17005
-0.22025 0.04978 0.10719
-0.28240 0.24516 -0.04452
0.07345 -0.03360 -0.12909
-0.15132 -0.11214 -0.21484
-0.26908 0.16131 -0.06499
0.27184 -0.18579 0.23974
0.25970 -0.09325 0.02810
-0.24030 0.24310 -0.10719
-0.14817 -0.09570 -0.21143
-0.30985 0.14810 -0.02322
-0.00532 -0.03966 0.07875
-0.32674 0.19189 0.09979
0.27633 -0.09263 -0.22643
-0.17472 -0.21185 -0.22219
-0.11765 -0.08025 0.19634
-0.07556 -0.11904 -0.17203
0.34229 -0.04534 0.13825
-0.12930 -0.04436 -0.09462
0.30542 -0.09407 -0.25001
0.22856 -0.07175 -0.22182
-0.21148 0.08090 -0.19010
-0.15188 -0.14811 -0.19609
0.14724 0.09410 -0.22127
-0.16306 -0.15042 0.21296
-0.16220 -0.19921 -0.19855
-0.12741 -0.13693 0.21608
-0.26450 0.09452 -0.08577
-0.11303 -0.05187 0.13869
-0.13758 0.08440 -0.21651
-0.30237 0.16872 -0.09276
-0.31594 0.15967 -0.08460
-0.06956 -0.02232 0.11931
0.29506 -0.10361 -0.21431
-0.15962 0.03544 0.21648
0.04664 -0.13372 0.07944
-0.25311 0.14412 0.19897
-0.03452 -0.04190 -0.16828
-0.29905 0.23680 -0.20116
-0.28070 0.25830 0.09800
-0.25645 0.10031 0.12560
-0.24663 0.12828 -0.05890
-0.16289 0.00505 0.18049
0.18161 0.09917 -0.21710
0.12471 0.10586 -0.21439
0.26373 -0.03604 -0.22162
-0.24959 0.25677 0.03064
-0.14757 -0.02784 0.16878
-0.18062 0.01020 -0.17930
-0.27806 0.17453 0.13056
-0.14826 -0.17616 0.19964
-0.08053 -0.14145 -0.17993
-0.07679 -0.04516 -0.17170
-0.26943 0.20767 -0.19858
-0.23803 0.23977 -0.10188
-0.31942 0.21437 0.05795
0.26034 -0.09320 -0.03110
-0.29926 0.24386 0.07686
0.20588 -0.02341 -0.11256
-0.18938 -0.02518 0.10155
-0.25614 0.26009 0.14191
-0.29033 0.25294 0.13630
0.17002 -0.02616 0.04671
0.18032 -0.12037 -0.03509
-0.17950 -0.03613 0.07661
0.20668 -0.02334 0.19529
-0.32885 0.17691 -0.03588
0.33092 -0.01858 0.12987
0.30203 -0.04288 0.22612
-0.31050 0.20188 0.17298
-0.19643 -0.00698 0.01448
-0.29381 0.12436 0.01387
-0.32810 0.20778 0.00754
0.00162 -0.03912 0.17273
-0.27785 0.24800 0.12973
0.27966 -0.03673 0.22284
-0.01453 -0.04036 0.07766
-0.10041 0.03726 0.17814
0.19928 0.11909 0.22079
-0.30730 0.18672 0.11889
-0.12083 -0.06931 -0.10715
0.30814 -0.11320 -0.10763
-0.33836 0.17873 -0.00229
-0.04096 -0.16781 0.22400
-0.10895 -0.09732 0.16483
-0.15864 -0.00120 0.01955
0.33198 -0.02002 0.10468
-0.26877 0.09516 -0.09955
0.05394 -0.16273 0.22443
-0.12437 0.07251 -0.13038
-0.04466 -0.11667 -0.14490
-0.14906 -0.10707 0.20680
-0.20967 0.07389 0.15375
-0.15269 0.11419 0.02813
0.32883 -0.08793 -0.19609
0.05129 -0.03530 -0.17081
0.00110 -0.11315 0.11350
-0.26461 0.22400 0.19166
-0.11135 -0.08318 0.06639
-0.27306 0.16717 0.13400
-0.15356 -0.00868 0.01891
0.34251 -0.04698 0.09441
0.29134 -0.01683 -0.03036
0.02219 -0.11152 -0.05565
0.27143 -0.09235 -0.04801
0.04423 -0.03584 0.17218
-0.07654 -0.03397 0.02356
-0.02149 -0.11489 -0.08104
0.18830 -0.10286 -0.24166
0.09686 -0.10537 -0.22058
-0.08253 -0.03917 -0.04444
0.03894 -0.16410 -0.21466
0.09763 -0.12840 -0.06114
0.02934 -0.11097 0.06160
-0.25749 0.12038 0.15066
0.05093 -0.10931 0.07228
-0.13331 -0.06916 -0.07504
-0.19153 0.04720 0.00105
-0.07741 -0.11919 -0.15804
-0.13881 -0.05103 0.21020
-0.01243 -0.04020 -0.01190
0.18268 -0.09667 -0.22921
0.08483 0.09198 -0.23295
-0.15378 -0.16814 -0.22540
-0.18711 0.16484 -0.15019
0.02112 -0.13708 0.17160
0.26932 0.12224 0.23867
-0.11626 -0.07804 -0.00832
-0.13856 -0.14741 0.08962
0.28979 -0.06059 0.22674
-0.34107 0.19698 -0.00248
-0.13392 -0.17110 -0.20513
-0.10029 0.03708 -0.11528
0.29082 -0.22094 -0.24875
-0.13656 -0.03369 -0.17914
-0.06506 -0.17869 0.22267
0.08539 -0.10666 -0.15031
-0.19045 -0.01624 0.01305
0.15787 -0.11221 0.23601
-0.21886 0.08742 -0.14516
-0.13141 0.08288 -0.07331
-0.26729 0.26117 0.04222
0.07241 -0.10766 0.15876
-0.10006 -0.03015 0.19172
-0.31892 0.18103 -0.12569
-0.10195 -0.11229 0.00641
0.06531 -0.06172 -0.21397
0.21352 -0.06600 0.22192
-0.26526 0.24111 -0.19795
-0.14722 -0.12824 -0.05761
0.04654 0.09067 -0.23658
0.04174 0.09982 0.23987
-0.17778 0.06575 0.19054
-0.16659 -0.02839 -0.14522
-0.06747 -0.14259 0.17504
0.31880 -0.01472 0.05168
-0.13884 0.09381 -0.11090
0.30814 -0.11164 -0.04650
-0.17631 -0.01821 -0.10207
0.30619 0.05407 -0.22458
-0.17451 -0.00747 -0.12983
-0.14260 -0.14901 0.12423
-0.22409 0.08968 0.22387
0.30476 -0.21097 -0.25023
-0.26003 0.25913 -0.18851
0.13325 -0.17879 0.23360
-0.23945 0.11771 -0.08843
-0.17032 -0.01048 -0.13615
-0.25754 0.26033 0.09386
-0.15507 -0.02463 -0.15301
0.33606 -0.08225 -0.15114
0.09470 -0.18579 -0.22155
0.19687 -0.09808 -0.00470
0.10238 -0.17898 0.22164
-0.19948 0.12622 0.19171
0.14197 -0.12449 -0.05886
0.16540 -0.18579 -0.22553
0.30402 0.03545 -0.25048
0.17952 0.09520 -0.24125
-0.08265 -0.04561 0.11040
-0.08627 -0.03368 0.14154
-0.06944 -0.11857 0.16768
-0.14837 -0.06748 -0.10857
0.26256 -0.09486 -0.22093
-0.18882 0.04268 -0.18906
-0.21657 0.18473 -0.19566
-0.13864 -0.07826 0.21300
0.31796 -0.05216 -0.23893
-0.24274 0.14263 0.18763
-0.14404 -0.00444 0.20606
0.07688 -0.10732 -0.09287
-0.00092 -0.12912 -0.21875
-0.08112 0.00888 0.02923
-0.23803 0.11257 0.20318
-0.28668 0.17346 0.16436
-0.24616 0.04085 -0.01653
-0.02009 -0.07628 -0.21029
-0.11503 -0.07541 0.05885
0.25910 0.12178 0.25001
-0.26885 0.17458 0.22657
-0.25035 0.25790 0.10027
-0.23356 0.14563 -0.21721
0.12147 -0.12538 -0.03465
0.15142 -0.11607 -0.20002
-0.33645 0.19182 0.04736
-0.31774 0.22936 -0.12642
0.23042 0.12049 -0.24522
0.22661 -0.09555 0.24224
0.12645 -0.07141 -0.21778
-0.19535 -0.02316 -0.08082
-0.11658 -0.07310 0.11070
-0.05778 -0.14589 -0.13872
-0.15210 -0.18395 -0.19853
-0.11174 0.05393 0.01382
-0.20473 0.06010 0.16967
-0.18255 0.04068 -0.19796
-0.23013 0.22814 -0.10523
0.13002 -0.02924 -0.02223
-0.28516 0.12828 -0.09586
-0.33498 0.20112 0.08690
0.03149 0.11154 -0.21812
-0.03340 -0.11580 0.12922
-0.32316 0.18680 -0.04175
-0.07430 -0.03184 0.10893
-0.25431 0.25675 -0.12437
-0.18006 -0.00188 -0.14452
-0.03538 -0.11595 -0.15393
-0.19265 0.04884 -0.06114
0.28617 -0.01723 0.15419
-0.24389 0.03820 0.02349
0.11783 -0.03018 -0.13617
-0.12484 -0.05093 -0.09958
0.33657 -0.08124 -0.04953
-0.25782 0.18188 -0.19775
-0.25612 0.13358 -0.20161
0.22260 -0.07034 0.22151
-0.02938 0.08809 -0.23239
0.34033 -0.03665 -0.12076
-0.32405 0.16168 -0.04726
-0.15257 -0.21990 -0.22242
0.17727 -0.02561 -0.00489
-0.17681 0.14968 0.08227
-0.05127 -0.11718 -0.11844
-0.27917 0.11682 -0.00626
0.33929 -0.05768 0.22855
-0.23295 0.13825 0.22292
0.15872 -0.10102 -0.05609
-0.18973 -0.02888 -0.01975
-0.28826 0.18954 -0.00123
0.31756 -0.19815 -0.23972
0.29506 -0.10806 0.22861
0.06186 0.09119 -0.21546
-0.33576 0.20709 0.07211
-0.33674 0.20078 -0.00416
0.18378 -0.11175 -0.22559
-0.28235 0.24519 0.05585
0.21307 0.09810 -0.21860
0.19779 -0.10591 -0.20980
0.09290 -0.13156 -0.16316
-0.07120 0.08904 0.20551
-0.00576 -0.03969 0.08690
-0.09031 -0.03305 -0.19909
0.29744 -0.09043 0.00244
-0.17028 -0.02969 0.13981
-0.25507 0.21855 -0.19862
0.03409 0.09512 -0.23905
0.03059 -0.16273 -0.21548
0.30003 -0.01616 -0.06004
-0.25272 0.17175 -0.22044
-0.12813 0.07804 -0.16681
-0.18582 -0.00459 -0.12511
-0.14185 -0.04728 -0.16179
-0.02081 -0.11483 0.03394
0.15165 -0.10156 0.20442
0.23418 0.09706 0.24111
0.33850 -0.03175 0.15500
-0.06208 -0.11801 0.17132
0.16595 -0.10046 -0.09092
-0.20029 0.00552 -0.10134
0.05464 -0.03504 0.08376
-0.32953 0.20514 0.10216
-0.17211 0.01863 -0.08799
-0.17653 -0.03601 -0.06367
-0.05116 -0.04318 0.04195
-0.26406 0.25452 0.02902
-0.27703 0.20397 -0.22258
0.12009 -0.10751 0.21585
-0.17911 -0.02842 -0.05650
-0.22806 0.04623 0.05998
-0.28376 0.25699 0.12755
-0.30772 0.17543 -0.12652
-0.13771 -0.14384 -0.20717
0.31732 -0.17008 0.24064
0.28451 0.00161 -0.23199
-0.18256 -0.00038 0.16923
0.11734 0.09308 -0.21529
-0.13765 -0.16641 0.20841
-0.13247 -0.06893 -0.21541
-0.31149 0.15620 -0.08575
-0.22718 0.04944 0.10315
-0.26533 0.25403 0.16070
0.24339 -0.02052 -0.19825
-0.09468 -0.03939 0.12382
-0.07100 -0.02831 0.07972
-0.28126 0.24483 0.18383
-0.27131 0.11876 0.11248
-0.07119 -0.00573 -0.14428
-0.15436 0.00334 0.19568
-0.06704 -0.04441 0.15996
-0.12210 -0.05496 0.07992
-0.30678 0.24037 0.20111
0.27929 -0.09174 0.09738
0.16549 -0.10050 -0.12659
0.06108 -0.13168 0.06510
-0.18027 0.15477 -0.09236
-0.30472 0.17834 0.16160
-0.06317 -0.04411 0.09899
0.30017 -0.09726 -0.22899
-0.24720 0.06595 -0.07638
-0.03993 -0.05497 -0.20360
0.15251 -0.10150 -0.01165
-0.29766 0.20336 0.04405
-0.28809 0.25041 0.17782
-0.09745 -0.10459 -0.20197
-0.15961 0.00024 -0.05328
-0.24125 0.05146 0.09771
-0.20824 0.03766 -0.11964
-0.09904 -0.11644 -0.15780
-0.17404 -0.23151 -0.19970
-0.32874 0.22333 0.00031
-0.24830 0.25488 -0.11923
-0.29156 0.24088 0.09570
-0.15414 0.10879 0.23054
-0.09384 -0.09172 -0.20574
0.00081 0.10119 0.23792
-0.28919 0.19090 0.08699
-0.21588 0.09318 0.20521
0.12152 -0.02990 0.09281
-0.12663 0.07585 -0.05411
0.24596 -0.09430 0.13261
-0.14414 -0.14886 0.01272
0.18858 -0.09872 0.19121
0.28433 -0.21660 -0.23233
-0.25523 0.14003 0.21202
-0.28241 0.12311 -0.01924
0.03771 -0.11347 0.21311
0.20962 -0.02312 -0.07135
-0.11650 -0.05608 -0.18200
-0.06667 -0.01238 -0.11123
-0.14066 -0.14920 -0.19205
-0.26721 0.13638 0.18207
-0.02817 -0.07428 0.20896
0.23947 -0.09480 -0.18164
-0.04562 -0.14456 -0.14308
0.25973 -0.01926 0.09123
-0.27173 0.24881 -0.10719
-0.13926 0.09443 0.17115
0.31053 -0.08934 0.14647
0.00641 -0.13509 -0.02718
-0.14462 0.10232 0.03456
0.27796 -0.07281 0.22261
0.27270 -0.09225 -0.13395
-0.22326 0.20883 0.18506
-0.28811 0.16878 -0.17143
-0.28314 0.18200 -0.18364
0.18464 -0.09902 -0.07232
0.30004 -0.16257 0.22330
-0.24549 0.16329 0.21799
0.17399 -0.18579 -0.22982
-0.17780 0.06238 0.21696
-0.26915 0.24999 -0.01122
-0.14279 -0.12567 -0.03483
0.07727 -0.18464 -0.22703
-0.26865 0.10156 -0.08856
0.28438 -0.16049 -0.23224
-0.20783 0.19533 -0.17409
-0.28087 0.25389 -0.15836
-0.26897 0.25252 0.17274
-0.20445 0.19036 -0.09504
0.20608 -0.09448 0.23782
0.06294 -0.10839 0.13261
0.20474 -0.09748 -0.16280
0.25370 -0.09855 0.24423
-0.29926 0.23108 -0.04366
-0.27508 0.09711 0.01848
-0.07770 0.00385 0.17567
0.14332 -0.10220 -0.18863
-0.18562 0.02045 0.20888
-0.08583 0.01581 -0.13035
0.03790 -0.13589 -0.16654
-0.10479 -0.05300 -0.12399
-0.12376 -0.11330 0.22087
-0.16342 0.00584 -0.14917
-0.26978 0.11047 0.06333
0.34042 -0.07160 0.15652
0.21857 -0.09641 0.00979
-0.33537 0.18703 -0.02962
-0.22168 0.03443 -0.09456
-0.32111 0.20927 0.14297
0.02955 -0.03697 0.04634
0.31755 -0.15446 -0.23974
0.19599 -0.09815 -0.08669
-0.08196 -0.03075 0.04980
-0.25511 0.25736 -0.06380
-0.17759 -0.01283 0.16219
-0.24445 0.10709 -0.16908
-0.26262 0.08121 0.03740
-0.06341 -0.01718 -0.00316
-0.18181 0.10063 -0.19912
-0.09640 -0.13604 -0.19165
0.20394 -0.02355 -0.16422
0.14488 -0.02810 0.02778
-0.19559 0.03936 0.20417
0.30233 -0.11349 0.05985
-0.28750 0.17075 -0.18575
0.20523 0.09607 -0.22217
0.20212 0.09598 0.21854
-0.23583 0.23653 0.03807
-0.10447 -0.03283 -0.19875
0.11371 -0.10448 0.00603
-0.29134 0.23844 0.07046
0.01131 -0.13809 -0.16656
-0.30373 0.23556 0.01119
-0.13397 0.08665 -0.09375
-0.06667 -0.02308 0.08151
-0.30996 0.23247 -0.00243
0.04959 0.10369 -0.21081
-0.15055 -0.14222 0.11572
-0.24304 0.08730 -0.13881
-0.06753 -0.04444 0.01268
0.11130 -0.04842 0.21330
-0.16934 0.01806 -0.19079
-0.20720 0.08348 -0.19811
-0.18999 0.04493 0.14380
0.09352 -0.10604 -0.15360
-0.09503 -0.11694 -0.19485
-0.29800 0.11963 -0.01850
0.20562 -0.03776 -0.21731
-0.14920 -0.13655 0.01092
-0.26297 0.26106 -0.11844
-0.28913 0.19081 -0.10003
-0.09888 0.08573 0.20419
0.00014 -0.13661 -0.05879
0.26920 0.09825 0.24402
0.31846 -0.01474 0.17926
0.26083 -0.11792 -0.15874
-0.14454 -0.00352 0.22474
-0.15391 0.00498 0.21410
-0.19149 -0.01136 -0.04415
-0.31758 0.15275 -0.03120
-0.17460 -0.03386 -0.09844
-0.28023 0.13112 -0.09896
-0.28108 0.17897 0.08531
0.01963 -0.03774 -0.07231
-0.32493 0.22382 -0.09992
-0.06782 -0.02452 -0.08817
0.05517 -0.05394 0.21062
-0.32103 0.21060 -0.15084
0.12871 -0.18579 -0.21983
0.19577 -0.03015 0.21181
0.23441 0.11485 -0.21962
0.31853 -0.22997 0.23828
0.09536 -0.10589 0.14235
0.00017 -0.11322 0.01444
-0.18583 0.11864 0.21702
-0.18304 0.03470 0.01882
-0.14556 0.10371 -0.16608
0.19030 -0.02460 0.08579
-0.22839 0.06297 -0.13430
0.22477 -0.02195 -0.16900
-0.11261 0.09087 0.23252
-0.07129 -0.02862 -0.09475
-0.06829 -0.01000 -0.17653
-0.28166 0.11566 0.10697
-0.25331 0.25778 -0.04918
-0.26100 0.18209 0.18976
0.10487 -0.12059 0.19821
-0.12665 -0.06783 -0.17976
-0.31215 0.17512 0.10456
0.20070 -0.06956 -0.22117
-0.17126 -0.00298 -0.18753
-0.09274 -0.18579 0.21263
-0.11056 -0.09042 -0.13638
0.11467 -0.09815 0.20733
-0.19309 0.17363 0.17173
0.27297 -0.09223 0.20564
0.09663 0.10189 -0.21305
-0.26037 0.14849 0.01201
-0.20221 -0.01897 -0.06114
0.04180 -0.11006 0.21909
-0.16382 0.13057 0.10232
-0.31581 0.17725 -0.05533
-0.11293 -0.05180 0.02589
-0.26359 0.15324 0.14200
-0.08757 0.01838 -0.05006
0.29094 -0.16375 0.23204
-0.20621 0.05018 0.18966
-0.16712 0.08340 -0.22696
0.02063 -0.10967 -0.21950
0.34161 -0.06703 0.10203
0.28541 -0.11988 0.24423
-0.06496 -0.04425 0.14616
0.19731 -0.02407 -0.04938
-0.23123 0.02598 0.00849
0.34279 -0.04900 -0.12311
-0.25005 0.10487 0.16184
0.10897 -0.10485 0.03009
-0.11120 -0.08565 -0.14452
0.30814 -0.10043 0.22332
0.25445 -0.09365 -0.08594
-0.07120 -0.11871 -0.09498
-0.28545 0.24303 -0.05255
0.21694 0.09647 -0.23308
-0.30648 0.17813 0.10147
-0.22791 0.09971 -0.18841
-0.07508 -0.02607 -0.11933
-0.18897 -0.01649 0.03036
-0.21460 0.09649 -0.19847
0.31594 -0.02801 -0.23196
0.26306 -0.09299 -0.04035
0.15048 -0.10165 0.14252
0.06523 -0.18579 0.22306
-0.10956 0.05072 -0.05570
-0.13939 -0.02952 -0.18240
0.22099 -0.09623 0.05681
0.19383 -0.02433 0.01170
-0.10833 0.08540 -0.23225
-0.27513 0.13129 -0.13355
-0.27469 0.10315 -0.10227
0.24328 -0.10727 0.23487
-0.13658 -0.08132 0.11395
0.06807 -0.17036 0.21975
-0.27264 0.13740 0.15760
-0.30813 0.17327 -0.14197
-0.18245 0.03383 0.11937
0.15515 -0.02731 -0.00902
-0.16205 -0.25639 0.20164
0.02611 -0.13311 -0.00253
-0.07116 -0.00578 -0.06254
-0.07726 -0.02755 0.08197
0.06242 0.09732 0.21188
-0.28394 0.16585 -0.16709
-0.05231 -0.14000 -0.02042
-0.09976 -0.04692 -0.12274
-0.21611 0.03255 -0.07414
0.31132 0.12413 0.23809
0.18330 -0.10615 -0.23833
-0.26323 0.15271 0.04994
-0.25074 0.10481 -0.14888
0.29433 0.10527 0.22294
0.08509 -0.13005 -0.17983
0.04741 -0.03560 -0.12656
-0.18088 0.15567 0.13881
-0.19197 0.07110 -0.20946
-0.14010 -0.07533 0.18562
0.21772 -0.12103 -0.16537
-0.08484 -0.03271 -0.10980
-0.30391 0.20288 -0.19561
-0.11017 -0.09242 0.16203
0.28818 -0.09106 0.18619
0.14456 -0.11542 0.23091
-0.02143 -0.11488 0.15080
-0.21059 0.07525 -0.09959
-0.10584 -0.16296 -0.21693
0.01437 -0.03814 0.01594
-0.22870 0.07166 -0.14304
-0.06468 -0.04422 -0.17563
0.20888 -0.09822 -0.22075
-0.00411 -0.03956 0.17670
0.17613 -0.09968 -0.12556
-0.02196 -0.10404 0.20273
0.08631 -0.10659 0.12244
-0.32665 0.20678 -0.00468
-0.33160 0.18843 -0.05454
-0.08256 -0.13622 -0.21436
-0.29303 0.25076 0.01641
-0.29211 0.13037 0.06395
0.05586 -0.11842 -0.23537
-0.20024 -0.01274 -0.09035
-0.24343 0.12608 0.19969
-0.11135 -0.08285 0.14811
-0.30303 0.21127 0.12406
0.25653 -0.01951 -0.08393
-0.24581 0.06399 0.09918
-0.22940 0.22706 0.17897
0.23966 -0.16273 -0.22690
0.12569 -0.12677 0.07699
0.02761 -0.11111 -0.14725
-0.31086 0.20117 0.16719
-0.14970 -0.13455 -0.22374
-0.29989 0.20319 0.17780
0.34217 -0.04438 -0.11252
-0.12134 0.06806 -0.18271
-0.11824 -0.05649 -0.02756
0.14787 -0.10236 0.22113
0.08864 -0.10602 0.23316
-0.02367 -0.11992 0.22801
-0.11022 -0.09225 -0.12028
0.29506 -0.09170 -0.15171
0.27342 -0.11237 -0.02901
-0.07399 0.10204 0.23436
-0.07344 -0.12330 0.22461
-0.13936 -0.07719 0.03136
-0.01965 -0.04076 0.14523
-0.17568 0.02388 0.04150
0.12655 -0.12985 -0.14798
-0.20282 0.08218 0.22040
-0.20759 0.07372 0.19937
-0.17011 -0.18054 0.20904
0.29106 -0.14526 0.24928
-0.31143 0.15457 -0.04210
-0.25791 0.17707 0.20189
0.25181 -0.09105 -0.23145
-0.02892 -0.13794 -0.17978
-0.23720 0.11439 -0.12038
0.18025 -0.02538 -0.08854
-0.11513 -0.08548 0.20830
-0.18745 -0.00941 -0.10977
-0.17646 0.02503 0.09737
-0.19076 0.00232 0.12119
0.10635 -0.10505 0.13960
-0.26313 0.10981 -0.09332
-0.27086 0.10463 0.11828
-0.26749 0.10784 -0.06622
0.16628 -0.05507 0.21906
-0.07145 -0.02879 -0.02268
0.21346 -0.09285 0.23208
-0.26172 0.25337 0.02418
-0.21164 0.20093 -0.00975
-0.21558 0.06001 -0.18286
-0.10381 -0.04560 0.03834
-0.17062 -0.21190 0.20072
0.08208 0.09188 -0.21655
0.03666 -0.11582 0.23101
-0.02287 -0.04101 -0.02722
-0.28330 0.12486 0.02278
-0.08774 -0.03467 -0.13881
-0.26803 0.16606 0.18420
-0.10177 -0.04792 0.16858
-0.25020 0.17030 0.19028
0.14540 -0.12355 -0.18491
-0.08548 0.01529 -0.18883
0.30004 -0.09043 0.15102
-0.00052 -0.11738 -0.22692
-0.30126 0.22868 0.00994
-0.26003 0.14800 0.14746
-0.10289 -0.04978 0.17930
-0.06873 -0.00935 -0.07509
0.00589 -0.11278 -0.17382
-0.05657 -0.11283 -0.19778
-0.04827 -0.14048 0.05368
0.31492 -0.24860 0.23056
-0.10963 -0.05406 0.01407
0.09990 -0.10554 -0.01283
-0.30173 0.20936 -0.11888
0.28732 -0.20190 -0.22711
-0.29258 0.20424 0.21449
0.04474 0.09061 0.22801
-0.27255 0.12176 -0.14591
-0.11779 -0.10033 -0.21440
-0.12207 -0.17927 0.20927
-0.06527 -0.11825 0.17605
0.33458 -0.08471 0.14292
-0.28310 0.20939 0.21282
-0.04162 -0.04245 0.04436
-0.26766 0.18952 -0.20101
0.03627 -0.16454 0.22825
-0.02203 -0.11852 -0.20877
-0.17175 -0.00588 -0.18266
-0.25741 0.26031 -0.09610
0.17760 -0.12292 0.08845
-0.16726 -0.00015 -0.19944
-0.29821 0.20417 0.00880
0.15885 0.11727 0.23025
0.28556 -0.17142 -0.22825
-0.27829 0.12154 0.09655
-0.15435 -0.13517 0.22205
-0.07005 -0.02265 -0.16086
0.18898 -0.09869 -0.17495
0.16519 -0.02654 0.16192
-0.28687 0.15252 -0.14001
-0.10869 -0.09817 0.02276
0.17488 -0.08732 -0.21464
0.17545 -0.03800 0.21435
-0.01914 -0.11470 -0.10311
-0.17599 -0.02388 0.10744
0.02451 -0.03736 -0.09071
0.17969 -0.12329 -0.17814
-0.03266 -0.10601 0.20145
0.23286 0.10681 -0.24852
-0.11819 -0.07071 0.20008
-0.20396 -0.00252 0.10019
-0.08066 -0.13514 0.21844
-0.16956 0.11231 0.22980
0.32398 -0.02298 -0.22059
-0.21093 0.04112 0.13314
-0.28479 0.10038 -0.02682
0.28414 -0.18452 0.23317
-0.16814 0.13692 0.10113
0.27939 -0.09173 -0.15850
0.30747 -0.11349 0.16571
-0.16750 -0.00754 -0.21443
-0.10723 -0.10206 0.09943
-0.22703 0.07157 0.13654
-0.01931 -0.04073 0.12559
-0.09229 0.02531 -0.08622
-0.27166 0.26075 -0.00640
-0.29357 0.23651 -0.15245
0.14446 0.11662 -0.22368
-0.18683 0.08273 0.22852
-0.19750 0.18013 -0.07095
-0.26565 0.09832 0.02513
-0.14640 -0.06370 0.11535
-0.22148 0.12019 0.18923
-0.21799 0.21027 -0.14894
-0.22385 0.02964 -0.07051
-0.16449 0.00741 0.00682
-0.08666 -0.07931 -0.20666
-0.17143 0.01762 -0.03173
-0.13540 -0.13417 -0.19030
0.29819 -0.17875 -0.23920
0.29506 -0.09517 0.05108
-0.22019 0.02921 -0.02606
-0.28431 0.24386 0.17122
-0.17928 0.01097 0.21577
-0.25435 0.05260 -0.00947
-0.21131 0.05775 0.14928
0.30399 -0.01586 -0.20868
0.26856 -0.08971 -0.24070
-0.30038 0.14031 -0.06273
0.06591 -0.10816 -0.18451
0.29550 -0.01000 -0.25021
-0.19795 0.05128 0.20815
-0.03640 -0.04205 -0.01754
0.17112 -0.12649 -0.14305
-0.11298 0.03264 -0.19560
0.01910 -0.03778 0.09474
-0.12986 0.09778 -0.23124
0.30505 -0.20707 0.22468
-0.20750 0.19485 -0.06858
0.03897 -0.11023 0.05990
0.09013 -0.10630 -0.20035
0.01905 -0.03778 0.06660
0.21533 -0.02268 -0.04375
0.31613 0.10527 -0.24260
-0.12240 -0.05453 -0.02056
0.18008 -0.04133 -0.21669
0.15754 -0.02712 0.12078
-0.20690 0.00146 0.04869
0.29506 -0.09569 -0.15802
-0.15802 -0.22649 -0.20009
0.07696 -0.10731 0.00453
0.17348 -0.02590 0.12265
-0.05536 -0.14051 -0.04068
-0.20999 -0.01289 -0.01947
-0.00737 -0.03981 0.18104
-0.21365 0.20389 -0.07640
-0.27401 0.17712 0.22625
-0.10540 -0.12278 -0.21507
0.19512 -0.10995 0.22511
-0.13041 -0.04273 -0.09934
-0.06173 -0.04400 0.05609
-0.17427 -0.04956 -0.04093
0.01135 -0.11236 -0.02507
-0.20414 0.07074 -0.19846
-0.22808 0.10099 -0.16688
-0.31961 0.21467 -0.02323
-0.17521 0.14732 0.01673
-0.13693 -0.14058 0.13704
0.01851 -0.03782 0.16066
0.29996 -0.04873 0.22332
0.14978 -0.02772 0.10249
0.13428 -0.10752 -0.21708
-0.00656 -0.11374 0.18786
-0.26618 0.10841 0.07374
-0.21477 0.00765 -0.01487
0.14878 -0.02780 0.04173
-0.29200 0.13668 -0.09089
-0.29959 0.23627 0.18307
-0.08317 -0.04565 0.11967
-0.15182 0.11291 -0.03115
0.28210 0.12282 -0.23786
0.21235 -0.02291 -0.05324
-0.30524 0.14908 -0.06951
-0.21137 0.12415 -0.19873
0.34265 -0.06061 0.05877
-0.13900 -0.17680 -0.20594
-0.12683 -0.00783 -0.19813
-0.02102 -0.04086 0.05081
-0.16927 0.01444 -0.15038
-0.22798 0.11156 -0.20553
-0.13682 -0.05834 0.14877
0.15833 -0.02706 -0.09878
0.15699 -0.06149 0.21910
0.13399 -0.12639 0.08317
-0.00637 -0.03974 -0.06456
-0.31439 0.19750 -0.13332
-0.20279 0.06377 -0.04290
0.34301 -0.05508 -0.05552
-0.21046 0.05959 0.19400
-0.27382 0.15180 -0.21385
-0.13372 -0.06927 0.09688
-0.07443 -0.00097 0.17468
-0.33912 0.20770 0.03163
-0.24481 0.13534 -0.21200
-0.10363 -0.00297 -0.19851
-0.28438 0.12195 0.11255
0.29065 -0.03722 -0.24869
-0.31669 0.21355 -0.14974
-0.14015 -0.07541 -0.10784
0.20658 -0.09734 0.04758
-0.22249 0.21690 0.01932
0.15311 -0.05315 -0.21827
-0.19442 -0.00997 -0.01448
-0.25407 0.25686 0.05278
-0.17069 0.14067 0.14171
-0.19832 -0.03017 0.02350
-0.13042 -0.04272 0.17012
0.14793 -0.12292 -0.01684
-0.21400 0.04032 0.10720
-0.15725 -0.01217 0.16812
0.15947 -0.02698 0.17680
-0.02621 -0.13012 0.21447
0.14706 -0.10192 0.05382
-0.31028 0.21790 -0.07417
-0.03244 -0.04174 0.11281
-0.07713 -0.03453 0.12767
-0.21584 0.04957 -0.16832
-0.16003 0.00085 0.11990
-0.21299 0.07877 -0.16481
-0.32772 0.20605 0.06991
0.30959 -0.08941 0.01163
-0.24036 0.11904 -0.15763
0.17058 -0.02612 0.11819
-0.00565 -0.05701 0.20681
0.16465 -0.02658 0.12603
-0.07987 -0.11938 -0.03738
0.03880 -0.11025 0.14470
-0.30583 0.22289 0.10533
0.09460 0.11439 0.24113
-0.31637 0.18371 -0.11705
-0.24678 0.06122 -0.02997
-0.23402 0.02721 -0.05702
0.09360 -0.03204 -0.03018
-0.30618 0.16485 0.06207
0.10187 -0.10539 0.12684
0.01989 -0.11170 0.16686
-0.14364 -0.12375 0.19937
-0.10674 -0.05726 -0.13625
0.09875 0.09245 -0.23465
-0.21895 0.21168 -0.12015
-0.12823 -0.06777 -0.13422
0.05874 -0.10871 -0.12837
0.22301 -0.18579 -0.22519
-0.10970 -0.04960 0.12428
-0.26142 0.15005 -0.02096
-0.10860 -0.09840 0.18822
-0.07638 -0.12351 -0.20575
-0.20606 0.04121 -0.13268
-0.12301 -0.06876 0.06677
0.21690 -0.11905 -0.18372
-0.04824 -0.12155 0.22535
0.33659 -0.08119 -0.07891
-0.31134 0.23169 0.15195
0.30739 -0.06303 -0.24935
-0.15243 -0.02726 -0.20578
-0.08451 0.01386 0.04370
-0.13814 0.08438 -0.22193
0.04600 -0.10969 -0.12746
-0.25401 0.16905 0.22310
-0.14857 0.10363 -0.19108
0.27063 -0.09241 -0.03614
-0.34179 0.19649 0.03111
-0.23283 0.12906 -0.22432
-0.13177 -0.13530 0.22307
-0.28228 0.19041 -0.19801
-0.22306 0.07526 -0.16701
-0.32473 0.23062 0.21519
-0.13394 -0.03754 0.02684
-0.30774 0.15561 0.04197
0.03452 -0.16837 -0.21441
-0.10928 -0.05394 0.09078
-0.26053 0.13381 -0.21606
-0.09209 -0.12032 0.12378
0.30166 -0.01604 0.09851
0.22242 -0.10244 -0.21276
-0.22204 0.18343 -0.19720
-0.10353 -0.10987 0.06664
0.01612 -0.11199 0.10483
-0.20400 0.04238 -0.15923
-0.28412 0.24316 0.13818
-0.22387 0.13412 -0.21353
-0.30877 0.14525 -0.00349
-0.02505 -0.04117 0.14880
0.33716 -0.02882 -0.03156
0.11075 -0.10471 -0.00122
-0.17590 0.02421 0.09043
-0.13440 -0.08212 0.10154
-0.10430 -0.04593 -0.16591
-0.01564 -0.14200 -0.14398
-0.28066 0.24626 -0.11971
-0.16586 0.00331 0.17433
-0.25275 0.13728 0.07179
0.12341 -0.10373 -0.13469
-0.16163 -0.03604 0.12561
-0.13546 -0.13439 -0.07308
-0.10791 -0.04838 0.05879
-0.12585 0.07469 -0.13658
0.06621 -0.03415 -0.13516
-0.09048 -0.12019 0.06138
0.30116 0.04880 0.25190
-0.18677 0.16434 -0.00111
-0.18037 0.09010 -0.19985
0.33969 -0.07383 -0.09450
-0.19630 -0.00558 -0.12206
0.11164 -0.03066 -0.00425
-0.16193 0.00298 0.22517
0.19129 -0.09851 -0.12061
0.04217 -0.03600 -0.03793
0.31522 -0.23522 0.24477
-0.10911 0.05007 0.12582
0.13734 -0.02868 -0.11586
-0.29647 0.23270 -0.08178
0.16559 0.09472 0.21998
0.23810 -0.09491 0.11322
-0.23672 0.10077 -0.20423
-0.20006 0.18389 -0.05139
-0.27174 0.12787 0.10770
-0.13642 -0.13844 0.15814
-0.24971 0.06455 -0.05659
0.28665 -0.05794 -0.22630
0.00270 -0.05232 0.20543
-0.19192 0.07037 -0.19551
-0.28446 0.10533 -0.06250
-0.19480 0.05201 0.09712
0.29481 -0.09055 -0.02569
-0.06759 -0.01102 0.13861
-0.15964 -0.06999 0.03906
-0.22709 0.02575 -0.01457
-0.14543 0.08988 -0.19355
-0.17385 0.02119 0.14200
-0.02248 -0.11571 -0.21430
0.30407 -0.24161 0.25093
-0.17673 0.11423 -0.20088
-0.19147 0.08257 -0.21704
0.21202 -0.18128 -0.22420
-0.11894 -0.12459 -0.21612
0.12326 -0.05519 -0.21665
-0.08158 0.09674 -0.23354
-0.19739 0.17997 0.09593
-0.06904 -0.14364 -0.17358
-0.09619 0.10592 -0.21580
0.21640 -0.02260 0.07817
-0.10914 -0.06399 -0.04241
-0.15613 -0.14026 -0.20239
-0.11301 -0.07695 -0.20777
-0.10262 -0.04479 -0.03512
-0.10301 -0.04505 -0.02780
-0.32715 0.22273 -0.08258
-0.09609 -0.02454 -0.19909
-0.32679 0.20677 -0.13022
-0.10205 -0.11213 -0.04015
0.30702 -0.01562 0.20549
0.09365 -0.09259 0.21025
-0.10056 0.03748 0.15148
0.10314 -0.03131 0.06322
0.21047 -0.02305 0.14721
0.20534 -0.09743 0.00830
-0.25773 0.25519 0.15633
-0.07182 -0.02920 -0.16532
-0.31064 0.21766 0.10763
0.33901 -0.07591 0.13068
-0.14144 -0.03653 0.20159
-0.25427 0.07960 0.07873
-0.11130 -0.07647 -0.03856
0.34297 -0.05347 -0.00025
-0.12685 -0.04797 -0.12954
-0.12847 -0.02903 0.19969
-0.22879 0.06069 -0.10239
-0.28994 0.19201 0.14269
-0.16981 -0.04850 -0.07463
-0.26848 0.26105 -0.04173
-0.14062 -0.02771 -0.13617
-0.30818 0.21885 -0.10872
0.10644 -0.03106 -0.10645
-0.17108 0.03968 -0.20012
-0.13374 -0.13023 -0.20010
0.05414 -0.08774 0.21119
-0.06637 -0.02015 -0.11993
-0.24016 0.24290 0.04260
0.30556 -0.01574 0.01952
-0.32859 0.20157 0.10937
-0.13393 -0.12798 0.17943
-0.11101 -0.07334 -0.07218
0.20089 -0.02379 -0.03218
0.00167 -0.03912 0.04720
-0.17234 0.14018 -0.19062
-0.14283 0.10740 0.22029
-0.28649 0.24208 0.02943
-0.13282 -0.08253 0.13788
0.26383 -0.16873 0.24080
0.07351 -0.10757 -0.12283
-0.01178 -0.04015 0.10108
0.30283 -0.22920 -0.22352
0.30814 -0.10224 -0.16317
-0.17772 0.15102 -0.15821
0.34241 -0.06316 -0.06417
-0.29482 0.23367 0.08886
-0.12766 -0.08262 -0.19782
-0.28550 0.25605 -0.15168
0.32524 -0.08820 -0.00223
0.29481 -0.14168 0.25045
-0.31448 0.16642 0.11082
0.20111 -0.10030 0.22275
-0.13238 0.05056 0.18990
-0.13540 -0.03539 -0.07775
-0.13553 -0.08183 0.02424
-0.12728 0.10672 0.22460
-0.30420 0.17975 0.11452
-0.27089 0.09340 -0.04489
-0.13002 -0.04332 0.04840
-0.28985 0.24054 -0.08027
-0.23370 0.06884 -0.15714
0.28643 -0.25980 -0.24563
-0.30462 0.21360 -0.17108
0.10726 -0.10498 -0.05467
0.27825 -0.06917 -0.22405
0.25072 -0.01996 0.00692
-0.20803 0.08747 -0.22751
0.29180 -0.20394 -0.22561
-0.21782 0.11416 0.22750
0.23229 -0.02137 -0.07066
-0.05281 -0.04399 0.19429
0.26717 -0.11485 -0.18527
-0.24269 0.12247 -0.14982
-0.14265 -0.12568 -0.11151
-0.08802 -0.04602 0.05701
-0.07783 -0.03520 -0.06941
0.17476 -0.09978 -0.18163
-0.19066 0.06379 0.19956
-0.10338 -0.05163 -0.19133
-0.06681 -0.11837 -0.15695
-0.19779 0.03958 -0.21619
-0.19009 -0.01661 -0.01416
-0.10806 -0.06068 -0.08224
0.18197 -0.02525 0.16128
0.23005 0.10634 0.21987
0.17989 -0.09872 0.23896
-0.14809 -0.01334 -0.18442
-0.11732 -0.07200 -0.19108
0.25560 -0.09632 -0.24219
-0.27418 0.19109 -0.19943
-0.08741 -0.12256 0.22107
-0.20902 0.12352 0.21854
-0.05307 -0.11232 0.19737
0.33402 -0.02312 0.18258
-0.10401 -0.02627 -0.19909
0.21145 -0.02298 -0.18986
-0.28863 0.24110 -0.10568
0.19111 -0.11926 -0.01875
0.05454 -0.10903 -0.09914
0.06687 -0.10809 -0.02775
-0.29786 0.23180 -0.19371
0.00519 -0.11283 0.07705
0.31490 0.10995 0.24542
-0.18153 -0.00838 0.15951
-0.29773 0.22905 -0.16078
-0.01400 -0.04382 -0.19931
-0.23555 0.05315 0.08206
0.22941 0.09690 0.24461
-0.25594 0.13676 0.16889
-0.19106 0.17064 -0.03976
0.12915 -0.10329 0.19391
-0.15267 0.01591 -0.19610
-0.27126 0.09803 -0.06554
-0.20263 0.06353 -0.04909
0.32416 -0.08829 0.16557
0.23946 -0.07778 -0.22015
0.31295 0.04882 -0.24748
0.08089 -0.12844 -0.00234
-0.05174 -0.04323 -0.07474
0.28805 -0.08121 -0.24788
-0.22294 0.09341 -0.02240
-0.14096 -0.19413 0.21461
-0.33343 0.20336 -0.03321
-0.13351 0.08454 0.22768
-0.25664 0.14300 0.03405
-0.15660 0.01694 -0.21209
0.05484 -0.09837 -0.20738
-0.17046 0.14034 0.15604
0.31660 -0.01489 -0.07207
0.19568 -0.11066 -0.23345
0.21844 -0.02244 -0.06783
-0.25095 0.25848 0.12823
-0.10862 0.04934 0.13526
-0.33291 0.18111 -0.00926
0.03552 -0.03651 0.17697
-0.32419 0.20845 0.09986
-0.14108 0.09710 -0.16187
-0.02979 -0.17391 0.21436
-0.16624 -0.03012 0.11056
0.03273 -0.17769 -0.21432
0.02258 -0.06440 -0.21161
-0.15390 -0.19043 -0.22551
0.19103 -0.02455 0.00486
-0.13894 -0.14900 -0.15242
0.14134 -0.10236 -0.13992
0.06833 -0.10797 0.03893
0.30773 -0.01557 0.11383
-0.27086 0.16068 0.17809
-0.24975 0.06586 0.05547
0.28843 -0.09104 -0.19453
-0.04096 -0.11638 -0.10276
-0.15330 0.11509 0.17576
0.10251 -0.10341 0.20341
-0.06220 -0.11802 -0.00433
-0.19716 0.06943 -0.21199
-0.20403 -0.00425 -0.04857
-0.20508 0.11748 -0.22765
-0.29490 0.23389 0.18218
-0.24238 0.12000 -0.20889
-0.22600 0.02523 -0.03119
-0.14682 -0.14860 -0.13684
-0.28161 0.18497 0.19938
0.20958 -0.09710 0.19726
0.12294 -0.02979 0.08592
0.01780 -0.11478 -0.22932
-0.14355 0.04250 0.19175
0.29506 -0.10722 0.10168
-0.24840 0.13088 -0.15389
-0.30318 0.23884 -0.17286
-0.25421 0.16054 0.19978
-0.11768 -0.08030 0.17923
0.19634 0.11896 -0.21865
0.15928 -0.18307 -0.23155
0.08064 -0.10703 -0.03515
0.11471 -0.10440 0.07947
-0.22798 0.11775 0.21023
-0.22407 0.21923 -0.05599
-0.22332 0.03189 -0.00365
-0.12176 -0.08227 0.10742
-0.24114 0.12019 -0.09265
0.08183 -0.10694 0.18312
-0.21010 0.10827 0.22018
0.34117 -0.06916 -0.14917
-0.11486 -0.07566 0.15018
-0.01548 -0.04044 -0.12854
-0.13938 -0.12600 -0.21168
-0.30040 0.22859 0.10809
-0.18253 0.00212 0.13769
-0.23109 0.02591 0.00209
0.26947 -0.01851 -0.03053
0.24789 -0.09416 -0.08536
-0.28776 0.24517 -0.19481
0.30389 -0.02033 -0.25053
0.34276 -0.05950 0.20492
-0.25022 0.13356 0.06161
-0.24996 0.09971 0.13503
-0.13958 0.09489 0.06716
-0.11011 -0.09267 0.10391
-0.26922 0.10218 -0.01108
0.24883 -0.02010 0.18117
0.12143 -0.12550 -0.04455
0.31550 -0.22065 0.23162
-0.07053 -0.14153 -0.01900
0.21282 -0.16547 0.23799
-0.27115 0.17779 0.21199
-0.10609 0.04562 -0.01796
-0.21820 0.21058 0.00038
-0.14819 -0.22480 -0.21091
0.13975 -0.02849 -0.15140
0.30939 -0.12387 0.24914
-0.07881 -0.03608 0.06769
-0.25756 0.25527 0.08709
0.31720 -0.06968 0.22478
0.16042 -0.09877 -0.22534
0.00533 -0.03884 0.02359
-0.23040 0.03203 0.02845
0.08768 0.09475 0.24206
-0.07754 0.10664 0.21482
0.34116 -0.06918 0.18738
-0.21980 0.08880 -0.18919
0.29659 -0.08393 0.22446
0.04870 -0.12607 0.19475
-0.13766 0.09207 0.09844
0.30814 -0.09519 0.16132
-0.18925 -0.01747 -0.08197
0.05797 -0.03479 0.09919
-0.22555 0.05726 0.15879
-0.22412 0.04658 -0.14229
-0.16696 -0.03529 0.11144
-0.10572 0.01680 -0.19653
-0.27919 0.24719 -0.08168
-0.15094 -0.14385 0.02235
-0.14831 -0.01639 0.06231
-0.14708 0.10593 0.05405
-0.33167 0.17713 0.06420
-0.11755 -0.05494 -0.00497
0.15670 -0.12603 -0.16619
-0.06546 0.10718 0.21300
0.31351 -0.00004 0.22799
0.09502 -0.10592 -0.18652
-0.14518 -0.02100 0.11575
0.12342 -0.13062 -0.14100
-0.14489 0.10271 -0.09994
0.25539 0.09778 0.23121
-0.12430 -0.06843 -0.07244
0.02765 0.10486 0.23920
-0.16889 0.01389 0.18067
-0.20687 0.06585 -0.18462
0.24557 0.10654 0.22061
-0.30993 0.15742 0.10083
0.21208 -0.09558 0.22735
0.30568 -0.05765 -0.22442
0.06520 -0.10821 -0.08330
0.15829 -0.02707 0.05985
-0.32599 0.16496 0.04769
-0.14259 -0.15828 0.22498
-0.30360 0.22580 0.17058
0.13128 -0.10313 -0.04349
-0.14217 -0.02543 -0.02631
0.01041 -0.11243 -0.10342
-0.32369 0.20878 0.13597
0.23269 -0.09533 0.00469
-0.14351 -0.02345 -0.16280
-0.29821 0.23673 -0.10481
-0.29641 0.11643 -0.01103
-0.25729 0.14396 0.00034
-0.25526 0.05887 0.02423
0.07810 0.09175 -0.22069
-0.05972 -0.04384 0.17053
-0.19283 0.00291 0.11169
-0.30622 0.16342 -0.10562
-0.30992 0.21815 0.14278
-0.11448 -0.05556 -0.16832
0.19915 -0.12399 -0.14526
-0.19767 0.18038 -0.00837
-0.14604 -0.01973 0.07865
0.23467 0.12068 0.22759
-0.27805 0.16794 0.17374
0.16401 -0.10061 -0.06559
0.32910 -0.01640 0.08308
0.01628 -0.11198 -0.14869
-0.30194 0.20966 0.15402
-0.04549 -0.04275 -0.16932
-0.13536 -0.18579 -0.20534
0.09219 -0.03215 -0.00455
-0.15526 0.10206 0.18667
0.13718 -0.02869 -0.05728
-0.18121 0.15616 0.12985
0.29399 -0.07403 -0.22487
-0.18482 -0.01995 -0.12774
0.17853 0.10347 -0.21696
-0.14900 -0.14839 0.11401
-0.12845 -0.04563 -0.06638
-0.23780 0.09662 -0.16533
-0.12185 0.06881 -0.04443
-0.25194 0.04989 0.01876
0.04763 -0.03558 0.19877
-0.25468 0.18825 0.19133
-0.33371 0.17368 -0.02189
-0.24563 0.12681 -0.14132
0.30814 -0.10349 0.08285
-0.14803 -0.13164 0.12006
-0.00019 -0.16273 -0.21268
-0.10876 0.04954 0.11969
-0.08033 -0.02964 -0.04550
0.04700 0.11224 0.23329
0.10063 -0.10549 -0.04164
-0.22074 0.06651 -0.13864
-0.32400 0.21080 -0.05348
0.14137 -0.05887 -0.21851
-0.16477 -0.17830 -0.20142
-0.14295 -0.12565 0.07912
0.09034 -0.03230 -0.07924
-0.13727 -0.07083 0.14111
-0.14690 -0.12690 -0.20763
0.17995 -0.04670 -0.21856
0.18113 -0.18579 0.22794
-0.01624 0.10940 -0.23553
-0.10030 -0.11478 -0.16505
-0.11509 -0.05708 0.22424
-0.09532 0.02977 -0.13664
0.33510 -0.02476 -0.02648
-0.29246 0.23750 -0.12909
-0.30169 0.14433 -0.07094
-0.22257 0.09287 0.11347
0.03476 -0.11056 0.04186
0.05488 0.09096 -0.22273
0.29506 -0.09631 0.10633
-0.10147 -0.04401 0.05444
-0.13978 -0.14929 0.04314
-0.19754 0.18018 -0.03021
0.29157 -0.21649 0.24944
0.09544 -0.03190 0.09563
-0.28831 0.24125 0.12338
0.03963 -0.11018 -0.11935
-0.26133 0.14084 0.17047
-0.26490 0.25192 0.01181
-0.20151 0.06188 -0.00721
-0.09173 0.02449 -0.06258
0.31707 -0.08883 0.11080
-0.29219 0.18115 0.20832
0.29283 -0.14234 -0.22526
0.17481 0.09504 0.23860
0.23844 -0.02090 -0.15929
0.29506 -0.10568 -0.15486
-0.27374 0.16386 0.20129
-0.31949 0.22936 -0.00080
-0.17763 0.15089 -0.01285
0.15917 0.11728 0.22163
-0.28410 0.24317 -0.07547
-0.20702 0.05674 0.16499
-0.16561 0.13319 -0.04384
-0.12427 -0.18556 -0.21592
-0.20321 0.07330 -0.19239
-0.01203 -0.04017 -0.02827
0.20592 -0.09739 -0.17386
0.24945 -0.09719 -0.22373
0.14020 -0.10244 0.12040
-0.13926 -0.12601 0.01079
-0.06963 -0.00804 0.04282
-0.28169 0.24427 -0.06943
0.25848 0.09789 -0.22155
-0.28632 0.24215 0.06103
-0.16339 0.12994 0.00498
0.18598 -0.02494 0.15362
-0.19636 -0.00115 -0.08730
0.12910 -0.02931 -0.04634
-0.30318 0.21149 -0.04998
0.03196 -0.11077 -0.03213
0.06648 -0.18579 -0.21733
-0.11274 0.09342 0.20353
0.11956 -0.10403 -0.01044
0.07172 -0.13144 0.07733
-0.29581 0.24451 0.13235
-0.32093 0.21576 0.14177
-0.06830 -0.13317 -0.22065
-0.13328 0.08564 -0.01545
-0.19062 0.04585 0.08527
-0.23950 0.24192 0.15212
-0.07815 -0.03551 -0.16715
-0.20914 0.19725 0.16904
-0.31609 0.15733 -0.02393
0.05024 -0.06794 0.21320
0.26194 0.11268 0.25037
-0.00011 -0.09116 0.20848
0.29506 -0.09093 0.22448
-0.15010 -0.14031 -0.14791
-0.08464 -0.03257 -0.06682
-0.08375 -0.04012 -0.09552
-0.30357 0.23593 0.11843
-0.31570 0.21751 0.05061
0.23840 -0.09489 -0.10551
-0.07227 -0.00415 0.05168
0.04155 -0.03605 -0.12469
0.27763 -0.04589 -0.22526
