ply
format ascii 1.0
comment VCGLIB generated
element vertex 1802
property float x
property float y
property float z
element face 0
property list uchar int vertex_indices
end_header
-0.23597 0.31465 -0.06903
0.24482 -0.08086 0.21716
-0.18350 0.17541 -0.16547
0.24256 -0.09113 0.17617
-0.23564 0.30619 0.04664
0.22595 0.06101 0.21700
-0.19684 0.29714 0.25498
-0.24395 0.30482 0.23834
0.07456 0.21604 -0.28085
0.24786 -0.00001 -0.13739
-0.19978 0.20505 -0.22657
0.01736 0.19110 -0.24601
-0.23982 0.29875 0.13530
-0.10413 0.25777 0.26627
-0.18034 0.16303 0.05556
-0.02377 0.15657 0.23002
0.23916 -0.20083 0.20083
0.23306 0.05041 -0.21490
-0.17418 0.13207 -0.20554
-0.23122 0.28626 -0.24422
-0.18574 -0.12334 -0.21008
-0.16917 0.07062 0.17606
0.04810 -0.00663 0.21723
-0.09921 0.23005 0.24810
0.24347 -0.01539 0.06235
0.19166 -0.08013 -0.20866
0.23592 0.14761 0.25873
0.14593 0.20042 -0.26843
0.21909 -0.12593 0.20607
-0.20922 -0.18937 -0.19632
-0.15340 0.14626 -0.22119
-0.18006 -0.06659 -0.14241
0.24256 -0.16902 -0.04684
-0.18556 0.18329 0.17344
0.23398 -0.19635 0.20781
0.12637 -0.01166 0.21411
0.23778 0.00040 0.15693
-0.23685 0.30572 -0.19845
0.21598 -0.00681 -0.10208
0.25101 -0.07008 -0.20691
0.18168 0.07246 -0.21819
-0.18288 0.17298 -0.08134
-0.08961 -0.06618 0.20643
-0.18481 0.18052 -0.17179
0.22800 -0.00681 0.01164
0.12516 -0.00681 -0.19168
0.09419 -0.00681 -0.00062
0.23424 -0.31756 -0.21122
-0.12645 -0.00681 -0.07568
-0.17247 0.11833 -0.17493
-0.00710 -0.00681 0.04468
-0.23744 0.29554 -0.16600
-0.19480 -0.15436 -0.19388
0.18894 0.06812 0.21729
-0.14692 0.00195 0.20351
0.19861 0.16406 -0.26256
0.15083 -0.00681 -0.08787
-0.05181 -0.01346 -0.21426
-0.14455 0.12176 -0.21758
-0.22735 0.27192 0.24195
0.09587 0.15478 -0.23949
-0.14714 0.06528 -0.21155
-0.17936 0.15923 -0.00567
-0.13135 0.02205 -0.20925
-0.16768 -0.01180 0.18729
0.08691 0.00116 -0.20547
-0.19787 -0.19002 0.21238
-0.20595 -0.15758 -0.19307
0.16164 0.15911 0.25171
-0.18452 -0.02872 -0.03029
-0.17574 -0.05441 -0.20380
-0.18251 -0.02954 0.00883
-0.17250 0.11856 0.05561
-0.19185 0.20292 -0.04573
-0.23650 0.30529 -0.08281
-0.14358 0.14277 -0.22093
0.11547 -0.00532 0.20878
-0.06415 0.02018 0.20926
-0.17230 0.11694 -0.04900
-0.00701 -0.00681 -0.01923
-0.21216 -0.20380 -0.20121
0.24879 -0.15676 0.07004
-0.13872 -0.00681 -0.00018
-0.17038 0.28215 0.25560
-0.19969 -0.10347 0.21155
-0.18339 0.17488 0.10479
-0.16981 0.08821 -0.17353
-0.19569 0.20251 0.22317
-0.20945 0.24590 0.17138
-0.16915 0.07413 -0.07370
-0.23317 0.28871 0.20941
0.05320 -0.00681 0.15303
-0.07049 -0.04668 0.21514
0.15646 -0.00681 -0.12124
-0.17060 0.03023 0.12914
-0.19298 0.20624 0.14409
-0.02948 0.16120 -0.23075
-0.18371 0.17620 -0.06533
-0.04153 -0.00681 0.10430
-0.16947 0.08228 0.15777
0.20765 0.05266 -0.21465
-0.17618 0.14264 0.02719
-0.02015 -0.00681 0.08711
-0.01897 -0.00352 -0.21673
-0.08028 -0.00681 0.06344
-0.17402 0.13101 -0.09565
-0.03567 0.05345 -0.21127
0.21991 -0.20121 0.21254
-0.17022 0.03568 0.05096
-0.16930 0.05111 -0.16884
0.25067 -0.16457 0.00721
-0.03838 -0.04244 -0.20672
-0.09259 -0.06447 -0.21511
-0.01276 0.11277 0.22002
-0.03588 0.20528 -0.24538
0.23463 -0.01022 0.01448
0.13304 0.00794 0.20907
-0.19566 -0.11284 -0.18312
-0.11103 -0.00681 -0.05255
-0.17906 -0.05589 0.12749
-0.20834 -0.22433 -0.18530
0.04545 -0.00681 -0.19648
0.08088 -0.00681 -0.15794
0.20513 -0.00681 -0.18873
0.06685 -0.00681 -0.07632
0.12921 0.09170 -0.22085
0.21081 0.16117 0.26325
0.23841 -0.00681 -0.03580
-0.17972 0.21711 0.23548
0.11616 0.02138 0.20954
0.04601 0.18426 -0.24661
0.23720 0.12362 0.25197
0.07423 0.22344 -0.27087
0.18634 -0.09240 -0.20530
-0.22653 0.27836 -0.20996
-0.13744 0.19101 0.23137
0.23966 0.10833 0.23556
0.15194 0.07107 0.21673
-0.17203 0.01510 -0.17893
0.13087 -0.00681 0.10779
-0.19473 -0.09446 -0.20180
-0.08018 -0.00681 0.11717
0.24386 0.12510 -0.23619
0.03340 0.21562 -0.26224
-0.04137 -0.00681 -0.14625
-0.20770 0.24247 -0.04208
-0.12163 -0.00681 -0.20669
-0.21751 0.26254 -0.20374
0.02587 -0.00681 -0.02020
0.23469 0.05395 0.21573
0.23487 -0.00282 0.20656
-0.17790 0.06145 0.21131
0.25035 -0.15943 0.18628
0.25123 -0.00701 -0.10111
0.25102 -0.19791 0.20699
-0.23681 0.29413 0.24213
0.23366 -0.16319 0.01366
0.06371 0.22459 -0.27724
-0.22768 0.28024 -0.06152
-0.18940 0.19534 0.19703
-0.17182 0.11300 0.10229
0.16448 -0.00681 -0.01289
0.06287 0.18380 -0.24886
-0.09291 0.15218 -0.22479
0.23398 -0.00585 -0.07973
-0.19515 0.21243 0.22790
0.25043 -0.00329 -0.06406
-0.14144 0.12470 0.21801
-0.24758 0.31835 -0.11192
-0.18021 0.16260 -0.20712
0.23093 -0.24620 -0.21173
0.24057 -0.22946 -0.20032
-0.20380 -0.21464 0.19398
-0.17028 0.09628 -0.07914
0.24256 -0.09298 0.18482
-0.17250 0.11854 -0.07311
-0.16997 0.09094 0.19942
-0.23109 0.28592 -0.10462
0.24256 -0.09090 -0.16219
-0.17067 0.02915 0.00989
0.13126 0.04019 0.21125
-0.05609 -0.00681 -0.15865
-0.17301 0.00780 -0.04773
0.19760 -0.09320 0.20270
0.06063 -0.00681 0.17708
0.24256 -0.08122 -0.04636
0.03096 -0.00681 -0.00358
-0.23483 0.31580 -0.26482
0.10120 -0.00681 0.00073
-0.18273 -0.09057 -0.16343
-0.04162 -0.00681 -0.18738
-0.05556 0.24501 -0.27408
-0.06739 0.02954 0.20964
-0.17033 0.00116 -0.16239
0.24468 0.00161 0.13648
0.08093 0.20394 -0.27072
0.14269 0.06039 0.21444
0.24256 -0.01123 -0.10982
0.10572 0.14016 -0.23473
-0.20975 0.24671 -0.04676
-0.20334 0.23288 -0.00687
-0.01278 -0.00681 -0.14100
0.18832 0.00006 -0.20890
-0.21191 -0.20256 0.20106
0.15245 0.09442 0.22264
0.01715 -0.00681 -0.14847
0.16834 -0.01535 -0.20760
0.21946 -0.00681 0.17674
-0.08824 0.12354 -0.21951
0.06687 -0.00681 0.18914
-0.06177 0.10018 -0.21641
0.14493 0.16400 0.25171
-0.01386 0.19481 0.24414
-0.16622 -0.00078 -0.09696
0.04655 -0.01288 -0.21497
-0.17324 0.12468 -0.14337
-0.11671 -0.07353 0.20387
-0.16306 0.08661 0.21326
-0.05080 -0.00681 -0.05273
0.23879 0.00107 -0.21679
-0.24383 0.30493 0.00310
0.24431 -0.01528 -0.03867
0.23707 -0.15554 0.15062
0.02765 0.12439 -0.22455
0.19758 -0.00176 -0.20886
0.00150 0.07280 -0.21366
-0.14168 0.19386 0.23178
0.06975 -0.00681 0.20530
0.24256 -0.04140 -0.08705
-0.07604 0.10037 0.21617
0.24256 -0.16313 -0.05723
0.24256 -0.05204 0.03552
-0.24214 0.29795 0.26596
0.23929 -0.24284 -0.20078
-0.17487 -0.02079 0.02313
-0.23586 0.30591 0.22959
0.23061 -0.00681 0.07966
-0.16951 0.08286 0.02327
-0.00593 0.17375 -0.23690
0.16657 0.01202 0.20922
-0.18818 0.19162 0.18169
-0.20076 -0.11835 -0.21367
-0.18822 0.19197 -0.22683
-0.17089 0.02612 -0.03844
-0.16993 0.09026 -0.19245
-0.22079 -0.30046 -0.21682
0.06868 0.03150 0.21018
0.03138 -0.00622 0.20877
-0.17360 0.12750 0.20538
0.24349 -0.26479 -0.21734
-0.17343 0.29176 0.25661
0.21473 0.15520 -0.25954
0.24256 -0.02531 0.00693
0.05236 0.17104 -0.24166
0.01786 -0.00681 0.12532
-0.19973 -0.13628 0.20060
-0.07482 0.07881 -0.21344
-0.16925 0.07844 -0.20363
0.23478 -0.22813 -0.20500
0.14007 0.10254 -0.22469
0.24825 -0.31473 -0.20226
-0.18059 -0.01055 -0.02030
-0.17933 -0.03149 -0.01056
0.13014 0.13582 -0.23563
-0.24049 0.30158 0.25323
-0.23549 0.29234 0.07996
0.03328 -0.02357 -0.20231
-0.19881 -0.12095 -0.20154
0.02088 -0.02959 -0.21126
-0.18743 0.18940 0.05450
-0.20041 0.24771 0.23696
0.19155 0.07946 0.22069
-0.17203 0.11475 -0.12256
-0.08351 0.12497 0.21987
-0.17009 -0.13641 0.21390
0.24256 -0.07350 0.03195
0.09286 -0.01162 0.20336
0.23896 -0.18632 -0.20092
0.24149 -0.15382 0.03399
0.13994 0.13659 0.23727
0.24256 -0.06472 0.02684
0.25095 -0.16248 0.01443
0.23899 0.09876 0.23100
-0.14123 0.28264 -0.25961
-0.17526 0.13775 -0.07943
-0.17142 -0.15988 0.20691
-0.25172 0.30914 -0.13217
-0.23975 0.29979 -0.24954
0.15626 0.00489 0.20901
-0.08147 0.17333 0.23054
0.24256 -0.16361 -0.04897
0.14367 -0.00681 -0.11868
-0.17020 0.03589 -0.00101
-0.16092 0.14753 -0.22117
-0.02095 -0.00681 0.05242
-0.20890 -0.22596 0.19703
0.24256 -0.02236 -0.14816
-0.03702 0.02865 -0.20964
-0.20026 0.22512 0.16148
-0.11983 0.00767 0.20896
-0.22245 0.27098 0.25737
0.20495 0.14271 0.24915
-0.03936 -0.00681 0.06015
-0.16980 0.08802 -0.09106
0.21345 -0.00681 0.20539
-0.10791 -0.00681 -0.12881
-0.21692 0.29749 -0.27052
0.15000 -0.00533 -0.20026
0.04290 -0.00681 -0.10415
-0.15308 0.28940 0.26559
0.23888 -0.00681 0.01216
-0.05145 -0.00681 0.14848
0.11761 0.20551 0.26533
-0.09329 -0.00681 0.09452
-0.19634 -0.11943 0.17343
0.05564 0.05682 0.21266
0.14872 0.01271 0.20923
0.08011 -0.00681 0.17681
-0.19459 0.21114 0.09638
-0.00577 0.00189 -0.20878
-0.15210 -0.00681 0.06198
-0.00851 -0.00681 0.19587
0.02210 -0.00681 0.06058
-0.22771 0.28014 0.08040
-0.17997 -0.00536 -0.13125
0.11444 0.15997 0.24513
-0.04796 -0.03389 -0.21238
0.14080 0.14154 0.23930
-0.16953 0.08327 -0.20804
0.23779 -0.27973 -0.20155
-0.04358 -0.00681 -0.02552
-0.20876 -0.24462 -0.19390
-0.23502 0.27904 0.24864
-0.03052 -0.00561 -0.20878
0.22242 0.12396 -0.24123
-0.16961 0.04426 0.15233
-0.19254 -0.23777 0.20352
0.00435 -0.00681 0.18068
0.22544 -0.00359 0.20883
-0.24144 0.30146 -0.08819
0.09757 -0.02972 0.20287
0.24256 -0.16451 -0.16874
0.00395 -0.00681 0.07925
0.17602 0.00058 -0.20891
-0.17299 0.12254 0.18477
-0.06825 0.24708 -0.27187
-0.18238 -0.01040 0.16245
0.17233 0.17807 -0.27474
0.00072 0.05692 0.21182
0.23589 -0.00926 -0.20876
0.07074 -0.00391 0.21733
-0.06073 0.16588 0.23002
0.11684 0.21084 0.26762
0.24256 -0.13269 -0.10282
0.12313 0.10599 0.22474
-0.17284 0.12140 -0.08937
0.24959 -0.31527 0.21376
-0.25053 0.31564 -0.12198
0.11045 -0.03924 -0.20819
-0.17635 0.14359 -0.20990
-0.16943 0.04689 -0.18471
0.24256 -0.05504 0.05077
-0.20847 0.25623 0.25099
0.10461 -0.00681 -0.02165
-0.18421 0.14565 0.22440
0.17220 -0.00681 0.13274
-0.24022 0.31945 -0.15895
-0.17041 0.03285 0.16288
-0.06432 -0.04869 0.21417
-0.02134 -0.00681 0.06235
-0.02150 0.08091 0.21420
0.08046 0.21886 0.26483
0.24256 -0.01435 0.00673
0.24521 -0.15431 0.11764
0.25106 -0.00534 -0.02561
0.04695 -0.00681 -0.01445
-0.17345 0.12633 -0.00558
-0.21601 -0.30593 -0.20882
-0.16916 0.07679 0.17239
0.24043 -0.17088 0.07762
-0.09827 -0.00681 0.18088
-0.22772 0.29994 -0.26062
-0.13884 -0.00681 0.08943
-0.13893 0.14629 0.22162
0.00931 -0.00681 0.16037
-0.17221 0.11619 -0.20223
-0.17052 0.10043 -0.10883
-0.01241 -0.00681 -0.06344
0.02588 0.04192 0.21078
-0.16145 0.13180 0.21867
0.23770 -0.16979 -0.09794
0.24102 0.06258 -0.21817
-0.17274 0.12052 0.06365
-0.24553 0.30268 -0.13695
-0.16995 0.03945 0.12232
0.09517 0.19416 0.26113
0.16089 -0.00681 -0.13057
-0.17396 -0.03863 -0.20270
0.24256 -0.07695 0.05263
0.21084 -0.13374 0.21341
-0.00489 -0.02815 0.20295
0.13688 -0.00681 0.14839
0.09158 -0.02197 -0.20498
-0.18499 -0.06171 -0.14140
-0.15803 0.21912 0.23770
-0.03089 0.15185 -0.22781
0.23751 -0.08977 -0.21576
-0.16970 0.10630 0.21516
-0.04936 0.00360 0.21035
0.24256 -0.04492 0.08401
0.21219 0.18603 0.27417
-0.00697 0.24457 0.26233
0.24256 -0.10232 -0.14831
0.05864 -0.00681 -0.17619
-0.00033 0.24313 -0.26490
0.24573 -0.12592 -0.21678
0.24062 0.07313 0.23009
0.02488 0.12583 0.22471
0.24256 -0.12172 -0.18701
0.01032 0.07585 0.21405
-0.05634 -0.00681 -0.16873
0.12952 0.14814 0.24055
-0.15156 0.27333 0.26017
0.25105 0.13903 -0.25716
-0.09477 -0.00681 0.01508
0.20824 0.04121 -0.21261
0.24256 -0.02604 -0.15879
0.24256 -0.12437 -0.17478
-0.17277 -0.00681 0.17084
0.25010 -0.16602 -0.08870
-0.18911 -0.23259 -0.21116
0.15381 0.07886 0.21871
0.24558 -0.01489 -0.09051
0.17286 -0.00681 -0.07656
-0.19682 -0.16213 -0.18564
0.24909 -0.03246 0.21441
-0.09609 0.03198 0.20971
-0.17570 0.14001 0.22093
-0.10129 -0.00681 -0.05549
-0.22469 0.26348 -0.24076
-0.18738 0.18923 0.13747
0.25024 -0.01080 -0.08483
-0.06330 0.07429 0.21312
0.00058 -0.00681 -0.00280
-0.17016 0.09427 -0.10657
0.09198 -0.00681 0.15904
0.23652 0.06826 -0.21379
-0.20125 0.25925 -0.24697
-0.18654 -0.09764 0.21651
-0.23813 0.29658 -0.17523
-0.21926 0.24738 -0.24064
-0.11517 -0.00681 -0.20120
-0.07486 0.10321 -0.21655
0.19566 0.18793 0.26991
-0.16329 0.07753 0.21238
-0.02812 -0.00681 -0.19551
0.00794 -0.00681 -0.16483
0.16774 0.19353 -0.28259
0.23861 0.11943 0.23278
0.23392 -0.00729 0.04926
-0.25157 0.31270 -0.23589
0.23896 -0.11426 -0.21661
0.23157 -0.20193 -0.20788
0.21179 0.17936 -0.28515
0.23425 -0.07384 0.20627
-0.15316 0.15249 -0.22218
0.18685 -0.00681 -0.03078
0.24256 -0.04653 -0.04000
0.16390 0.05631 0.21416
0.24256 -0.14281 -0.14896
-0.05700 0.09724 -0.21613
-0.18929 -0.05468 -0.11563
0.06718 -0.00681 -0.00664
-0.17736 0.14895 -0.20985
-0.17146 0.11003 0.05502
0.12724 -0.00681 -0.16711
0.24010 -0.17084 0.04966
0.21532 0.03665 0.21201
-0.23609 0.30616 -0.12693
-0.24304 0.30403 -0.23676
0.24256 -0.07290 -0.15069
0.03434 -0.00681 -0.03949
-0.04676 0.15861 0.22915
0.00237 0.08365 -0.21545
-0.17206 -0.01600 -0.14737
-0.17328 0.12494 0.03418
0.25039 -0.15952 -0.19601
-0.19960 -0.12058 0.17743
-0.18814 -0.08115 0.20012
-0.23969 0.30074 0.09730
-0.18578 0.18413 0.15529
-0.05369 -0.03650 0.20317
-0.17230 0.11699 -0.14734
0.24256 -0.04868 0.11126
-0.17081 0.10473 -0.12644
0.24256 -0.03079 -0.16560
0.21593 -0.00681 -0.17064
0.25007 -0.16611 0.15027
0.01670 -0.01189 0.21381
-0.15163 -0.00681 -0.19747
0.19063 0.02205 -0.21006
-0.21635 -0.26622 -0.20030
-0.14967 0.07242 0.21202
0.24256 -0.06739 0.20467
0.24249 -0.15375 0.05928
-0.16354 -0.00301 -0.18343
-0.09456 0.02220 -0.20930
0.08591 0.07591 0.21611
-0.21043 -0.27042 0.20855
-0.17918 -0.01402 0.13893
-0.18171 0.16842 -0.02206
0.25107 -0.28702 -0.21019
-0.10898 0.25834 -0.27013
-0.04888 0.24893 0.26593
0.24256 -0.07146 -0.06429
-0.06472 0.19779 -0.23900
-0.16786 0.05379 0.21905
0.09096 -0.02777 -0.20231
-0.16481 -0.00799 -0.21730
-0.18680 -0.11581 -0.17576
0.11540 -0.00681 -0.20468
0.00353 0.02932 -0.20972
0.02058 -0.00681 0.07347
-0.10826 -0.01530 -0.21035
0.12382 -0.00681 -0.12461
-0.16433 0.24617 0.24611
-0.05354 0.00051 0.20886
-0.15467 -0.12286 -0.20228
0.19939 0.19007 0.27823
-0.15067 0.28176 0.27276
0.01125 0.04888 0.21118
-0.17730 0.00155 0.20696
-0.17870 0.15606 -0.19091
0.10944 -0.00681 0.18169
0.25036 0.00569 -0.21285
-0.20858 -0.19988 -0.19744
-0.17507 0.13673 -0.03716
-0.02259 0.10984 0.21923
-0.06845 -0.00035 -0.20301
-0.17513 0.13704 0.02424
-0.14030 0.00409 0.20891
0.24256 -0.07570 0.12064
0.09639 0.21723 0.27848
-0.17131 0.10881 -0.15774
-0.04744 -0.00681 0.07600
-0.23627 0.30452 0.08388
-0.19222 0.20400 0.06563
-0.17753 0.14979 0.03083
-0.17840 -0.00047 0.00727
0.15974 0.14273 0.24222
-0.19844 -0.22426 -0.20411
-0.17493 0.13602 -0.12513
-0.18606 -0.07584 -0.13735
0.24980 0.00025 -0.21372
-0.20985 -0.17312 0.21412
0.17309 -0.00681 0.02556
-0.03735 0.24224 -0.26354
-0.15385 0.21485 0.23685
0.06077 0.11906 0.22493
-0.14981 -0.00681 0.12728
-0.13097 -0.00681 0.01130
-0.11048 -0.08393 -0.20692
0.24256 -0.12015 0.18495
-0.21419 0.25570 0.16054
0.08597 0.18796 0.25513
0.10635 0.08270 0.21755
0.01426 -0.00681 -0.18197
0.24256 -0.10997 -0.18138
0.24096 0.05609 -0.21639
-0.14139 0.27069 -0.26052
-0.02599 -0.00681 0.03639
-0.14570 0.01565 -0.20907
-0.22696 -0.26745 0.20583
0.24256 -0.04511 -0.05085
0.24055 0.08327 -0.21652
-0.05869 0.04123 -0.21030
0.05012 0.09483 -0.21837
-0.20797 0.29231 -0.25379
-0.00017 0.20574 0.25126
-0.21244 -0.18419 0.21318
-0.16306 0.06328 0.20503
-0.21001 0.24703 0.21395
-0.25293 0.30863 0.24797
0.25124 -0.05118 0.20886
-0.22016 0.26688 0.14227
-0.02555 0.23891 0.26217
-0.11649 0.17747 0.22946
-0.18292 0.17310 0.00053
0.07015 0.15045 -0.23545
-0.10726 0.26527 0.25749
-0.18178 -0.06562 0.14385
-0.22455 0.27454 0.15201
0.09245 0.11955 -0.22637
-0.08985 -0.00790 -0.21732
0.19321 -0.00681 0.15419
-0.11490 0.17702 -0.22945
0.24985 -0.00215 -0.16994
0.03429 0.14167 -0.22972
0.10343 0.21466 -0.27005
0.07743 -0.00681 0.12703
-0.06654 -0.00416 0.20880
-0.02561 -0.00681 0.10899
-0.17029 0.09649 0.13540
-0.17198 0.03211 -0.21811
0.24256 -0.08875 -0.14552
0.11165 -0.00681 0.08232
0.06725 -0.01993 0.21482
-0.05015 -0.00330 -0.21664
0.18050 -0.00681 0.01945
-0.17935 -0.00020 0.11322
-0.16973 0.27682 0.25896
0.25100 -0.24585 -0.21071
-0.18382 -0.20055 -0.20625
0.03724 0.00271 0.21294
0.23410 -0.00866 -0.00378
0.19579 -0.00681 0.13052
0.10542 0.06173 -0.21369
-0.23603 0.30514 0.06668
0.15699 -0.00681 0.08041
0.21327 0.11011 0.23311
-0.09309 0.12813 -0.22009
0.07163 -0.00681 -0.16884
-0.09797 0.15951 -0.22599
-0.04546 -0.00681 0.12811
0.23649 -0.04379 0.20255
0.15698 -0.00681 -0.08170
-0.18699 0.18819 -0.15758
-0.04754 -0.04645 -0.20956
0.21512 0.17310 0.27408
-0.16926 0.05600 0.13254
-0.21145 0.24999 0.22160
-0.20794 -0.21793 -0.18502
-0.18270 -0.00308 0.20330
0.08640 0.02224 -0.20954
0.13585 0.09364 -0.22135
0.17864 -0.00632 0.20877
-0.18545 0.18304 -0.20156
0.24256 -0.08710 -0.15498
-0.05948 0.08964 0.21495
-0.21553 0.25864 -0.03706
-0.11865 -0.00681 0.18112
-0.20812 0.24315 0.18201
-0.21242 -0.26707 0.20262
0.16472 -0.00681 0.10390
0.02923 -0.00681 0.06707
0.11922 -0.00681 -0.17200
-0.22808 -0.31788 0.21011
0.22183 -0.24940 0.21375
0.18004 -0.01347 0.20967
0.23875 0.06030 0.20931
-0.15482 0.26604 0.25632
0.24256 -0.14224 -0.00704
0.03122 0.23164 -0.27798
0.24256 -0.13052 -0.09210
0.12143 0.12214 0.22972
-0.16984 -0.00681 0.02620
-0.17482 -0.04240 -0.08290
-0.12765 0.12496 0.21858
0.13840 0.19640 -0.26595
-0.17629 0.14326 -0.13164
0.18558 -0.01477 -0.20545
0.22696 -0.16429 -0.20352
0.04361 -0.00681 0.06991
0.24256 -0.02926 0.14769
0.03533 -0.00681 -0.09971
-0.04739 0.24043 -0.27101
-0.23838 0.29690 -0.12408
-0.21718 -0.22366 -0.19334
-0.25123 0.30147 0.22424
0.14477 0.08900 0.22088
0.01195 -0.00681 0.04344
-0.08050 0.26188 -0.25891
0.24256 -0.06651 0.11385
-0.17356 0.00122 -0.07871
-0.17995 -0.01057 -0.08729
-0.22902 0.28255 -0.03261
-0.09002 0.16928 -0.22911
-0.16994 -0.00681 -0.06334
-0.17349 -0.03506 0.06016
0.09551 -0.00681 0.05655
0.09900 -0.00681 0.17044
-0.21169 -0.25604 0.20177
0.23634 -0.16875 -0.05821
-0.18301 0.17351 -0.17543
-0.14827 -0.00681 0.17700
-0.16955 0.08363 0.16418
0.20507 -0.11692 -0.20277
-0.16923 0.06088 0.14261
0.14212 0.18529 0.26511
-0.17020 -0.15909 -0.21066
-0.17046 -0.00681 0.19843
-0.17806 -0.01358 -0.07398
0.16787 -0.00681 -0.07323
0.12470 -0.00681 0.07591
0.24189 -0.00494 0.20015
-0.14817 0.09743 0.21446
-0.16675 0.09284 -0.21382
0.10394 -0.00320 0.20028
0.00708 0.00052 -0.20415
-0.20094 0.23203 -0.24633
0.24317 0.16612 -0.26704
0.01356 0.02389 -0.20951
0.17969 -0.00681 -0.19396
0.12986 -0.00681 0.13010
-0.18979 -0.22919 -0.20436
-0.17395 0.13031 0.21823
-0.11472 0.06713 -0.21183
-0.13179 0.22103 -0.24105
0.24256 -0.07270 -0.17698
-0.20312 0.23236 -0.03918
-0.01191 -0.00681 -0.05013
-0.17219 -0.00681 -0.03277
-0.20460 0.23608 -0.10531
0.20947 -0.00681 -0.11363
-0.15119 0.03808 0.20988
0.10989 0.02153 0.20954
-0.18728 0.18903 -0.11557
-0.20358 -0.19955 0.20099
0.24256 -0.02765 0.20198
-0.18402 0.17727 0.19182
-0.16767 -0.00681 0.06190
0.02663 0.06134 -0.21282
0.24703 -0.16963 -0.15648
-0.16924 0.05937 0.09618
-0.24019 0.29967 -0.16914
-0.24371 0.30720 -0.25931
-0.03703 -0.00681 0.19985
-0.09901 -0.00681 0.05148
0.23449 -0.11870 0.20569
-0.01581 0.23560 0.26381
-0.18502 0.18357 0.21776
0.11033 -0.02643 0.20344
0.04041 -0.00681 0.00017
0.18559 0.14041 -0.24503
0.00725 0.05331 0.21147
-0.12887 0.24224 0.24939
0.21499 -0.00331 -0.20088
0.00933 -0.00681 0.09151
-0.17354 0.12707 0.02022
-0.17372 0.27199 0.25613
0.21139 -0.11581 -0.20343
0.23999 -0.01548 0.21703
-0.18225 -0.03670 -0.05625
0.04878 0.00918 0.20903
0.18334 0.01330 -0.20930
0.24256 -0.07641 -0.13472
0.23906 0.02745 0.20291
0.13525 -0.00681 -0.19399
0.24256 -0.16605 -0.17921
-0.17493 -0.00651 -0.12804
-0.17278 0.00952 -0.15258
0.17357 -0.00681 -0.01679
0.24512 -0.01508 -0.07972
0.08235 0.06503 -0.21377
-0.18216 0.27637 0.25684
0.17882 -0.00681 -0.02997
-0.16924 0.07818 -0.08194
-0.18145 0.16730 0.13884
-0.11241 0.25877 -0.25953
-0.15515 -0.00681 -0.15851
0.24256 -0.15212 -0.12916
-0.03882 0.25534 0.26282
0.25095 0.16716 0.28148
0.23087 -0.17460 -0.20897
0.05116 0.10737 -0.22104
-0.21288 0.25295 0.19315
0.22981 -0.00681 -0.16859
0.23389 -0.00681 0.10032
0.21848 -0.00681 -0.03140
-0.04077 -0.00681 -0.03279
-0.17836 0.15425 -0.18058
-0.17596 0.14148 -0.19625
-0.16447 0.11627 0.21157
-0.16917 0.07700 -0.12577
-0.17910 0.15817 -0.21275
-0.08617 -0.05670 0.21526
-0.24666 0.29723 -0.26322
-0.18327 -0.00449 -0.20998
0.06847 0.22502 -0.27033
-0.17560 -0.03738 0.21601
-0.04264 0.16077 -0.22989
-0.06179 -0.00681 0.00131
0.02368 -0.02780 0.21061
0.24256 -0.08039 -0.00097
0.24256 -0.00863 -0.06856
-0.14638 0.27748 0.26341
-0.18088 0.29574 0.26812
0.24256 -0.15861 0.11013
-0.24302 0.30387 -0.11906
0.24256 -0.06091 0.13773
-0.03019 -0.00681 -0.01136
0.18843 -0.08323 -0.21492
0.24256 -0.06985 0.18150
-0.22483 0.27540 -0.21868
-0.19434 -0.22301 0.21523
0.24256 -0.08584 0.16243
-0.02846 -0.00681 -0.13939
-0.24765 0.31175 0.26970
-0.18086 -0.09422 -0.20771
-0.17074 0.02816 -0.19453
-0.17041 0.29444 0.26329
-0.15763 -0.00681 -0.09561
-0.16744 -0.01372 0.01533
0.02713 -0.00681 0.01181
-0.05582 -0.00681 -0.04471
0.23649 0.09013 -0.23501
-0.16930 0.05068 0.10022
-0.16468 -0.00503 0.02404
-0.17585 0.12077 -0.20885
0.07010 0.12476 0.22642
0.24219 -0.17111 0.16358
-0.17098 0.10613 0.12715
0.19320 -0.10203 0.20746
-0.11301 0.26048 0.26762
-0.17413 -0.00060 -0.13336
0.21859 -0.00681 0.15828
-0.17165 0.11162 -0.14080
0.24796 -0.20993 -0.21549
0.15098 0.00599 0.20903
-0.17085 0.12988 -0.21812
0.10091 0.20803 0.27244
-0.15201 -0.00681 -0.11493
0.05341 0.19270 0.25291
-0.00233 0.22737 -0.27148
-0.24460 0.29809 0.22421
-0.17295 0.12227 -0.04675
0.10794 0.05560 -0.21313
0.10199 0.05260 -0.21273
0.22803 -0.25132 -0.20556
0.01354 0.23305 0.26155
0.09095 0.18617 -0.25505
-0.01563 0.21449 0.25275
0.17852 -0.06424 0.20733
-0.17958 -0.01278 0.01910
-0.16792 0.04933 -0.21035
-0.20476 0.23652 -0.21382
-0.16958 0.08409 -0.04534
0.20741 0.17839 -0.27657
0.12813 0.11030 0.22610
-0.20749 -0.23286 0.19255
-0.17333 0.00536 0.10649
0.18544 0.00042 -0.21351
0.02568 -0.00681 -0.16027
-0.09979 -0.06198 0.21442
-0.08231 -0.00681 -0.08531
0.16199 0.19878 -0.27624
0.11777 0.12753 -0.23153
0.14458 0.17238 -0.25639
0.19508 0.18620 -0.28329
-0.17012 -0.01499 0.06195
-0.24231 0.31411 0.25945
0.13615 0.20245 0.26653
-0.11138 0.22430 0.24413
-0.24246 0.30294 -0.04540
0.24798 -0.01352 -0.13069
0.00645 -0.00521 0.21742
-0.17166 0.01781 0.00874
-0.02824 0.22400 0.25486
-0.18260 -0.18260 -0.20378
-0.16359 0.18149 -0.22765
-0.19214 -0.07326 0.21526
-0.18781 0.19062 -0.05435
0.24982 0.12996 0.24241
-0.16922 0.06228 0.02325
0.00183 0.00376 0.20908
0.23507 -0.01122 0.14104
0.24256 -0.16799 0.11884
0.23708 -0.15720 0.21543
-0.15611 -0.00772 0.21693
0.08908 0.21938 -0.27332
-0.18317 0.24374 0.24339
0.18764 0.17735 0.27000
-0.16860 -0.01587 -0.19707
0.18666 -0.00681 0.19270
0.09745 0.11477 -0.22566
0.24256 -0.14301 0.15191
-0.16711 0.14609 0.22076
-0.21635 -0.23138 0.19023
0.06599 -0.00681 -0.08718
-0.17096 0.10597 0.14285
-0.05988 -0.00681 0.07890
-0.17050 0.03165 -0.10233
-0.16731 -0.01497 -0.13418
-0.17394 0.00086 -0.19102
-0.08684 0.01534 0.20907
0.02389 0.23857 0.27466
-0.22442 -0.26042 -0.21368
-0.13276 -0.00781 -0.20019
-0.21402 -0.26926 0.21584
0.02220 0.04577 0.21102
0.21115 -0.00681 0.19722
-0.17259 0.01086 0.11397
0.23099 -0.21080 -0.20594
0.23457 -0.28043 0.20550
-0.07001 0.09873 -0.21607
0.12810 0.19249 0.27584
0.24674 -0.03697 0.21637
-0.11286 0.26113 0.26202
-0.15094 -0.00681 0.03225
-0.17722 -0.00417 -0.21095
-0.19401 0.20953 -0.06783
-0.18447 -0.01422 0.21236
-0.04403 -0.00681 0.11197
-0.20500 -0.22031 -0.19450
0.18939 0.00202 0.20361
-0.19733 -0.19059 0.20701
-0.16452 -0.00733 0.03248
-0.00718 -0.00681 0.00260
-0.17872 0.15602 0.14470
0.23534 -0.16757 0.16468
0.13456 0.00347 0.21110
-0.17344 0.12629 -0.11220
-0.17722 0.14821 -0.15205
0.01441 -0.00681 -0.07577
0.17981 0.13601 0.24149
0.04382 -0.01149 0.21433
-0.22010 -0.23957 -0.19253
-0.17499 0.13016 -0.22673
0.17081 -0.00681 0.08832
0.23742 -0.00302 0.21721
-0.12889 0.19983 0.23463
-0.23836 0.31912 -0.20126
-0.25288 0.30739 0.15570
-0.16144 0.09189 0.21520
0.23814 -0.14880 0.20128
0.07394 -0.01700 0.20609
-0.23210 0.28756 -0.22179
-0.13462 0.03553 0.20980
-0.12171 0.06182 0.21143
-0.02884 -0.00681 0.12230
-0.22277 0.29482 -0.26972
0.24876 -0.00073 -0.04361
0.24360 0.05331 0.20691
-0.18549 0.18321 -0.22047
-0.16928 0.05384 -0.15074
-0.10358 -0.00681 -0.14686
-0.17277 0.00956 0.16239
0.23425 -0.15923 0.16947
0.23499 0.07000 0.21579
0.17656 0.00344 0.20634
0.24256 -0.11177 -0.19252
-0.16990 0.08965 -0.13268
0.23389 -0.01601 -0.20848
-0.17555 0.13930 -0.06484
0.00537 -0.00086 -0.21507
0.24749 -0.25549 -0.20167
0.23704 0.13072 -0.25766
0.18493 0.09497 -0.22513
0.24694 0.15594 -0.25870
-0.02805 0.18551 -0.23843
0.05559 0.16151 0.23825
-0.18843 0.19237 0.22134
-0.03413 -0.00681 -0.10577
-0.08426 -0.00681 0.03459
-0.16073 0.06356 -0.20967
-0.09694 -0.00681 -0.18522
-0.20424 -0.22356 0.21371
-0.16930 0.05035 0.00723
0.24256 -0.00254 0.20962
-0.20556 -0.21072 0.20095
-0.20539 0.23770 -0.05147
0.04108 0.18768 0.24724
0.12585 -0.00660 0.20029
0.23367 -0.16157 0.07931
-0.16924 0.05984 -0.08530
-0.17242 0.11786 0.16250
-0.17543 0.13973 0.21047
0.20277 0.18675 -0.27379
0.00782 0.12183 0.22232
-0.18768 0.19021 0.00312
-0.23829 0.29647 0.14139
0.09755 0.21552 -0.27787
-0.03034 -0.00681 0.11482
0.24256 -0.13465 -0.02350
0.23527 -0.00214 0.13794
-0.21770 0.25086 0.24929
-0.24397 0.30120 -0.03368
-0.14545 -0.00363 0.21729
0.20278 -0.00681 -0.08334
-0.17255 -0.02780 0.00176
-0.20481 -0.18230 0.18466
0.19787 0.14200 -0.24781
-0.17817 0.15319 -0.01836
0.24390 -0.31059 -0.21728
0.24256 -0.00898 0.16257
0.06804 0.17460 0.24563
-0.08092 -0.04940 0.20346
-0.17368 0.12822 -0.05988
-0.17337 0.12566 0.08318
-0.03282 -0.00681 -0.08676
-0.15190 -0.00681 -0.13434
-0.21968 0.27945 -0.24458
-0.20412 0.23469 0.15071
-0.23469 0.30303 0.25268
0.24256 -0.13820 -0.01152
0.00904 0.06208 -0.21271
-0.15738 -0.00681 -0.01435
-0.21928 -0.32117 -0.21206
0.22874 0.17069 0.28628
-0.17655 0.14459 -0.10731
-0.00344 0.00358 0.20706
-0.17708 0.14746 -0.20156
0.18122 0.09800 0.22595
0.23465 -0.30719 -0.21221
-0.10482 0.05021 -0.21072
-0.17098 0.10611 0.13389
-0.18432 -0.02553 0.04374
-0.25137 0.30360 0.10368
-0.14737 -0.00681 -0.01016
0.07704 -0.00681 -0.07244
-0.05698 0.16020 0.22890
-0.02624 0.08325 -0.21452
0.05023 0.14325 0.23124
0.13769 -0.03850 0.20321
0.02344 -0.00681 0.10073
-0.25076 0.30765 -0.18695
0.12967 -0.00681 0.05865
0.15998 0.17638 0.26287
-0.15399 0.09814 0.21447
-0.04029 0.09737 -0.21646
0.24004 -0.00681 -0.04864
-0.17075 -0.03051 0.21109
-0.16927 0.05522 -0.19722
0.00901 0.07872 -0.21455
-0.23768 0.29598 -0.24558
0.01314 -0.00681 -0.13205
-0.18335 0.17471 0.11073
-0.03199 -0.00681 -0.06672
0.24040 -0.26667 -0.20035
0.24256 -0.03985 -0.20575
-0.21840 -0.30635 -0.20293
-0.18096 -0.00305 0.04313
0.18665 0.05343 -0.21420
0.04479 -0.00681 -0.04640
0.15527 0.18313 -0.27778
-0.12513 0.26725 -0.27318
-0.17464 0.13445 0.06809
0.24707 0.15930 0.28135
-0.07337 -0.00681 0.05554
0.06612 0.11054 -0.22236
0.15016 0.03207 0.21070
0.06086 -0.00681 -0.12872
0.24256 -0.15740 -0.12157
-0.19347 0.20788 -0.08766
-0.17404 -0.03306 0.04514
0.24256 -0.13633 -0.15337
-0.17566 0.13980 0.17541
-0.18168 -0.00519 0.03718
0.25111 -0.00793 -0.17113
-0.21786 -0.22210 0.21432
0.10877 -0.00681 0.13884
-0.17885 0.15669 0.17831
0.14594 0.12147 0.23177
0.05030 0.11164 0.22168
0.12886 0.20722 -0.27031
0.13873 -0.03799 -0.20639
-0.17090 0.02591 -0.06732
0.00320 0.13897 -0.22632
-0.23456 0.29084 0.16665
-0.10881 0.02297 -0.20932
-0.17519 0.13736 0.11857
-0.08509 0.21523 -0.24377
-0.23436 0.31280 -0.22512
0.09848 0.20552 0.28092
0.24256 -0.09944 -0.10948
-0.16984 -0.02583 0.20725
-0.18133 -0.00830 -0.00737
0.05675 -0.00681 -0.14361
0.14896 -0.00681 0.19295
0.19234 -0.00681 0.18205
-0.10139 -0.00681 0.11772
-0.17967 0.16861 0.21516
-0.24772 0.30738 0.25746
0.25108 -0.20930 -0.20741
-0.17585 0.09869 -0.22111
-0.24375 0.31641 0.14085
0.01975 -0.01682 0.20457
-0.14487 0.28721 0.26394
-0.01127 0.00186 -0.20851
0.02727 -0.00681 -0.14680
0.24256 -0.14848 0.11782
-0.07477 0.26285 0.27459
-0.18996 0.20488 0.23953
-0.21223 0.25175 0.04870
-0.00912 0.00105 0.20245
0.17930 -0.06847 -0.21270
-0.23814 0.29651 -0.08903
-0.15680 0.11325 0.21628
0.12719 0.17922 0.25720
-0.02716 -0.01344 0.20763
0.24256 -0.05882 -0.07692
0.11359 -0.00681 -0.10239
-0.02221 0.24876 -0.26343
-0.18111 -0.00152 0.15024
0.25096 0.14998 -0.26641
0.21486 -0.00681 -0.15444
-0.09337 0.25594 0.27081
-0.17596 0.14138 0.16533
0.24256 -0.11120 0.15780
-0.16933 0.07980 0.01456
0.22262 -0.00806 0.20074
-0.17024 0.09563 0.06084
0.24256 -0.06879 -0.07324
-0.03002 0.19500 0.24255
-0.06551 -0.00681 0.05950
0.24239 0.04837 0.21472
-0.12292 0.10302 0.21562
-0.07664 -0.00681 -0.09422
0.21252 0.00279 0.20900
-0.19227 0.19800 0.23815
-0.17444 0.13338 -0.00394
-0.17745 0.14930 0.18336
-0.18006 0.11391 -0.21312
0.00185 -0.00681 0.20301
0.24256 -0.16585 -0.15015
-0.18095 0.16539 0.06986
-0.02082 0.14711 -0.22687
0.01125 -0.00681 0.02577
-0.19778 -0.09218 -0.21047
0.23857 0.00736 -0.20152
-0.16930 0.04984 -0.03096
-0.09860 -0.06930 0.20326
0.08837 0.20273 -0.26871
-0.23603 0.30504 0.26005
-0.06906 -0.00681 -0.19077
0.01945 -0.00681 0.06706
-0.04564 -0.00681 0.08543
0.21821 0.17588 -0.27743
0.24256 -0.07438 -0.00916
-0.18704 -0.06846 0.12863
-0.00701 -0.00681 0.17747
-0.20301 -0.12744 0.20439
-0.20224 -0.23346 0.20845
0.06810 0.21834 -0.26366
-0.25192 0.30390 0.14432
0.22958 -0.00016 0.20152
0.12586 -0.04473 -0.21132
0.24256 -0.04646 0.11929
0.10372 -0.00681 0.12550
-0.25252 0.30994 0.18881
-0.19719 0.21764 0.01612
-0.17663 0.14497 0.12035
0.21099 -0.00681 0.06077
-0.17398 0.00057 -0.10334
-0.19259 0.18644 0.23340
0.18639 -0.00681 -0.02196
0.08259 0.18196 -0.25153
-0.17279 0.00939 0.18075
0.24256 -0.16378 -0.13986
-0.18399 0.17725 0.00487
-0.17958 -0.00635 -0.18180
0.20700 0.10454 0.23040
-0.23402 0.30583 -0.26889
0.13406 -0.00107 -0.20884
0.24843 -0.00044 0.03583
0.24256 -0.02397 0.20794
0.17233 0.00445 0.20901
-0.18002 0.16176 0.10344
0.15199 -0.00681 -0.05740
-0.14903 -0.00681 0.10546
0.15560 -0.01024 -0.21667
0.05443 -0.00681 0.15879
-0.09691 -0.00681 -0.17134
0.19170 0.17914 0.28420
-0.05561 0.14129 0.22428
0.14531 -0.05474 -0.21249
-0.17897 0.09851 0.21444
-0.23562 0.30664 -0.05530
0.24256 -0.12610 -0.13666
0.07359 0.16031 0.23930
0.23991 -0.17954 0.21700
0.21878 -0.24467 0.20766
0.15029 0.02339 0.20994
-0.15647 -0.11255 0.20641
-0.22540 0.27599 0.18177
0.15039 -0.00681 -0.18194
-0.00296 0.01640 0.20918
-0.17990 0.16137 -0.09654
0.23765 -0.01391 -0.11226
-0.09109 -0.00681 -0.07406
0.07582 0.19141 -0.25520
-0.17029 0.03468 -0.08895
0.14954 -0.04616 -0.20381
-0.15021 -0.00681 0.14296
-0.15192 0.20477 0.23422
-0.19417 0.20985 0.15122
-0.12937 -0.00681 -0.04825
-0.20198 -0.18801 -0.20073
-0.04824 -0.00681 -0.19283
-0.22425 0.27418 0.00048
0.04592 0.21694 -0.26478
-0.21002 0.25739 0.23563
0.24049 -0.01523 0.13966
0.20332 -0.00681 0.17646
0.23467 -0.00330 -0.06478
-0.18264 0.13476 -0.22272
0.18182 0.18113 0.26909
0.24256 -0.15851 0.17215
0.10126 0.06793 0.21489
0.24500 -0.15422 -0.15875
0.13210 0.08572 0.21966
-0.18971 0.19642 -0.08459
-0.17102 0.13776 0.21933
0.24256 -0.02596 -0.09429
0.23483 -0.07219 -0.21264
0.17232 -0.00681 -0.19072
-0.10902 0.26470 -0.27431
-0.18746 -0.10776 0.21611
-0.18799 0.19113 0.02771
-0.12947 -0.00681 -0.01045
-0.10899 0.00458 -0.20892
-0.17031 0.09684 -0.07172
-0.18332 0.17463 0.06095
-0.07644 0.23298 0.25234
-0.09564 -0.01413 -0.20413
-0.02725 0.11354 -0.21972
-0.18542 -0.03088 -0.06195
-0.17064 0.10260 0.17253
-0.06096 0.18632 0.23613
0.00732 0.22690 0.26713
-0.17880 -0.06327 -0.13661
-0.22866 0.28172 0.14893
0.24256 -0.07531 0.08971
0.23752 -0.16966 -0.04162
0.24410 -0.17088 -0.19185
0.24725 -0.01407 -0.00102
-0.19671 0.21646 -0.00588
0.07136 -0.00681 -0.11563
-0.21086 0.24899 -0.02549
-0.16914 0.07615 0.03069
0.23787 -0.00681 -0.17747
-0.13598 0.10113 -0.21514
-0.20541 -0.20788 -0.21684
-0.16472 -0.01058 -0.02084
-0.06815 -0.00681 0.18638
-0.18167 0.17974 -0.23436
0.04100 -0.00681 -0.12064
0.19585 -0.00681 -0.10844
-0.17047 0.09955 0.03333
0.24256 -0.06443 -0.18221
0.01896 0.03689 -0.21037
-0.18157 -0.03119 0.01672
0.24256 -0.11253 -0.03706
0.25092 -0.00915 -0.17746
-0.19919 0.29799 -0.26870
0.04001 -0.00681 0.15419
-0.09971 -0.00681 -0.09190
-0.04869 0.22623 -0.25318
-0.19189 0.22312 0.22841
-0.22579 0.27702 -0.15022
0.24899 -0.00103 -0.18259
-0.18551 0.18320 -0.05574
0.23514 -0.00231 0.04970
-0.18306 -0.04048 0.10447
0.24256 -0.11382 0.05393
-0.19613 0.18837 -0.22863
-0.16922 0.06324 0.01361
-0.21733 0.26216 -0.12321
0.17169 0.16925 -0.26013
-0.20416 -0.15793 -0.21646
-0.05569 0.00832 0.20897
-0.03321 0.25290 -0.26455
0.24256 -0.02583 -0.12940
-0.05437 -0.00681 -0.03265
-0.21070 0.24843 0.23628
0.23456 -0.01004 0.05976
-0.19868 -0.18220 -0.21545
-0.18327 -0.00831 0.18910
0.05565 0.01268 0.20913
-0.14464 -0.00681 0.15855
-0.14889 -0.00681 0.01647
-0.15444 0.22610 0.24047
0.19096 -0.00681 0.05835
0.00688 0.17687 0.23874
-0.17213 0.11559 -0.13440
0.23660 -0.03732 0.20246
-0.02842 0.06352 -0.21240
-0.19035 -0.06013 0.12834
0.13852 0.11450 -0.22807
0.24256 -0.05456 -0.02900
0.25078 -0.16110 0.04610
0.23935 -0.17055 0.12779
-0.16025 -0.13580 -0.21432
0.24256 -0.06704 0.18837
0.22102 -0.20669 0.20378
0.02263 -0.00681 -0.06313
0.17194 -0.00629 0.20877
0.24256 -0.14633 0.05102
-0.17447 -0.00313 0.09917
0.24256 -0.08401 -0.01305
-0.18076 -0.00029 0.21470
-0.15118 0.12338 0.21766
0.17171 -0.00681 -0.13667
-0.21388 0.25538 -0.20180
-0.18207 0.16973 0.07849
-0.15406 0.25006 0.24928
0.02842 -0.01680 -0.20950
-0.25029 0.30130 0.16149
-0.18613 0.18552 -0.09176
0.23608 -0.08850 -0.20303
-0.07361 -0.00999 -0.20074
0.24256 -0.00795 0.06891
-0.17469 -0.01525 -0.18582
-0.17236 0.11740 0.19709
0.11609 -0.00681 0.02872
-0.17234 0.01275 0.13059
0.21577 -0.15034 0.20421
-0.22132 -0.30640 0.20102
-0.18770 -0.16906 -0.21146
0.12007 0.13583 0.23435
-0.16128 -0.00681 0.08027
0.10195 0.12131 -0.22747
-0.17523 0.28813 0.27195
-0.16812 -0.15280 0.20602
0.02710 -0.00681 0.04320
0.11265 -0.00681 -0.03493
0.05513 0.19912 -0.25561
-0.14784 0.19610 0.23194
-0.03141 -0.03850 0.20781
-0.17856 0.15529 -0.08328
-0.20331 0.28915 0.26924
-0.11369 0.20975 0.23853
-0.17571 0.14014 -0.14338
-0.01966 0.13215 0.22404
-0.22367 -0.24568 0.21063
0.01982 -0.00681 -0.14363
0.04772 0.22220 0.26982
-0.17416 0.00079 -0.14744
0.09711 0.20822 -0.27152
-0.18352 -0.10724 0.20647
-0.18673 -0.09050 -0.21718
0.12952 -0.00034 -0.21449
0.22344 -0.00681 0.17229
-0.17902 -0.01446 0.20705
0.18619 -0.00681 0.04037
-0.17222 0.11631 -0.02564
-0.16855 0.00079 -0.15319
-0.09549 0.24829 0.25733
-0.18551 0.18313 0.09616
-0.09121 0.14566 0.22361
-0.17002 0.03846 -0.11716
-0.18982 0.19683 -0.19280
-0.24142 0.31806 -0.01748
-0.17858 0.03890 -0.21086
0.17858 0.17604 -0.26649
-0.01164 0.19047 -0.24284
-0.19791 -0.22845 -0.21434
-0.17031 0.09677 -0.13941
0.16254 0.18441 -0.26858
0.11375 -0.00681 0.08704
-0.06879 0.14091 0.22365
0.24566 0.00124 -0.09010
0.21716 0.12754 0.24250
-0.07700 -0.00681 0.11114
-0.22854 0.30050 -0.25289
-0.19736 0.21810 -0.04355
0.05830 0.21970 -0.27062
-0.16993 -0.01583 -0.12209
0.17444 -0.00681 -0.12017
-0.12356 -0.00681 0.20861
-0.21351 0.25438 0.07213
-0.12598 0.22410 0.24263
0.01409 -0.02940 -0.21248
0.25073 0.04863 0.21174
-0.12617 0.02417 -0.20934
-0.17994 0.16142 0.19730
-0.20907 -0.17513 -0.20247
-0.22895 -0.27627 0.20831
0.24256 -0.05386 -0.07804
-0.19308 -0.16761 -0.20976
-0.23679 0.31048 0.24388
0.04923 0.21482 0.26936
-0.18384 -0.04792 0.09181
-0.17538 0.13838 0.01548
-0.16433 -0.00709 0.01609
0.24256 -0.10378 0.12975
-0.07850 -0.01334 0.21064
0.23864 -0.15458 0.14400
-0.14711 -0.00142 -0.20202
-0.17320 0.12434 -0.19797
0.13245 0.04669 -0.21229
0.24256 -0.14111 -0.07180
-0.16926 0.05685 0.03896
-0.17592 0.08908 -0.21970
0.24256 -0.01745 -0.03420
0.14850 -0.00681 0.05537
-0.10707 -0.00681 -0.00667
-0.17943 0.02921 0.20865
-0.17885 0.15681 -0.03640
0.21285 -0.14252 0.21198
-0.02381 -0.00681 0.12583
0.05778 -0.00681 0.12633
0.01677 0.15083 0.23105
-0.08798 0.26506 -0.27385
0.18211 -0.00681 0.16540
-0.02852 0.04923 0.21102
0.02999 0.01619 -0.20922
-0.17325 0.12474 -0.17134
-0.06009 0.04548 0.21061
0.03899 -0.00681 0.03228
0.07975 -0.00681 -0.12399
-0.10744 0.25568 0.25888
0.23471 0.01706 -0.21363
0.24829 -0.00985 0.20876
-0.24862 0.30439 -0.14165
-0.23649 0.31151 0.15483
0.24256 -0.14784 0.16115
0.18477 -0.00681 0.09311
0.25035 -0.30824 0.21247
-0.08300 0.18492 0.23353
-0.24700 0.31803 -0.05887
-0.16918 0.06861 -0.13080
-0.17086 0.02656 -0.15087
-0.12643 0.21657 0.23976
0.23368 -0.16149 -0.03948
-0.16351 0.04680 0.20393
-0.17067 0.10314 0.08996
-0.00378 0.19786 0.24613
0.24652 -0.16101 0.20107
-0.16799 -0.01535 -0.15062
-0.03331 0.15561 0.22920
-0.09434 -0.00681 0.12870
-0.19694 0.21699 0.06393
0.23596 -0.00797 0.21682
-0.09907 0.25949 -0.26192
-0.23641 0.31798 -0.23893
0.24397 -0.12694 -0.20025
-0.08464 0.04172 0.21018
0.12996 -0.04562 0.20887
0.12065 0.09012 0.22035
-0.18760 -0.11923 -0.18176
-0.17500 0.13640 -0.15635
-0.01890 -0.00681 0.09461
0.24028 -0.26717 0.21715
0.07854 0.19549 0.25817
-0.05670 -0.03822 -0.21333
0.24256 -0.15424 0.10240
0.24256 -0.05399 0.06359
-0.17155 0.11075 0.17449
-0.05009 -0.00448 -0.20879
-0.17446 -0.00305 0.19584
-0.19815 0.21995 0.11739
0.24194 -0.14390 0.21738
0.00781 0.23106 -0.26156
-0.13887 0.08033 0.21291
-0.23782 0.30291 0.01832
-0.11015 -0.00681 0.09522
-0.13000 -0.00681 -0.14738
-0.24539 0.31556 0.20555
0.04460 0.10612 0.22065
-0.06285 -0.00681 0.06971
0.09478 0.03703 -0.21077
-0.17761 -0.04791 0.11342
0.24256 -0.05628 -0.02196
0.20461 0.02949 0.21078
-0.19306 0.21994 -0.23524
0.23454 -0.01000 -0.05226
-0.00326 -0.00681 0.11930
-0.16917 0.07090 0.09170
0.03463 -0.00681 -0.01276
0.24256 -0.13749 0.04908
-0.19749 -0.15617 0.21700
-0.17663 -0.01964 -0.20012
0.12748 0.20381 -0.26655
0.11815 -0.00681 0.10856
0.16342 0.14756 -0.24569
0.21430 0.18412 -0.27707
-0.01650 0.22258 -0.25641
-0.21683 0.26118 -0.00295
0.04353 0.04413 -0.21101
-0.15550 0.28508 0.25629
-0.16702 -0.00215 0.13611
0.17756 0.01549 0.20938
-0.20126 0.22762 0.12210
-0.16074 0.07346 -0.21413
0.21822 -0.00681 -0.02196
-0.04272 -0.00681 0.16896
0.14867 0.16925 -0.25570
0.22647 -0.00681 0.12892
-0.18017 -0.01165 -0.01164
-0.17670 0.14529 0.19727
-0.19313 0.23878 -0.24079
-0.06533 0.06351 -0.21182
-0.24969 0.31633 -0.06973
0.24111 -0.00681 0.17739
0.22014 0.11011 -0.23398
-0.17836 -0.01232 -0.15772
-0.22341 0.29199 0.25221
-0.20898 0.24493 0.18766
0.24311 -0.15384 0.16464
-0.23499 0.29184 -0.15227
-0.18199 0.16939 0.18746
-0.17030 0.03455 -0.06314
0.02640 -0.00681 0.08402
-0.21267 -0.25044 0.20074
-0.18038 0.28239 0.26984
0.11789 -0.00681 -0.06615
-0.17051 0.03143 0.07383
-0.22998 -0.28412 -0.20862
-0.04781 -0.00681 -0.09885
0.15274 0.20143 0.28040
0.24256 -0.14118 0.14051
0.15456 -0.05881 0.21295
-0.17950 0.15987 -0.19791
0.09763 -0.00681 -0.05908
-0.16592 -0.01147 0.05520
-0.07789 -0.05372 -0.21527
0.06710 -0.00681 -0.06839
-0.18106 -0.00402 0.01545
-0.17399 0.29266 -0.26703
0.09968 -0.02891 -0.20230
-0.17036 0.09771 0.16462
-0.17825 0.15364 -0.10017
-0.23749 0.31127 0.26217
-0.18907 0.19438 0.12396
0.16032 -0.06270 0.20415
0.12217 0.02239 -0.20967
-0.05255 -0.00681 0.10163
0.19855 -0.00168 0.21677
0.24235 0.00940 0.20922
-0.14697 -0.00681 -0.02020
-0.21381 0.25517 -0.12823
-0.13791 -0.00681 -0.10750
-0.03560 0.11452 -0.21963
-0.19744 0.21833 -0.09046
-0.06960 0.24530 0.25996
-0.17320 0.00636 0.04624
0.24256 -0.00923 0.05660
0.23821 -0.17008 -0.16024
0.23411 0.03386 0.21383
0.24256 -0.13394 0.19511
-0.16943 0.08144 0.03304
-0.12044 0.26288 -0.27140
0.18220 0.18990 -0.26950
-0.24861 0.31748 -0.09939
-0.19779 -0.13284 0.19214
-0.24577 0.30292 -0.26825
0.25082 -0.16349 0.09170
0.24256 -0.01473 0.02805
0.23438 -0.15891 0.03924
-0.07010 0.23326 -0.25323
-0.20096 0.22696 0.03410
0.18471 -0.00681 0.11676
-0.17203 -0.01534 0.13570
-0.06001 0.25239 -0.25885
0.02816 -0.01358 0.20865
0.24256 -0.13836 0.04206
-0.16973 0.08681 -0.08354
0.25084 -0.02234 -0.20622
-0.08197 0.24055 0.25466
0.23416 -0.00453 0.18938
0.02573 0.14584 -0.23041
0.23789 -0.27646 0.20147
-0.19514 -0.19288 -0.20833
-0.19046 -0.21969 -0.21471
-0.01142 -0.00681 -0.12832
-0.08290 0.13456 0.22140
-0.18466 -0.19082 -0.21421
0.24256 -0.14991 -0.16005
0.11553 0.17648 0.25436
-0.19054 0.19883 0.14227
0.24256 -0.07473 -0.19783
-0.24246 0.30159 -0.05940
0.25022 0.07971 -0.21992
0.25101 0.15572 0.26888
0.07641 0.21617 0.28107
-0.22503 -0.27237 -0.20229
-0.05679 -0.00681 -0.19126
-0.18088 0.16518 -0.13509
0.21283 -0.00681 0.10409
-0.11390 0.26657 0.26300
-0.18118 0.16634 -0.03759
-0.01947 0.11526 -0.22022
0.19130 -0.00681 -0.06306
0.20609 -0.00681 0.14042
-0.06878 0.07959 0.21357
0.23386 -0.00685 -0.13216
0.05729 0.22960 0.27487
0.24256 -0.10521 -0.13008
-0.21137 0.24998 0.03867
0.16736 0.17947 -0.27455
0.15699 -0.00681 -0.17419
-0.05167 -0.04800 -0.20709
-0.19562 -0.10786 -0.20098
-0.08473 -0.00399 -0.20059
0.00378 0.24538 0.26973
0.19291 -0.00364 0.20023
0.14969 0.19251 -0.27260
0.24725 -0.15538 0.06234
-0.18128 -0.01202 0.14570
-0.16924 0.05910 -0.14139
-0.25225 0.31064 0.17325
0.23589 0.16016 -0.27938
0.24836 0.13615 0.25980
0.24256 -0.15827 -0.14194
0.24770 -0.16911 0.11731
-0.08922 -0.00681 0.03744
0.23643 0.10920 -0.23559
-0.09931 0.23945 -0.25200
-0.17683 0.14610 -0.06329
-0.17179 0.11280 -0.20990
0.01974 -0.00681 0.20190
-0.19157 -0.15255 -0.21300
-0.11592 -0.00681 -0.07352
-0.22444 0.27458 -0.07055
-0.17848 0.15484 -0.09230
-0.22061 0.26767 0.13662
-0.17051 0.10023 0.01084
-0.20137 0.22807 -0.10374
0.23040 -0.19067 -0.20497
0.24229 -0.01547 -0.16041
0.22633 0.07869 0.22219
-0.02104 0.21643 0.25283
0.21330 -0.00681 -0.02071
-0.08416 0.11037 -0.21727
0.19644 0.12357 0.23783
-0.18451 0.17915 0.21316
-0.06515 -0.00681 0.16103
0.23911 -0.15439 -0.09369
-0.12872 -0.08339 -0.20682
0.23577 -0.15671 0.09515
0.23541 0.08045 0.21860
0.15979 -0.00681 0.19640
-0.18260 0.17188 -0.03217
-0.16942 0.04696 -0.10789
-0.17285 -0.01572 0.04202
-0.18630 -0.11515 0.20365
0.09181 0.12887 -0.22976
-0.04873 0.16374 -0.23022
-0.17147 0.11011 0.03674
0.22447 0.17899 0.28497
0.24256 -0.09041 0.14672
0.06555 0.20308 -0.26095
0.02118 -0.01358 0.20884
0.11990 0.16567 -0.24786
-0.16914 0.07640 0.11707
0.18725 0.17799 -0.28379
-0.17909 0.18846 -0.22836
0.24868 0.11364 0.23152
-0.07076 0.02144 0.20930
-0.18309 0.17377 -0.01961
0.02291 0.06743 -0.21337
0.06316 -0.00681 -0.01174
-0.01353 0.14767 0.22768
0.23986 -0.00681 0.10305
0.17114 -0.01467 -0.21232
0.22362 0.10569 -0.23251
0.11402 -0.00681 -0.08444
-0.17793 0.15196 -0.18614
0.06890 -0.00341 -0.21669
0.23925 -0.01477 0.16632
0.24754 -0.25940 -0.21581
-0.18198 -0.15279 0.20698
-0.23504 0.30898 -0.01272
-0.17642 0.14384 0.21512
0.02904 0.10746 0.22041
0.25102 0.04915 -0.21698
-0.16915 0.07370 0.18628
0.04514 -0.00681 0.01298
-0.17401 -0.14075 -0.21082
0.07780 0.16510 -0.24225
-0.17339 0.00496 0.07487
-0.16991 0.08978 -0.03694
-0.23252 0.28817 -0.19557
-0.20267 0.23131 -0.13895
-0.16434 -0.00850 0.00029
-0.25071 0.31581 -0.18871
0.18687 0.10946 -0.23058
-0.16944 0.08165 -0.15380
-0.17239 -0.00681 -0.19727
-0.16987 0.08909 0.08971
0.04647 0.00099 -0.21246
-0.17465 -0.05073 0.20516
-0.17436 -0.01563 -0.09394
-0.18159 -0.05306 0.20024
0.24305 0.00140 -0.20038
0.24256 -0.16194 -0.17531
-0.18018 0.00523 -0.21427
-0.16921 0.06479 0.05999
0.24684 0.00075 -0.12712
0.21616 -0.00504 0.20008
0.23751 -0.00681 0.20489
0.04523 0.16453 0.23829
-0.06051 0.15160 0.22606
0.08646 -0.00681 0.12531
-0.03994 0.06333 -0.21219
-0.16991 0.08992 -0.01654
0.15681 0.06152 0.21511
0.11884 0.17643 -0.25476
-0.16914 0.07650 -0.11647
0.19527 -0.00681 -0.16849
0.23989 -0.07493 0.20053
-0.11148 -0.08309 0.20774
-0.18798 0.19116 -0.11080
0.02333 -0.01295 -0.20260
-0.18221 0.17038 -0.11875
-0.17281 0.12102 0.19328
-0.03625 0.00220 0.21369
-0.17323 0.12450 0.11392
-0.19772 0.21888 0.11130
0.25059 -0.00366 0.18477
0.23677 -0.01189 -0.21519
-0.10244 -0.00681 0.00816
-0.23881 0.31132 -0.25767
-0.17121 0.10799 0.11509
-0.16947 0.08222 -0.17349
0.24816 0.07032 0.21348
0.12830 -0.00681 0.11393
-0.05019 0.21184 -0.24611
0.12454 -0.00681 0.01910
-0.18722 0.18887 -0.14641
-0.19758 -0.14642 -0.19464
-0.18340 0.17494 0.04995
-0.22174 0.26996 -0.20477
-0.18862 0.19852 0.23013
-0.18209 0.16987 -0.05124
-0.21074 0.29509 0.26101
-0.18580 0.18440 -0.18432
-0.20508 -0.14904 -0.18791
0.22462 0.14702 -0.25601
-0.09276 0.15268 0.22490
-0.05923 0.06529 0.21219
0.03476 0.06506 0.21327
-0.18033 -0.00986 -0.07892
0.20680 0.09568 0.22662
0.24922 -0.01229 -0.07867
0.24256 -0.04020 0.02110
-0.19492 0.21200 0.01750
-0.09854 -0.00681 -0.12625
-0.17231 0.01301 0.01713
0.15552 0.19024 0.26727
0.09464 0.18644 0.25562
0.25103 -0.02345 0.21049
-0.10512 0.25630 -0.26753
0.23377 0.07550 -0.22157
-0.18182 0.19754 -0.23030
-0.01396 -0.00681 -0.01645
0.18056 -0.00681 0.00095
0.06962 -0.00681 -0.05524
0.00623 -0.00681 0.03209
0.17533 0.16095 0.25570
0.21613 0.05545 0.21552
-0.11460 0.23419 -0.24785
0.17314 0.13138 -0.23885
0.10071 0.07840 -0.21670
0.24008 -0.05793 -0.20045
0.11767 0.05266 -0.21294
-0.19366 -0.07222 -0.20478
-0.23244 0.28778 0.05696
-0.19268 0.20545 -0.05217
-0.24012 0.30329 -0.16090
0.17670 -0.00681 -0.07096
0.22508 -0.22004 -0.20225
-0.12169 0.26427 -0.25860
-0.22565 0.28913 -0.25598
-0.16954 0.08349 0.06402
-0.17483 0.13554 -0.19165
-0.19955 0.22363 -0.20625
-0.17166 0.11169 -0.01679
-0.07829 0.25798 0.25839
0.09872 -0.00681 0.16147
0.20274 0.17494 -0.28493
0.07829 -0.00681 -0.06275
-0.07509 -0.00681 0.00102
-0.17638 0.18451 0.22676
-0.17079 0.02746 -0.01865
-0.17563 0.13965 0.12361
0.24988 -0.08591 -0.21338
-0.18102 -0.00487 -0.02108
0.23722 -0.26315 0.21553
-0.17518 0.13731 0.04658
-0.04587 -0.00681 0.03247
-0.16929 0.07903 -0.10813
0.24145 0.00174 -0.05041
0.12610 -0.01508 -0.21133
-0.19095 -0.14052 0.21441
0.12082 -0.03463 0.21525
-0.00538 0.03004 -0.20974
-0.17004 0.03822 0.14887
0.24256 -0.07592 -0.15962
0.24689 -0.16974 -0.11504
-0.16778 -0.00681 -0.07872
-0.17656 0.14470 -0.14752
-0.20625 0.23946 -0.02717
0.02303 -0.00123 0.20884
-0.13611 0.27066 -0.25679
0.24091 -0.02778 -0.20028
-0.21629 0.25299 0.23556
-0.19946 0.22334 -0.08322
0.23466 -0.16660 -0.13772
-0.17937 0.15930 -0.10410
-0.22287 0.27180 -0.03948
-0.17920 0.15860 0.01744
-0.16933 -0.01425 0.11403
-0.18020 0.17689 0.22585
-0.19245 -0.15371 -0.20359
0.06901 0.21486 -0.28071
-0.18069 0.16433 0.19264
0.24256 -0.06362 0.08872
0.18890 -0.00681 -0.16003
0.24256 -0.05413 0.09050
-0.17003 0.09186 0.09949
