ply
format ascii 1.0
comment VCGLIB generated
element vertex 1786
property float x
property float y
property float z
element face 0
property list uchar int vertex_indices
end_header
-0.22979 0.37647 0.07158
-0.16813 0.26967 0.06952
0.14056 -0.01465 0.12370
0.03721 -0.01465 -0.12464
-0.13715 -0.02970 0.04965
0.11605 -0.03451 0.16999
0.12772 -0.01465 -0.01421
-0.11268 -0.01465 0.02093
0.21285 -0.37384 -0.00209
0.01143 -0.03451 -0.01287
0.00663 -0.03451 0.13791
-0.23078 0.38538 0.07810
-0.07652 -0.03451 -0.20075
-0.19685 0.32978 -0.09914
0.04881 -0.01465 -0.10816
0.03473 -0.01465 0.13851
0.23407 -0.01638 0.11958
-0.05089 -0.03451 0.12452
-0.19719 0.32001 -0.08212
-0.22786 0.38551 -0.04595
-0.18081 0.29164 0.05291
0.21871 -0.01465 -0.02872
0.03927 -0.03451 -0.07101
0.17677 -0.01465 -0.08082
-0.12616 -0.29257 -0.20303
0.09995 -0.03451 0.02864
-0.06162 -0.03422 -0.20193
0.22597 -0.03451 -0.12152
-0.16790 0.26927 -0.14933
0.05571 -0.10532 0.20347
-0.17496 0.28150 0.01747
-0.08787 -0.03451 0.00643
0.07535 -0.01465 0.10808
0.03819 -0.03451 -0.07653
-0.10640 -0.01465 0.12967
-0.15452 0.25647 0.10541
0.03437 -0.01465 0.05778
-0.15026 -0.38490 0.05552
-0.07974 -0.01465 0.11537
-0.19026 0.31837 -0.18291
0.20892 -0.38333 0.06149
-0.17069 0.27362 -0.20296
-0.06197 -0.03451 0.20084
-0.22671 0.37483 -0.16185
0.02185 -0.03451 -0.03982
0.19369 -0.03451 0.07284
0.06363 -0.13273 0.21321
-0.04080 0.02097 0.21194
-0.12169 -0.01465 0.01707
0.10561 -0.01465 0.14037
0.10125 -0.01465 0.13348
-0.07332 -0.03451 0.16743
-0.16894 0.28143 0.04942
0.14828 -0.03451 0.07699
-0.07745 -0.01465 0.03091
0.22687 -0.03451 -0.08172
-0.02623 -0.01465 0.05501
-0.06757 -0.04064 -0.21111
-0.11564 -0.01465 0.01656
0.12342 -0.23653 0.21316
0.03195 -0.03451 0.13870
0.08471 -0.03451 0.17362
-0.17417 0.28014 0.00934
-0.06998 -0.01465 0.15309
-0.15727 0.26123 -0.00030
-0.16818 0.28011 0.02952
0.17347 -0.03448 -0.20199
0.06656 -0.13131 -0.21441
0.15899 -0.01465 -0.01568
0.01782 -0.03451 0.02964
0.01073 -0.01465 -0.17176
-0.07593 -0.03451 -0.18323
-0.05801 -0.01465 -0.08616
0.21687 -0.03451 0.18384
-0.10971 0.17976 -0.20350
0.07486 -0.01465 -0.00180
0.04104 -0.03451 -0.13745
-0.14732 -0.37814 0.10279
0.08684 -0.15545 -0.20859
0.21735 -0.03451 0.17150
-0.09317 0.15632 0.20804
-0.19582 0.32799 -0.00884
-0.10585 -0.01465 0.06381
-0.00561 0.00393 0.20803
-0.12095 -0.23794 0.20614
0.04747 -0.01465 -0.02797
-0.20762 0.34843 -0.13110
-0.00424 -0.03451 -0.14406
-0.03629 -0.03451 0.05746
-0.04903 -0.03451 0.16908
-0.00602 -0.00307 0.20211
-0.09970 -0.01465 -0.01953
-0.05229 0.08423 0.21054
-0.06941 -0.01465 0.03341
0.09480 -0.03451 -0.03019
-0.16052 0.26685 0.20607
-0.18934 0.31677 0.07849
0.00640 -0.01878 -0.20199
-0.19495 0.31612 0.08380
0.15913 -0.28063 0.20789
0.13770 -0.03451 0.20171
0.21274 -0.03451 0.11057
-0.21197 0.35598 0.18777
-0.00877 -0.01465 -0.17418
-0.21449 0.36033 0.00420
-0.02863 -0.03451 -0.05676
-0.15900 0.25386 0.05961
-0.21607 0.35271 0.11579
0.14428 -0.01465 0.11062
-0.17925 0.29930 0.20256
-0.19374 0.31403 -0.00622
-0.03541 -0.01465 0.17525
0.21588 -0.01465 -0.11600
0.06699 -0.03451 -0.06111
0.17156 -0.01465 0.15056
0.02386 -0.01465 -0.08332
-0.03960 0.02229 -0.20981
-0.12985 -0.03451 0.02858
-0.00912 -0.01329 -0.20805
-0.12432 0.19391 -0.21402
0.01426 -0.03451 -0.13656
-0.19978 0.32449 -0.02546
0.10500 -0.01465 0.06640
-0.03989 0.05711 0.21328
-0.01847 -0.03451 0.02985
0.08157 -0.03451 -0.08464
-0.00743 -0.03451 0.10141
0.17155 -0.01465 -0.18450
-0.10593 -0.03241 0.19746
-0.16004 0.26603 -0.09216
-0.07712 -0.11882 -0.20718
-0.05048 -0.01465 0.06030
0.16128 -0.01638 -0.20001
-0.08827 0.12444 0.20590
-0.11340 -0.01465 0.06251
0.01572 -0.01465 -0.00282
-0.14915 -0.37514 -0.06947
-0.00985 -0.03451 -0.15611
-0.18209 0.29385 -0.04648
-0.14571 -0.33916 0.20731
-0.11041 -0.23829 -0.20416
-0.03722 -0.03451 -0.17652
-0.11842 -0.01465 0.07639
0.01445 -0.03871 -0.20265
-0.16142 0.25804 0.13513
0.18450 -0.03231 -0.20183
0.13650 -0.01465 0.15890
0.16228 -0.01638 0.20180
-0.13537 -0.01638 0.04599
-0.19498 0.31619 0.01023
0.19393 -0.03451 0.05770
-0.00905 -0.01240 0.20544
0.17924 -0.03451 0.00591
-0.05398 -0.01465 0.10388
-0.22329 0.36521 0.03157
-0.18756 0.30332 0.10684
0.21618 -0.01638 0.18987
-0.22507 0.37866 0.08593
-0.22493 0.37841 -0.11103
-0.00199 -0.01465 -0.02186
0.12358 -0.01465 -0.08665
0.02188 -0.01465 -0.04300
-0.22031 0.36005 0.11249
-0.07028 -0.01465 0.06047
-0.15215 -0.35297 0.19131
0.03592 -0.03451 -0.15363
-0.08173 -0.13424 0.20604
0.22091 -0.03451 -0.09906
-0.17067 0.28444 -0.02541
0.19482 -0.03451 -0.18607
-0.20966 0.35197 -0.16879
-0.12421 -0.01638 -0.06500
-0.09892 0.14775 -0.21350
-0.07397 -0.03451 -0.06776
-0.17179 0.28637 0.12205
-0.12385 -0.01616 -0.13921
0.00559 -0.01661 -0.21166
0.05821 -0.01465 0.18438
-0.14833 0.24574 0.17889
0.23508 -0.01712 0.04560
-0.05628 0.00463 0.20988
-0.18726 0.30122 0.20261
0.05925 -0.01465 -0.13492
-0.08285 -0.13487 -0.20397
-0.11657 0.17358 -0.20633
0.22861 -0.02616 -0.17495
0.13103 -0.03451 -0.11103
-0.18207 0.30418 -0.02962
-0.19231 0.31155 0.11650
-0.20358 0.33107 -0.11977
-0.20464 0.34328 0.02449
0.04515 -0.03451 0.00199
-0.09040 -0.03451 0.11871
-0.06540 -0.05050 0.20244
0.15034 -0.03451 -0.19968
-0.20980 0.34186 -0.12685
-0.04125 -0.01465 -0.10811
-0.15277 0.24306 -0.06557
-0.02348 -0.01465 -0.15440
0.01993 -0.03451 -0.17082
0.22507 -0.03451 0.08740
-0.07546 -0.09239 0.21438
0.00341 -0.03451 0.04932
-0.05639 -0.03451 -0.17424
0.06965 -0.12991 0.21240
-0.21615 0.36321 -0.00587
0.04506 -0.01465 0.16913
0.07031 -0.03451 0.01294
0.11862 -0.01465 0.17449
-0.17829 0.28726 -0.05783
-0.16680 0.26736 0.02017
-0.09246 -0.01465 -0.03879
0.19839 -0.01465 0.08456
-0.14665 -0.37839 -0.15672
0.22639 -0.03451 0.01933
0.07777 -0.03451 -0.17881
0.13437 -0.03451 0.01330
-0.15094 -0.38518 0.00630
0.07325 -0.03451 0.05858
-0.15346 -0.37361 -0.10930
0.15730 -0.01465 0.13213
-0.21650 0.36382 -0.13219
-0.13715 -0.02040 0.09635
-0.17352 0.27901 -0.14835
0.23072 -0.01638 -0.15146
-0.19822 0.32178 0.08581
-0.00837 -0.01465 0.15581
-0.12814 -0.03451 0.15034
0.02598 -0.03451 0.13584
0.02402 -0.01465 0.16047
-0.04980 -0.03451 0.14684
-0.13715 -0.01876 0.05507
-0.20557 0.33453 -0.09524
0.20760 -0.01638 -0.18992
-0.04980 -0.03451 -0.00338
-0.16758 0.27068 -0.20839
-0.00393 -0.01638 -0.19585
-0.23011 0.37371 0.06451
-0.20570 0.34184 0.20229
-0.00696 -0.03451 -0.18210
-0.19179 0.31065 -0.01260
-0.07877 0.11414 0.21326
0.08121 -0.01465 -0.02260
-0.23030 0.37374 -0.05930
-0.10965 -0.19595 -0.20546
-0.18359 0.29645 0.03682
-0.23361 0.38091 -0.15187
0.11098 -0.01465 -0.09285
-0.14000 -0.31029 -0.21089
0.09960 -0.01465 -0.16461
-0.21508 0.36136 -0.06657
-0.15644 0.25979 -0.20332
-0.18662 0.31207 -0.05729
0.01858 -0.01465 -0.10083
0.21110 -0.01638 0.18308
-0.04457 -0.03451 0.09214
-0.10679 -0.03451 0.15240
-0.03397 -0.01465 -0.06848
0.15993 -0.01465 -0.02057
-0.04247 0.06725 0.21049
0.20455 -0.03451 -0.00258
-0.08135 -0.03451 -0.13944
-0.11771 -0.03451 0.16257
-0.15356 0.24444 -0.10952
-0.11472 -0.24372 0.21411
0.19209 -0.01465 -0.07444
0.14055 -0.01465 0.13427
0.17968 -0.01465 0.08096
-0.12819 0.21654 -0.20676
-0.06635 -0.03451 -0.15701
0.17556 -0.01465 0.07538
0.22440 -0.03451 0.15836
0.07733 -0.01465 0.15164
0.05380 -0.01465 -0.16112
-0.04730 -0.01465 -0.11036
-0.18645 0.30140 0.06255
-0.04143 -0.03451 -0.12837
0.20332 -0.38111 0.00468
0.06998 -0.03451 0.19100
0.06671 -0.01465 -0.07477
-0.01453 -0.03451 0.15603
-0.05206 -0.02405 0.21048
-0.15073 0.24990 -0.11051
-0.15901 -0.38118 0.05140
-0.17264 0.27748 0.02209
0.08489 -0.01944 0.20220
-0.20533 0.33410 -0.15796
-0.16065 0.25672 -0.03357
-0.16973 0.27245 -0.17616
0.08083 -0.14717 0.21123
0.19131 -0.01465 -0.15674
-0.17982 0.28991 0.10094
0.15577 -0.01465 -0.18208
-0.21845 0.35683 0.18061
-0.07305 -0.05789 -0.20658
0.16445 -0.03451 0.16139
-0.04581 -0.03451 -0.18707
-0.02831 -0.03451 0.10827
-0.10105 -0.03451 -0.08882
0.20994 -0.03451 0.02809
0.08766 -0.03451 0.04817
0.01568 -0.03451 0.20006
-0.09252 -0.03451 -0.04751
0.07891 -0.16452 -0.20575
-0.22665 0.37982 0.11783
-0.07562 -0.03451 -0.03277
0.12402 -0.01465 -0.16572
-0.19498 0.32655 0.19572
-0.01871 -0.01465 -0.17067
-0.11165 -0.03451 -0.08275
0.22359 -0.01843 0.18222
-0.08454 -0.03451 0.11870
0.01884 -0.01465 -0.01956
-0.15612 -0.37435 -0.11589
-0.10265 -0.20138 -0.20247
-0.00815 -0.01465 0.06112
-0.17641 0.28401 -0.01568
-0.10027 -0.01465 -0.03471
0.00986 -0.04607 -0.20771
0.23508 -0.02569 0.01460
-0.21642 0.35331 -0.18247
0.21379 -0.02063 -0.19151
-0.08349 -0.03451 0.08854
-0.22519 0.37501 -0.03124
0.13536 -0.03451 -0.09356
0.10035 -0.03451 -0.17882
-0.08610 -0.03350 -0.20189
0.10197 -0.20422 -0.21142
0.18017 -0.31935 -0.20430
0.14368 -0.03451 -0.19219
-0.18646 0.30143 -0.12908
-0.15751 0.25238 -0.20264
-0.22797 0.37332 -0.13908
-0.21644 0.36371 0.17107
-0.03072 -0.03451 0.12184
0.15961 -0.03451 -0.18096
0.22025 -0.03451 0.15149
0.23508 -0.02305 0.06029
0.06540 -0.01465 0.11243
-0.19477 0.32618 -0.15113
-0.02840 -0.01465 0.18109
-0.08124 -0.01638 0.19683
0.07791 -0.03451 -0.08025
0.19362 -0.03451 0.14432
-0.02046 -0.02438 0.20220
-0.10577 -0.18024 0.20682
-0.16758 0.27908 -0.02467
-0.19230 0.32190 -0.11328
0.14881 -0.03451 -0.10810
0.22618 -0.01638 0.10609
-0.02333 -0.03451 -0.09513
0.20177 -0.37171 0.18065
-0.20036 0.33585 -0.02658
0.12455 -0.03451 -0.16377
-0.03603 0.05708 0.20664
0.19014 -0.01465 -0.10361
-0.09113 -0.03451 -0.05285
-0.19570 0.31742 -0.09510
-0.12905 -0.01638 0.15147
-0.01336 -0.01465 0.03093
-0.00982 0.01185 -0.20781
-0.12918 0.19889 0.21243
0.05526 -0.03451 -0.05860
0.00994 -0.01465 -0.00405
0.15204 -0.01465 -0.14350
-0.15914 -0.38022 -0.00780
-0.16759 0.26874 0.03659
0.12039 -0.01465 0.07590
-0.12940 -0.03451 -0.02095
0.20861 -0.03451 -0.01041
-0.15644 0.24943 0.10200
-0.11456 -0.01465 -0.12784
-0.19997 0.32482 0.12967
-0.19433 0.31506 -0.13374
-0.15959 0.26525 0.15557
0.20672 -0.37153 -0.02343
-0.20010 0.33540 0.11967
0.14943 -0.03451 0.10708
-0.04434 -0.03451 -0.05754
-0.06854 0.10513 0.20209
-0.15393 -0.37367 0.11470
-0.11274 -0.21183 0.21257
-0.09167 -0.16311 0.21340
-0.16405 0.27297 -0.08716
0.03874 -0.03451 0.12208
-0.17833 0.28734 0.00560
-0.00575 -0.01106 -0.21411
-0.15626 0.25949 0.02228
-0.19141 0.30999 -0.09742
-0.00545 -0.01465 -0.01445
-0.15529 0.25944 -0.21309
0.11157 -0.19978 -0.21136
-0.06900 0.09710 -0.21382
0.10607 -0.01465 0.04527
0.07753 -0.01465 -0.15433
-0.04496 -0.03451 0.15772
0.04316 -0.03451 0.15113
0.15863 -0.01465 -0.05662
-0.11197 -0.03451 0.19306
-0.21901 0.37415 -0.17569
-0.16093 0.25721 0.07400
0.21266 -0.03451 -0.11288
-0.06781 -0.01465 0.12106
0.16386 -0.02283 0.20220
-0.18321 0.29579 -0.06323
-0.22107 0.37172 -0.08477
-0.15475 0.25686 -0.14490
-0.22420 0.37716 -0.12728
0.21670 -0.03451 -0.12685
-0.11423 0.18750 0.20288
-0.08592 -0.03451 -0.12900
0.22435 -0.03451 0.08074
0.15101 -0.01465 0.09928
-0.15237 -0.38440 0.14914
-0.15006 0.24453 0.09256
-0.18537 0.30989 0.16073
0.07020 -0.01465 0.06041
0.23508 -0.02364 0.14533
0.22997 -0.03451 -0.04929
0.01385 -0.01849 -0.20199
0.23508 -0.03379 -0.09219
0.11983 -0.01465 -0.13690
-0.07004 -0.03451 -0.14067
0.00481 -0.03451 -0.01078
-0.07189 -0.03451 -0.13482
-0.22979 0.38146 0.16189
-0.21832 0.36697 0.01272
-0.22711 0.37182 0.00623
0.05572 -0.03451 0.17476
-0.22826 0.37382 -0.07184
0.07760 -0.01465 -0.17096
0.08348 -0.01465 -0.06294
-0.12226 -0.01465 -0.01847
0.08442 -0.01465 0.01988
0.09135 -0.03451 0.09533
-0.22204 0.37082 -0.18584
-0.18762 0.31380 0.11096
-0.17367 0.28963 -0.06510
0.09252 -0.01465 0.05906
0.20385 -0.03451 -0.09234
-0.16487 0.26403 -0.01318
-0.16969 0.26492 -0.20917
-0.11800 -0.03451 0.05668
0.06221 -0.01465 -0.04657
0.14639 -0.03451 -0.15608
0.19052 -0.03451 -0.18067
-0.12902 -0.03451 0.12135
-0.20460 0.33284 -0.16907
0.12878 -0.03451 -0.17098
-0.11332 -0.03451 0.07708
0.16067 -0.01465 0.02030
0.12253 -0.03451 0.09088
-0.18860 0.30513 -0.18667
0.19924 -0.03451 -0.02716
0.22325 -0.01638 -0.00535
0.16974 -0.03451 0.15611
-0.02155 -0.01465 -0.01402
-0.16046 0.26675 -0.10559
0.16983 -0.01465 -0.02961
-0.13081 -0.01638 0.10469
-0.21464 0.35022 -0.11717
-0.18399 0.30750 -0.06749
-0.20237 0.33935 0.16327
-0.15012 -0.37440 0.13448
-0.19736 0.33065 0.08635
-0.02268 -0.01465 -0.07000
-0.16173 0.25858 0.04097
0.11076 -0.03451 -0.12916
0.12587 -0.01465 -0.09372
0.21586 -0.01465 -0.16452
-0.22014 0.35976 0.01469
-0.12461 -0.01638 -0.11595
-0.12394 -0.03451 -0.00018
0.06272 -0.03451 -0.07512
-0.17841 0.29784 -0.06968
-0.15447 0.25336 0.20789
-0.09131 -0.16901 0.21144
-0.17115 0.27490 -0.04216
-0.18410 0.30769 0.10800
-0.12323 -0.01465 -0.00438
-0.10534 -0.03451 -0.06971
0.03622 -0.01465 -0.09280
-0.06632 -0.06849 -0.21282
-0.15723 -0.37518 0.13442
-0.17221 0.28711 0.05283
-0.22157 0.36224 -0.14445
-0.13647 -0.01815 0.15556
-0.10549 -0.01465 0.02090
-0.12730 -0.03451 0.13230
-0.17149 0.28586 -0.13091
0.19546 -0.03451 -0.19172
-0.07946 -0.11857 0.21320
0.16441 -0.01638 -0.19126
0.16889 -0.03451 0.12956
-0.15716 0.26104 -0.12502
0.13787 -0.01465 0.07698
0.05648 -0.03451 -0.10407
0.09344 -0.01638 0.20130
0.16283 -0.03451 -0.12970
0.01220 -0.01465 0.09839
0.15727 -0.03451 0.07221
0.20016 -0.01465 -0.09513
-0.00773 -0.01465 -0.05151
-0.12593 -0.03451 -0.15659
-0.06980 -0.03451 0.10470
0.01408 -0.03451 0.06388
-0.06050 -0.01465 -0.16067
-0.21665 0.36407 -0.17647
-0.03569 -0.03451 -0.14381
-0.03263 -0.03451 -0.19579
-0.15700 -0.38424 0.09254
0.02951 -0.01638 0.19600
-0.17487 0.29172 0.07956
-0.21176 0.35560 0.14069
-0.17384 0.28992 0.19535
0.20271 -0.38024 -0.01585
0.16520 -0.03451 -0.17776
0.11673 -0.01465 0.08078
0.06212 -0.01465 -0.04139
-0.05578 -0.01465 -0.02629
0.00992 -0.02223 0.20767
-0.17566 0.28271 -0.04537
0.08965 -0.01465 0.16483
-0.08717 -0.12462 0.21399
-0.18844 0.30485 0.19795
0.21243 -0.37330 0.11254
0.21073 -0.03451 0.05421
-0.23441 0.38231 0.01840
-0.22698 0.38525 -0.07473
-0.20701 0.34737 -0.03097
-0.00348 -0.01465 0.09139
-0.18027 0.30106 -0.07651
0.01585 -0.03451 -0.16688
-0.17342 0.27883 -0.13847
-0.06118 -0.03451 -0.03271
-0.16875 0.27074 0.19479
-0.05534 0.08662 -0.21297
-0.03216 0.04024 -0.20249
0.13378 -0.25942 0.20500
0.18665 -0.01465 0.09899
-0.22306 0.37912 -0.07063
0.10933 -0.20927 -0.21429
-0.16404 0.26259 -0.08219
0.18542 -0.01465 -0.03153
-0.18288 0.29522 -0.14032
0.16237 -0.30293 0.20232
-0.10554 -0.20893 0.21416
0.16783 -0.03451 0.16709
-0.00938 0.00638 0.21263
0.12934 -0.03451 -0.03968
-0.09909 -0.01465 -0.11503
0.04070 -0.03451 -0.19911
0.18525 -0.03451 0.15258
-0.09430 0.14205 -0.20281
-0.16743 0.26845 0.08266
-0.19976 0.33481 0.15269
-0.21102 0.34396 0.02998
-0.04620 -0.02621 -0.20199
-0.21112 0.34456 -0.20728
-0.17371 0.27934 0.11370
0.19033 -0.03451 -0.12593
-0.19070 0.30876 -0.07892
0.12495 -0.01465 0.14356
-0.06686 -0.01465 0.01725
0.09626 -0.01465 -0.12449
0.12871 -0.01465 0.04063
-0.22308 0.38028 -0.11742
0.11410 -0.01465 -0.15020
-0.05977 -0.01465 0.03061
-0.22987 0.38555 0.01297
-0.20155 0.32755 -0.18384
-0.11445 0.18083 0.20183
0.02284 -0.01465 0.06289
-0.20304 0.33013 0.16678
-0.10313 0.17118 -0.20487
-0.11733 -0.01465 -0.00127
0.11267 -0.02681 0.20220
-0.22157 0.36223 -0.15981
0.01240 -0.03176 -0.20199
0.11484 -0.03451 -0.00486
0.23442 -0.03451 -0.14738
0.16785 -0.03451 0.02667
0.06680 -0.01465 -0.17385
-0.19624 0.31835 0.16586
-0.18296 0.30572 0.06819
0.12869 -0.03451 -0.11991
-0.12291 -0.03451 0.02734
-0.20912 0.34067 -0.19313
-0.05261 -0.01465 0.03016
-0.15895 0.25377 0.10066
0.06987 -0.03451 -0.03406
0.02186 -0.01465 -0.09295
-0.00796 -0.01465 -0.17983
-0.02523 -0.03451 0.05313
-0.13214 -0.03451 0.01104
0.15214 -0.01465 0.05570
-0.17496 0.28150 0.10647
-0.18305 0.30587 0.07318
0.04513 -0.03451 -0.04482
-0.22534 0.36876 0.12621
0.11307 -0.01465 -0.09844
-0.01656 -0.01465 0.00051
-0.15094 -0.35715 -0.19516
-0.18251 0.29458 0.18456
0.07950 -0.01465 -0.07778
0.01190 -0.03451 0.16179
-0.11118 0.17320 -0.20254
0.03320 -0.06898 0.21318
0.12763 -0.03451 -0.13497
-0.01222 -0.01465 -0.15512
0.00725 -0.03451 -0.16082
0.03339 -0.03451 0.02949
-0.03695 -0.03451 -0.02474
-0.00515 -0.01465 0.12123
-0.17778 0.29676 -0.17649
-0.05132 -0.03451 -0.13181
-0.02839 -0.01465 -0.00009
0.11458 -0.03451 -0.09574
0.10222 -0.20025 0.21307
-0.09048 -0.12452 -0.21031
-0.08000 -0.01465 0.12008
0.06278 -0.13218 -0.20331
0.00942 -0.02950 -0.21411
-0.11126 0.18764 -0.20869
0.22522 -0.01638 0.06666
-0.05754 -0.00740 -0.20334
0.17498 -0.03451 0.13714
-0.17747 0.28585 -0.17825
0.11280 -0.01638 0.19497
-0.08602 -0.13428 -0.21372
-0.16400 0.26252 -0.05555
-0.16296 0.27108 -0.20551
0.01005 -0.01465 0.09117
0.14626 -0.03451 0.15343
-0.20637 0.33591 0.10627
0.12578 -0.01638 -0.19083
-0.18766 0.30351 0.15230
-0.08529 -0.14959 0.20852
-0.15185 0.24349 -0.15499
-0.16635 0.26659 0.16036
0.06579 -0.03451 -0.01281
-0.05652 -0.01465 -0.03421
0.08995 -0.01465 0.07974
0.23234 -0.03451 0.05468
-0.21494 0.35075 0.15295
0.00722 -0.03451 0.19607
0.19852 -0.01465 -0.01546
0.01667 -0.03451 -0.07307
-0.15905 -0.37835 -0.11224
-0.05514 -0.03451 -0.13719
0.16685 -0.03451 -0.14182
-0.22165 0.35657 0.19423
0.16666 -0.01465 0.10577
-0.16940 0.28224 0.17468
-0.04488 -0.03451 0.13914
-0.13425 -0.01638 0.05983
0.07490 -0.03451 -0.05830
0.15226 -0.01465 -0.10281
0.18560 -0.03451 0.14184
-0.22688 0.37402 0.04941
0.12685 -0.22556 0.20995
-0.19324 0.31316 0.12257
-0.03554 0.03869 0.20571
-0.06655 0.10688 -0.21260
0.22317 -0.03211 -0.18257
0.12842 -0.03451 0.17280
-0.08779 -0.15378 -0.21157
-0.04828 0.05455 0.20743
-0.16282 0.26048 0.17614
-0.23003 0.37244 -0.15175
0.16517 -0.03451 0.19021
-0.15021 -0.37435 0.01022
0.17305 -0.01465 0.11449
-0.15091 0.25021 0.02033
-0.20402 0.34220 0.08263
-0.16353 0.27208 -0.04866
0.16262 -0.03451 0.04872
-0.16656 0.27731 -0.16359
-0.10544 -0.01465 0.12004
-0.15637 0.25967 -0.11251
0.15531 -0.01465 0.14090
-0.06219 -0.03451 0.02254
-0.20254 0.32927 0.00407
0.20301 -0.03451 -0.13260
0.04580 -0.10625 0.21130
0.23317 -0.01638 0.09837
-0.11570 -0.03451 -0.13155
0.19174 -0.01465 0.14459
-0.02411 -0.01465 -0.02159
0.19590 -0.01638 0.18646
0.20879 -0.03451 0.08589
-0.10675 -0.01465 -0.08259
-0.00667 -0.03451 -0.10398
0.09678 -0.01465 0.16137
-0.15129 0.23394 -0.20606
-0.06010 0.08983 -0.21429
-0.15468 -0.36197 0.18381
0.12650 -0.01465 -0.00708
-0.08467 -0.03451 0.14998
-0.15917 -0.37925 0.04629
0.03257 -0.07576 -0.21433
-0.18891 0.30566 -0.02575
0.08330 -0.03451 0.13999
0.14518 -0.03451 -0.16763
-0.04826 -0.03451 -0.15065
-0.00746 -0.01079 -0.20341
0.06271 -0.02598 -0.20199
0.20217 -0.37888 0.08794
-0.21382 0.35918 -0.13566
-0.07254 -0.06111 0.21234
-0.15192 0.24345 -0.08012
0.19478 -0.03451 -0.01408
0.10416 -0.01465 0.03485
-0.09341 -0.01465 0.03218
-0.15066 -0.37417 0.06004
-0.13715 -0.03171 -0.04638
0.13019 -0.01465 -0.12637
-0.19512 0.32679 0.15445
0.17539 -0.01465 0.13209
-0.15208 0.24336 -0.14552
-0.19727 0.33051 -0.08687
-0.06736 -0.03451 -0.08756
-0.21909 0.36568 -0.18266
-0.00882 -0.03451 0.07571
0.15015 -0.01465 0.14827
-0.19141 0.32036 -0.15573
-0.12197 0.18639 -0.21300
0.21580 -0.03451 0.08869
-0.13405 -0.32132 0.20239
0.07708 -0.01638 0.19702
0.16975 -0.01465 -0.01905
0.20208 -0.37663 0.00117
0.18701 -0.01465 0.10923
0.15385 -0.01465 -0.06665
0.11741 -0.03451 -0.04947
0.04377 -0.08693 0.21310
-0.20245 0.32912 0.08232
0.14549 -0.27790 -0.20433
-0.07975 -0.03451 0.17816
0.21122 -0.38251 -0.08315
-0.19199 0.32137 -0.12116
-0.05617 -0.03451 0.00692
-0.20925 0.34089 -0.17707
0.03632 -0.06822 0.20907
-0.16595 0.27626 0.03974
0.12978 -0.01572 0.18890
-0.22336 0.38156 0.06505
-0.01782 -0.01465 -0.09471
-0.16310 0.27132 0.19433
-0.19784 0.33150 0.02815
0.03715 -0.03451 0.02610
-0.00441 -0.01465 -0.10526
0.04343 -0.03451 -0.12654
-0.21380 0.34878 0.19371
-0.21142 0.34465 -0.14151
-0.19269 0.32258 0.09682
-0.02062 -0.03451 -0.01932
-0.09922 -0.01465 -0.02819
-0.21179 0.35565 0.17974
-0.04698 -0.03451 0.03657
0.09630 -0.03451 0.11126
0.09181 -0.01465 0.08892
0.11111 -0.01465 0.09647
0.09484 -0.17964 0.20192
-0.18902 0.31621 0.20455
-0.18207 0.30419 0.01505
-0.06328 -0.04248 -0.21384
0.21477 -0.03451 -0.09461
-0.02643 -0.01465 0.11885
-0.21118 0.35461 -0.15779
-0.18307 0.29555 -0.17001
0.09381 -0.01465 0.14401
0.02416 -0.03451 0.13109
-0.16368 0.27232 -0.00150
0.22908 -0.01638 0.04581
0.00594 -0.01638 -0.19095
0.17763 -0.03451 -0.10890
-0.20128 0.33745 -0.04576
-0.20808 0.34923 -0.11499
-0.18768 0.30742 -0.21444
-0.17522 0.28196 -0.12208
-0.09539 -0.18518 -0.20544
-0.14846 0.24596 -0.16307
-0.10345 -0.01465 -0.12681
0.04278 -0.01465 -0.04677
-0.02478 -0.03451 -0.08952
0.05395 -0.03451 0.10820
-0.08285 -0.01465 -0.04292
-0.21554 0.36216 0.18116
-0.18979 0.29980 -0.20745
-0.04530 0.05254 -0.20433
0.23508 -0.03239 0.03311
0.13844 -0.03451 0.02051
0.21102 -0.37215 -0.08517
0.13303 -0.01465 0.01983
0.00630 -0.01465 -0.09457
0.08690 -0.01465 0.13651
-0.06136 -0.01605 -0.20525
-0.17643 0.28405 0.11668
0.21427 -0.01465 -0.08023
-0.21113 0.35452 -0.03310
0.20033 -0.35222 0.19062
0.04139 -0.07868 -0.21169
0.17122 -0.01465 -0.07470
-0.19711 0.32942 -0.21264
-0.15764 0.24547 0.20483
0.08904 -0.03451 0.06548
0.23508 -0.02844 0.14275
0.05749 -0.12800 0.20586
-0.03098 -0.01465 0.10149
-0.19151 0.32527 0.21025
0.18131 -0.02279 -0.20199
0.12519 -0.03451 0.07230
0.10473 -0.03451 0.12932
-0.13492 -0.28838 -0.20830
-0.13789 -0.32996 0.21192
0.13899 -0.03451 -0.08544
-0.21307 0.34751 -0.02179
-0.04717 0.00513 0.21376
-0.21646 0.36375 -0.16728
-0.07551 -0.03451 0.07918
-0.10578 -0.01465 -0.03149
0.19665 -0.03451 0.13191
0.18426 -0.32702 -0.20278
-0.03899 -0.03451 0.04080
0.14613 -0.03451 0.14412
-0.18567 0.31042 0.02993
0.00682 -0.03451 0.12090
-0.00930 -0.03451 -0.08091
0.09218 -0.03451 0.07827
0.09944 -0.02192 -0.20199
-0.13954 -0.34960 0.19429
-0.07358 -0.09956 0.21255
-0.20806 0.33884 0.06241
-0.06193 -0.03451 -0.05883
-0.06963 -0.01465 -0.04438
-0.21734 0.36526 -0.01075
0.23508 -0.03022 0.12612
-0.13715 -0.02066 -0.06638
-0.15364 0.24458 0.02950
0.23508 -0.02243 -0.14754
0.00073 -0.02986 0.20963
-0.20244 0.32909 -0.20314
-0.08702 -0.13868 0.21427
0.02658 -0.03451 -0.06198
-0.08792 -0.01638 -0.20151
-0.05558 -0.01880 -0.20192
-0.00897 -0.03451 0.16412
-0.21316 0.35804 0.09739
-0.19462 0.31112 0.20379
0.18561 -0.03451 -0.14829
0.12402 -0.01465 0.15829
-0.15868 0.26366 0.10942
0.17969 -0.01465 -0.04393
-0.14807 -0.37872 -0.16598
-0.20280 0.32973 -0.14316
0.00615 -0.03451 0.02799
-0.09755 -0.14888 -0.20826
0.01746 -0.03451 -0.15175
0.10594 -0.01465 0.10271
0.08103 -0.03451 0.07474
-0.23452 0.37718 0.03573
-0.14876 -0.38371 0.02073
-0.09422 -0.03451 0.19231
0.04716 -0.01465 0.08113
0.05327 -0.03451 -0.16560
-0.13715 -0.03400 0.07328
-0.22896 0.37503 0.13592
-0.22586 0.37959 0.14330
0.02462 -0.03451 -0.02641
-0.22467 0.38377 -0.01219
-0.06315 -0.01465 0.11653
-0.22058 0.37088 0.14634
0.06792 -0.01465 -0.14172
0.13348 -0.02249 0.20220
0.21199 -0.38192 0.05267
-0.05978 -0.00808 0.20774
-0.00068 -0.01638 -0.19111
0.06607 -0.03451 -0.15849
-0.17062 0.28435 0.03554
-0.05368 -0.03451 0.04932
-0.14875 -0.33981 0.20118
-0.08243 0.11792 0.21243
0.03410 -0.01465 -0.05227
-0.19735 0.32029 -0.02119
0.21213 -0.03451 -0.02832
-0.06813 -0.03451 0.01036
-0.19140 0.32034 0.20634
0.02751 -0.01465 -0.00381
0.16223 -0.03451 0.15020
0.01749 -0.01465 -0.06160
-0.10742 -0.23064 -0.20991
0.18950 -0.03451 0.01289
0.15086 -0.03451 0.02781
0.22078 -0.01465 -0.15626
0.01905 -0.03451 0.19584
-0.13313 -0.30876 -0.20194
0.05292 -0.01465 0.13442
-0.23499 0.37890 -0.13466
-0.22163 0.36234 -0.00753
0.15734 -0.03451 -0.12148
-0.22175 0.37291 0.01056
-0.01815 -0.01465 0.13337
0.15458 -0.03451 -0.03372
-0.17220 0.27673 0.14371
0.09081 -0.03451 0.18366
-0.15894 -0.37788 -0.09604
-0.16450 0.27374 -0.19356
0.10275 -0.01638 -0.20097
0.07184 -0.03451 0.08280
0.19505 -0.01816 0.20065
-0.22922 0.37549 0.09325
-0.12888 -0.30642 0.21239
-0.06800 -0.08447 0.20968
0.17300 -0.01465 -0.11399
-0.02712 -0.01465 0.18830
-0.21909 0.36829 0.15717
-0.18861 0.31550 -0.10197
-0.14833 0.24574 0.07837
0.03776 -0.01465 0.15351
0.22756 -0.03451 0.10521
0.00724 -0.01465 0.09651
0.20469 -0.37241 -0.08774
0.01372 -0.01465 -0.10684
-0.15566 0.24808 0.01062
0.07366 -0.03451 -0.19460
-0.14554 -0.33812 -0.19633
-0.15420 -0.38553 0.13524
-0.13715 -0.03003 0.12590
0.09270 -0.01465 -0.16876
-0.19796 0.32134 -0.03146
-0.17814 0.28701 0.03186
-0.19650 0.31881 0.13273
0.17491 -0.03342 0.20220
-0.20620 0.33561 0.05364
-0.15679 0.26039 0.09828
0.12268 -0.01465 -0.16076
0.15693 -0.01465 -0.15949
0.11486 -0.03451 -0.02281
-0.08307 -0.03451 -0.19182
-0.09733 0.15979 -0.20406
0.16101 -0.29541 0.21386
-0.12046 -0.25351 -0.20194
-0.12107 -0.24808 0.20321
-0.18474 0.29844 0.17525
-0.05594 -0.03836 -0.20569
-0.02411 -0.01465 0.05013
-0.15297 0.25981 0.20728
-0.20541 0.34461 -0.03763
-0.05285 -0.03451 -0.12062
-0.05678 -0.01465 -0.10818
0.07900 -0.15177 -0.20253
0.05550 -0.03451 0.08567
-0.18968 0.30700 0.12231
0.15139 -0.03451 0.16509
-0.09886 -0.03451 -0.04811
-0.04798 -0.00133 -0.21257
-0.19561 0.32764 -0.18917
-0.19336 0.32374 -0.09078
-0.22340 0.37756 -0.08090
0.18084 -0.31884 0.20540
-0.06714 -0.01465 -0.14020
0.09029 -0.01465 0.11319
-0.09812 -0.03451 0.02728
-0.17120 0.27499 -0.04948
0.17150 -0.03451 -0.10340
-0.13715 -0.01977 0.08112
-0.18051 0.29111 0.13207
-0.02384 0.03231 0.20341
0.04582 -0.03451 -0.03279
-0.00248 -0.01465 0.16191
-0.06201 -0.03451 0.14871
-0.04997 -0.01465 0.11002
-0.05552 -0.00715 -0.21348
-0.23364 0.37574 -0.14030
-0.21272 0.35727 0.16127
0.05589 -0.03451 -0.09519
0.15266 -0.02242 -0.20199
0.18288 -0.01465 0.11215
0.04162 -0.08110 0.20340
0.23362 -0.02190 -0.16132
0.12597 -0.01465 0.01113
-0.13036 -0.28159 0.21343
-0.09604 -0.01465 0.12782
-0.15680 0.26041 -0.09788
-0.18640 0.30132 -0.08231
0.05633 -0.01465 -0.12579
-0.18769 0.30355 -0.01590
-0.21415 0.34938 -0.04300
-0.21148 0.35513 -0.07258
0.08783 -0.01465 0.07082
0.16033 -0.01465 -0.14932
-0.05034 -0.03451 0.19092
0.22828 -0.01638 -0.09953
0.20423 -0.37182 -0.14465
-0.14722 -0.37892 -0.11446
0.15762 -0.03451 0.18124
0.09468 -0.03451 0.02645
-0.15435 0.25617 0.01119
0.03329 -0.01465 -0.07417
-0.21541 0.35157 0.02274
0.15502 -0.01465 0.08860
0.21398 -0.37674 0.05961
0.16215 -0.03451 0.11657
0.07825 -0.03451 -0.15327
0.07285 -0.03451 -0.18268
0.20991 -0.03451 -0.00376
-0.07842 -0.03451 0.01393
-0.18638 0.30129 0.12564
-0.09326 -0.03451 -0.19895
0.11289 -0.03451 0.18537
-0.10941 -0.19410 0.21022
0.14826 -0.01465 -0.01816
0.15630 -0.03451 0.09174
-0.01146 -0.03451 -0.17451
0.11020 -0.02568 -0.20199
0.13755 -0.26444 -0.21234
-0.07037 -0.01638 -0.19057
-0.00999 -0.01465 -0.01276
-0.20121 0.33733 -0.11322
0.12957 -0.25245 -0.20597
-0.18060 0.30164 -0.11110
-0.17799 0.29712 -0.09382
-0.15943 0.26497 -0.16642
0.02347 -0.01638 -0.18941
0.15053 -0.01465 -0.02844
-0.21135 0.34454 0.14430
-0.09575 -0.14372 -0.21001
0.01856 -0.01465 0.05363
0.14319 -0.01465 0.05677
0.07237 -0.03451 0.04926
0.01036 -0.03451 0.11541
0.13152 -0.01465 0.07834
0.08402 -0.01465 -0.14054
0.16015 -0.28360 -0.20591
0.13958 -0.25880 -0.20239
0.01888 -0.01465 0.11277
0.01417 -0.03451 -0.02223
-0.20138 0.32727 -0.00525
-0.16338 0.26145 -0.09114
-0.00901 -0.01465 0.01806
-0.07164 -0.03289 -0.20199
-0.19010 0.31809 -0.01532
-0.01024 -0.01465 0.10332
-0.13509 -0.01638 0.02493
0.19439 -0.01465 0.11010
0.21233 -0.38164 -0.09003
-0.11368 -0.03451 0.15025
0.05172 -0.01465 -0.00562
0.10938 -0.01465 0.11374
-0.03275 -0.03451 0.18802
-0.15560 -0.38510 0.01851
-0.14445 -0.32477 0.20486
0.17849 -0.01465 -0.11172
0.03724 -0.03451 -0.15970
-0.00764 -0.01465 -0.13465
0.20962 -0.38323 0.13234
-0.02831 -0.03451 0.14642
-0.22685 0.38520 -0.08394
-0.15259 0.25313 -0.16811
0.09432 -0.01465 -0.06122
-0.01973 -0.01465 0.01531
0.03155 -0.03451 0.02120
0.04852 -0.03451 0.13526
-0.18358 0.29644 -0.02958
-0.14758 -0.37744 -0.00080
0.11654 -0.03451 -0.19969
0.11638 -0.01465 -0.16662
-0.04280 -0.03451 -0.15332
-0.01310 -0.01465 -0.14912
0.11975 -0.03451 -0.12578
-0.01604 -0.01465 -0.05708
-0.03714 0.05559 -0.20408
-0.22753 0.37931 -0.04361
0.03913 -0.09408 -0.20459
-0.20860 0.33977 0.14683
-0.09915 -0.03451 -0.09603
-0.06836 -0.03451 0.11798
-0.04653 0.03130 0.20345
-0.22668 0.37410 -0.10342
-0.04582 -0.03451 -0.00788
-0.22522 0.37891 0.01979
0.19959 -0.03451 -0.05794
-0.02524 0.02944 -0.20257
-0.22455 0.36740 -0.11618
-0.12751 -0.01638 0.08242
-0.04246 -0.01465 0.02082
-0.19487 0.32341 0.20732
-0.22197 0.36830 -0.17782
0.22965 -0.01638 -0.04504
-0.09807 -0.01465 -0.17771
-0.06432 0.09511 0.20186
0.21363 -0.03451 -0.14669
0.21706 -0.01465 0.03219
0.00967 -0.03451 -0.02722
-0.20773 0.33826 0.16601
-0.04047 -0.01465 -0.03548
-0.05622 0.08970 0.20414
0.14300 -0.03451 0.18071
-0.04306 0.04591 -0.21011
0.18715 -0.01465 0.03953
-0.12294 -0.03451 0.05582
0.19503 -0.35649 0.18348
0.22490 -0.03451 0.02960
-0.15823 0.25253 0.19587
-0.19394 0.32474 0.09190
-0.13715 -0.02591 -0.07450
0.20826 -0.37139 0.09550
-0.07834 -0.08214 -0.21156
0.00456 -0.01465 0.17788
0.18253 -0.34440 -0.20435
0.17638 -0.03451 0.10912
-0.20670 0.33647 0.17358
0.04604 -0.10873 0.20710
0.06964 -0.14680 -0.20451
0.00224 -0.03451 -0.15044
-0.22128 0.37210 -0.01892
0.20617 -0.37910 0.16396
0.04606 -0.01465 0.18722
0.00405 -0.03451 0.04447
-0.06119 -0.01465 0.16339
-0.15277 0.24308 0.12101
-0.15734 0.26135 0.18761
-0.20661 0.33632 -0.01490
-0.02928 -0.03451 -0.17999
-0.15832 0.25268 0.04479
0.16012 -0.03451 -0.12532
-0.14486 -0.34040 -0.20694
-0.13451 -0.33135 -0.20310
-0.23162 0.37420 -0.02996
0.12095 -0.01465 0.15006
-0.15307 0.24358 -0.18614
-0.18543 0.30999 -0.10969
0.20028 -0.37173 0.16017
-0.13576 -0.02677 0.16090
0.07842 -0.03451 -0.12498
0.12326 -0.01465 -0.03229
0.20718 -0.01465 -0.00886
-0.15901 0.25388 -0.13035
-0.07523 -0.01465 -0.14149
-0.10450 -0.03451 0.11967
-0.08961 -0.03451 0.10602
-0.22978 0.37800 -0.05212
-0.13335 -0.01638 -0.04217
0.21366 -0.37536 -0.04963
-0.11834 0.17782 -0.20514
-0.16193 0.26930 0.05986
-0.12404 -0.01638 -0.07167
-0.08150 -0.01465 -0.00327
0.14332 -0.01465 -0.18201
-0.12228 0.18355 0.21005
-0.19987 0.33502 0.08667
-0.20491 0.33338 0.16315
0.14720 -0.01465 0.05382
-0.08169 -0.01465 0.10941
0.18273 -0.03451 -0.16665
0.14654 -0.01465 -0.11839
-0.23074 0.38443 -0.14655
-0.17762 0.28610 0.13226
-0.18048 0.29106 0.02635
0.06052 -0.03451 0.09760
0.19040 -0.33942 -0.19706
-0.03414 -0.01465 -0.16363
-0.17584 0.29339 -0.20501
-0.13454 -0.01638 -0.14412
0.16756 -0.03451 0.14744
0.20303 -0.37321 -0.17895
-0.19109 0.31981 0.19532
0.03689 -0.09299 -0.20882
0.05759 -0.01465 0.14325
0.05963 -0.03451 0.15351
-0.15776 0.26207 0.15165
0.05521 -0.03451 0.11357
-0.22452 0.36734 -0.00318
-0.20910 0.34063 0.02386
-0.18024 0.30100 -0.15600
-0.11233 -0.01465 -0.03630
-0.18066 0.30174 -0.18682
-0.06120 -0.02985 0.20220
-0.13683 -0.03451 0.13858
-0.12521 -0.03451 0.02152
-0.15856 -0.37696 -0.00065
0.19574 -0.35010 0.20155
0.18474 -0.03451 0.16631
0.11555 -0.01465 0.09446
-0.02591 0.03726 -0.21210
-0.05159 0.00489 0.20257
-0.15612 -0.38488 0.10004
-0.16006 0.25569 -0.02591
-0.08186 -0.01465 0.08322
0.00396 -0.01465 -0.00574
0.05499 -0.01465 0.14761
-0.17965 0.28962 -0.18403
0.21627 -0.03451 -0.02080
-0.02365 -0.03451 0.00943
-0.12693 -0.03451 0.04882
-0.08386 -0.01638 -0.19615
0.20773 -0.01638 -0.18314
0.04992 -0.09497 -0.21267
-0.15991 0.26579 -0.02657
-0.12848 -0.27114 -0.21216
0.13735 -0.01465 -0.00320
-0.18455 0.29811 -0.15823
0.22350 -0.01638 -0.02910
-0.02080 -0.03451 0.09596
-0.22097 0.36120 0.08503
-0.17352 0.28937 -0.17025
0.20806 -0.38202 -0.15134
-0.22089 0.37142 -0.09048
0.08936 -0.16073 -0.20620
-0.20926 0.34091 -0.03959
-0.03449 -0.03451 0.16411
0.04143 -0.01465 -0.02251
-0.14900 0.24513 0.04199
-0.15798 0.26246 0.06578
0.21398 -0.37670 -0.12016
0.22319 -0.01638 0.04477
0.16956 -0.01465 0.13210
0.13845 -0.01465 0.11847
0.00212 -0.01465 -0.08137
0.00593 -0.01465 0.01910
0.02007 -0.01465 -0.14428
-0.18355 0.29638 -0.09201
-0.22813 0.37246 0.14844
0.20301 -0.01465 0.15855
-0.21512 0.35630 0.20047
-0.16665 0.27747 -0.09428
-0.19701 0.31970 0.02273
0.16547 -0.03451 0.12065
-0.21332 0.34795 -0.10874
0.10823 -0.03451 0.07643
-0.11213 -0.24161 0.20389
0.06762 -0.03451 -0.12005
0.20746 -0.37016 -0.14966
0.17251 -0.31121 0.20233
-0.23506 0.37942 0.13292
-0.16525 0.27504 0.17150
-0.18383 0.30723 -0.05015
-0.10583 -0.22627 0.20845
-0.09329 -0.03451 -0.18619
-0.09648 -0.03451 0.12225
-0.11268 -0.23776 -0.21335
-0.17173 0.29236 0.20819
0.03132 -0.01465 0.14811
0.03649 -0.01465 0.04683
0.07103 -0.15019 -0.21172
0.03435 -0.01465 -0.18202
0.05269 -0.01465 0.10680
0.20629 -0.01465 -0.10209
-0.18535 0.30985 -0.20734
-0.15850 0.26336 -0.01393
-0.08565 -0.01465 0.01779
0.22195 -0.01638 -0.06727
-0.22949 0.37363 0.03514
0.23256 -0.03451 0.01733
-0.11727 -0.03451 0.09299
-0.05857 -0.01465 0.17561
-0.15854 0.25307 0.13912
-0.09803 -0.01465 -0.16066
0.19305 -0.36335 -0.18865
-0.08976 -0.02973 -0.20141
-0.21276 0.36173 -0.19474
-0.22474 0.37537 -0.04371
-0.17121 0.27501 0.20473
-0.09961 -0.17114 -0.21342
0.08745 -0.03451 0.13543
-0.13543 -0.29270 -0.21058
-0.08139 -0.01465 -0.15900
0.08740 -0.03451 0.02914
-0.02062 -0.01638 0.19945
0.18098 -0.01465 0.03777
-0.23396 0.37694 0.15405
-0.23426 0.38266 -0.09729
-0.20779 0.34873 -0.10000
-0.16303 0.26084 0.12070
0.09847 -0.19873 0.20556
0.18004 -0.34076 0.20214
0.11287 -0.03451 -0.14816
0.14553 -0.01465 0.02454
-0.07872 -0.03451 0.14497
0.05383 -0.02409 -0.20199
0.04965 -0.01465 -0.05873
-0.23391 0.37612 -0.05022
-0.17101 0.28503 -0.15088
0.19530 -0.01465 -0.14106
0.07040 -0.02930 0.20220
-0.16579 0.26561 0.05106
0.21313 -0.03451 0.02214
-0.22045 0.36029 0.07048
0.17911 -0.01465 -0.18669
-0.18922 0.31656 -0.03904
-0.12507 -0.01638 0.13889
-0.10673 -0.03451 0.13119
-0.18434 0.29775 -0.11227
-0.23168 0.37211 -0.16399
-0.15711 0.25058 0.03869
-0.19670 0.32951 0.20437
-0.03740 -0.03451 -0.11887
-0.15862 -0.38213 -0.05750
0.23054 -0.01638 0.12716
-0.13715 -0.02284 -0.02878
0.18719 -0.33600 0.20928
0.07158 -0.03451 -0.11173
-0.12039 -0.23593 0.21075
0.14371 -0.01465 -0.00769
0.11060 -0.19690 0.20914
0.14971 -0.01465 -0.00939
-0.21533 0.35143 -0.02858
-0.21625 0.36339 -0.10699
0.00356 -0.03451 -0.06441
-0.05878 -0.01465 -0.16844
-0.17704 0.29546 -0.08039
-0.00303 -0.01269 0.21384
-0.18706 0.30246 0.02935
0.03909 -0.01465 -0.00063
-0.12091 0.19434 0.20194
-0.10895 -0.03451 -0.06091
-0.21926 0.35823 -0.13759
-0.19143 0.31003 0.17946
-0.08448 -0.01465 -0.11266
-0.19589 0.31776 -0.06808
-0.15884 0.26496 -0.20354
0.05229 -0.01465 0.06965
-0.16228 0.26990 0.12915
0.09308 -0.03451 0.05148
-0.20763 0.33809 -0.19687
-0.16676 0.26731 -0.10098
0.00345 -0.03451 0.17893
0.18207 -0.33595 0.21077
-0.20009 0.33538 0.02166
-0.17056 0.27389 -0.08796
-0.08509 -0.10336 -0.20966
0.16278 -0.03451 -0.06669
-0.20454 0.34310 -0.05238
-0.03294 -0.01638 0.19019
0.23315 -0.03451 0.07085
-0.17723 0.29579 -0.13962
0.01702 -0.03451 0.08766
-0.18091 0.29180 -0.10025
0.09407 -0.18521 -0.20302
-0.15168 -0.38545 -0.13925
0.04136 -0.01465 -0.14697
-0.04325 0.04774 0.20457
0.04864 -0.08965 -0.20996
-0.13317 -0.03451 -0.09817
0.17701 -0.03451 -0.01510
-0.03897 -0.01465 -0.05869
-0.15860 0.26352 0.17923
0.13953 -0.01465 -0.16094
0.19054 -0.33515 0.20252
-0.12965 0.21840 -0.21090
0.13900 -0.26647 0.20362
-0.18492 0.30911 0.18776
0.03099 -0.01465 0.13470
0.11814 -0.01465 -0.04559
-0.17633 0.28387 -0.15252
0.06147 -0.03451 -0.16666
-0.19746 0.32047 0.03705
-0.21715 0.36929 -0.17604
-0.16270 0.25922 0.21320
-0.13424 0.21655 -0.20246
-0.04921 -0.01465 -0.05286
-0.22308 0.37367 -0.18159
0.03481 -0.03451 0.18868
0.23508 -0.02047 0.09313
0.20447 -0.37257 -0.11222
0.20261 -0.38000 0.13342
-0.16266 0.27056 -0.18720
-0.05177 -0.03451 -0.09476
0.11466 -0.03451 -0.08168
0.09172 -0.17183 -0.20280
-0.08148 -0.03451 0.04274
-0.05535 -0.03451 -0.10472
0.14305 -0.03451 0.06489
0.15020 -0.01638 0.19670
-0.17281 0.28815 -0.07220
0.02930 -0.01465 -0.11124
0.23508 -0.02862 -0.02844
-0.20088 0.33676 0.20128
0.08318 -0.01465 0.17186
0.23508 -0.01746 0.03656
-0.17746 0.29619 0.10873
-0.17771 0.28626 -0.15818
0.20651 -0.38325 0.08329
-0.19776 0.32100 -0.14678
-0.22023 0.35992 -0.06853
-0.02902 -0.01465 -0.14819
0.13754 -0.24622 -0.21234
0.06074 -0.01465 0.06444
-0.17059 0.28430 0.14474
-0.06494 -0.01465 -0.17288
0.04086 -0.01465 -0.11470
-0.10933 -0.21807 0.20246
-0.04121 -0.01465 -0.14835
-0.08888 -0.03451 -0.16712
-0.14926 0.24499 0.00556
-0.23068 0.37381 0.10294
-0.11472 -0.03451 -0.06116
-0.11511 0.19433 -0.20859
-0.15749 -0.37478 0.14650
0.01048 -0.01465 -0.12393
-0.23504 0.37995 -0.07339
0.21501 -0.02673 0.19078
-0.12116 -0.02364 -0.18744
-0.06705 -0.05956 -0.21385
-0.02621 0.03855 0.21103
-0.21796 0.36635 0.07697
0.23508 -0.02995 0.03916
-0.15761 -0.38311 -0.14238
-0.05386 0.06440 0.20675
-0.01441 0.00166 0.20268
-0.20337 0.34107 0.00487
-0.09029 -0.01465 0.18140
-0.06180 -0.03451 0.12379
-0.20933 0.35139 0.04594
0.07020 -0.13461 0.21349
0.17386 -0.01465 0.09800
-0.18807 0.30421 -0.01120
-0.10749 -0.01465 0.10540
-0.15440 0.24589 -0.09080
0.12239 -0.03451 0.19436
0.13817 -0.01465 0.09396
-0.08904 -0.03451 0.18540
-0.23223 0.38472 -0.00718
-0.01620 -0.02203 -0.20199
-0.08917 -0.01465 -0.01157
-0.13742 -0.34331 -0.20225
-0.04811 -0.03451 0.19625
-0.09357 -0.03451 0.15164
-0.14293 -0.36470 -0.18365
-0.03105 -0.01465 -0.14107
-0.17560 0.29297 0.12566
0.10871 -0.01465 0.15604
0.19104 -0.03451 -0.00900
-0.21810 0.35622 0.18880
-0.19498 0.32653 0.04261
-0.20493 0.34378 0.18470
-0.01270 -0.03451 0.06934
0.15257 -0.03451 -0.09375
0.02872 -0.03307 -0.20199
-0.08423 -0.01638 0.20179
0.19027 -0.01465 -0.02962
0.21207 -0.38185 -0.02505
0.20409 -0.38095 0.15407
0.23508 -0.02041 0.08110
-0.10755 0.16413 0.20241
0.20472 -0.03451 -0.14954
0.00055 -0.02411 0.21308
-0.23244 0.37467 0.04140
0.22956 -0.03451 -0.06058
0.14567 -0.27130 0.21377
0.21284 -0.38097 0.02791
0.13509 -0.03451 0.19036
-0.06021 -0.04498 0.20332
-0.19123 0.30969 0.03464
0.02715 -0.07463 0.21081
-0.01173 -0.03451 -0.05457
0.22938 -0.03451 0.00710
-0.00581 -0.03451 0.17840
0.12023 -0.03451 0.11826
0.17792 -0.01465 0.18606
-0.22422 0.36866 0.16432
0.14548 -0.01638 0.19038
-0.22304 0.36479 -0.03550
-0.13715 -0.01950 0.06346
-0.12075 0.20198 0.21123
0.23234 -0.01638 -0.12806
-0.00704 -0.03451 -0.11695
-0.18559 0.31028 -0.17736
-0.00849 -0.01465 0.02403
-0.02367 -0.03451 0.14883
-0.20550 0.34475 -0.13677
-0.15804 0.25219 0.08912
0.07842 -0.03451 -0.06354
0.00748 -0.01465 -0.01225
-0.02383 -0.01465 -0.11013
-0.20649 0.34648 -0.00878
-0.22084 0.36096 0.10163
0.01645 -0.01465 -0.01045
-0.15416 0.24547 0.18961
0.11307 -0.03451 0.05906
-0.00890 -0.03451 -0.01401
0.23508 -0.03057 -0.08390
-0.07814 0.10782 -0.20538
0.11587 -0.03451 0.12631
0.03975 -0.07620 0.20436
-0.12893 -0.03451 0.16090
0.12034 -0.21711 -0.20411
-0.04920 -0.03451 -0.08044
-0.20284 0.34016 -0.08709
0.03684 -0.03451 -0.13205
-0.21352 0.34830 -0.05352
-0.09184 -0.03451 0.19941
0.14532 -0.01465 0.13897
0.14686 -0.03451 -0.16286
0.22130 -0.03451 0.04052
0.04412 -0.03451 -0.05800
-0.18178 0.30368 0.12865
-0.13715 -0.02635 -0.13536
-0.15695 0.26066 0.19723
-0.04217 0.02370 0.20312
0.18654 -0.01465 -0.13434
0.18540 -0.01465 0.12640
0.06427 -0.03451 0.08679
0.07256 -0.15236 0.20425
-0.14524 -0.36650 -0.18746
0.13749 -0.01465 0.05719
0.00957 -0.01465 -0.11162
-0.17562 0.28264 -0.14217
-0.04273 -0.03451 0.02977
-0.11393 0.17361 0.21286
-0.03427 -0.01465 0.09129
0.18905 -0.01638 0.19299
-0.13086 -0.30493 0.20286
0.21679 -0.01465 0.08814
-0.16014 0.25583 -0.05257
-0.06440 -0.03451 -0.18937
-0.01609 -0.01465 0.08480
-0.00852 -0.03451 -0.02535
-0.22025 0.37005 0.16768
0.07443 -0.03451 -0.00866
-0.15358 0.25484 0.02443
0.10866 -0.03451 -0.18259
0.21278 -0.37375 0.07064
-0.19111 0.30947 -0.11878
-0.22333 0.37565 0.06563
0.06906 -0.01465 -0.02047
0.09857 -0.03451 0.12420
-0.16591 0.26583 0.14543
-0.04653 0.05588 -0.21307
-0.07652 -0.11577 0.21020
-0.19207 0.31114 -0.17208
-0.17110 0.28518 0.15157
0.11325 -0.22177 0.21213
-0.01365 -0.01465 0.16801
0.04546 -0.03451 -0.16069
-0.17198 0.28670 -0.16207
-0.15368 -0.37364 -0.12574
0.12315 -0.03451 -0.03039
0.04582 -0.01465 -0.07394
-0.18140 0.30302 0.14922
0.23508 -0.02021 -0.13077
-0.01007 -0.01465 0.11101
0.23508 -0.02165 0.07233
-0.22346 0.36551 0.06010
-0.06167 -0.01465 -0.10512
0.14983 -0.01465 -0.09582
-0.03784 -0.01465 0.01531
-0.05039 -0.01465 -0.14375
0.02368 -0.03451 0.16240
0.20375 -0.37313 0.06769
-0.22896 0.36785 0.17139
0.16363 -0.03451 -0.02359
0.10214 -0.01524 -0.18870
-0.18757 0.31372 -0.04404
0.06164 -0.01465 0.09513
-0.19829 0.33228 0.18217
0.21647 -0.03451 0.14855
-0.13715 -0.02301 -0.03372
0.21368 -0.37539 -0.06314
-0.18458 0.29817 -0.14988
-0.19820 0.32175 -0.18724
-0.08865 -0.03451 -0.08854
-0.01154 -0.01465 -0.04741
0.23508 -0.01661 0.13359
0.02649 -0.01465 -0.06333
-0.12332 -0.01465 0.04962
0.20539 -0.03451 -0.03704
0.17492 -0.01465 0.00917
0.03216 -0.01465 0.17721
0.23508 -0.03351 -0.07370
-0.04107 -0.03451 -0.07329
0.02985 -0.03451 -0.14436
-0.11777 0.17717 -0.21194
0.05979 -0.03451 0.05572
-0.11326 -0.01465 -0.00832
-0.22575 0.36947 -0.00765
0.22156 -0.01465 0.07901
-0.22147 0.37242 -0.03772
-0.21919 0.35811 0.17311
-0.09804 -0.03451 -0.13933
-0.12358 -0.01465 0.13318
0.06399 -0.03451 0.17802
0.08608 -0.01465 0.07655
0.21077 -0.01465 -0.15110
0.08189 -0.01465 0.18197
-0.01195 -0.03451 0.02282
-0.01228 -0.03451 0.03089
-0.18441 0.30191 0.20789
0.17639 -0.01835 0.20220
-0.21024 0.35297 0.16392
-0.13945 0.21278 0.20944
0.10408 -0.01465 -0.05020
-0.07508 -0.10593 -0.20399
0.00115 -0.02314 -0.20278
0.16768 -0.31605 -0.21272
0.08098 -0.03451 -0.04226
0.09702 -0.01465 0.12149
0.01015 -0.03451 0.07908
-0.15614 0.24890 -0.09598
0.17583 -0.03451 0.19683
-0.12610 -0.01638 0.03798
-0.10480 -0.03451 -0.18607
-0.12624 -0.01638 -0.14502
-0.10560 0.16167 0.21348
0.15448 -0.01465 -0.15352
-0.21306 0.34749 0.17087
0.09205 -0.01465 0.07508
0.01945 -0.04668 -0.21407
-0.20793 0.33861 0.18201
-0.20700 0.34736 0.11885
-0.04986 -0.03451 0.18242
-0.01135 -0.01465 0.17832
-0.18155 0.29440 -0.21428
-0.04802 -0.01465 -0.09613
-0.12038 -0.03451 -0.16970
-0.20553 0.34482 -0.05820
0.23508 -0.03223 0.07471
-0.04105 -0.01465 -0.00274
-0.12890 -0.03044 0.17800
0.16578 -0.03451 0.10662
0.20303 -0.01465 -0.17133
0.06534 -0.03451 -0.04430
-0.12360 -0.03451 -0.07943
-0.14821 -0.35392 -0.19932
-0.17822 0.28716 0.17171
0.10407 -0.20908 0.20921
-0.11737 -0.03451 -0.14239
0.21262 -0.38126 -0.09832
-0.19375 0.31405 0.13547
-0.07821 -0.03451 0.15369
0.08996 -0.01465 -0.16387
0.02495 -0.03451 0.01148
-0.19723 0.33044 0.14865
-0.16045 0.25636 -0.20295
0.21692 -0.01465 -0.04164
-0.12688 -0.01638 0.00112
-0.06018 -0.03451 0.08269
0.21215 -0.03451 -0.01776
-0.17619 0.29399 -0.19569
-0.15024 0.23658 -0.21347
-0.05968 -0.03451 -0.18795
-0.19862 0.33284 -0.04240
-0.08152 -0.03451 -0.01315
-0.23104 0.38527 0.10217
-0.08800 -0.03451 0.19634
-0.06300 -0.05128 -0.21346
0.20714 -0.01465 0.10377
0.23128 -0.03451 0.13894
-0.15476 -0.38544 -0.03182
-0.15678 -0.38440 -0.12115
0.10361 -0.03451 -0.12010
-0.15329 -0.37361 0.17886
-0.15263 0.24692 -0.20241
-0.08118 -0.11778 -0.21360
-0.09671 -0.14590 0.20911
0.15049 -0.28559 -0.20389
-0.05874 -0.03451 0.17135
-0.19942 0.33423 0.05159
-0.19496 0.31615 -0.15828
0.23508 -0.02872 -0.07458
0.16212 -0.03451 0.05591
-0.14720 -0.37904 -0.04930
-0.03379 -0.03451 0.04895
-0.03814 0.03238 0.20442
-0.17218 0.27669 -0.18971
0.12877 -0.01465 0.09409
0.12463 -0.22208 0.20532
0.19062 -0.03451 0.11643
0.13427 -0.03451 -0.05513
0.22482 -0.01638 0.11122
-0.00738 0.00291 -0.20987
-0.04372 -0.01465 -0.01799
-0.22808 0.36618 -0.17964
0.12451 -0.22591 -0.20350
0.19727 -0.34861 -0.19186
-0.04747 0.07559 0.20483
0.12955 -0.01465 0.07256
-0.16667 0.27751 -0.12568
0.18562 -0.03451 -0.09630
0.00819 -0.03451 -0.11086
0.15827 -0.02522 -0.20199
-0.07875 -0.01465 -0.12872
0.13592 -0.01465 0.18719
0.06656 -0.01465 0.09662
-0.05515 -0.03101 -0.20199
-0.01998 0.02375 -0.21359
0.18835 -0.35506 0.19620
-0.23272 0.38435 0.13826
-0.21977 0.35912 -0.09335
0.14439 -0.03451 -0.04810
0.12964 -0.03451 -0.18031
-0.17360 0.28951 0.06495
-0.20631 0.34617 -0.01881
0.02823 -0.01465 0.10923
-0.18757 0.30334 0.11558
0.17792 -0.31528 0.21119
0.06269 -0.12774 0.20194
-0.21126 0.35474 0.03317
0.15039 -0.03451 0.19942
-0.06987 -0.05279 -0.20346
0.05584 -0.01465 0.03618
-0.10769 -0.01465 -0.17349
-0.00861 -0.00108 0.21382
-0.17542 0.29267 -0.11513
0.02606 -0.03451 0.11901
0.18371 -0.01465 -0.18348
-0.15913 -0.37894 -0.08201
-0.21763 0.36577 0.05429
0.14391 -0.27841 0.20794
0.21618 -0.03451 0.09738
0.20414 -0.03451 0.18346
-0.03535 -0.01465 0.18130
0.16017 -0.30013 -0.20311
-0.11360 -0.02943 -0.19324
0.14035 -0.01465 -0.08089
0.17130 -0.01465 0.14064
-0.07965 -0.02644 0.20220
0.02610 -0.03451 0.03262
-0.19601 0.32832 0.01420
0.14983 -0.03451 0.06871
-0.11974 -0.03451 -0.01671
0.20991 -0.37170 0.07988
0.11181 -0.03451 -0.19101
0.10018 -0.01465 -0.08441
0.16833 -0.03415 -0.20199
-0.09903 -0.16798 -0.20239
0.03047 -0.01465 0.00510
-0.19449 0.31533 0.09005
-0.16109 0.25748 0.11192
-0.16621 0.26634 -0.05806
-0.09209 -0.03451 -0.08231
0.15697 -0.03451 -0.06713
0.21407 -0.37740 -0.10752
-0.21201 0.33970 0.19882
-0.14194 0.23241 0.21358
-0.19990 0.32471 0.00662
-0.22350 0.36557 -0.07258
-0.16650 0.28000 0.20367
0.06255 -0.01465 0.04519
0.10302 -0.03451 0.00873
0.20659 -0.01465 -0.11681
0.21724 -0.03451 0.02899
0.14707 -0.26508 -0.21340
-0.06924 0.11449 0.20944
-0.22348 0.37738 0.09804
0.06834 -0.03451 -0.17083
0.14533 -0.01465 -0.07409
0.06623 -0.01465 -0.08762
-0.15456 0.25653 -0.07991
0.16209 -0.01465 0.16463
-0.16031 0.25612 -0.11297
-0.21863 0.35714 0.02343
-0.05563 0.08741 0.21228
0.11277 -0.01465 -0.17693
0.08466 -0.01638 0.19254
-0.21856 0.36738 -0.03899
-0.07519 -0.01465 0.12771
0.13220 -0.01465 0.00144
-0.21863 0.35713 -0.17005
-0.07523 -0.09596 -0.20214
-0.21402 0.35952 0.11620
0.09437 -0.03451 -0.06836
0.20870 -0.03451 -0.16179
0.21494 -0.01465 -0.13479
0.14263 -0.25951 -0.21396
-0.23353 0.37562 -0.13084
0.03862 -0.09337 0.21158
0.09267 -0.16621 -0.20653
-0.15443 0.25630 0.09748
-0.10206 -0.16657 0.21016
0.17423 -0.01465 -0.05424
-0.00526 -0.03451 -0.09572
0.12214 -0.01828 0.20220
0.13280 -0.03451 0.11696
0.20772 -0.01465 -0.14183
-0.22970 0.37805 0.12215
-0.16295 0.26069 0.05780
0.11364 -0.01465 0.18394
0.10797 -0.01465 0.07974
-0.17096 0.27457 0.16612
-0.14870 -0.38234 -0.15281
0.19113 -0.03451 -0.07551
-0.16010 0.26613 0.03645
-0.17578 0.28293 0.15134
-0.21665 0.36407 0.12366
