ply
format ascii 1.0
comment VCGLIB generated
element vertex 1780
property float x
property float y
property float z
element face 0
property list uchar int vertex_indices
end_header
-0.17375 0.37281 -0.02754
-0.17989 -0.08160 -0.14109
-0.14885 0.23450 -0.11367
-0.16095 0.03193 -0.03067
-0.14936 0.28147 0.11482
0.17458 -0.13519 -0.14431
-0.17178 0.31629 -0.07306
0.17818 -0.07953 0.05146
-0.13889 -0.01491 0.07731
-0.11829 -0.04474 0.00332
-0.17644 -0.30053 -0.15396
0.04432 -0.04754 -0.14156
-0.17989 -0.37459 -0.12474
-0.16667 0.06402 0.07204
-0.17552 0.00180 -0.01007
-0.08574 -0.02314 -0.16269
-0.17989 0.04612 -0.14339
0.02630 -0.01632 0.17044
-0.16785 -0.08913 0.06258
-0.17989 -0.15068 0.13982
-0.15250 0.40658 -0.09181
0.12099 -0.01491 -0.11868
0.05619 -0.01491 0.02228
-0.17980 0.38939 0.00743
0.13470 -0.04474 0.16652
0.11948 -0.04474 0.16423
-0.09983 -0.01065 0.06191
-0.14580 -0.23045 -0.12861
-0.02318 -0.05614 -0.16174
0.16851 -0.05133 0.17839
-0.13104 -0.01065 0.03838
-0.16764 0.09271 -0.14710
0.17805 -0.01065 0.07664
-0.16809 0.41004 0.13002
-0.04268 -0.01491 -0.16322
-0.04964 -0.01491 -0.11115
-0.02275 -0.04474 -0.12310
-0.17989 -0.08653 -0.00067
0.17563 -0.15247 -0.05410
-0.15118 -0.16110 -0.15396
0.17502 -0.29307 0.14431
0.04074 -0.14273 0.16632
-0.17989 -0.22864 -0.14743
-0.12604 -0.04474 -0.13195
-0.00820 -0.01491 -0.07210
0.00430 -0.01065 -0.01222
-0.13755 -0.15148 -0.15210
-0.17989 0.34387 0.11957
0.15727 -0.08308 -0.02333
0.14410 -0.07417 0.13067
-0.17530 0.42394 0.08213
-0.07193 -0.15832 0.13157
0.17818 -0.20891 0.14675
0.14410 -0.05494 0.09586
-0.15756 0.39320 0.01512
0.15429 -0.08308 -0.12457
0.09585 -0.17458 -0.17177
-0.10885 -0.01491 -0.01701
-0.09272 -0.01068 0.15729
-0.17307 0.38145 -0.10592
-0.09249 -0.17682 0.13691
-0.15883 0.17481 -0.03981
0.14410 -0.07283 0.03913
-0.10363 -0.04474 -0.02388
0.15964 -0.16698 -0.14431
-0.17989 0.31630 0.10953
-0.17989 -0.25357 0.13396
-0.06310 -0.01065 0.10952
-0.16366 -0.17717 -0.15396
-0.16927 -0.01065 -0.02806
0.08661 -0.16969 0.14561
-0.04360 -0.01065 -0.02165
0.13497 -0.01491 -0.16064
0.00370 -0.01491 0.06482
0.16582 -0.14273 -0.06236
0.16223 -0.17682 -0.10489
-0.16742 0.33931 0.10645
0.12614 -0.04474 0.08539
0.15125 -0.01491 0.14046
-0.15541 0.25568 -0.11034
0.14501 -0.08308 -0.06629
-0.14086 -0.01491 0.02319
-0.15901 0.23676 0.04764
-0.17825 0.16391 0.11201
0.03977 -0.01065 0.05294
0.16103 -0.17682 0.02606
-0.01599 -0.04474 0.04369
0.08498 -0.04474 0.11188
-0.18244 -0.02797 0.02410
0.16662 -0.40427 -0.17839
0.07966 -0.06591 0.17002
0.16315 -0.37190 0.14431
0.17711 -0.09840 0.14431
-0.11595 -0.07941 -0.12687
-0.14865 -0.01491 0.03218
-0.17989 -0.07158 0.00645
-0.02475 -0.04474 -0.16118
-0.16715 0.09640 0.04967
0.09953 -0.01491 -0.15135
-0.08423 -0.01065 -0.04157
0.17818 -0.01295 0.04561
0.02682 -0.04474 0.10755
0.17753 -0.21911 0.17839
0.16918 -0.25055 0.17839
-0.17076 -0.01491 0.00687
-0.14681 0.04763 0.14497
-0.16198 -0.42806 0.11864
-0.12483 -0.17195 0.15202
-0.17101 0.17648 -0.14292
-0.12804 -0.01491 0.07380
-0.08162 -0.01491 0.00259
0.16183 -0.37747 0.17839
0.17409 -0.40163 -0.17839
-0.17989 0.36595 0.11063
-0.00269 -0.01491 0.15872
-0.12623 -0.15842 0.12676
0.14410 -0.21648 0.15692
-0.17858 -0.07977 -0.11988
-0.09746 -0.07509 0.12931
0.14410 -0.07769 -0.04073
-0.13999 -0.04474 -0.10967
-0.11811 -0.01491 -0.04951
0.15788 -0.11496 -0.14431
0.17818 -0.08000 0.00646
-0.15690 0.42394 0.04625
-0.15711 0.24863 -0.11057
0.17818 -0.40518 0.17839
-0.17623 0.38794 -0.07674
0.14404 -0.14538 0.17583
-0.17369 0.04746 -0.11695
0.09629 -0.17682 -0.16457
0.00222 -0.01491 -0.02271
-0.15873 0.36416 0.07057
-0.15050 0.38569 0.12410
-0.15728 0.07694 0.04638
0.16336 -0.15163 0.17839
0.15730 -0.17682 0.00115
-0.04008 -0.01491 0.14712
0.13233 -0.15333 -0.17485
-0.16326 0.15474 -0.01013
0.14978 -0.17957 -0.17839
-0.17084 0.20746 -0.01014
-0.12121 -0.14273 0.14124
-0.16684 0.12451 0.14427
0.15024 -0.08308 -0.08488
0.17818 -0.22134 0.16337
0.04420 -0.17682 0.15896
-0.14580 -0.37277 0.14018
-0.03736 -0.04474 0.11489
-0.17123 0.08890 -0.04427
0.13903 -0.01065 -0.13892
-0.15887 0.27782 -0.13786
0.03646 -0.01065 -0.13601
-0.06471 -0.01491 -0.14565
-0.18203 -0.03685 -0.11959
-0.06136 -0.01065 0.09496
-0.16126 0.21700 -0.01012
0.14271 -0.01491 0.06190
-0.15720 -0.30627 0.11864
-0.14654 0.02268 -0.13489
-0.17989 -0.10260 -0.13143
0.02201 -0.01491 0.14737
0.02243 -0.01189 -0.16949
-0.11338 -0.04447 -0.15784
0.17818 -0.02550 -0.05962
-0.14580 -0.42275 -0.14496
-0.15206 0.37518 0.09421
0.05562 -0.01491 0.15159
0.17563 -0.16010 -0.03856
-0.15604 0.42394 0.06384
0.14410 -0.23276 -0.15709
0.17818 -0.24028 -0.17704
0.09705 -0.05989 0.14653
-0.04501 -0.05269 0.13395
-0.16840 -0.20183 0.15272
-0.17989 -0.06096 -0.07163
0.17358 -0.35148 -0.14431
-0.16516 -0.42820 0.12998
0.14410 -0.42381 0.15889
-0.17314 0.23095 0.03701
-0.16913 -0.42820 0.15178
-0.14629 -0.00033 -0.12033
0.14410 -0.05458 0.08051
0.16292 -0.04474 -0.09687
0.05177 -0.15278 -0.16806
0.08408 -0.01491 0.02442
-0.14734 0.09598 0.11863
0.09498 -0.01065 0.07569
-0.17547 0.03158 -0.01519
0.04380 -0.05557 -0.14151
0.14410 -0.40906 -0.17226
-0.15052 -0.01491 0.05464
-0.14580 -0.16830 -0.12943
-0.15917 -0.01491 -0.00187
-0.15412 0.37281 -0.09559
-0.15529 0.12567 -0.08353
0.05670 -0.04474 0.09277
-0.15471 0.10845 -0.08769
-0.00660 -0.01065 -0.09356
-0.13897 -0.05197 0.12563
0.17818 -0.18447 -0.15637
-0.17989 -0.07830 -0.06179
-0.16459 -0.37941 0.15272
0.11769 -0.14273 -0.17272
0.17493 -0.01491 -0.17093
-0.17287 0.09939 -0.14677
-0.17989 -0.19703 0.12664
0.17818 -0.07304 -0.17665
-0.13975 -0.01065 0.01030
-0.01421 -0.08226 0.13668
-0.10168 -0.01065 0.15006
-0.17842 0.37798 0.04726
0.15688 -0.15170 0.04241
-0.15707 0.38811 -0.03274
-0.15817 0.33156 0.07332
0.14410 -0.35156 -0.15209
-0.17286 -0.10577 0.15272
-0.16869 0.07152 -0.14816
0.09441 -0.01065 -0.14598
-0.15829 0.29438 -0.06899
-0.14580 -0.06434 -0.01111
-0.14580 -0.18198 -0.13758
-0.17940 0.37341 0.02584
-0.14580 -0.24685 -0.13345
-0.04038 -0.01065 0.01024
-0.17989 0.20570 -0.11813
-0.07079 -0.01065 -0.12177
0.04514 -0.17260 0.14194
-0.15541 0.08162 -0.07757
0.04487 -0.01065 0.13862
-0.17822 -0.06180 0.15272
-0.16182 0.36161 0.00696
-0.09118 -0.01491 -0.14405
0.14410 -0.41295 0.17688
0.16853 -0.20707 0.17839
-0.16949 0.13529 -0.07845
-0.09247 -0.14542 -0.13076
0.17059 -0.14273 0.05106
0.04038 -0.01065 0.01111
-0.16623 0.16976 0.00892
0.18244 -0.03310 -0.14893
0.13508 -0.17682 -0.15743
-0.15802 0.10066 -0.03936
-0.03471 -0.01491 0.01879
-0.10422 -0.01065 -0.07118
-0.02642 -0.14273 -0.14392
-0.17989 -0.07000 -0.10801
0.17818 -0.02200 0.04055
-0.05268 -0.04474 -0.13711
-0.09563 -0.04474 -0.07708
0.17818 -0.32422 0.17113
-0.15186 -0.00183 -0.05690
-0.17606 -0.18727 0.11864
0.08197 -0.04474 -0.13058
-0.16267 -0.31903 0.11864
0.15720 -0.21797 -0.14431
0.14959 -0.42820 0.14587
0.14410 -0.14244 -0.16786
0.03912 -0.04474 0.05438
-0.17296 0.14922 0.00623
0.14410 -0.05878 -0.04190
-0.06022 -0.01065 -0.09911
0.14890 -0.40523 -0.17839
-0.14580 -0.35554 -0.14011
-0.08575 -0.04474 -0.02304
-0.14806 0.16245 0.12255
0.16325 -0.01491 0.14854
-0.15880 -0.25165 -0.15396
-0.15401 0.09862 -0.11533
-0.17989 -0.30140 0.13161
-0.14794 0.15105 -0.13479
-0.14854 -0.12058 -0.11988
-0.16504 0.08647 -0.09170
-0.07428 -0.04474 0.01737
0.09262 -0.04474 0.06126
0.05415 -0.01079 -0.16993
0.06314 -0.04474 -0.16267
-0.17219 0.08310 -0.00631
-0.03616 -0.01065 0.06786
0.05414 -0.17682 -0.15067
0.16285 -0.41405 -0.14431
0.04537 -0.01491 -0.13822
0.18244 -0.03862 0.03349
-0.15679 0.40569 0.03770
-0.02688 -0.04474 0.09962
-0.15764 0.05371 -0.05122
-0.04881 -0.04474 0.10662
0.16054 -0.22656 0.14431
-0.11066 -0.04474 -0.05521
-0.17989 -0.12860 -0.13823
-0.10737 -0.04474 0.03990
0.06188 -0.01491 0.15653
0.02404 -0.01491 0.04199
-0.16718 -0.19204 -0.15396
-0.16841 0.05698 0.08052
-0.16085 0.34366 0.13334
-0.15710 0.22692 0.07373
-0.07794 -0.01065 0.03570
0.14410 -0.08195 0.06854
-0.05583 -0.01491 -0.00457
0.17519 -0.17682 0.09403
-0.14854 -0.04721 0.11864
-0.17066 -0.01065 -0.08303
-0.17461 0.37251 0.03945
-0.17095 0.22646 -0.07002
0.14410 -0.05533 -0.08202
-0.16194 0.15959 0.07011
-0.05192 -0.03854 0.16432
0.13725 -0.01491 -0.12990
-0.17983 0.41526 -0.00610
0.17818 -0.01622 0.17783
-0.17989 -0.07200 0.10085
-0.17433 0.23984 0.13852
-0.13767 -0.14273 0.13025
-0.12018 -0.01491 -0.07502
0.13038 -0.01065 0.08386
-0.06040 -0.01065 -0.01898
-0.17989 -0.05914 0.09683
-0.17591 -0.21879 0.11864
0.04997 -0.07562 0.16740
-0.04970 -0.01491 -0.07091
-0.15794 0.36597 -0.08039
-0.09545 -0.01065 0.05532
-0.12507 -0.01065 -0.00351
-0.15500 -0.00215 -0.07929
-0.17989 -0.18257 0.13289
0.04830 -0.04474 0.01597
-0.09694 -0.01065 0.06802
0.05172 -0.06197 0.14252
-0.15704 0.05287 0.04581
0.14410 -0.31081 0.14880
-0.16031 0.25792 0.02905
0.01070 -0.01491 0.00690
0.16423 -0.01065 0.02307
0.10777 -0.04474 -0.12314
-0.14938 0.28300 0.10930
-0.16754 0.21504 0.00892
0.16265 -0.01491 -0.08693
0.16832 -0.01491 0.03402
-0.16252 0.16357 -0.14357
-0.16653 0.03193 0.09652
-0.08222 -0.16029 -0.13163
-0.17214 0.28427 0.10819
0.14410 -0.12542 -0.17615
-0.16270 0.42394 -0.12398
0.08505 -0.01807 -0.17541
0.17511 -0.01491 0.13764
-0.14580 -0.07194 -0.14996
0.14414 -0.15375 -0.14431
-0.14580 -0.14755 -0.14201
-0.17235 0.20302 0.04638
-0.15387 0.42555 0.12473
-0.01147 -0.17171 0.13692
0.01424 -0.04474 0.15129
0.05255 -0.01491 0.03999
-0.03836 -0.08308 -0.14310
0.03049 -0.01065 0.11831
-0.13221 -0.16416 0.15137
-0.14580 -0.32973 -0.13040
0.05854 -0.01065 -0.02370
-0.16563 0.41209 -0.10538
0.12703 -0.05470 -0.17440
0.14908 -0.26717 0.14431
0.01008 -0.01065 -0.00262
-0.07623 -0.05943 0.13119
0.16529 -0.42820 0.15821
-0.17989 -0.05818 0.07052
-0.17989 0.12820 -0.13481
-0.15591 0.39458 -0.05441
-0.16568 0.35701 0.10589
0.02299 -0.04474 -0.03132
-0.17741 0.37281 -0.04173
0.16740 -0.04474 -0.07685
-0.07376 -0.06122 -0.13074
0.05428 -0.04474 -0.15459
0.03465 -0.16404 0.14101
-0.15696 0.41605 0.03452
0.03905 -0.04474 0.16332
-0.07177 -0.07948 -0.13092
0.17818 -0.31811 0.14657
-0.15938 0.19854 -0.03289
-0.15825 0.16053 -0.04785
-0.14609 -0.01810 0.11786
-0.17989 -0.39380 0.14680
0.17563 -0.15675 -0.02655
-0.14587 -0.03844 -0.14989
-0.04253 -0.04474 -0.11545
0.14989 -0.01491 -0.03337
-0.16985 -0.08913 -0.00239
0.13773 -0.01805 -0.17933
0.17818 -0.04413 -0.09887
0.13009 -0.01491 -0.07025
-0.08782 -0.01491 -0.08820
0.14410 -0.14378 0.15987
-0.15395 0.03559 0.08736
0.04625 -0.06856 -0.16759
0.14339 -0.04474 -0.09365
0.08927 -0.17512 -0.17122
-0.13344 -0.01065 0.12810
-0.15911 0.03193 -0.02064
-0.14580 -0.21165 0.14469
-0.12323 -0.03107 0.15875
0.15688 -0.14826 -0.13882
-0.17989 -0.41541 -0.13186
0.17818 -0.04859 0.06236
-0.03702 -0.01491 0.15988
-0.17102 0.02435 0.09519
-0.17266 0.18115 -0.03584
0.13508 -0.01491 -0.10907
0.17818 -0.06907 -0.10878
0.17818 -0.41381 0.16461
-0.02224 -0.01065 -0.11882
-0.15017 0.35576 -0.11241
-0.15882 -0.04474 -0.10017
-0.04717 -0.15006 -0.13458
-0.15681 0.23403 -0.07888
0.17818 -0.05016 0.02542
-0.15120 -0.42820 -0.14230
-0.04310 -0.04474 0.08964
-0.03942 -0.01491 0.13591
-0.00984 -0.01065 -0.15839
-0.09022 -0.04636 -0.12923
-0.16827 0.06456 -0.08395
-0.12816 -0.05961 -0.12575
0.15688 -0.15541 0.03197
-0.10348 -0.05099 0.15389
0.12131 -0.14835 -0.17392
0.02243 -0.14273 0.15347
-0.09786 -0.04474 0.01856
-0.15048 -0.01065 -0.05471
-0.17455 0.33193 0.03049
-0.17882 -0.23929 -0.11988
-0.17197 0.11757 0.03431
0.13218 -0.04474 -0.01322
0.17634 -0.01065 0.01160
0.14901 -0.01491 0.04006
-0.11252 -0.04474 -0.07688
-0.11930 -0.01491 0.13588
-0.17646 0.40188 -0.07434
0.17148 -0.19987 0.14431
-0.14700 0.06462 0.13207
-0.05269 -0.04474 0.00794
0.09648 -0.04474 0.08908
-0.15360 0.38569 0.08033
-0.09348 -0.01065 0.00284
0.13860 -0.17682 0.15237
-0.14580 -0.36336 0.15007
0.16672 -0.01065 -0.14738
0.11588 -0.08217 0.14820
-0.12622 -0.04474 -0.00513
-0.14580 -0.12935 0.12276
0.18025 -0.04420 0.15431
-0.01021 -0.01491 0.16134
-0.01312 -0.01686 -0.16810
-0.17070 0.32255 0.08361
0.16075 -0.01065 0.10250
-0.10461 -0.02423 0.16020
-0.00009 -0.01065 0.03036
0.17619 -0.25900 -0.14431
-0.16817 0.29799 0.08632
-0.15013 -0.01491 -0.00361
-0.17005 0.03186 -0.10574
0.15857 -0.38869 0.17839
-0.14580 -0.28821 -0.14907
-0.00252 -0.01491 -0.12032
0.18164 -0.01242 0.17648
-0.18244 -0.03102 -0.04337
0.03013 -0.01491 0.03053
0.17818 -0.05427 0.16111
-0.14580 -0.06290 -0.11026
0.13154 -0.14781 0.17472
-0.00084 -0.01491 0.08912
-0.07250 -0.01065 -0.14763
-0.17310 0.39238 -0.10479
-0.06560 -0.04474 -0.10523
-0.14580 -0.13150 0.14705
-0.14914 -0.20519 -0.15396
0.15019 -0.04474 0.09493
-0.08346 -0.04474 -0.11286
0.12642 -0.04474 -0.05512
0.08298 -0.01065 0.16353
-0.08501 -0.01065 -0.05287
0.15688 -0.14710 0.05095
0.15287 -0.30170 0.14431
-0.12627 -0.01065 -0.02755
-0.17263 0.20914 -0.04335
0.17818 -0.05524 0.05172
0.14831 -0.42820 -0.17480
-0.17989 0.28907 -0.13387
0.15035 -0.14427 -0.14431
0.04972 -0.01065 0.00010
-0.17716 -0.00592 0.11740
0.09920 -0.01065 0.01526
-0.17989 0.01221 -0.15077
-0.15677 0.15159 -0.09043
0.03946 -0.04697 -0.16702
0.04210 -0.01065 -0.03649
-0.15677 -0.21684 0.15272
-0.17989 -0.12231 -0.12650
-0.06525 -0.01491 0.12488
0.05289 -0.04474 0.12294
-0.02327 -0.04474 0.04695
0.12901 -0.01491 -0.15725
0.14410 -0.08164 0.04097
0.14410 -0.06180 -0.16194
-0.15710 0.26963 0.07830
-0.16118 0.13014 -0.07190
-0.00096 -0.04474 0.09509
-0.14650 -0.42820 -0.13325
0.10838 -0.01065 0.15304
-0.15942 0.18398 0.04879
-0.17989 -0.08261 0.07465
-0.14904 0.25153 0.12268
0.12922 -0.01065 0.04388
0.03713 -0.01065 0.14483
-0.03191 -0.05532 -0.13457
-0.01879 -0.01065 0.11134
-0.15097 -0.23424 0.11864
-0.14580 -0.27088 0.12091
-0.17351 0.23899 0.00889
-0.17236 0.09629 -0.00413
0.12051 -0.01491 0.04648
0.02501 -0.01065 -0.02725
0.17563 -0.15307 -0.02120
-0.17989 -0.25970 -0.12180
-0.03363 -0.17682 -0.14871
-0.01762 -0.01491 0.00676
0.15500 -0.01491 0.04112
-0.09827 -0.04474 -0.04395
0.12794 -0.01491 -0.04438
-0.16902 0.27769 -0.10965
-0.09765 -0.01491 0.15437
0.16636 -0.37699 0.17839
-0.11663 -0.01065 0.13778
-0.12515 -0.04474 -0.01612
-0.17961 0.22831 -0.14033
0.15409 -0.41018 0.14431
0.18169 -0.04288 0.13950
-0.14580 -0.38936 0.13847
0.05624 -0.15579 -0.16843
-0.14580 -0.07209 -0.00895
-0.08227 -0.01491 0.11551
0.15941 -0.22128 -0.17839
-0.14810 0.16586 0.13140
0.15182 -0.20158 0.14431
-0.17989 -0.18763 -0.12687
0.17195 -0.32040 -0.17839
0.16745 -0.16372 -0.17839
-0.07788 -0.04474 -0.11428
-0.10800 -0.04474 -0.03825
-0.03062 -0.01491 0.00787
-0.12407 -0.04474 -0.14813
-0.17989 -0.42786 0.14946
-0.14234 -0.06230 0.15047
0.17818 -0.08186 -0.00014
-0.15751 0.10268 -0.04983
0.00188 -0.14273 -0.15056
-0.16673 0.07051 -0.01012
-0.00818 -0.01491 0.04963
-0.14580 -0.06205 0.14527
0.14505 -0.08308 -0.06157
0.16028 -0.08308 -0.13975
-0.18244 -0.02462 -0.07935
-0.16987 -0.01491 0.02822
-0.17989 -0.07260 0.12387
-0.17989 -0.33676 -0.14739
-0.14580 -0.33216 0.13003
-0.17218 -0.01065 -0.07898
0.09862 -0.01491 0.00457
-0.17376 0.17925 0.11153
-0.16972 0.00297 0.10756
0.17818 -0.26622 0.16151
-0.17989 -0.13993 -0.13359
0.02448 -0.01065 -0.14826
0.11840 -0.01065 0.17268
0.13340 -0.04474 -0.00155
-0.15202 -0.36728 0.11864
0.10658 -0.01065 -0.06642
-0.15772 0.14998 0.14300
0.17563 -0.16707 0.10001
-0.14657 0.02526 0.13423
-0.14650 -0.37998 -0.15396
-0.18244 -0.02488 0.00652
0.06738 -0.01491 -0.05339
0.17818 -0.33542 0.17098
-0.17407 0.34988 0.00890
-0.15672 -0.04474 0.10824
-0.17989 0.41937 -0.12917
-0.14580 -0.30161 -0.13069
-0.15165 -0.00216 -0.10607
-0.16955 0.16266 0.14237
0.11096 -0.01220 -0.17635
-0.17223 0.34844 0.07033
0.15187 -0.11557 0.14431
0.18244 -0.03706 -0.12561
-0.14580 -0.06720 -0.01534
0.14410 -0.31985 -0.15635
-0.17989 -0.09500 0.12826
-0.11886 -0.14743 0.15255
-0.17187 0.18278 0.02981
0.09597 -0.01491 0.09578
-0.16335 -0.42607 -0.15396
0.06809 -0.04474 0.06194
-0.10578 -0.17682 -0.14955
-0.12989 -0.04474 0.07014
-0.15471 0.03215 0.07918
-0.04347 -0.01065 0.00247
0.15798 -0.31733 0.17839
0.17422 -0.08308 0.06401
-0.17906 0.38741 0.03563
0.17212 -0.01065 0.17713
-0.15773 0.09206 -0.04350
-0.12506 -0.17682 0.13853
0.13832 -0.01065 -0.03102
-0.15887 0.03195 -0.07382
-0.16846 0.25679 0.13767
0.00566 -0.04474 -0.02295
-0.16492 0.02950 0.11628
0.01634 -0.04474 -0.01748
-0.14697 0.06210 -0.13679
0.14464 -0.01065 0.10289
-0.14591 -0.03474 -0.13289
-0.17016 0.42394 -0.07524
-0.15032 0.36893 0.10977
-0.16585 -0.30832 -0.15396
-0.17307 0.40370 0.10400
-0.15140 -0.00099 -0.06435
0.15111 -0.02349 -0.18032
0.17563 -0.14579 -0.11176
-0.15815 0.09872 0.03315
-0.17989 -0.38225 -0.13201
-0.16476 -0.39363 0.15272
-0.06057 -0.14430 0.15771
-0.14708 0.07211 -0.11973
0.17165 -0.08308 -0.11382
0.17818 -0.16967 0.15451
-0.11313 -0.01065 0.07045
0.12820 -0.01065 0.14102
-0.04281 -0.01491 -0.08025
-0.14580 -0.21211 -0.14640
0.08189 -0.04474 -0.14492
-0.18244 -0.02855 -0.06992
-0.12439 -0.01065 0.10740
0.16367 -0.20107 0.14431
0.15360 -0.14778 0.14431
-0.14690 0.05617 0.13608
0.02277 -0.04474 0.02391
0.01555 -0.02580 -0.17023
-0.15389 0.07382 -0.14805
0.01133 -0.01491 -0.15884
0.18244 -0.02709 -0.04940
0.14517 -0.08308 -0.10847
-0.03612 -0.04474 0.09889
-0.17989 0.01908 -0.12347
-0.16791 0.03193 0.10211
-0.15957 0.22039 0.03219
0.17818 -0.04484 -0.16098
-0.17346 0.25316 0.03527
-0.10263 -0.05448 -0.12809
0.16765 -0.04474 0.14875
0.11826 -0.01065 -0.12254
-0.08291 -0.17682 0.13996
0.09624 -0.04474 -0.00675
-0.17730 0.42394 0.06125
-0.14580 -0.06487 -0.06938
0.09380 -0.04474 0.06655
-0.16840 0.09582 0.08446
0.18145 -0.04320 -0.16697
-0.04794 -0.08308 -0.14353
-0.15344 -0.22821 -0.11988
-0.06539 -0.04474 0.01551
-0.05126 -0.01065 0.00768
-0.15562 0.03193 -0.04167
0.16255 -0.37026 0.17839
-0.15089 0.42163 -0.12841
0.12876 -0.01065 0.03531
-0.17804 0.38599 0.10497
-0.16475 0.18918 0.06957
0.17818 -0.42065 -0.16695
-0.17989 0.14799 0.12613
0.11831 -0.01491 -0.09384
-0.17989 -0.05074 0.08116
0.08458 -0.04474 -0.03689
-0.01374 -0.01065 -0.11044
-0.16912 0.22505 -0.03058
0.17009 -0.04474 -0.04436
-0.12874 -0.01491 -0.13530
-0.10285 -0.04474 -0.08645
-0.06780 -0.08308 0.14635
-0.12198 -0.01223 -0.15904
-0.17954 0.42185 0.02161
0.15339 -0.01065 -0.00422
0.07202 -0.01065 0.06930
-0.15072 0.40644 0.12302
-0.15759 0.37722 0.01246
0.14410 -0.35005 0.14979
-0.13448 -0.01065 0.12210
0.05411 -0.01491 -0.05768
0.16958 -0.01065 -0.17305
-0.16253 0.30717 0.00891
-0.09767 -0.04530 0.12929
0.15688 -0.39786 0.14431
0.01471 -0.14273 0.16016
-0.17243 0.01328 -0.08037
-0.17989 -0.08992 0.14510
0.17311 -0.28561 0.14431
-0.16393 0.27697 -0.10967
0.04962 -0.04543 -0.16787
-0.10272 -0.08308 -0.12953
-0.05413 -0.04474 0.11539
-0.15053 0.38882 -0.11374
-0.03109 -0.04474 0.13812
0.09735 -0.01491 0.04730
-0.03707 -0.04474 0.07307
-0.15702 0.42064 0.10376
0.14410 -0.07260 -0.00219
0.17818 -0.37729 -0.17772
-0.17989 -0.05588 -0.11773
-0.18244 -0.03836 0.07098
0.07269 -0.14273 0.14836
0.10915 -0.14273 0.15546
-0.05911 -0.01491 -0.12822
0.17563 -0.15665 -0.06138
0.06937 -0.04647 -0.16954
0.14410 -0.04531 -0.13265
-0.16970 0.12413 -0.05057
-0.15871 0.42394 -0.11478
0.14983 -0.05124 0.17839
-0.15304 -0.35533 -0.11988
0.07703 -0.01491 -0.11005
0.09269 -0.04474 -0.11866
-0.17989 0.23260 0.11691
-0.14580 -0.08703 0.09626
-0.16426 0.01620 0.11670
-0.14694 0.05973 -0.14274
0.03336 -0.01065 -0.07950
0.11270 -0.01065 0.01621
-0.17060 -0.06916 0.15272
0.01882 -0.01065 -0.02180
0.15811 -0.14273 0.08084
-0.16575 0.18410 0.11137
-0.16197 0.18240 0.06967
-0.15335 0.02907 -0.01123
0.10107 -0.05522 0.14689
-0.03731 -0.01065 0.03988
-0.16785 0.09250 -0.09081
-0.17559 0.03034 -0.00307
-0.17345 0.29434 -0.04606
0.17313 -0.01491 -0.06984
-0.16032 0.18379 -0.07085
0.17818 -0.34404 0.17056
0.18050 -0.01491 0.12757
-0.17504 -0.09022 -0.11988
-0.17989 -0.18694 0.14108
0.17818 -0.25420 -0.17663
0.02891 -0.01065 -0.11787
-0.17054 0.38283 0.10507
-0.02914 -0.01065 0.13920
-0.16990 0.25313 0.08482
-0.16276 -0.35663 -0.15396
-0.17981 -0.01004 -0.11878
-0.17506 0.15190 0.11240
0.05403 -0.01491 0.11625
-0.00533 -0.06700 0.16253
0.18237 -0.01491 -0.07529
0.14240 -0.01065 0.06063
-0.17883 -0.01070 -0.09408
0.17818 -0.05015 0.11193
-0.02426 -0.04474 0.07168
-0.07565 -0.01799 0.16247
-0.16942 0.12040 -0.07751
-0.17989 0.21924 0.12610
-0.14446 -0.08308 0.14534
0.02300 -0.01491 -0.06490
-0.17989 0.27143 -0.12325
-0.17987 0.40527 0.00086
-0.15272 0.29722 0.13565
0.01446 -0.04474 0.01743
-0.12443 -0.14273 0.13141
-0.15518 0.13244 -0.08529
-0.14791 0.14875 -0.12067
-0.17730 0.41403 -0.06452
0.17818 -0.25901 0.15436
-0.16055 0.18949 0.14103
0.03601 -0.06863 0.16617
-0.15742 0.39577 0.02053
-0.11053 -0.01491 -0.02112
0.10941 -0.06102 -0.17291
-0.14580 -0.02994 0.12714
-0.17019 0.35858 0.10584
-0.15946 0.14906 -0.07153
0.17818 -0.10687 0.16137
0.11571 -0.04474 -0.00125
-0.16877 0.26862 -0.13832
0.03839 -0.07297 0.16638
0.17818 -0.07675 -0.07195
-0.10361 -0.07306 -0.12800
0.14549 -0.01491 0.02609
-0.14888 0.23762 -0.12801
0.07726 -0.04474 0.14929
0.12294 -0.04474 0.01873
0.11334 -0.15667 0.14797
-0.09868 -0.08182 -0.15538
-0.17989 -0.04847 -0.12835
0.06789 -0.08195 -0.16941
-0.01203 -0.01491 0.11914
-0.05695 -0.04474 0.09476
0.13279 -0.05271 -0.17488
0.18244 -0.01679 -0.12381
0.17563 -0.15551 0.06438
-0.12431 -0.04474 0.02276
0.14410 -0.11497 0.15009
-0.16031 0.29629 0.03516
0.11589 -0.03387 -0.17770
-0.16473 0.36820 -0.01014
-0.15882 0.19582 0.06936
-0.14612 -0.01589 0.14414
-0.05113 -0.01491 -0.14843
-0.15638 0.04485 -0.14949
-0.16416 0.34927 0.08532
-0.17989 -0.07011 -0.10204
-0.17372 0.21476 -0.00859
-0.15743 0.04226 -0.03793
0.00767 -0.06170 -0.16434
0.12397 -0.16553 0.17405
0.16881 -0.01491 -0.14572
0.18244 -0.01629 0.06091
0.17818 -0.22058 -0.14747
0.17563 -0.16915 -0.10611
-0.17922 0.39118 -0.03261
0.16236 -0.13993 -0.14431
0.06226 -0.08308 0.15613
-0.17308 0.03388 0.14880
0.07107 -0.04474 -0.07841
-0.18244 -0.02408 0.10572
-0.17989 -0.06958 -0.08475
-0.01233 -0.06773 0.13684
0.14410 -0.07019 -0.13258
-0.02239 -0.05720 0.13595
0.17818 -0.21830 -0.16397
-0.15773 0.12510 0.04807
0.14033 -0.04474 -0.17442
-0.10967 -0.01491 -0.08430
-0.17119 -0.03853 0.11844
0.17818 -0.35556 -0.14711
-0.15563 0.27490 0.13677
-0.15521 0.38410 0.06240
0.14427 -0.42820 -0.17697
-0.02481 -0.01065 0.10404
-0.15291 0.02309 -0.03239
0.05986 -0.04474 0.08934
0.16258 -0.04474 0.15995
-0.17667 0.37281 0.00649
-0.08337 -0.01065 -0.07981
0.07515 -0.04474 0.10328
-0.15344 -0.01491 -0.05214
-0.17474 -0.41831 -0.15396
0.18244 -0.03793 -0.08707
-0.11715 -0.14316 0.15270
0.02578 -0.04474 -0.13001
-0.17111 0.42394 -0.06615
-0.17445 0.32777 -0.01014
-0.08556 -0.17682 0.13184
-0.04180 -0.01491 -0.14120
-0.04102 -0.01491 0.00333
0.08818 -0.01065 -0.16643
-0.00470 -0.01065 -0.04983
0.04164 -0.01491 0.06379
-0.04391 -0.14556 0.15919
-0.16435 -0.08509 -0.11988
-0.03429 -0.04474 -0.15302
-0.14908 0.25592 -0.13730
-0.07721 -0.01491 -0.05841
0.01893 -0.01065 -0.03573
0.12784 -0.01065 0.12826
-0.08794 -0.14273 -0.15076
-0.00815 -0.01065 -0.07866
-0.15616 -0.05538 0.11864
-0.15379 0.22388 -0.14056
0.17256 -0.04474 -0.06878
0.17818 -0.19483 0.16151
0.17318 -0.01065 0.02010
0.15852 -0.05410 -0.17839
0.06876 -0.04474 0.00309
-0.06324 -0.01065 -0.03744
-0.17891 0.39664 0.03831
-0.17989 -0.10029 -0.12166
-0.17989 0.35117 0.10705
0.16483 -0.17682 0.00737
-0.15875 -0.38338 -0.15396
0.15688 -0.17254 -0.09151
-0.14719 0.01412 -0.11227
-0.15953 0.37281 0.05500
0.03215 -0.01491 0.17053
-0.05116 -0.01491 0.06398
-0.17465 0.00272 -0.04389
-0.12086 -0.01491 0.09662
-0.02525 -0.17402 0.16084
-0.17767 -0.08913 0.01391
-0.02243 -0.01065 0.13303
0.14410 -0.42715 0.17237
-0.17157 0.03193 0.04568
-0.08551 -0.03442 -0.16271
-0.01283 -0.01065 0.10228
-0.10612 -0.08308 -0.14803
-0.18041 -0.01491 -0.07559
-0.14746 0.10723 0.13880
0.07745 -0.15581 0.14480
-0.14904 0.25146 0.10944
-0.15553 0.17471 -0.08588
0.17563 -0.15282 -0.10357
-0.10283 -0.01491 0.08232
-0.17989 0.24059 -0.11622
0.15613 -0.04462 0.17732
-0.08688 -0.16282 -0.13123
-0.17400 0.35006 0.04628
-0.17989 -0.18583 0.14931
-0.14600 -0.42066 0.15272
0.11559 -0.01491 -0.00127
0.17699 -0.27143 0.17839
0.17818 -0.03085 -0.09850
-0.02261 -0.01491 -0.15335
0.16516 -0.01065 0.05337
0.02480 -0.17682 0.14869
-0.17231 0.19614 0.02968
-0.12338 -0.05670 0.15214
-0.00604 -0.01536 0.16791
-0.14472 -0.04460 0.15387
-0.17564 -0.42820 -0.14783
-0.14668 0.03524 0.13075
0.10013 -0.07986 -0.17213
0.16337 -0.01491 0.17284
-0.11637 -0.14273 -0.12904
-0.17989 0.12644 -0.14119
-0.16032 0.17137 0.04891
-0.17989 0.00834 0.14372
-0.09894 -0.04474 -0.11280
-0.16941 0.26775 0.10872
0.11879 -0.01491 -0.14916
0.17274 -0.08308 -0.06084
0.14410 -0.17121 -0.16375
-0.17989 -0.34750 -0.13733
0.12547 -0.01491 0.08854
0.15102 -0.08308 -0.00232
-0.13352 -0.04474 0.00638
-0.07275 -0.04474 -0.12260
0.07867 -0.01491 -0.08951
0.16787 -0.26956 -0.17839
-0.14932 0.12463 0.14427
0.17818 -0.06718 0.13633
0.14814 -0.17202 -0.14431
-0.17367 0.30342 0.04259
-0.08537 -0.01065 0.13693
0.06037 -0.04474 -0.00594
0.17818 -0.02176 -0.03327
0.11166 -0.01065 0.00732
-0.17989 -0.08347 -0.07045
0.02812 -0.01491 -0.14419
-0.15781 0.09198 0.03954
-0.17434 0.33394 0.03620
-0.17520 0.39511 -0.08723
0.06688 -0.04474 -0.07561
0.03701 -0.04474 -0.04546
0.02657 -0.04861 -0.13993
-0.16197 0.10990 -0.05069
0.10023 -0.08308 -0.14735
0.14410 -0.09375 0.14486
0.11784 -0.08308 -0.15786
-0.17606 -0.04474 -0.01820
-0.16922 0.04720 0.00889
-0.10529 -0.04474 0.09802
-0.17769 -0.07372 0.15272
0.11230 -0.15130 -0.17316
-0.17089 0.22961 -0.07324
-0.16323 -0.33326 -0.11988
0.17818 -0.06189 -0.00680
0.14410 -0.05381 0.10940
-0.07809 -0.04474 0.13527
0.08897 -0.17682 0.15443
0.12448 -0.04474 -0.04853
-0.15703 0.35373 0.13283
-0.01358 -0.04474 0.11200
-0.15974 0.18525 0.00843
-0.09478 -0.15258 -0.13057
-0.16887 0.12059 -0.08348
-0.14580 -0.35614 0.13270
-0.15120 -0.37102 -0.11988
-0.14805 0.16142 0.13315
-0.14580 -0.06910 -0.12487
-0.17989 0.19815 -0.11939
-0.07029 -0.01491 0.09564
-0.14580 -0.10887 -0.13325
-0.17989 0.15549 -0.12751
-0.16424 0.28485 -0.03000
-0.01432 -0.01065 0.00002
0.13331 -0.01491 0.09948
-0.14580 -0.04541 0.05868
-0.17703 0.09534 -0.14697
0.14410 -0.05229 -0.01159
0.07937 -0.01491 0.08283
-0.15267 0.42394 0.10419
0.16550 -0.21554 -0.17839
-0.09528 -0.08308 -0.13436
0.17818 -0.25563 0.16385
-0.08915 -0.17682 -0.14130
-0.16047 0.24768 -0.00940
0.17442 -0.17682 0.12046
-0.17358 -0.40589 -0.11988
-0.16097 -0.01491 -0.03996
0.04470 -0.01065 0.06163
0.17818 -0.41148 -0.16383
-0.15182 -0.08913 0.02316
0.17818 -0.10869 -0.14823
0.10539 -0.04474 -0.11034
-0.03399 -0.04474 -0.06901
-0.17184 0.34169 0.02823
0.07352 -0.01491 0.09171
-0.17989 0.11621 -0.13516
0.13013 -0.03894 -0.17876
0.14627 -0.04017 0.17983
-0.12865 -0.04474 0.15311
-0.07465 -0.01491 0.02590
0.14526 -0.01491 -0.15309
0.17090 -0.40210 -0.14431
0.09500 -0.04474 -0.07183
0.12469 -0.16498 0.14898
0.15688 -0.17092 0.01088
-0.14204 -0.01068 -0.12560
0.12448 -0.01065 -0.15181
-0.15724 -0.26973 -0.11988
-0.04550 -0.01491 0.05073
-0.03175 -0.04474 0.13054
-0.06982 -0.01065 -0.03580
0.17553 -0.18329 0.17839
-0.17366 -0.01065 -0.11457
-0.16859 0.42394 0.03724
0.07870 -0.04474 0.03194
0.14410 -0.32765 -0.14629
-0.17487 0.02211 -0.03905
-0.15904 -0.24619 0.15272
-0.15830 0.05902 0.00078
0.14410 -0.06744 -0.04970
-0.17989 0.22761 0.11917
-0.13442 -0.04474 0.06580
-0.17989 -0.28464 0.14748
0.16797 -0.17682 -0.08282
-0.17989 0.00083 0.12651
0.14410 -0.06463 -0.02044
0.16287 -0.17682 0.13319
-0.14716 0.08011 0.13342
-0.15526 -0.01065 -0.10801
0.16639 -0.38812 -0.14431
-0.11682 -0.14273 -0.15341
-0.00790 -0.04474 0.10949
-0.16061 -0.10186 -0.15396
0.14657 -0.10815 0.14431
-0.15780 0.06642 0.03262
-0.05465 -0.04474 0.10183
-0.05122 -0.05232 0.15849
0.07643 -0.01491 0.00199
-0.16647 0.11768 -0.09109
0.07893 -0.08308 0.15903
0.06575 -0.03905 -0.17397
0.16182 -0.01491 -0.09960
0.14411 -0.38173 0.14431
-0.06512 -0.01065 0.01527
-0.15643 0.24803 0.08294
0.17818 -0.02034 0.17318
0.04927 -0.06498 -0.16784
0.00970 -0.01065 -0.12422
0.09195 -0.01491 0.01735
-0.04664 -0.06934 0.13381
0.17818 -0.05643 0.13174
-0.14580 -0.06452 0.01974
0.09978 -0.04474 -0.03380
-0.13235 -0.04474 0.09087
0.18244 -0.03860 0.16333
-0.18039 -0.01491 0.05350
-0.15406 -0.40857 -0.11988
-0.16648 0.35822 0.04708
0.05699 -0.01491 -0.09171
-0.15340 0.13780 -0.11409
-0.17989 -0.06147 -0.08279
0.04896 -0.04474 0.15551
0.14410 -0.29035 -0.14725
-0.15045 0.31414 0.10725
-0.16815 0.12360 0.08965
0.06208 -0.01491 -0.01083
0.14410 -0.10668 -0.17811
0.16475 -0.35224 -0.17839
-0.01205 -0.01065 0.15003
-0.17197 0.16932 -0.04743
-0.15768 0.07936 -0.04179
0.17818 -0.04444 -0.02411
0.00909 -0.01491 0.14671
-0.15056 0.11923 -0.14578
-0.16943 0.41586 0.12973
-0.09080 -0.01065 0.00944
-0.17505 -0.36749 0.11864
0.15688 -0.14932 0.11791
0.14410 -0.20372 -0.17728
0.14998 -0.04474 -0.10383
-0.15342 0.01409 -0.00455
0.05940 -0.06085 -0.14294
-0.14580 -0.28506 -0.15354
-0.14937 0.02080 -0.15069
0.07404 -0.17682 0.16651
0.14410 -0.14992 0.16073
-0.17219 0.00885 0.08180
0.17818 -0.32249 -0.15188
-0.12147 -0.03558 0.15888
0.06146 -0.01065 -0.04935
0.11984 -0.01065 -0.05134
-0.17654 -0.33814 0.15272
-0.17989 -0.22981 0.14773
-0.01564 -0.01491 -0.08300
-0.00307 -0.04474 -0.08576
-0.17078 0.06582 0.04695
0.08239 -0.01065 -0.03676
-0.16895 0.16774 -0.08724
0.00399 -0.06800 -0.16403
0.15688 -0.16036 -0.10348
0.15688 -0.14926 -0.09386
-0.17229 0.32930 -0.06874
-0.17113 0.03840 -0.03365
-0.15623 0.20878 -0.08219
-0.02274 -0.06917 -0.13541
-0.17083 0.02672 -0.11761
-0.17989 -0.18091 0.14351
-0.08318 -0.14575 0.15571
-0.17989 -0.21085 0.13238
0.10398 -0.01491 -0.17560
0.05750 -0.04474 -0.07617
-0.15194 -0.01091 -0.11597
0.02555 -0.01065 0.12691
0.15688 -0.16366 -0.00716
0.15392 -0.01065 -0.07322
-0.17989 -0.01886 0.14192
-0.17989 -0.16742 -0.13048
0.02057 -0.04474 0.14901
0.08300 -0.03595 0.17488
-0.14580 -0.08137 -0.05862
0.14410 -0.06141 -0.00012
-0.17050 0.24658 0.07827
0.16096 -0.04474 0.05650
-0.17979 0.37744 0.00861
-0.16932 0.03193 0.03712
-0.14580 -0.05639 -0.04745
0.07478 -0.01065 -0.00826
0.13077 -0.01491 0.12486
-0.17978 -0.08913 -0.11102
-0.14994 0.33411 0.11815
0.08336 -0.16940 0.17046
-0.14580 -0.18072 0.14772
-0.10124 -0.04474 -0.05440
-0.14580 -0.37106 0.12090
-0.12127 -0.01065 0.05224
0.17000 -0.29994 0.14431
-0.08993 -0.01491 -0.05296
0.12242 -0.04474 -0.09473
-0.16767 -0.34518 -0.15396
0.14762 -0.34617 -0.17839
-0.13712 -0.04474 -0.05132
0.17818 -0.40877 -0.15630
-0.17989 -0.08645 0.13053
-0.12190 -0.01065 -0.13353
-0.04668 -0.01065 -0.13472
-0.00315 -0.05605 0.13766
0.03167 -0.01065 -0.16342
-0.15546 -0.04474 0.13181
-0.01206 -0.16400 -0.13754
-0.01523 -0.01065 0.09564
-0.03361 -0.04474 0.10689
-0.17274 0.29383 0.02871
0.00281 -0.04474 0.11615
0.17818 -0.26806 0.17193
-0.16904 0.42394 -0.00918
0.15646 -0.01065 0.16615
-0.16881 0.24804 -0.03036
0.15323 -0.27911 -0.14431
-0.17989 0.32448 0.12920
-0.00076 -0.01491 -0.11395
0.15880 -0.33978 0.17839
-0.16529 0.13926 0.04923
-0.14016 -0.04474 0.12110
0.12034 -0.04474 -0.06033
-0.16935 0.03698 0.14864
-0.16294 -0.01960 0.15147
-0.17395 0.01834 -0.05828
-0.06291 -0.06273 -0.13173
-0.15132 0.01233 -0.06540
0.02368 -0.04474 -0.09446
-0.06648 -0.01065 -0.12202
-0.17483 0.30681 0.00249
-0.15903 0.16665 -0.03274
-0.17476 0.37281 0.08516
-0.17989 0.17705 0.12993
0.17818 -0.32508 0.15334
-0.00886 -0.03713 0.16769
-0.16278 0.10658 0.14517
-0.08579 -0.01491 -0.07212
-0.14580 -0.05703 -0.03626
-0.14580 -0.11534 0.14501
0.13124 -0.15350 0.14956
0.14809 -0.01491 -0.17820
-0.17989 0.35409 -0.12322
-0.17989 -0.04457 -0.12499
-0.00862 -0.01491 0.03734
-0.15396 -0.29776 -0.15396
0.14410 -0.28152 -0.17189
-0.05844 -0.14687 0.13276
-0.18244 -0.04070 0.02389
-0.17420 0.29656 -0.03049
-0.17920 -0.10453 -0.11988
-0.17040 0.31627 -0.01014
-0.17422 0.10717 -0.11506
-0.16924 0.15337 0.14283
0.17818 -0.01498 -0.12665
-0.01566 -0.01491 0.13160
-0.17989 0.30077 -0.13460
-0.17178 0.04703 0.00348
0.16339 -0.01065 0.03377
-0.11071 -0.05248 -0.15436
-0.14658 -0.08540 -0.11988
-0.16877 0.30114 -0.02985
-0.17202 -0.00215 0.02699
-0.15147 -0.01732 -0.15259
-0.12873 -0.08308 -0.13136
0.05658 -0.01065 -0.11479
0.15688 -0.16870 -0.00123
-0.16891 -0.32527 0.11864
-0.13989 -0.14273 0.14628
-0.15769 -0.08913 0.05169
-0.15785 0.33486 -0.10783
-0.01238 -0.01065 -0.09969
-0.09990 -0.01491 -0.11564
-0.14580 -0.08527 -0.14136
-0.17578 -0.04474 0.05241
-0.15682 0.02451 -0.11768
0.18244 -0.03068 0.05939
0.14262 -0.01491 -0.11531
0.15688 -0.16954 0.14259
0.00623 -0.16867 -0.13908
-0.15476 0.30821 -0.13635
-0.14414 -0.05463 -0.15155
0.01115 -0.01065 -0.07453
0.15159 -0.24058 -0.17839
0.01288 -0.05722 0.16414
-0.14951 0.05976 -0.14875
0.17818 -0.06304 -0.13432
-0.17989 -0.00910 0.11884
0.03392 -0.17682 -0.16370
-0.14579 -0.01469 0.12741
-0.16890 0.39464 -0.10501
-0.14710 0.07423 0.14392
0.10172 -0.01065 -0.05611
-0.15215 0.38691 -0.09473
-0.06492 -0.01065 -0.02171
-0.17411 0.24795 -0.00986
0.01487 -0.01065 -0.12229
-0.15031 -0.08913 0.00817
0.18244 -0.03024 -0.09094
-0.15984 -0.01065 0.03452
-0.07135 -0.01491 0.09028
0.15675 -0.27786 0.17839
0.16578 -0.15837 -0.17839
-0.14302 -0.01065 -0.10257
-0.16322 0.35084 -0.04839
0.07881 -0.04474 -0.06460
-0.17885 0.42068 -0.04061
-0.16063 0.29330 -0.08766
-0.17989 -0.39525 -0.15180
0.07989 -0.17070 -0.17043
0.07416 -0.03541 -0.17460
0.17818 -0.17154 0.14783
0.05867 -0.01065 0.07442
-0.17989 -0.26634 0.13480
-0.16524 -0.17406 -0.11988
-0.14580 -0.05677 -0.11686
-0.12734 -0.05891 0.12666
-0.13075 -0.01491 -0.14552
0.04733 -0.01065 0.10135
-0.15107 0.37762 -0.10368
0.03864 -0.04474 -0.02627
0.14410 -0.31665 0.14880
0.15688 -0.15787 0.04838
-0.09230 -0.05829 0.12976
-0.17343 -0.09998 -0.15396
-0.12359 -0.01491 0.02443
0.15041 -0.37866 -0.14431
-0.06561 -0.01087 0.16030
-0.15064 0.39892 -0.13110
-0.10970 -0.04474 -0.13942
-0.17989 -0.22356 -0.14997
-0.03407 -0.01065 -0.07202
0.07826 -0.01065 -0.09439
-0.14743 0.10392 -0.13048
-0.08160 -0.15293 -0.13168
-0.17014 0.03860 -0.11723
0.17563 -0.16175 -0.00267
-0.17989 0.24602 -0.12190
-0.14580 -0.16352 0.12778
0.09892 -0.01491 -0.10527
0.17818 -0.04605 0.12406
-0.17543 0.02345 -0.01931
-0.16535 0.08693 -0.05092
-0.17345 -0.04474 -0.01417
-0.16161 0.24231 0.06849
-0.17172 0.36032 -0.10702
-0.07121 -0.04474 0.10258
-0.15152 0.02320 0.14933
0.14207 -0.01491 -0.10592
-0.17989 -0.42655 0.13824
0.00811 -0.08308 0.16030
-0.13240 -0.07636 -0.12537
0.15387 -0.01491 0.06932
-0.17399 0.23458 -0.00395
-0.02479 -0.01065 0.10963
-0.17913 0.37301 -0.03560
0.06995 -0.08308 0.14861
-0.11010 -0.01065 0.00066
-0.01660 -0.01065 -0.02114
-0.15117 0.40644 0.10166
-0.17077 -0.04474 0.11050
0.14207 -0.14273 0.16605
0.11245 -0.08308 0.15598
-0.17989 -0.17205 -0.14124
0.13469 -0.06891 0.17486
0.02150 -0.04474 -0.04784
-0.16503 -0.30001 0.15272
0.11136 -0.05332 0.17281
0.17793 -0.24941 -0.14431
-0.17099 0.07669 0.14666
-0.17204 0.35306 0.10601
-0.16034 -0.15267 -0.11988
0.01780 -0.04474 0.12316
0.17818 -0.36064 -0.15887
-0.18002 -0.04474 -0.01159
-0.17380 0.03193 -0.03611
0.09512 -0.05760 -0.17171
0.10307 -0.01491 0.10393
-0.17850 0.03464 -0.11736
-0.17704 0.40162 0.06670
0.07510 -0.01065 -0.03206
-0.00251 -0.01491 0.00280
0.17546 -0.16122 -0.17839
-0.04203 -0.15421 0.13422
0.17818 -0.05018 -0.13207
0.14889 -0.01491 -0.00577
0.00017 -0.01491 0.16602
-0.17029 -0.08913 0.08578
0.04452 -0.14273 -0.15724
-0.16845 0.03193 0.08192
-0.08199 -0.01065 -0.15476
0.01230 -0.04474 -0.08160
0.07262 -0.01491 -0.08294
0.02582 -0.17471 0.16536
-0.06867 -0.04474 0.07447
-0.08482 -0.01065 -0.08561
-0.17177 -0.29839 -0.15396
0.14410 -0.06816 0.03874
0.03527 -0.04474 -0.00477
-0.17989 -0.07615 0.11140
0.01222 -0.01065 -0.14053
0.18244 -0.03410 0.03843
-0.08966 -0.04474 0.00141
0.03728 -0.01065 0.14023
-0.14580 -0.14515 0.15049
-0.17989 0.31879 -0.12818
-0.16803 0.06476 0.08510
0.17696 -0.16546 0.14431
0.17225 -0.25229 -0.17839
-0.14580 -0.08457 -0.09369
-0.15270 -0.00215 0.07131
-0.14998 -0.41105 0.11864
0.18216 -0.01341 -0.09041
0.15977 -0.14273 0.14178
-0.17489 0.08223 0.11461
-0.17436 0.32254 -0.03369
0.11941 -0.01065 -0.14318
0.14574 -0.34174 0.17839
-0.16615 -0.04695 -0.15396
0.12705 -0.01937 0.17832
0.15726 -0.04474 -0.03703
-0.17797 0.05336 0.11552
-0.15558 0.08734 -0.07630
0.10380 -0.01491 -0.05913
-0.15222 -0.19858 -0.11988
-0.14632 0.00212 0.12172
-0.14886 0.03193 -0.11156
-0.16481 -0.01065 0.01744
-0.14580 -0.24341 0.13010
-0.06723 -0.07095 0.15708
0.13468 -0.01065 -0.14409
-0.09684 -0.01065 0.08410
0.05615 -0.01065 0.10954
-0.12571 -0.04474 0.06885
0.17714 -0.04474 0.04348
0.01480 -0.01491 -0.11984
0.17579 -0.42820 -0.14451
-0.14580 -0.12355 -0.14846
-0.14955 -0.04474 0.11454
0.14410 -0.30106 0.14436
-0.06405 -0.01491 0.13213
0.12070 -0.06907 -0.14855
-0.06055 -0.03560 -0.16457
-0.01448 -0.01065 0.05299
0.06678 -0.16474 -0.16932
0.09866 -0.04474 -0.16932
0.14583 -0.04614 0.17839
-0.16123 0.30945 0.00246
-0.15848 0.32382 -0.07015
0.02356 -0.15102 0.14002
-0.16200 -0.01065 -0.11427
0.14012 -0.01491 0.03881
-0.15173 -0.00148 -0.11744
-0.07590 -0.01065 0.06665
-0.16113 0.35163 0.03075
0.14410 -0.30819 -0.17692
0.17818 -0.03489 0.08278
0.03586 -0.04474 -0.09174
0.17818 -0.02599 -0.10947
0.02267 -0.01491 -0.05341
0.12723 -0.17682 -0.16779
-0.15866 0.09390 -0.00925
-0.15698 0.18070 -0.07100
-0.16021 0.22581 0.00869
0.17563 -0.14412 0.02156
-0.14738 0.06513 0.14724
-0.14580 -0.06488 0.12715
0.17819 -0.04149 -0.17352
0.16493 -0.01065 0.07657
-0.10972 -0.01360 0.15959
-0.16692 0.42394 0.01335
0.08610 -0.04470 -0.17180
0.03160 -0.01065 0.13987
0.01371 -0.01491 0.16192
0.06484 -0.01491 0.11341
0.13480 -0.17682 -0.16786
-0.05795 -0.01491 -0.06075
-0.10422 -0.07446 0.15382
-0.17388 0.30997 0.04016
-0.14530 -0.01290 0.13703
0.14410 -0.41097 0.15398
-0.08866 -0.04474 -0.13816
0.14304 -0.04474 0.15128
-0.14651 -0.01065 0.02048
0.11902 -0.01065 0.14977
-0.17281 0.36622 0.02799
-0.18244 -0.02874 0.06065
0.02509 -0.01491 0.02558
-0.16525 -0.04474 0.11724
-0.16663 0.26968 -0.04917
0.18244 -0.01941 0.00342
-0.16587 0.32206 -0.06815
-0.17989 0.01552 0.11790
-0.15319 0.38285 0.13138
0.02208 -0.04474 0.01064
-0.17989 0.02079 -0.13788
0.17563 -0.14353 -0.07956
0.14631 -0.28242 -0.17839
-0.11131 -0.01065 -0.13874
0.17818 -0.05333 0.08123
0.15902 -0.28671 0.14431
-0.16450 0.39709 0.10376
-0.15394 -0.32755 0.15272
0.14410 -0.21615 0.17123
0.17097 -0.30354 0.17839
0.16813 -0.01065 -0.03093
0.17563 -0.17212 0.12713
-0.01995 -0.01605 0.16682
-0.12756 -0.07438 0.15177
0.00850 -0.04474 -0.06958
-0.15788 -0.02255 -0.15285
0.12380 -0.01491 0.06052
0.15596 -0.04474 -0.08097
0.15842 -0.08308 -0.05220
0.15072 -0.23982 -0.14431
-0.02263 -0.01491 -0.05285
-0.17989 0.30955 -0.11475
0.15107 -0.01065 0.06887
0.04006 -0.01491 -0.01133
0.03340 -0.06239 -0.14056
-0.15712 -0.01491 0.08794
-0.17989 -0.06071 0.09048
-0.07612 -0.01065 -0.15866
0.15770 -0.04474 -0.00960
-0.15996 0.35380 -0.08648
-0.14580 -0.39046 0.14589
-0.01666 -0.06806 0.13646
0.14410 -0.05992 0.07427
-0.17299 0.20894 0.03458
-0.16190 -0.42820 0.13817
-0.17989 -0.30295 -0.12818
-0.17895 0.19474 0.11104
0.18244 -0.01487 -0.17684
-0.16448 0.24230 0.00892
-0.09818 -0.04501 -0.15542
-0.14580 -0.13950 0.12167
-0.16271 0.35067 -0.13423
-0.09707 -0.04474 0.03065
-0.08672 -0.04474 0.14527
0.00328 -0.01491 -0.05175
-0.07077 -0.04474 0.14660
-0.16110 0.34461 -0.03076
-0.15758 0.08471 -0.04475
0.15061 -0.01065 -0.09607
-0.18244 -0.03082 0.11771
0.03768 -0.04474 0.09225
0.15885 -0.18239 -0.17839
0.17764 -0.04841 -0.17839
0.00970 -0.08308 -0.16096
-0.16493 0.42394 -0.04061
-0.17989 -0.08786 0.02812
0.15688 -0.16352 0.04007
0.13031 -0.01065 -0.04258
-0.14687 0.05346 -0.13692
-0.14865 0.03012 -0.09866
0.16395 -0.01065 0.14391
0.00985 -0.01491 0.15422
0.16781 -0.04474 -0.03202
0.16984 -0.04474 -0.02432
-0.00410 -0.16140 0.13758
-0.13546 -0.08308 0.14731
0.16271 -0.25833 0.17839
-0.17989 -0.33143 -0.12311
0.17563 -0.15739 0.07682
0.01974 -0.01491 -0.09628
-0.12669 -0.04474 -0.04887
0.03139 -0.01065 -0.04677
0.14410 -0.19304 0.17429
-0.14141 -0.04474 -0.01560
0.17818 -0.07598 0.07919
-0.15268 0.24228 -0.11077
0.04657 -0.04474 0.16522
0.16627 -0.04474 -0.00255
0.11949 -0.04474 0.10473
0.14410 -0.08513 0.14796
-0.15582 0.23567 0.10974
-0.17169 0.00087 -0.08877
0.15129 -0.29238 0.17839
0.17563 -0.17516 -0.09948
-0.17257 0.29466 0.10787
-0.10365 -0.04474 -0.11575
0.14410 -0.27875 0.17813
-0.17989 0.07088 0.13863
0.10436 -0.01065 0.13341
-0.06164 -0.08288 -0.15850
-0.16885 0.17219 -0.14314
0.14921 -0.04474 0.12940
-0.06716 -0.14273 0.15083
0.17818 -0.03951 0.13460
0.13611 -0.15708 0.17513
0.16076 -0.01065 0.04520
-0.02633 -0.01491 -0.10829
0.17747 -0.01065 0.02946
-0.16887 0.28329 0.13635
0.16503 -0.04474 -0.08225
-0.14418 -0.01491 0.02858
-0.15299 0.01224 0.02853
0.12206 -0.01065 0.02428
-0.15195 -0.04474 0.03597
-0.17989 0.33300 -0.11668
-0.16524 0.26686 -0.08818
-0.15082 0.39683 -0.10587
0.14410 -0.07956 0.12767
-0.14580 -0.21496 0.13794
0.11136 -0.01065 -0.16148
0.08452 -0.16149 0.17056
-0.14729 0.09168 -0.14704
-0.17202 -0.08913 -0.06808
0.00484 -0.01065 -0.02272
0.11046 -0.14373 0.17286
-0.15574 0.16531 -0.08295
-0.02158 -0.04474 -0.09699
-0.05096 -0.17682 -0.15060
0.17818 -0.09369 -0.17172
-0.07552 -0.03003 0.16248
-0.16709 0.16290 -0.14360
-0.15646 -0.30128 0.11864
-0.16940 0.22071 -0.08792
-0.17728 0.39827 0.06357
-0.14766 -0.21230 0.11864
-0.15809 -0.04491 0.15272
-0.17456 -0.04474 -0.12956
-0.02717 -0.01065 -0.09508
-0.17204 0.14305 0.11268
0.17818 -0.34437 -0.14807
0.15770 -0.14273 0.01455
-0.17989 -0.16644 0.14486
-0.09121 -0.04474 0.03723
0.08975 -0.04474 0.07880
-0.17989 -0.04704 0.02572
-0.15452 -0.00215 0.01486
-0.16452 0.29405 -0.01014
-0.15728 -0.11909 0.11864
-0.15998 -0.01065 -0.01863
-0.03746 -0.04474 0.04851
-0.15905 0.10251 -0.03174
0.15688 -0.17253 -0.03879
-0.17989 -0.04851 0.03418
-0.00988 -0.01065 -0.11349
-0.14768 0.12731 -0.13490
-0.03027 -0.01491 0.00163
-0.17310 0.15875 0.00187
-0.17648 -0.36947 -0.11988
0.16986 -0.04474 0.14063
-0.14937 0.28260 -0.12015
-0.14232 -0.01491 0.08158
0.10347 -0.14273 -0.15589
-0.17989 0.33962 -0.11413
0.09697 -0.01491 -0.12405
0.16766 -0.08308 0.09090
0.17818 -0.07617 0.02737
-0.17166 -0.19423 0.15272
-0.01603 -0.01491 0.14809
0.13114 -0.17682 -0.15108
-0.17203 0.15985 0.04317
-0.06200 -0.02925 0.16354
0.12536 -0.01065 0.14476
-0.17325 0.18688 0.00889
-0.14580 -0.38671 -0.14611
-0.14754 -0.08913 0.08400
0.15688 -0.14620 0.02444
-0.02004 -0.07090 0.13616
-0.16757 0.03193 -0.05773
0.14750 -0.20186 -0.14431
0.17375 -0.14273 0.07253
-0.17989 0.19294 -0.13527
0.17818 -0.17386 0.17191
-0.17989 0.14219 0.12425
-0.13858 -0.01065 -0.09308
-0.16765 -0.04474 -0.04108
0.17604 -0.25965 -0.17839
0.10786 -0.14468 0.14749
-0.02279 -0.07492 -0.16177
0.10707 -0.14558 -0.17272
0.17818 -0.12802 -0.15888
0.09814 -0.01065 0.16255
-0.15685 0.41658 -0.03781
-0.04166 -0.04474 0.12632
-0.17989 -0.34024 -0.14099
0.06008 -0.04474 0.06684
0.03005 -0.17682 0.15490
-0.14580 -0.05170 0.02275
-0.16936 0.19141 0.08415
-0.17333 -0.12389 0.11864
0.14410 -0.07219 -0.09213
0.17563 -0.16284 0.13199
-0.05790 -0.01491 0.08231
-0.14654 -0.19938 -0.11988
-0.15602 0.14714 -0.07801
0.07908 -0.01491 -0.15535
-0.09580 -0.01065 0.13477
-0.16538 0.34708 0.06643
-0.10612 -0.04474 -0.09365
-0.17208 0.34211 0.10636
0.18244 -0.02390 0.09090
-0.14843 0.01010 -0.11814
-0.17254 0.11127 0.00187
-0.16135 0.23802 -0.03045
0.05235 -0.16993 -0.14297
-0.04745 -0.01065 -0.15547
0.07721 -0.05916 0.16980
-0.17136 -0.20853 -0.15396
0.09774 -0.01065 0.15730
-0.14951 -0.08913 -0.08580
0.15777 -0.36523 -0.14431
0.12128 -0.17682 0.15806
-0.13689 -0.04221 0.15730
0.08961 -0.16833 -0.14611
0.00827 -0.04474 0.06893
0.10521 -0.01491 0.17518
0.12866 -0.01491 0.07058
0.13190 -0.04474 0.10558
-0.00989 -0.14322 0.16220
-0.13206 -0.04474 -0.15498
-0.17989 -0.23664 0.12915
-0.13372 -0.01491 0.10238
0.02475 -0.04480 0.16518
0.08354 -0.01065 0.03877
0.18244 -0.02786 -0.12839
-0.15699 -0.08108 0.15272
0.09755 -0.17682 0.15670
-0.17430 -0.31073 0.11864
-0.01608 -0.01065 -0.08139
-0.17364 0.01133 -0.06310
0.18244 -0.01491 0.17244
-0.15863 0.14388 0.03389
0.01687 -0.04474 0.00746
0.11782 -0.01065 0.11402
0.16511 -0.33740 0.17839
0.14410 -0.07599 -0.10228
0.14410 -0.12049 0.16488
-0.02720 -0.01065 0.00327
-0.14580 -0.24827 -0.13777
0.12629 -0.01065 -0.12056
-0.15782 -0.02364 -0.11921
-0.16465 0.37120 -0.13320
-0.15251 -0.08913 -0.06701
-0.17989 -0.34779 0.15176
-0.14877 0.00657 -0.09749
-0.08945 -0.01491 0.06352
-0.17000 0.22988 -0.08284
-0.17891 0.37556 0.13174
0.04148 -0.08308 0.16104
-0.06460 -0.01491 0.13656
0.04845 -0.16076 -0.14264
-0.15206 0.39695 -0.09547
0.07278 -0.04623 -0.14416
0.13677 -0.16739 -0.17522
0.13162 -0.01491 0.05767
0.17266 -0.14273 0.05877
0.01835 -0.01491 0.10892
-0.17989 0.26560 -0.12375
0.04853 -0.06868 0.14224
-0.17933 0.40070 0.02822
-0.15296 -0.05066 -0.15396
0.15193 -0.42820 0.16518
-0.02490 -0.16247 -0.13646
0.14410 -0.20709 -0.16283
-0.16994 0.13775 -0.11409
0.00549 -0.01065 0.07707
-0.16307 -0.04474 -0.01705
-0.17708 -0.04474 -0.11126
-0.16246 -0.08913 0.04405
0.11529 -0.04474 0.08256
-0.15055 0.14624 -0.14443
0.16726 -0.17682 0.02494
0.17818 -0.05814 -0.08768
0.10163 -0.02838 0.17633
-0.05198 -0.01065 -0.14955
-0.14580 -0.29414 -0.13597
0.01190 -0.04474 -0.14666
-0.14666 -0.26281 0.15272
-0.05970 -0.01491 -0.10317
0.17266 -0.01065 -0.11311
-0.05404 -0.04474 -0.01915
0.17051 -0.08308 -0.11981
-0.17986 -0.30278 0.15272
-0.07626 -0.14445 -0.13213
0.18244 -0.03028 0.08250
-0.17218 0.42394 -0.05710
0.00160 -0.04660 0.13808
0.14410 -0.08943 -0.17461
-0.05935 -0.08308 0.15584
-0.15633 -0.04474 -0.04111
-0.17622 0.40619 0.07557
-0.11646 -0.06465 -0.15388
-0.01225 -0.01491 -0.01297
-0.15521 0.07858 0.07863
0.17818 -0.01767 -0.02698
-0.03804 -0.01491 -0.01776
-0.08964 -0.05939 0.15511
-0.16954 0.11716 0.07452
-0.16310 0.25471 0.02908
-0.17139 -0.01065 0.06946
-0.16037 0.03193 0.10989
0.15613 -0.01491 -0.01956
-0.07708 -0.01491 0.10794
-0.13247 -0.07175 -0.15253
0.17818 -0.26853 0.15180
-0.14580 -0.05540 0.07647
-0.17163 0.35006 0.07703
-0.16784 0.13589 0.14370
0.17231 -0.04474 -0.09530
0.13521 -0.01491 -0.01230
-0.17551 0.29931 0.10772
0.16607 -0.17682 0.06720
-0.17989 0.04813 0.14203
0.03150 -0.01065 0.07578
-0.15507 0.13253 0.08545
-0.00603 -0.07532 0.16247
0.11026 -0.01491 0.00479
-0.08832 -0.02574 0.16148
0.09775 -0.01065 -0.13845
-0.16972 -0.41253 -0.11988
-0.16023 0.42769 -0.10792
0.14410 -0.39142 0.15933
-0.16943 0.29900 0.04766
