ply
format ascii 1.0
comment VCGLIB generated
element vertex 1783
property float x
property float y
property float z
element face 0
property list uchar int vertex_indices
end_header
0.19771 -0.09965 -0.12754
-0.14182 0.33998 -0.00453
-0.14892 0.12650 -0.08618
0.11005 -0.09965 0.08515
-0.11782 0.07630 -0.16433
0.20160 -0.21613 -0.17947
-0.17629 0.25451 0.00569
0.20160 -0.31339 -0.17825
0.04796 -0.09225 0.20360
-0.16104 0.04417 0.01243
0.09042 -0.09965 -0.14893
-0.09054 -0.06762 0.01163
-0.15580 0.05832 0.09851
0.09443 -0.07764 -0.18817
0.16648 -0.09965 0.17295
-0.13324 -0.09965 0.08039
-0.10574 0.30184 -0.17481
-0.10167 -0.06762 0.04446
-0.10793 -0.09965 0.11069
-0.14146 0.32358 -0.00871
-0.10763 0.35835 -0.17456
-0.10866 0.32804 -0.14970
-0.17744 0.15850 0.00131
0.19893 -0.24069 0.17638
-0.09249 0.19970 -0.16208
-0.18964 0.40076 -0.04214
-0.10528 0.19195 0.16916
-0.15269 0.28187 0.00431
-0.05985 0.36424 -0.17758
0.20160 -0.32421 0.19583
-0.06355 -0.06762 -0.13424
-0.09274 0.22297 -0.16016
-0.15623 0.17796 0.09309
-0.10453 0.40006 0.15148
-0.11164 -0.00630 0.14625
-0.10533 0.40076 -0.14966
-0.06617 -0.09965 -0.09105
0.20984 -0.09816 0.17847
-0.16606 -0.07916 0.10583
0.07204 -0.09965 -0.12247
-0.15232 0.18917 -0.00269
-0.09601 0.03385 0.16629
-0.16363 -0.06191 -0.01242
0.04474 -0.09965 -0.14737
-0.04831 -0.06762 -0.14810
0.18599 -0.23435 0.18462
0.20414 -0.19658 0.17148
0.16591 -0.06762 0.12783
-0.11778 0.33147 -0.16593
0.15969 -0.09965 0.08278
-0.10976 -0.06903 0.16583
-0.09814 -0.09965 0.11726
-0.18552 0.40076 0.01007
-0.17441 0.26854 -0.00805
-0.17296 0.09312 -0.00950
-0.13803 0.32802 0.10620
-0.01252 -0.09965 0.15233
-0.12329 0.38732 0.08335
-0.00329 -0.09965 -0.02227
-0.16105 0.07378 -0.01198
-0.12622 0.31747 -0.15283
-0.16618 0.39801 0.01289
-0.19498 0.33901 0.00333
-0.11408 -0.05735 -0.15278
-0.10063 0.23282 0.16881
0.12284 -0.06762 -0.15163
-0.13969 -0.08416 -0.15800
-0.19219 -0.08211 -0.00971
-0.11118 -0.08484 0.18997
-0.10935 0.36843 0.14494
-0.14744 0.07586 0.10695
-0.15242 0.18922 0.10399
-0.09515 0.31576 0.14739
-0.14127 -0.06762 0.02062
0.19155 -0.13296 0.20480
0.19188 -0.11741 0.17638
-0.08925 -0.07339 -0.18368
-0.10533 0.17000 0.14383
-0.03996 -0.09965 -0.10971
0.20160 -0.39248 0.18086
-0.11187 0.25818 0.14644
0.18599 -0.38715 0.19964
-0.09859 -0.06762 0.03061
0.00469 -0.07725 -0.18776
-0.09792 0.08348 -0.17241
-0.17995 0.31747 0.00113
-0.13098 0.34845 0.09608
0.00631 -0.09834 -0.21003
-0.09847 0.35786 -0.13299
-0.10765 0.15459 -0.14955
-0.13952 -0.09965 -0.07979
0.18780 -0.29125 0.20480
0.13015 -0.06762 0.14422
-0.10347 -0.09965 0.10660
-0.04078 -0.06762 0.00229
0.20160 -0.31079 -0.19537
-0.17343 0.24128 -0.00915
-0.14597 0.40076 -0.02156
0.14056 -0.06762 0.00543
-0.06734 0.31747 -0.18483
-0.09954 0.09481 -0.15069
-0.14632 -0.02860 0.08227
-0.13210 0.19635 0.10010
0.15009 -0.09965 0.09935
-0.15861 -0.03188 0.01148
-0.08029 -0.31343 0.18511
-0.15582 -0.05240 -0.09945
-0.03565 -0.06762 -0.11131
0.18599 -0.33640 -0.19413
-0.08432 -0.06762 0.06710
0.18599 -0.39377 -0.17559
0.20651 -0.20137 -0.19389
-0.13616 0.22781 0.10503
0.20160 -0.23905 0.18555
-0.15501 -0.06263 0.00838
0.19316 -0.08236 -0.06287
-0.11342 0.33203 0.16519
-0.13624 -0.06762 0.11947
-0.17115 0.39316 -0.09659
-0.12567 0.39615 -0.08307
0.19159 -0.08087 -0.16601
-0.08124 0.36706 0.14986
-0.01402 -0.09965 0.03989
-0.13915 0.40076 -0.10268
-0.15340 0.05439 0.00593
0.20611 -0.25721 0.19980
0.18599 -0.29869 0.18995
-0.00231 -0.09965 0.19936
-0.05491 0.33690 0.17682
0.20160 -0.12693 0.18579
-0.13053 0.39165 -0.09681
0.06874 -0.06762 0.12330
-0.13293 0.36121 0.05634
-0.06736 -0.09965 0.06805
-0.04979 -0.09965 -0.19264
-0.10101 -0.06762 -0.08426
0.14363 -0.09965 -0.04313
-0.15279 0.26340 -0.10600
0.11774 -0.09965 -0.04160
0.20160 -0.37107 -0.17360
0.19327 -0.14965 -0.20160
0.18398 -0.27262 0.17693
-0.07828 -0.09965 0.12006
-0.07790 0.33542 0.15366
0.19186 -0.09965 0.09301
0.20550 -0.25466 -0.17478
-0.09816 0.18379 0.14517
-0.16189 0.40006 -0.00241
-0.13658 -0.06762 -0.05306
-0.14023 0.36491 0.13831
-0.16902 -0.06762 -0.01417
-0.14181 0.23483 0.08218
0.05090 -0.09965 0.06448
-0.15622 0.02438 0.09307
-0.13297 -0.06762 0.05398
0.19847 -0.09965 -0.16227
-0.05655 -0.06762 0.01698
-0.11464 0.20328 -0.15335
-0.13642 -0.06762 -0.02819
-0.17211 -0.09965 -0.02545
0.20197 -0.09070 -0.02778
-0.15342 0.03017 -0.00558
-0.04280 0.40071 -0.19235
-0.02335 -0.06762 0.12131
-0.10160 0.15660 0.14399
0.12332 -0.06762 -0.17306
-0.11299 0.25991 0.16571
-0.00218 -0.06762 0.14941
-0.10635 -0.01564 0.14400
-0.10103 0.38229 -0.15008
-0.13982 0.12574 0.08255
-0.10462 0.37184 0.14372
0.19702 -0.13755 -0.17318
0.13215 -0.09965 0.07131
-0.15787 0.37608 -0.01049
-0.04334 -0.06762 -0.00504
-0.12138 -0.06762 0.15091
0.05295 -0.09965 -0.18297
-0.09772 0.36758 -0.13414
-0.10303 -0.06762 0.02007
-0.08087 0.33165 0.15029
0.01633 -0.09965 0.06943
-0.11560 0.24036 -0.16950
-0.10385 0.08183 -0.17468
-0.13203 0.32362 0.05978
0.17079 -0.06762 0.13665
-0.07889 -0.06762 -0.13289
-0.15979 0.40076 -0.05037
-0.05263 0.39684 -0.19998
-0.15066 0.40076 0.05496
0.18852 -0.21286 -0.17318
0.18599 -0.11696 -0.19055
-0.06886 0.31763 -0.16895
-0.06783 -0.06762 0.10699
-0.07450 0.33726 -0.19998
-0.08029 -0.18288 0.18672
-0.08694 -0.09965 0.04255
0.03297 -0.06762 -0.09446
-0.07788 -0.26445 -0.16850
-0.14859 0.31747 0.06119
-0.17437 0.25162 -0.00809
0.01017 -0.06762 0.15027
-0.02069 -0.09965 -0.16345
-0.04551 0.32477 0.18497
-0.09589 -0.24572 -0.19588
0.19163 -0.20746 0.20971
0.02260 -0.09965 -0.11033
0.09769 -0.09191 0.20324
-0.13917 0.38906 0.03014
-0.09749 0.38669 0.14562
-0.13240 0.24277 -0.09081
-0.14870 0.31747 0.11681
0.10082 -0.06762 0.00948
0.05159 -0.09965 -0.03979
0.19297 -0.09965 -0.15496
0.17806 -0.08953 -0.20072
-0.15734 0.03780 -0.01006
0.18796 -0.07744 0.16143
-0.09685 0.32143 0.17860
-0.02805 -0.06762 -0.12158
-0.07914 -0.09965 0.06999
-0.15215 0.20576 -0.00115
-0.09927 0.10710 -0.17331
-0.18452 0.32946 0.06019
-0.09079 -0.38852 0.17318
-0.14144 0.38258 -0.00892
-0.17363 0.38393 0.08664
0.00729 -0.09965 -0.13047
-0.09589 -0.21883 -0.18966
-0.14226 0.31747 -0.03572
-0.19025 0.39687 0.04072
0.04569 -0.06811 -0.17811
-0.00026 -0.06762 0.10519
0.04278 -0.09965 0.11436
0.00989 -0.09965 -0.20661
-0.15014 0.31516 -0.10828
-0.08029 -0.39605 -0.17772
-0.10751 0.33121 0.17075
-0.06420 -0.09965 -0.03303
-0.05865 -0.06762 -0.01291
-0.07582 -0.25696 0.18278
-0.08860 -0.10358 -0.20160
0.03749 -0.09965 0.15858
0.04247 -0.09965 -0.03162
-0.09281 0.14180 -0.15958
0.16825 -0.06762 0.04413
-0.09274 -0.01653 -0.16395
0.18599 -0.23032 0.19776
-0.15054 -0.04083 0.10549
0.10578 -0.06762 -0.04266
0.13466 -0.09965 -0.04093
-0.09589 -0.31772 0.18598
0.08722 -0.06762 -0.03471
-0.08809 -0.40076 -0.20063
-0.01254 -0.06762 0.11460
0.10834 -0.09965 0.05639
0.07893 -0.06762 0.02287
-0.10721 0.07436 0.14414
-0.09774 -0.06762 0.03914
-0.08029 -0.39234 -0.19924
0.18599 -0.21192 -0.18263
-0.13149 0.27994 -0.09278
0.09745 -0.06762 0.08411
-0.11427 0.16451 0.16416
0.18109 -0.18352 0.20391
-0.07570 -0.09965 -0.06720
-0.10404 0.25166 0.14375
0.19033 -0.16435 0.20480
-0.00491 -0.06762 -0.02613
-0.07772 -0.09965 0.03067
0.18554 -0.18293 -0.19825
-0.09218 0.28270 0.15206
-0.11734 0.09649 -0.16620
0.01082 -0.09965 0.03819
-0.15211 0.40076 0.06460
-0.13758 -0.09965 0.03543
-0.14735 -0.06120 0.08257
-0.17607 0.36457 -0.00564
-0.19055 -0.09957 0.10363
-0.03967 -0.09965 -0.19390
-0.04659 -0.09965 0.18635
-0.18003 -0.09965 0.06549
0.07520 -0.06762 0.14836
-0.16287 0.02494 0.01282
0.04190 -0.06762 0.06289
0.09972 -0.07429 0.18464
0.07840 -0.09965 -0.07834
-0.04903 -0.09965 -0.09755
-0.09589 -0.38950 0.19270
0.20385 -0.19011 -0.16827
-0.11471 0.38130 0.10247
0.19368 -0.23446 -0.17318
0.01833 -0.08901 0.20018
-0.12008 -0.06762 -0.08517
-0.08154 -0.06762 0.09540
-0.14410 0.16220 0.08202
-0.06287 0.34089 0.16992
-0.14553 0.19597 -0.08507
-0.02738 -0.06762 0.01577
-0.14150 0.07222 0.10730
-0.04018 -0.06762 -0.12154
-0.18605 0.40076 0.03139
-0.10372 -0.06762 0.01180
-0.05684 -0.06762 -0.12742
-0.12851 -0.08302 0.16999
0.11260 -0.06762 -0.03911
-0.00318 -0.09965 -0.11361
-0.11007 -0.06762 0.04956
0.19727 -0.21138 0.17596
-0.08279 0.37531 0.14810
-0.13584 -0.09965 -0.11986
0.16085 -0.09965 -0.05576
-0.13322 0.30389 0.08746
0.20160 -0.37085 -0.19040
-0.09155 0.12072 0.15461
-0.09725 0.14321 -0.15222
-0.09145 -0.24604 -0.17318
-0.05060 -0.09965 0.19972
-0.15014 0.34737 0.12490
-0.07150 -0.09965 -0.07161
0.15360 -0.06762 0.08459
0.13374 -0.06762 -0.04460
-0.01118 -0.09965 0.12955
-0.15585 0.36454 -0.09928
0.12556 -0.06762 -0.05168
-0.13089 -0.03133 0.09545
-0.09306 -0.24666 0.20160
-0.14139 -0.09965 0.12512
0.13963 -0.06762 -0.11808
0.20591 -0.09965 -0.03455
-0.17311 0.31747 -0.06134
-0.09012 -0.13699 -0.17318
-0.13114 0.35424 0.09216
-0.04942 0.39232 -0.18662
-0.09946 0.33631 -0.18172
-0.10273 0.10381 0.16915
0.18375 -0.07345 -0.14211
-0.08029 -0.21490 -0.19725
0.20598 -0.25647 -0.19926
0.08616 -0.06762 0.07887
-0.19924 -0.08891 0.01156
-0.15290 -0.01859 0.08600
-0.10017 -0.07050 0.17763
-0.07585 0.32337 -0.16102
0.18431 -0.09965 -0.15646
0.04070 -0.07530 -0.18570
0.18599 -0.37382 -0.18219
0.18958 -0.12922 -0.17318
-0.09589 -0.14208 0.18271
0.20586 -0.09439 0.15549
-0.10620 0.37548 -0.17676
-0.13081 0.27576 -0.10053
-0.08686 -0.15479 -0.17318
-0.19349 0.32443 -0.02376
-0.09681 0.35503 -0.15256
-0.00554 -0.09965 -0.18531
-0.15485 -0.06706 -0.09234
-0.11238 0.32508 0.16622
0.14321 -0.06762 0.02284
-0.14055 0.27756 -0.11001
0.19539 -0.19285 -0.16827
0.19005 -0.29558 -0.20160
-0.07962 -0.09965 0.14266
-0.18262 0.33363 0.06666
-0.08147 -0.39130 -0.17318
-0.17212 0.20621 0.01065
-0.04217 0.39889 0.18787
0.08531 -0.09965 0.02231
-0.09786 -0.09965 -0.06808
0.20160 -0.39492 0.18647
-0.00420 -0.06762 0.11732
-0.16247 -0.05103 -0.01225
-0.14856 -0.05996 -0.08602
-0.18936 -0.08627 -0.06102
-0.10265 -0.09965 0.07898
0.19632 -0.22936 0.20480
-0.14237 -0.05046 -0.08489
0.18480 -0.09965 0.13501
-0.05973 -0.09965 0.11377
-0.09589 -0.37483 -0.18282
-0.08029 -0.35624 -0.19061
-0.14250 0.29543 0.10741
0.20160 -0.34082 -0.18468
0.04916 -0.06762 -0.09273
-0.17695 -0.02428 0.00401
-0.17951 -0.09874 0.12578
-0.09311 0.23061 0.15001
-0.13914 0.33887 -0.03547
0.20651 -0.18536 -0.17672
-0.16531 0.40076 0.00684
0.06997 -0.06762 0.16147
-0.20088 -0.09965 -0.00351
-0.19011 0.38781 0.04117
-0.13852 0.23259 -0.10937
-0.02530 -0.09965 0.03061
-0.15339 0.38096 0.08661
-0.18756 0.38362 0.04986
-0.09355 -0.36941 0.17318
-0.13708 0.33255 0.08375
-0.17061 -0.09965 0.13945
-0.15605 0.26872 -0.09763
-0.18205 -0.09965 -0.03789
-0.02523 -0.09965 0.18137
0.02260 -0.09965 0.12048
-0.16425 -0.09965 -0.14008
-0.13471 0.31747 -0.05976
-0.06395 -0.06762 0.12190
0.04537 -0.06762 -0.09924
-0.16877 0.29351 -0.01183
-0.16034 -0.06762 0.02035
-0.10146 0.40076 0.12568
-0.05757 -0.09965 0.17888
-0.14734 0.02157 -0.10962
-0.17725 0.32212 -0.00224
0.14367 -0.06762 -0.17464
0.17863 -0.06861 0.13370
-0.08504 -0.29936 0.20160
-0.12192 0.31747 -0.14489
-0.12113 0.36011 -0.09320
-0.12161 0.40076 -0.15480
-0.13660 0.17083 0.10535
0.18109 -0.20801 0.20552
0.19614 -0.08519 0.04943
0.10153 -0.09965 0.14885
-0.16033 -0.09965 0.00179
0.02005 -0.09965 0.07921
-0.11703 0.35643 -0.10235
0.18257 -0.07234 0.03864
0.07754 -0.06762 0.12874
-0.14877 -0.08557 0.14867
-0.05953 -0.06762 -0.09533
0.18488 -0.09965 0.14404
-0.15601 0.38171 -0.09727
-0.17683 -0.06386 0.00430
-0.13512 0.05987 0.08529
-0.08029 -0.38296 0.19486
0.01696 -0.07502 0.18541
0.10209 -0.09965 0.12428
0.09388 -0.09965 -0.19271
0.19103 -0.09965 0.13574
-0.14107 0.32365 -0.08503
-0.08332 -0.09965 0.18707
0.20050 -0.08931 -0.00505
-0.13065 0.23985 -0.09912
-0.09663 0.33694 0.17876
0.18896 -0.07838 -0.12513
-0.12187 -0.09965 -0.19135
-0.04989 -0.09965 0.19303
-0.13176 0.24029 0.09022
0.19692 -0.09965 -0.15005
-0.18639 0.39813 -0.05886
0.11746 -0.06762 0.03722
-0.03549 -0.09965 0.02208
-0.11119 -0.01463 0.16706
0.20547 -0.09965 -0.13939
0.13400 -0.09965 0.19872
-0.13690 -0.07312 -0.14124
-0.07490 0.37986 0.19475
0.00837 -0.09965 -0.00629
-0.13895 0.10023 -0.10955
-0.06725 0.32675 -0.19998
-0.15374 0.01812 -0.09038
0.18599 -0.15329 -0.18438
-0.13327 0.29077 -0.10543
-0.08281 -0.06762 -0.12129
0.14327 -0.06762 -0.13467
-0.08029 -0.34482 -0.18175
-0.06052 0.34473 0.19494
0.15825 -0.09965 -0.01459
-0.13867 -0.07113 0.13522
-0.14900 -0.09965 -0.15163
-0.12629 -0.06762 -0.04775
0.18818 -0.07765 0.15208
-0.13983 0.33965 -0.02749
0.09604 -0.09965 0.11896
-0.05034 -0.06881 0.17885
-0.14650 -0.09965 0.12125
0.00486 -0.09965 0.01476
-0.04970 -0.07907 0.18968
-0.16138 0.31635 0.01256
0.21132 -0.09965 -0.17840
-0.10893 0.34562 0.11187
0.11441 -0.08273 0.19355
0.10218 -0.08938 -0.20057
-0.07538 -0.20375 0.19341
0.13670 -0.06762 -0.05807
-0.16716 0.37563 -0.10451
-0.14276 -0.06762 0.00746
-0.13606 0.31747 0.04744
-0.09589 -0.29542 0.19726
-0.03673 -0.09965 0.09013
0.13983 -0.09965 -0.06328
-0.10431 0.07230 -0.17474
0.03140 -0.09965 -0.12657
-0.09281 0.27419 -0.16450
-0.04012 -0.09965 0.05369
-0.04714 -0.06762 -0.16495
-0.08029 -0.23181 -0.19594
-0.16678 0.11379 -0.01231
-0.09176 0.11586 0.15331
-0.07393 -0.09965 -0.19740
-0.13966 0.40076 -0.06789
-0.05398 -0.06762 -0.13610
-0.07373 -0.06762 -0.11548
0.11654 -0.09965 -0.11441
-0.16676 0.07222 0.01280
0.08917 -0.09965 -0.09474
0.06489 -0.09965 0.18124
-0.17717 0.36378 0.00346
0.19348 -0.09965 -0.17969
0.09915 -0.06762 -0.15135
-0.13114 0.01196 0.09213
0.18599 -0.21755 -0.18910
0.20465 -0.09965 -0.18605
0.10918 -0.06762 0.17378
0.19823 -0.09249 0.20386
0.19553 -0.08461 -0.15654
-0.13758 -0.06762 -0.01175
-0.18382 0.35805 -0.06762
0.17644 -0.06762 -0.14995
-0.03252 -0.09591 -0.20747
-0.08029 -0.17087 0.18999
-0.09786 0.33885 -0.13393
0.18599 -0.29161 -0.18286
0.20452 -0.25195 -0.18880
-0.17384 -0.09965 0.00901
-0.13145 0.28660 0.09861
-0.12447 -0.09965 -0.09620
-0.08029 -0.23438 0.19001
-0.11285 -0.09691 -0.20780
-0.11810 0.19144 -0.16220
0.18599 -0.30981 -0.17337
-0.16303 -0.01487 -0.01233
0.18599 -0.14576 0.19158
-0.15503 0.11414 -0.10235
-0.15669 0.13944 0.01007
0.19815 -0.15181 0.20480
-0.08713 -0.09965 -0.20497
-0.14489 -0.09965 0.07097
0.18221 -0.25426 -0.20079
-0.17353 0.38759 -0.00908
-0.11565 0.17692 -0.16944
-0.13008 -0.09965 0.09016
-0.19412 0.36712 0.01226
-0.06599 0.34436 -0.17221
-0.11184 -0.04614 0.16660
-0.10068 -0.26351 0.17039
-0.13653 0.16416 -0.10846
0.11558 -0.09965 0.06057
-0.03716 -0.06762 -0.13523
-0.11262 0.32325 0.10620
-0.09359 0.28336 0.16363
0.00297 -0.09965 -0.04128
-0.13485 -0.09965 0.17938
-0.13547 -0.09211 -0.17782
-0.10593 0.17119 0.16909
-0.09589 -0.14845 -0.17628
0.15132 -0.09965 -0.08067
-0.13126 0.34855 0.06270
-0.14341 0.32634 -0.13905
-0.09410 0.40076 0.15599
-0.05179 0.35829 0.17953
-0.08029 -0.16038 0.17720
-0.06295 0.31747 0.17770
-0.11123 0.34758 -0.17335
-0.06244 0.33338 -0.17533
-0.16554 -0.07212 -0.08640
-0.08990 -0.06762 0.03297
-0.13112 -0.02306 0.09699
-0.17055 0.40076 0.02070
-0.13640 0.25113 0.10520
-0.12206 -0.08956 0.18688
-0.12977 -0.09965 -0.15196
-0.17736 -0.08588 -0.09694
0.18599 -0.35706 -0.17574
0.12226 -0.09965 0.01433
-0.13435 0.06639 -0.08837
0.18109 -0.20651 -0.18186
-0.11569 -0.09965 0.06585
0.20160 -0.16181 -0.18952
-0.13065 0.31427 -0.09908
-0.07833 -0.09965 0.10278
-0.10218 0.09944 -0.14965
-0.13675 0.27910 -0.08659
-0.19283 0.31747 -0.01584
-0.13903 0.31234 0.08290
0.17576 -0.09965 -0.16898
0.18599 -0.38106 0.19334
0.11278 -0.09965 0.19327
0.13168 -0.09965 0.08860
-0.03208 -0.09965 0.14728
-0.12048 -0.06762 -0.06372
-0.13719 0.14150 -0.10878
0.06531 -0.06762 0.06656
-0.15345 0.10652 0.00604
-0.15444 0.31747 -0.01224
-0.08334 0.32242 -0.15252
0.11573 -0.09965 -0.05205
-0.15606 0.03638 0.00961
0.03671 -0.09965 -0.15250
-0.07622 -0.06762 0.05428
-0.11486 0.23352 -0.15365
-0.11559 0.05353 0.15093
-0.10080 0.33972 -0.17394
-0.10080 -0.20127 0.18868
-0.10217 0.27738 0.14393
-0.08370 -0.26735 -0.16908
0.19977 -0.18411 0.20971
-0.12122 -0.09965 0.07056
0.06482 -0.06762 0.11087
-0.15602 0.19637 0.09171
0.19783 -0.14371 0.20480
0.00189 -0.06762 -0.01471
0.17319 -0.09965 0.03818
-0.11856 0.38037 -0.09892
-0.05402 -0.09965 0.08817
-0.13088 0.34731 -0.06919
-0.11804 -0.01897 -0.16259
0.20894 -0.09965 0.14601
0.08837 -0.09965 -0.20836
-0.08679 -0.24842 -0.17217
-0.09407 0.39994 0.14872
-0.15376 0.38800 0.12001
-0.16438 0.05694 -0.01254
-0.09202 -0.06762 -0.10995
-0.15303 -0.06762 -0.02178
0.17577 -0.09965 0.17710
-0.16796 0.32006 0.09788
0.00167 -0.09965 0.19349
-0.13732 0.33604 -0.14668
-0.05084 0.37661 -0.18538
-0.14037 0.09470 -0.10998
-0.09334 0.08126 -0.15774
-0.15791 0.34033 -0.01052
-0.10337 -0.09965 0.01377
-0.13399 0.38639 0.05232
-0.10343 0.40076 -0.13716
-0.13235 0.16801 -0.10418
0.16386 -0.09965 -0.16081
0.18599 -0.15542 0.20086
-0.16502 0.34536 0.10372
-0.08470 -0.34751 -0.20160
0.08615 -0.06762 0.09814
0.11536 -0.06762 -0.03247
-0.05131 -0.09965 0.16794
-0.07496 -0.06762 0.09599
-0.10882 0.31747 0.13276
-0.17577 -0.06930 -0.03907
-0.06831 0.40076 -0.17642
-0.08029 -0.11389 0.19111
0.07727 -0.06762 0.06798
-0.08958 -0.35330 0.20160
-0.18642 0.35580 -0.05878
0.18692 -0.08492 -0.19586
0.06934 -0.07117 -0.18134
-0.13257 -0.06762 -0.13080
0.18599 -0.14369 0.17669
-0.08029 -0.36354 0.17459
0.09754 -0.06762 0.04595
-0.00633 -0.09965 0.07573
-0.14368 0.02599 0.10754
0.02640 -0.09965 -0.11381
0.20160 -0.16657 -0.19840
0.12210 -0.06762 -0.11459
-0.15088 -0.09965 -0.16344
-0.12769 0.40076 0.13842
-0.16960 0.28014 0.01201
0.02830 -0.09965 0.10664
-0.07001 -0.07823 -0.18880
-0.10166 0.26911 0.16898
-0.11236 0.35219 -0.11164
-0.13110 0.09180 0.09252
-0.09873 0.15673 -0.15108
0.00931 -0.06762 -0.02432
0.01359 -0.06762 0.07061
-0.03419 0.38882 -0.19982
0.19146 -0.08075 -0.09945
0.04485 -0.09943 0.21118
0.18599 -0.31037 -0.18006
-0.12858 0.32176 -0.15529
0.18749 -0.16022 -0.20160
0.10465 -0.09965 0.16309
0.13938 -0.06762 0.15804
-0.03738 -0.09965 -0.06418
-0.13529 -0.09965 -0.15867
-0.09473 0.10247 -0.16914
-0.02120 -0.06762 0.10716
0.18860 -0.07975 -0.19040
-0.13944 0.36017 -0.03205
-0.09368 -0.39437 0.20160
0.06972 -0.06762 0.17591
-0.08411 0.39073 0.14660
-0.10522 -0.06762 0.03777
-0.17440 0.07403 0.00861
0.06275 -0.09965 0.10577
-0.10281 0.38547 -0.17454
-0.16764 0.34727 0.09851
0.07116 -0.06762 -0.16085
0.09401 -0.06762 0.16404
-0.10781 0.20958 0.14424
0.01570 -0.06762 -0.11611
0.20160 -0.24438 0.20434
-0.15455 0.39213 0.08806
-0.13160 0.02646 -0.10265
-0.09781 0.32347 0.12897
-0.18310 0.38560 0.06502
-0.12658 0.33878 0.15222
0.18792 -0.26161 0.17149
-0.09303 -0.03344 -0.16563
-0.09951 0.40076 -0.18038
-0.17731 0.06770 0.00252
-0.02752 -0.06762 -0.02405
0.18599 -0.30027 0.18255
-0.10058 0.28403 -0.17385
-0.07115 -0.06762 0.05523
-0.11779 0.32516 0.09561
0.19518 -0.08427 -0.11174
-0.15733 -0.09821 0.16079
0.17875 -0.09965 -0.09979
-0.19098 0.37582 -0.04327
-0.07829 -0.27266 -0.18072
-0.13116 -0.05751 0.09195
-0.09899 0.32765 0.16813
0.21114 -0.09939 -0.16011
-0.08987 -0.06762 0.12313
-0.11404 0.16465 -0.15275
-0.14354 0.11561 -0.08477
-0.14135 0.16767 0.08225
-0.02350 -0.09965 0.18779
-0.16045 -0.06762 0.04843
0.19935 -0.08822 0.11741
0.01816 -0.09965 -0.06258
0.20160 -0.29276 -0.18419
-0.15501 -0.02998 -0.09273
-0.11682 0.11134 0.15748
0.03013 -0.09965 -0.04744
-0.13109 0.15109 -0.10133
-0.14762 -0.09965 0.09465
-0.13085 0.31747 0.08753
0.16626 -0.06762 0.10926
-0.11926 -0.06762 -0.13068
-0.03493 -0.06762 -0.04864
-0.09902 0.39354 -0.17320
-0.07028 -0.09965 -0.06547
0.08968 -0.06762 0.09276
-0.16601 -0.09965 -0.06757
0.20096 -0.13366 -0.17318
-0.15167 -0.09965 -0.05039
-0.18037 0.40076 -0.04830
-0.07925 0.38920 -0.19658
-0.09911 -0.25269 0.20371
-0.14955 0.14697 -0.08646
-0.11382 0.17001 0.16470
0.06034 -0.06762 -0.14643
-0.09304 0.13426 -0.16565
0.09498 -0.06762 -0.02223
-0.19345 0.39378 0.01910
0.06284 -0.09965 -0.13470
-0.10433 0.18512 -0.14937
-0.17167 0.15933 -0.01045
-0.09592 0.12618 0.14675
-0.15420 0.36837 0.10182
-0.18600 -0.09965 0.06462
-0.01334 -0.09965 0.00588
-0.13677 0.09851 -0.08657
-0.14719 0.39243 0.10706
-0.09329 -0.09965 -0.12356
-0.10855 0.30924 0.14457
0.14208 -0.09965 -0.19205
-0.11030 -0.05873 0.14536
-0.16053 0.31747 -0.10669
-0.09620 -0.05490 -0.17106
0.06718 -0.09965 0.00679
-0.17003 -0.06762 -0.03719
-0.17678 0.31747 -0.00916
-0.07657 -0.26874 0.17170
-0.08709 -0.15368 -0.20160
-0.16711 0.01974 -0.01227
-0.14564 0.22696 -0.11009
-0.13974 -0.04454 0.08259
-0.04528 -0.09965 0.08928
-0.11682 0.36847 0.15751
-0.11779 0.05101 -0.15958
0.18548 -0.27504 -0.18761
-0.02775 -0.09965 -0.15107
-0.07743 0.36009 -0.15922
0.18468 -0.21038 0.17148
-0.15344 -0.03664 -0.08998
-0.08321 -0.22987 -0.17318
-0.09784 -0.21138 0.18389
-0.07561 -0.26451 0.20106
-0.08729 -0.29236 -0.17318
-0.05375 0.32381 0.17783
-0.18003 0.36830 -0.07899
0.18599 -0.12163 -0.18208
-0.16694 0.40076 -0.08370
0.20447 -0.26167 -0.16829
0.16655 -0.09965 -0.03618
0.03083 -0.09593 -0.20749
-0.10630 0.32119 -0.12095
-0.07538 -0.18355 0.17221
0.20160 -0.37612 0.19771
0.14130 -0.06762 0.03884
-0.16380 -0.08002 0.11188
-0.07012 0.38343 0.16248
-0.00922 -0.09965 0.09252
-0.05056 -0.09965 0.08390
-0.09497 -0.06762 0.11799
0.14847 -0.06762 -0.03574
-0.11058 -0.06762 -0.06684
-0.04259 -0.09965 -0.08967
-0.11681 0.21433 0.15580
-0.08167 -0.06762 0.03287
-0.09504 0.18633 -0.15456
-0.05589 -0.06762 -0.15601
0.05444 -0.06762 -0.05683
-0.09216 -0.16295 -0.20160
-0.19027 -0.09050 0.07678
-0.13121 0.26810 -0.10164
0.14255 -0.06762 -0.06648
-0.17665 0.32383 0.08066
-0.15095 0.23873 -0.08746
0.20160 -0.33807 -0.19142
-0.12013 0.35752 -0.16362
0.09210 -0.09965 0.18883
-0.17485 0.14069 0.00800
-0.08283 -0.09965 0.05685
-0.11352 0.39790 -0.10987
-0.14156 0.33339 0.00249
-0.15823 0.40076 -0.02918
0.05252 -0.09965 0.01059
-0.09589 -0.22839 0.18049
-0.07457 -0.06762 0.11816
-0.08029 -0.14535 0.20013
0.19445 -0.20248 -0.20651
-0.15230 0.30176 0.00272
0.02733 -0.06762 -0.03328
-0.07495 -0.06821 0.17822
0.04018 -0.09965 -0.09547
-0.07999 -0.18293 -0.17506
0.18866 -0.09965 0.18999
0.03338 -0.09965 0.03028
-0.01138 -0.07353 0.18383
0.18599 -0.33731 0.20293
0.14399 -0.09965 -0.12842
0.00738 -0.06762 -0.08775
-0.13088 -0.04161 0.09542
-0.13292 0.33381 0.10170
-0.08056 0.37587 0.19058
-0.09610 0.31686 -0.17094
-0.05047 -0.06762 0.01124
-0.09591 -0.24697 -0.18660
-0.00753 -0.09965 0.18167
-0.11643 -0.09965 -0.01957
-0.10553 0.32053 0.17222
0.06852 -0.09965 0.10970
0.03252 -0.09965 -0.09926
-0.16947 0.04378 -0.01155
-0.11061 0.28940 -0.17361
-0.15461 0.26267 0.00788
0.05430 -0.06762 -0.07630
-0.12449 -0.06762 0.10986
-0.09633 0.28830 0.16655
-0.00304 -0.06762 0.00430
-0.09589 -0.10953 -0.20138
-0.09882 0.04546 0.14493
0.18599 -0.14328 -0.19287
-0.16913 -0.06762 -0.05208
-0.09157 0.38682 -0.14316
-0.12459 -0.06762 -0.09249
-0.11049 -0.06762 -0.12472
-0.15343 0.24235 0.10287
-0.04107 -0.09965 -0.03951
0.13626 -0.06762 0.12362
-0.09389 0.36174 -0.15641
-0.14580 0.05592 0.08221
-0.11662 0.29189 -0.16792
-0.11331 -0.01333 -0.15219
0.19367 -0.38768 0.20480
0.04828 -0.06762 -0.16225
-0.15364 0.33007 0.00648
-0.11036 0.28523 -0.15040
0.12461 -0.09965 -0.10563
-0.11126 -0.02525 0.14594
0.10190 -0.06762 -0.01523
-0.02548 -0.06762 0.09363
-0.11685 0.35139 0.15621
0.19201 -0.37959 -0.17318
0.18131 -0.26444 -0.19405
-0.09589 -0.23746 0.17414
0.09509 -0.09965 -0.14546
-0.14415 0.34835 0.08203
0.01864 -0.09965 -0.16106
-0.15369 0.35036 0.00660
-0.15500 -0.04538 0.08904
0.08686 -0.09965 0.12685
-0.16142 0.31747 -0.07354
-0.13213 0.20867 -0.10389
-0.15253 0.01164 -0.00330
-0.08898 -0.28455 -0.20160
-0.07576 -0.20730 0.16827
-0.20426 -0.09954 -0.05877
-0.11895 0.32519 0.15975
0.18599 -0.36302 0.17725
-0.17024 -0.09548 -0.13516
0.03761 -0.06762 -0.10044
0.18599 -0.23839 -0.18910
-0.16027 0.31747 0.02559
0.19548 -0.30952 -0.17318
-0.05252 -0.09960 -0.21136
0.18599 -0.11636 0.19807
-0.16309 0.16817 0.01285
-0.19154 0.31747 0.02196
-0.08029 -0.16457 -0.18106
-0.15817 0.17630 0.01116
-0.14172 0.37137 0.00064
0.20145 -0.09965 0.00422
0.17802 -0.06803 -0.13873
-0.17667 0.05575 0.00472
0.20160 -0.38317 0.18629
0.20160 -0.22790 -0.19645
0.20344 -0.18293 -0.19310
-0.06110 -0.09965 0.06282
-0.05705 -0.06762 -0.06422
0.19508 -0.25658 0.17198
-0.09258 0.04435 0.15118
-0.11812 -0.09965 -0.14014
-0.05560 -0.09965 -0.13687
0.18587 -0.07546 -0.12975
-0.09026 -0.20385 0.20651
0.20128 -0.28850 -0.17318
-0.13547 0.38811 0.04670
0.19469 -0.08382 0.01082
-0.13971 0.34701 0.02382
-0.15421 0.06272 0.08765
-0.09589 -0.37221 -0.17704
-0.13032 -0.06762 0.00956
-0.12310 0.31747 -0.13521
-0.14693 0.36928 -0.10978
-0.17879 0.35215 -0.08144
-0.05741 -0.09965 0.14807
-0.11406 0.33280 -0.10896
-0.11518 0.11045 0.16286
0.10948 -0.06762 0.12846
-0.17650 -0.09965 -0.12426
-0.16197 -0.09273 -0.14391
-0.16927 0.34653 -0.01163
0.11061 -0.09965 -0.17115
0.19833 -0.09965 -0.18538
0.10701 -0.09965 0.09554
-0.13782 0.40006 -0.09052
-0.09589 -0.11997 0.19326
-0.09977 0.38875 0.12596
0.18606 -0.07902 0.18963
-0.08935 -0.23402 -0.17318
-0.07414 0.39397 0.19494
0.20160 -0.14051 0.19434
-0.10741 0.27934 -0.14952
-0.12971 -0.09965 0.12958
-0.15349 -0.01245 0.10279
0.14074 -0.06762 0.14229
-0.14013 -0.00920 -0.10995
0.20651 -0.19895 0.19548
-0.16587 0.31747 -0.04675
-0.08029 -0.14450 0.17679
0.01243 -0.09965 0.07390
0.10347 -0.09965 -0.01843
-0.18096 0.33584 0.07211
-0.16622 0.31747 0.04609
-0.07538 -0.18757 -0.19423
-0.13613 0.40076 0.08130
-0.01078 -0.09965 -0.00518
0.07987 -0.09965 0.15067
0.01411 -0.06762 -0.09029
-0.13089 0.10768 -0.09443
-0.08560 -0.34685 0.17318
-0.08029 -0.36013 0.18141
-0.09551 -0.28484 -0.17318
-0.10806 -0.06762 -0.07341
-0.15557 -0.06762 -0.06057
0.02559 -0.06762 0.02724
-0.13756 0.31888 -0.08616
-0.05594 -0.09965 -0.05900
-0.14923 0.10254 0.08330
0.19364 -0.19947 -0.16827
-0.15157 0.34162 0.12298
-0.00389 -0.09965 -0.09992
-0.09589 -0.13716 0.18411
-0.09502 -0.26315 -0.20641
0.12839 -0.09965 -0.16181
0.00272 -0.09965 -0.05706
0.13248 -0.09965 -0.12133
-0.12987 0.36268 -0.07303
-0.11391 0.37874 -0.17147
0.19870 -0.35368 0.20480
-0.09830 0.01537 0.14512
0.10894 -0.06762 0.00224
0.18599 -0.15875 -0.17676
-0.03503 0.32908 0.19405
0.20045 -0.27421 -0.20268
0.00605 -0.09965 0.15225
-0.02247 -0.09965 0.12615
-0.10457 -0.06762 -0.01872
-0.05063 0.34419 -0.19998
-0.10765 -0.06762 0.02672
-0.16217 -0.01805 0.01274
-0.15145 0.18236 -0.10731
-0.09904 0.34733 0.17699
0.19360 -0.08278 0.14750
0.16088 -0.06762 -0.02831
0.14856 -0.09965 0.16166
-0.13247 0.31698 -0.10434
-0.09892 0.34982 -0.17316
0.04484 -0.06762 -0.04973
-0.11564 0.33939 0.10039
-0.06501 -0.09965 -0.19572
-0.03539 -0.07830 0.18887
0.18599 -0.32141 0.17762
-0.14174 0.33935 0.00049
0.08574 -0.09965 -0.11920
0.11893 -0.09965 -0.06841
0.04294 -0.09062 -0.20187
-0.09264 -0.06762 -0.04233
-0.11409 -0.05748 0.14862
-0.11599 -0.06762 0.00612
-0.14186 -0.01211 0.08217
-0.13409 0.31778 0.10316
-0.16681 0.38210 0.10017
-0.11458 0.09522 -0.17083
0.20668 -0.09516 -0.01314
-0.15514 0.20369 0.10019
-0.07497 -0.06762 -0.04880
-0.13923 0.06329 -0.08551
-0.10191 0.04611 -0.17440
-0.14878 0.19169 0.08313
-0.09032 -0.21595 -0.20160
-0.09699 0.35766 -0.17169
-0.09591 -0.09965 0.14413
-0.11581 0.28857 -0.15488
0.07081 -0.09166 -0.20298
0.01041 -0.09965 -0.12109
0.20160 -0.11545 -0.18265
-0.11180 0.15916 -0.17308
0.18599 -0.33648 0.19374
0.13473 -0.09965 0.13417
-0.09588 -0.21376 -0.20160
0.18729 -0.07681 -0.10419
0.13376 -0.06762 -0.11566
-0.09279 0.37679 0.15071
-0.15796 0.10008 0.01101
-0.14685 -0.09965 -0.14509
0.08026 -0.06762 0.16050
-0.01242 -0.07740 -0.18792
0.18599 -0.28485 -0.18016
0.13735 -0.07270 -0.18296
-0.06294 -0.09965 -0.04078
-0.08769 -0.09965 -0.13200
-0.18308 -0.09106 0.09755
0.20160 -0.31851 0.18726
-0.09171 0.32868 -0.18741
0.20614 -0.25743 -0.17967
-0.11804 0.20480 -0.16148
-0.14658 -0.06762 -0.04554
-0.15496 0.15219 -0.00784
-0.15865 0.35003 -0.01093
-0.11642 0.21180 -0.15571
-0.07783 -0.25614 0.20592
-0.08505 0.36857 0.14553
-0.08573 -0.10554 -0.17318
-0.08009 -0.09216 0.20350
0.20160 -0.22693 0.19883
-0.09581 -0.15083 0.20160
-0.09486 -0.06762 -0.17683
-0.02835 -0.06762 0.04475
0.01037 -0.09965 0.08855
0.10047 -0.09965 0.20413
-0.01836 -0.09965 -0.10809
-0.10776 0.33872 -0.17455
-0.14576 0.35445 0.13083
-0.07626 -0.25510 -0.20115
-0.09569 -0.34065 -0.17318
0.18940 -0.09965 0.01819
0.06258 -0.06762 0.00137
0.08585 -0.09965 -0.03620
-0.00720 -0.09965 0.15610
-0.04181 -0.06762 0.03592
-0.17241 -0.01629 0.01042
-0.09589 -0.31249 -0.18754
-0.17733 0.19085 0.00229
-0.14437 0.30150 -0.11023
0.06734 -0.06762 -0.07159
-0.12267 -0.09965 0.11918
-0.04015 -0.09965 0.12515
0.18599 -0.10420 -0.19877
-0.09437 -0.09965 -0.18730
-0.17589 0.29761 0.00659
-0.16632 0.31747 0.05666
-0.03037 -0.09965 0.02584
0.04285 -0.06762 0.03148
-0.10053 -0.26475 0.19166
-0.05679 -0.06762 -0.11246
-0.14972 0.28983 0.10596
-0.18474 0.38281 0.05944
0.20160 -0.28742 -0.17857
0.16038 -0.06762 -0.11879
0.06259 -0.09460 -0.20609
-0.11662 0.30610 0.15873
-0.15255 0.08270 0.08557
0.12506 -0.09965 -0.18525
-0.06926 -0.08946 0.20066
0.10748 -0.09965 -0.02402
0.19529 -0.08438 0.15273
-0.07327 -0.09965 -0.18091
0.01948 -0.06762 0.01031
-0.06983 0.31747 0.16363
-0.04617 -0.09965 0.16228
-0.10289 0.00329 0.14386
-0.14014 0.22746 0.08243
-0.01731 -0.09965 0.08083
-0.08029 -0.27699 -0.18645
-0.14319 0.24472 -0.08480
-0.14177 0.13060 -0.11020
-0.06682 -0.06762 -0.14463
-0.09161 -0.08583 -0.19682
0.02946 -0.07643 -0.18690
-0.11257 0.37100 -0.17249
0.12173 -0.06762 -0.08375
-0.02552 -0.09965 0.14415
0.20651 -0.20611 0.20262
-0.05663 0.31948 -0.19998
-0.15612 -0.02018 0.09735
-0.10427 0.34153 -0.12408
-0.08993 0.34380 -0.14502
-0.08823 -0.16338 0.17318
0.19085 -0.24683 0.20480
-0.11751 0.34138 -0.16578
-0.16439 -0.09694 -0.14904
-0.06903 -0.09965 0.15985
-0.08029 -0.37061 0.17474
0.14661 -0.09965 0.02738
0.13444 -0.06762 -0.07777
-0.08029 -0.16980 0.17712
0.14614 -0.06762 -0.15329
0.03819 -0.09965 -0.01946
-0.12381 0.38817 -0.08721
0.10040 -0.07230 -0.18254
-0.02731 -0.06762 0.16706
-0.10070 -0.06762 0.08404
-0.10763 0.40076 0.16581
-0.11657 0.01186 -0.15606
0.01161 -0.09659 0.20818
0.09927 -0.09965 0.09002
0.19942 -0.21138 -0.20249
0.19667 -0.30711 -0.20160
0.13897 -0.09965 0.20256
-0.10235 0.31972 -0.12703
-0.12520 -0.09965 0.16883
-0.17892 -0.09965 0.09179
-0.04436 -0.09965 0.14582
-0.13940 0.16811 -0.08544
0.17702 -0.06762 -0.02063
0.02557 -0.06762 -0.09687
-0.09589 -0.27764 -0.18296
-0.15282 0.04984 -0.10595
-0.15558 0.08369 -0.10107
-0.09432 0.02083 0.16465
-0.10812 0.39328 0.16857
0.04817 -0.07536 0.18577
-0.09474 0.11827 -0.15495
-0.13219 0.16103 -0.09118
0.20123 -0.09965 0.02482
-0.17540 0.35217 -0.00680
-0.15218 0.15571 -0.00140
0.20160 -0.30075 0.18589
-0.12152 -0.09685 -0.19918
-0.06424 -0.09965 -0.10377
-0.07669 -0.09965 0.13561
0.07662 -0.07109 0.18125
-0.14517 0.27715 0.10737
-0.00573 -0.09965 0.09939
0.17956 -0.06949 -0.16646
0.17113 -0.09965 0.18914
-0.15513 0.37639 -0.12320
-0.18760 -0.08518 0.06367
-0.13882 0.04044 0.08299
-0.06423 0.36944 0.16874
-0.13609 0.40076 -0.11515
-0.12585 -0.09965 0.07679
-0.09208 0.40076 -0.15102
-0.15418 0.14567 -0.00677
-0.15619 0.22618 -0.00915
-0.01280 -0.09965 0.07851
-0.13399 -0.09965 -0.13271
0.12746 -0.09965 0.10399
-0.08848 -0.09965 0.19711
-0.06943 0.33104 0.19494
-0.05303 0.36398 -0.19998
-0.14014 0.34253 0.10703
-0.08029 -0.31923 0.17532
-0.08146 -0.06762 0.10838
-0.05044 -0.07920 -0.18982
-0.10284 0.31747 0.13196
0.00045 -0.09965 -0.19942
0.18194 -0.25522 0.18830
-0.13358 0.33887 0.05387
0.18387 -0.07357 0.15559
0.09946 -0.06762 0.05417
0.13913 -0.06762 -0.14987
0.00180 -0.09965 0.06035
-0.13305 0.35703 0.08769
0.18580 -0.21138 0.20718
-0.11439 0.08828 -0.17109
-0.09256 -0.38165 0.17318
-0.16194 0.27279 -0.01216
-0.09568 0.24596 -0.15373
-0.11598 0.04871 0.16109
-0.17362 0.31747 0.00303
-0.11070 0.04056 0.14554
0.14820 -0.06762 -0.16161
0.13006 -0.06762 0.02479
-0.14458 0.40076 0.09440
-0.11760 0.11304 -0.15854
-0.17730 0.02766 -0.00189
-0.15600 0.27903 0.09159
-0.00814 -0.09965 0.00882
-0.08745 -0.09965 0.12347
0.02291 -0.09965 0.10736
-0.10632 0.04626 0.14400
0.00080 -0.09965 0.15299
0.10340 -0.09965 0.19886
-0.08029 -0.10252 0.18294
0.05264 -0.08492 0.19586
-0.08228 -0.32304 -0.20160
0.20160 -0.31461 0.18313
-0.18247 0.35503 0.06718
0.03784 -0.09965 -0.17189
-0.00809 -0.06762 -0.03830
-0.09604 0.34340 0.16632
-0.15080 -0.02430 0.10528
-0.12062 0.36502 0.08929
-0.10060 0.03163 0.16880
0.12966 -0.07441 -0.18476
-0.04974 -0.09965 -0.02996
-0.13990 0.39212 -0.02675
0.16982 -0.09965 0.01217
0.09898 -0.06894 0.17899
-0.03089 -0.06762 0.11952
-0.09450 -0.31104 0.20160
-0.13554 0.11836 0.10457
-0.11326 0.37482 -0.11026
-0.00439 -0.09965 0.03102
-0.08029 -0.30734 -0.17650
-0.14788 0.25941 0.10676
-0.13212 0.39009 -0.06446
-0.09153 0.01955 0.15836
0.13579 -0.09965 -0.15509
-0.09205 0.38335 0.16052
-0.09589 -0.38860 -0.19955
-0.00392 -0.09965 -0.16318
-0.14619 0.33475 -0.13528
0.18696 -0.28492 0.17638
-0.02968 -0.06762 0.00687
0.00989 -0.09965 -0.16148
0.18814 -0.07761 0.10680
-0.17093 -0.05201 0.01143
-0.17952 -0.09965 0.00131
0.06699 -0.09965 -0.12319
-0.09278 0.18943 0.15074
-0.13082 0.08859 -0.10060
-0.09993 -0.03390 -0.15053
-0.15316 0.11643 0.10323
0.04440 -0.06762 0.00487
-0.17843 -0.07664 -0.06320
-0.03851 -0.06762 0.06276
-0.08299 -0.09965 -0.07391
-0.09567 -0.16906 -0.17318
-0.12345 -0.09965 0.03520
0.14184 -0.09965 0.02061
0.18734 -0.09965 0.15651
0.03984 -0.06762 0.07289
-0.16554 0.37079 -0.10772
-0.10716 0.08587 0.16893
0.20651 -0.19234 -0.19733
0.15109 -0.06762 -0.02696
0.20224 -0.09096 -0.17808
-0.09589 -0.34457 -0.19403
0.02445 -0.09965 0.06569
-0.09303 -0.09965 -0.07184
-0.13691 -0.01592 -0.08647
-0.08089 -0.11271 -0.17318
0.19818 -0.08711 -0.07208
-0.12118 0.31747 0.12813
-0.15601 0.36828 0.09168
0.18625 -0.09965 0.09176
-0.11385 -0.07513 -0.17166
0.18914 -0.28448 0.20480
0.13617 -0.09965 0.21133
-0.03841 -0.06762 -0.15183
0.08704 -0.09965 0.01263
0.10116 -0.09965 -0.09227
-0.08486 -0.40076 0.18760
0.00797 -0.09965 0.00696
-0.15509 0.38477 -0.12325
0.16484 -0.09965 0.14762
-0.09478 0.06201 0.14785
-0.14060 0.31747 0.12732
-0.15133 -0.06762 0.02126
-0.13481 0.40076 -0.08600
0.01725 -0.06762 0.03180
-0.02320 -0.06762 -0.13131
-0.03802 0.38002 -0.19998
-0.15608 0.07981 0.09772
-0.09140 0.26428 0.15702
0.18599 -0.10627 -0.18529
0.14538 -0.09965 -0.03217
-0.09705 0.10206 0.14594
-0.17186 0.40006 0.00505
0.11998 -0.06762 -0.10716
-0.09239 -0.30159 0.17318
-0.14242 -0.02276 0.10740
-0.09548 -0.32326 -0.17318
-0.17426 0.40076 -0.03862
-0.12460 -0.09965 0.15509
0.04585 -0.06762 -0.02657
-0.08029 -0.17389 -0.19969
-0.00278 -0.06762 0.09596
0.18109 -0.19812 -0.18310
-0.13108 -0.09965 -0.11052
0.07016 -0.06762 -0.00421
-0.15029 -0.09965 0.03210
-0.16521 0.35461 -0.10837
0.17369 -0.09965 -0.15261
-0.15439 -0.00115 -0.00706
-0.08029 -0.31337 0.19113
-0.09133 0.32942 0.15633
-0.13093 0.30695 -0.10092
0.12775 -0.09965 0.04757
-0.12291 -0.06762 0.07302
-0.18535 -0.09965 0.05441
-0.09437 -0.09965 0.09184
0.19613 -0.09965 -0.09294
-0.15081 0.15634 0.08426
-0.09836 -0.09965 0.10739
0.04049 -0.06762 0.15118
0.20160 -0.14141 -0.19272
-0.15499 -0.09965 -0.02769
0.16516 -0.09965 -0.11645
-0.10893 -0.06762 0.08899
-0.13684 0.30034 0.08392
-0.13665 0.32976 -0.04722
-0.08661 -0.21138 0.20595
0.01850 -0.09965 0.14444
0.20651 -0.19757 0.18421
-0.11213 0.30939 0.16639
0.18129 -0.25839 0.17577
-0.16105 0.38508 0.01243
-0.15404 0.38528 -0.09078
-0.15221 0.13011 0.08529
-0.15282 0.10804 -0.00404
-0.08927 -0.17505 0.20160
-0.08029 -0.12985 0.19043
-0.10689 -0.09965 0.14552
-0.13777 -0.09965 0.15383
-0.16740 0.00285 -0.01224
0.19574 -0.08480 0.17077
-0.13215 0.26555 -0.09128
-0.13125 0.39887 -0.06780
-0.10133 -0.09965 0.17128
0.19795 -0.09965 0.03834
-0.15290 0.16956 -0.08924
-0.05929 -0.09965 -0.19599
0.19589 -0.08494 0.01802
-0.02391 -0.06762 0.00378
-0.16329 -0.08844 0.13181
-0.15560 -0.09965 0.04475
-0.08468 -0.19118 -0.16827
-0.10884 0.34589 0.14470
0.18599 -0.13504 -0.17676
0.20265 -0.09965 0.10527
-0.10855 -0.09965 -0.07509
-0.11555 0.10281 0.15084
-0.16319 0.18053 -0.01236
0.10574 -0.09965 -0.14792
-0.13289 0.00746 0.08792
0.17666 -0.07558 0.18599
0.01393 -0.09965 -0.08273
0.05230 -0.07283 -0.18310
-0.08128 -0.06762 -0.11317
-0.14073 0.33162 0.01210
0.19757 -0.18028 -0.17318
-0.13875 -0.06762 0.06857
-0.05335 0.38556 0.19494
-0.06836 -0.09965 -0.14162
-0.09589 -0.36455 0.19440
0.18599 -0.12826 0.18039
0.20612 -0.09463 -0.17869
-0.15337 0.36886 -0.10526
-0.08029 -0.24014 -0.19927
-0.13314 0.32266 -0.06060
0.17441 -0.06762 0.03179
-0.13148 0.36623 0.09095
0.19242 -0.22394 -0.17318
-0.09589 -0.12547 -0.19145
0.18759 -0.24123 -0.20160
-0.15052 -0.07050 0.11437
-0.09653 -0.27486 0.18438
0.11727 -0.09965 0.12671
0.05399 -0.09965 0.05434
-0.11269 0.36201 -0.17240
-0.19817 -0.09965 -0.00779
-0.20105 -0.09192 0.03053
0.16026 -0.09965 -0.06114
-0.10263 0.33429 -0.17452
-0.14680 0.40076 -0.00233
-0.14445 -0.06762 0.09971
-0.16083 0.31747 0.04617
-0.10362 0.17825 0.16930
0.06687 -0.09965 -0.02943
0.07007 -0.08925 0.20043
-0.16290 0.35761 0.10765
-0.02706 -0.08586 0.19685
-0.14270 0.40076 0.00970
-0.14594 0.14212 0.10725
0.12892 -0.09965 -0.15048
-0.08288 0.39511 -0.15303
-0.07821 0.40076 0.17020
-0.13066 0.04769 -0.09917
-0.16880 0.11312 0.01236
-0.11638 0.25259 0.15303
-0.04075 -0.09965 -0.03120
-0.18194 0.40076 -0.03848
0.16059 -0.06762 0.08041
-0.10819 0.31747 0.16111
0.11545 -0.09965 0.04553
-0.03559 -0.06762 0.07096
0.12889 -0.09965 0.08324
-0.09255 0.15765 -0.16156
-0.12643 -0.07773 -0.16349
-0.18809 -0.09965 -0.02041
0.00013 -0.06762 0.16832
0.04764 -0.08840 0.19953
-0.11210 0.36839 -0.11205
-0.12104 -0.06762 -0.03832
0.09306 -0.09965 0.15744
-0.10887 0.38533 0.16967
-0.15713 0.39753 -0.12048
-0.16393 0.15371 0.01294
0.18599 -0.35226 0.20411
0.15651 -0.06762 0.06578
-0.16510 -0.09965 0.11806
0.20160 -0.18087 -0.18053
0.00061 -0.09965 -0.12846
0.18599 -0.39293 -0.18634
-0.14874 0.23359 0.08311
-0.08031 -0.06762 -0.08221
0.08069 -0.06762 0.12344
-0.08138 -0.06762 -0.14237
-0.17728 0.25724 -0.00205
0.18565 -0.19398 -0.20651
-0.05212 -0.06762 -0.17485
0.08259 -0.09965 -0.13629
-0.17679 0.21721 0.00441
-0.09689 0.36324 0.17857
-0.00951 -0.06762 -0.07030
-0.14930 0.01360 -0.08635
0.14668 -0.06762 0.17213
0.14627 -0.09965 0.15256
-0.13091 0.15781 0.09422
-0.14167 -0.09965 -0.09240
-0.18805 -0.07985 -0.03397
-0.15433 0.28179 -0.10397
-0.15207 -0.05674 -0.10686
0.18224 -0.07202 0.04523
0.12024 -0.09965 0.15748
0.00477 -0.06762 0.09171
0.18599 -0.33058 -0.19215
-0.14132 0.05666 -0.08501
-0.09643 0.11655 0.16663
-0.08029 -0.10529 -0.17389
0.18685 -0.07638 0.17840
-0.08029 -0.32195 -0.18183
-0.10701 -0.09965 -0.17827
0.10778 -0.09965 0.02915
-0.15443 0.16195 0.00765
-0.12461 0.31747 0.08936
-0.06277 0.37342 0.19494
0.17434 -0.09965 0.07685
-0.04040 -0.06762 0.11532
-0.14383 0.40076 0.12768
-0.11661 0.28673 0.15882
-0.16052 0.35913 -0.01175
-0.01321 -0.09376 -0.20520
-0.16719 0.40006 -0.00640
-0.19415 0.32699 0.01192
-0.09613 0.29992 -0.15314
-0.08746 -0.31680 -0.20160
0.16627 -0.09965 0.11234
-0.07993 -0.09965 -0.18537
-0.08029 -0.21736 0.18802
0.15524 -0.09965 -0.02976
-0.10802 0.38586 -0.11832
0.03619 -0.09965 -0.05424
0.02817 -0.06762 -0.16183
0.05459 -0.06762 0.09687
-0.15607 0.30004 -0.09784
-0.11478 0.00836 0.14958
0.12975 -0.09965 -0.16720
-0.12968 -0.08184 -0.16689
-0.09388 0.10875 -0.15643
-0.09651 -0.09965 0.04964
-0.08029 -0.33574 -0.17571
0.16677 -0.06762 0.11851
0.09968 -0.09965 -0.17278
0.18599 -0.22289 -0.17890
-0.04301 -0.09965 0.04277
-0.10056 -0.25816 0.19772
0.00194 -0.08853 0.19967
0.19451 -0.23125 0.17638
-0.15269 -0.09389 0.15890
-0.07715 -0.09965 -0.02413
-0.15222 -0.09965 -0.11264
0.20160 -0.10673 -0.17967
-0.16624 -0.09965 0.06267
0.12208 -0.06762 0.06808
-0.10813 -0.09965 -0.03439
0.19603 -0.16162 -0.17318
-0.16859 0.03495 -0.01190
-0.08085 -0.28722 0.17318
0.19598 -0.08504 0.14081
0.20160 -0.17961 0.18268
-0.14735 0.31747 0.03261
-0.09589 -0.33960 0.18016
-0.09392 0.02610 -0.16778
-0.13415 0.26979 0.10323
-0.06635 -0.09965 -0.05755
-0.13827 0.33705 0.03605
0.15715 -0.06762 -0.00473
0.13635 -0.09965 -0.14406
-0.10465 -0.06762 -0.09626
-0.19400 0.37213 0.01347
0.10698 -0.06762 -0.13975
0.21090 -0.09916 -0.15407
0.01345 -0.09965 0.10287
0.06782 -0.09965 -0.00370
0.10732 -0.06762 -0.05637
0.18599 -0.21540 0.17672
-0.10048 -0.06762 -0.14612
-0.08199 -0.24895 -0.20297
-0.09039 0.39367 -0.14450
-0.15397 -0.09965 0.03955
-0.17661 -0.09965 0.10034
-0.16318 -0.09965 -0.07909
-0.08894 -0.21138 0.17106
0.13328 -0.06762 -0.10834
-0.04408 -0.06762 0.14222
0.03364 -0.09965 -0.07835
0.04524 -0.09965 0.01299
-0.09145 -0.09965 0.11672
-0.10403 0.32626 -0.17470
-0.11718 0.15373 -0.15753
0.18125 -0.26406 -0.20466
0.03808 -0.09965 0.00811
-0.09282 -0.30612 0.20160
-0.13759 0.31747 -0.10544
0.18682 -0.07636 0.07378
0.20204 -0.20797 -0.16827
-0.05202 -0.09965 0.02297
-0.06970 0.34863 0.16297
-0.08029 -0.32899 -0.18994
-0.12841 -0.06762 0.07775
-0.13332 0.40006 -0.10410
0.20109 -0.40008 0.20480
-0.11705 0.34605 -0.10229
0.15042 -0.09965 -0.15933
0.05286 -0.06762 0.05316
0.03311 -0.06762 0.10389
-0.11384 -0.09965 0.11870
0.08629 -0.09965 0.13900
-0.14077 0.34710 -0.01669
-0.18719 0.36039 -0.05615
-0.13187 0.17599 -0.09192
-0.13132 0.22965 -0.09317
-0.09197 -0.31884 0.17318
-0.13476 0.33511 0.04937
0.18109 -0.19194 -0.18815
0.02903 -0.09965 -0.03841
-0.12202 0.32578 -0.16175
0.18172 -0.18293 -0.17158
-0.00558 -0.09965 -0.04674
0.17752 -0.06762 0.06275
-0.12927 -0.07234 0.14985
-0.14386 0.38666 -0.11029
0.11504 -0.09965 -0.12872
0.08960 -0.09965 -0.10846
-0.14192 0.36350 -0.00164
0.19259 -0.29719 -0.17318
-0.15239 -0.01598 -0.08861
-0.09680 -0.01159 -0.17154
0.20160 -0.10958 0.18809
-0.08866 -0.06762 -0.10086
0.06222 -0.09965 -0.16579
0.06980 -0.09965 -0.05347
-0.06409 -0.09965 -0.12506
-0.15543 0.14893 -0.09381
0.16985 -0.09965 0.05695
-0.12298 -0.09965 0.14441
-0.03839 0.35241 0.19114
-0.07540 -0.26099 -0.18905
0.03477 -0.06762 -0.02187
0.10797 -0.06762 0.15946
-0.16635 0.30516 -0.01235
-0.14989 0.04585 -0.08661
0.18599 -0.29744 -0.19475
-0.15228 0.39291 0.00258
0.15849 -0.06762 0.15183
-0.10502 0.24419 0.14378
0.07338 -0.06762 -0.10436
-0.10203 -0.06762 0.09053
-0.11144 0.30290 -0.15085
-0.17703 0.24387 0.00380
0.12712 -0.06762 -0.08607
0.18109 -0.19001 0.19233
0.06002 -0.06762 0.12309
-0.09704 0.29182 -0.15238
0.19246 -0.16850 0.17638
-0.11666 0.18737 0.15433
-0.05784 -0.06762 0.14341
0.10500 -0.06762 -0.06097
0.10788 -0.06762 -0.12269
-0.14591 0.40076 0.04915
-0.15754 0.40076 -0.06567
0.07607 -0.09965 -0.19484
0.08111 -0.09965 0.06720
0.02285 -0.09965 0.19060
0.21055 -0.09883 -0.07754
-0.10874 0.16031 0.14466
-0.09361 -0.40076 0.19199
-0.19549 0.32127 -0.00307
0.17245 -0.06762 0.02500
0.01062 -0.09965 0.02410
-0.18112 0.34286 0.07175
-0.11797 0.11998 -0.16316
-0.15516 0.39371 -0.09312
-0.17072 0.38335 0.09241
0.05887 -0.09965 -0.03521
-0.08560 -0.13170 0.20160
-0.11094 -0.06762 0.07458
-0.16679 0.10163 0.01280
-0.08181 -0.06762 -0.00958
-0.16084 0.32989 -0.11546
0.18599 -0.30580 0.19034
0.07883 -0.09524 -0.20675
-0.19470 0.33041 -0.01121
-0.15144 0.36076 0.08473
-0.11589 0.36650 0.09985
-0.19182 0.36635 -0.04040
-0.11576 0.32105 0.10013
0.05964 -0.09965 -0.18925
-0.10139 0.40006 -0.16065
-0.15598 0.19867 -0.09705
-0.14337 0.36781 0.13406
-0.10325 -0.09965 -0.01406
0.08375 -0.06762 -0.05018
-0.13922 0.05789 0.10667
0.00826 -0.09965 0.06573
-0.12394 0.39417 -0.15987
-0.13068 0.18985 -0.09579
0.18599 -0.37026 0.19337
-0.20274 -0.09965 -0.01321
-0.11709 0.10834 -0.16680
-0.08029 -0.27743 0.17417
-0.04150 -0.06762 0.07112
-0.10292 0.00566 -0.17456
-0.17973 0.39470 0.07455
-0.13474 0.37406 0.04948
0.20160 -0.12931 -0.19350
-0.11923 0.33243 0.09240
0.17124 -0.09965 -0.08271
-0.04446 -0.06762 -0.03606
-0.11787 0.24599 -0.16388
0.10848 -0.06762 0.09548
-0.16902 0.01137 0.01226
-0.17976 0.31747 -0.01637
-0.12714 0.38579 -0.07979
-0.09137 0.30117 0.15573
0.18599 -0.17114 0.19657
-0.09517 0.35641 0.14737
-0.13226 0.40076 0.09848
-0.09227 0.35824 -0.18701
-0.15034 0.38049 -0.12967
-0.05587 -0.06762 0.00945
-0.12471 0.40076 0.14514
-0.08943 -0.12020 0.17318
-0.04247 -0.06762 -0.01168
-0.13154 0.08247 -0.10248
-0.17126 -0.06924 -0.05927
-0.10040 0.38683 -0.18102
0.09601 -0.06762 0.06336
-0.08270 0.33573 -0.19404
-0.17700 0.19061 -0.00352
-0.17193 0.31747 -0.04366
-0.17176 -0.07144 0.06785
-0.06204 0.31747 -0.19474
0.18184 -0.09965 0.15773
0.08488 -0.06762 0.11279
-0.08029 -0.14281 -0.19385
-0.16254 0.31747 -0.08930
-0.12012 -0.09965 0.06359
-0.09801 0.34200 0.14525
0.15390 -0.09965 0.15302
-0.07949 -0.06762 0.13589
0.11048 -0.09965 -0.18758
-0.09589 -0.28215 0.18024
-0.16505 -0.09965 0.05609
-0.11078 0.01815 -0.17354
-0.14274 0.29050 -0.08485
-0.18601 -0.08038 0.04722
0.19420 -0.30730 0.17638
0.20160 -0.21583 0.17751
-0.10907 -0.06762 0.13979
0.06850 -0.06762 0.13105
-0.18463 -0.09593 0.10823
-0.03870 -0.08577 -0.19676
0.20364 -0.09965 0.09236
-0.13658 0.01146 0.10534
-0.15707 0.31747 -0.11445
-0.09589 -0.32629 -0.19758
0.08590 -0.08560 0.19658
-0.13924 0.39166 0.10668
-0.14707 0.16787 -0.08537
-0.20044 -0.09965 -0.03340
-0.15343 -0.04281 -0.10519
0.20476 -0.25254 0.17444
-0.04989 0.36367 0.19494
-0.02020 -0.09965 0.02295
0.19406 -0.35412 -0.20160
-0.15480 0.10840 -0.10289
-0.08433 -0.31823 0.20160
0.20160 -0.28994 0.19796
-0.14789 0.40076 -0.04990
-0.06247 0.36317 0.17027
-0.01460 -0.09965 -0.09471
-0.11080 0.12702 0.14558
-0.08029 -0.32808 -0.20135
0.12658 -0.08799 0.19910
0.17234 -0.06762 -0.02693
-0.11960 -0.09965 -0.04220
0.04123 -0.06762 -0.13969
0.01371 -0.09965 -0.15217
-0.00165 -0.06762 0.12180
0.20082 -0.09965 0.11852
0.19028 -0.07963 -0.15337
-0.17734 -0.07921 0.07672
0.08689 -0.09965 0.05976
-0.16091 0.40076 0.07937
-0.04084 -0.06762 -0.09365
-0.04671 0.35703 -0.19998
-0.14300 -0.01650 -0.11038
-0.16511 -0.09661 0.14699
0.01679 -0.06762 -0.16577
0.02498 -0.09965 -0.14403
-0.14103 0.39543 0.00860
0.10581 -0.06762 -0.01865
0.17705 -0.09965 -0.17845
-0.09340 0.04473 -0.15761
0.19044 -0.11713 -0.20160
0.00315 -0.09965 -0.13938
-0.09322 0.36338 0.16311
-0.09779 0.08973 -0.15181
0.06411 -0.09965 0.16303
-0.13282 0.39550 0.05678
-0.14845 -0.09965 0.05743
-0.09067 -0.09965 0.16482
-0.09589 -0.31801 -0.18605
0.20160 -0.34060 0.18863
-0.14728 0.25755 0.08254
-0.05786 -0.06762 0.12283
0.18599 -0.38490 -0.19625
-0.09531 0.20080 -0.16990
0.07522 -0.06762 0.07515
-0.12326 0.40076 -0.11109
-0.13941 0.40076 -0.03491
0.05855 -0.06762 -0.04135
