ply
format ascii 1.0
comment VCGLIB generated
element vertex 1813
property float x
property float y
property float z
element face 0
property list uchar int vertex_indices
end_header
0.15020 0.20444 0.09607
0.16814 0.18976 0.17846
-0.11850 -0.26775 0.12347
-0.15505 0.04642 0.11501
0.14401 0.20471 0.15013
-0.15505 0.14591 -0.13572
-0.20307 0.37952 -0.12126
0.17088 -0.30585 0.16528
-0.10463 0.21810 0.14941
0.00171 0.10885 -0.13513
0.20431 0.15766 0.17734
0.00710 0.21084 -0.07341
0.20431 0.01696 0.16299
-0.15871 0.25412 0.07472
-0.15038 -0.00927 -0.11116
0.20431 0.13407 0.14531
-0.08378 0.06119 -0.03210
0.19382 0.04572 0.18129
-0.14852 -0.29201 -0.12812
0.00060 0.11379 0.16111
-0.08744 0.20686 0.15199
0.18840 0.03999 0.18082
-0.11809 -0.25138 -0.13395
-0.12075 0.33637 0.08781
-0.13214 -0.21819 0.10401
-0.15038 -0.00992 0.11526
-0.19516 0.36803 0.02363
0.19133 -0.27572 -0.17905
0.04519 -0.16444 0.14759
0.12915 0.20538 0.14831
-0.13484 0.38758 0.14708
0.13505 0.20511 -0.09635
-0.20242 0.39659 -0.01989
-0.15648 0.21617 0.10307
-0.16055 0.28556 0.04837
0.06748 0.20813 0.02255
0.18644 -0.13963 -0.18064
-0.12852 -0.29554 0.13435
0.16798 -0.09541 -0.16306
-0.10806 0.25754 0.10369
0.18070 0.08845 -0.18014
-0.15624 0.21212 0.11203
0.10947 0.17921 -0.17239
-0.15505 0.15930 0.06739
0.20404 0.18320 0.18218
0.08533 0.20361 -0.16989
-0.13575 0.02215 -0.10342
0.20431 -0.15231 -0.17150
0.09430 0.20694 0.15264
-0.15971 0.27128 0.11229
-0.12561 0.05289 0.14804
0.14597 -0.16607 -0.15697
-0.19330 0.36644 -0.07628
0.09363 0.11631 0.00204
0.00214 0.10898 -0.02295
-0.16326 0.33186 0.05693
0.13471 0.11631 0.09210
0.14164 0.11631 0.00146
-0.10136 0.20193 0.11970
0.20431 0.14765 -0.02693
0.12087 0.11631 -0.05552
0.20431 0.00926 0.17382
0.16829 0.11631 -0.15730
-0.15505 0.07243 -0.08318
-0.16122 0.29698 -0.03079
0.02035 0.21024 0.07966
0.07743 0.20769 -0.10742
-0.01450 0.10342 -0.04905
-0.12988 0.37465 -0.02528
-0.06072 0.07931 -0.13816
0.17510 0.11631 0.13631
-0.12029 -0.15415 -0.12510
-0.10299 0.19810 -0.07639
0.05812 0.20855 0.07273
0.13443 0.20514 0.15118
-0.15422 0.29117 -0.14508
0.03553 0.11537 0.01662
0.18344 -0.17078 0.18038
-0.10379 0.20597 0.10805
0.19485 -0.26994 0.17948
-0.11912 -0.29315 0.10613
0.17560 -0.14547 -0.17969
-0.11723 0.02978 0.11400
-0.03151 0.21256 -0.03182
-0.07749 0.21462 0.06575
-0.14814 0.41251 0.03434
0.05651 0.11631 -0.16344
-0.11907 0.24655 -0.14872
-0.12271 0.34525 -0.04923
0.04074 0.16133 0.16527
0.12335 0.11631 -0.00188
-0.12051 -0.23214 -0.13593
-0.15505 0.06909 -0.02180
0.16095 0.12629 -0.17772
-0.09857 0.20629 0.00686
-0.15852 0.25095 0.09703
-0.16954 0.34931 0.13154
-0.15250 0.41501 -0.08775
-0.13370 0.25199 -0.14720
-0.11809 -0.05043 0.13704
-0.09551 0.05002 0.03613
-0.12708 0.36362 0.06189
0.15720 0.11631 -0.13471
-0.12722 0.36415 -0.03300
0.01434 0.21051 -0.06249
0.20291 -0.23953 0.16392
-0.10558 0.22974 0.11020
-0.11499 0.30763 -0.03732
-0.20349 0.38124 0.02713
-0.15620 0.21139 0.05084
0.08094 0.20753 -0.01987
-0.10396 0.20849 -0.05996
-0.16247 0.41789 0.10942
-0.10891 0.26604 -0.04893
-0.15505 0.12760 -0.09023
-0.11874 -0.07729 0.10396
0.02684 0.20995 -0.01731
-0.10665 0.24253 -0.00776
0.19276 -0.16559 0.13758
0.05363 -0.15933 0.13454
-0.18861 0.41281 0.06712
0.12890 0.11631 -0.07817
-0.03781 0.09316 -0.02588
0.19353 -0.33307 0.17806
0.08853 0.11631 -0.16269
-0.06394 0.21401 -0.12577
0.20431 0.11896 0.06942
-0.12117 -0.03397 0.10396
-0.15291 0.03077 0.04211
-0.14793 -0.31619 -0.12325
0.18041 0.19898 0.17973
-0.14864 -0.28697 -0.10515
-0.15505 0.09295 -0.08860
0.20431 0.17347 -0.09447
-0.13251 0.38454 -0.04982
-0.17075 0.35083 -0.09663
0.05770 0.20857 0.05866
0.20431 0.15477 0.10594
-0.10648 0.24075 -0.14749
-0.16027 0.28090 -0.10622
-0.04521 0.21318 0.00871
0.06328 0.11631 0.09352
0.20266 -0.05787 -0.14588
0.03066 0.11483 0.08669
0.17255 -0.12566 -0.14588
-0.01644 -0.15268 0.12547
0.09646 0.20684 0.08564
-0.11350 0.29940 -0.04293
-0.12494 0.03077 -0.09556
0.19538 0.11631 -0.01986
-0.00080 0.10813 -0.01696
0.20431 0.16672 0.04133
-0.15904 0.25975 0.09852
-0.02886 0.12766 0.15806
-0.15027 0.39611 -0.14549
-0.13228 0.34087 0.14735
-0.16597 0.34344 0.12876
-0.13271 -0.27426 -0.13391
-0.10517 0.22481 -0.03379
-0.09264 0.21171 -0.02283
-0.13531 -0.41574 -0.10832
-0.14425 -0.39819 -0.10789
0.07233 0.15745 0.16854
0.16798 -0.05458 0.16733
0.03646 0.20952 0.09678
0.06341 -0.16573 0.14785
-0.11723 -0.14617 -0.12386
-0.13474 0.39253 0.03615
-0.12216 0.34286 -0.07826
-0.11416 0.03077 -0.14736
-0.03411 0.21268 0.12634
0.19564 -0.16357 -0.07865
0.17750 -0.30756 -0.14882
-0.12097 0.16467 -0.14852
-0.14768 -0.32564 0.13200
0.18966 -0.37432 0.15033
-0.02300 0.18074 -0.15867
0.17998 0.11631 0.07374
-0.15038 -0.08364 -0.10497
-0.16044 0.28367 0.02472
0.18471 -0.33620 -0.14947
0.17375 0.20324 -0.17407
0.20431 0.13560 0.13165
0.18985 -0.14841 0.11284
-0.15505 0.14993 0.13920
0.10532 0.11631 0.12391
-0.15980 0.27276 0.09606
-0.01078 0.10480 0.03486
0.20431 0.17414 0.10796
-0.12926 -0.19875 0.10396
-0.05226 0.21349 -0.11246
0.13332 0.11631 -0.07505
0.19045 0.01921 -0.14588
-0.10941 0.27072 -0.01460
-0.15505 0.03871 -0.04087
-0.12618 -0.32736 0.13384
-0.13302 0.38644 0.11142
0.05191 0.17015 -0.16642
0.18856 -0.14836 -0.13434
-0.13268 -0.02944 0.13576
-0.05576 0.08259 0.00411
-0.12501 0.08377 -0.14810
0.08052 0.20755 0.02318
-0.07809 0.21465 -0.05197
0.17912 -0.41840 0.16944
-0.13265 0.38503 -0.04080
-0.05495 0.14151 -0.15536
-0.14471 0.15065 -0.14606
0.03254 0.11506 -0.00591
-0.06739 0.07457 0.02791
-0.13498 -0.16447 -0.10342
-0.01365 0.21176 0.13929
-0.12009 -0.33254 0.12923
-0.15038 -0.00748 -0.12725
-0.13999 0.03077 0.07151
0.16798 0.00968 -0.15215
-0.13489 0.39304 -0.07689
-0.15505 0.04932 0.00348
0.11498 0.11631 -0.13632
-0.16157 0.30310 0.05160
0.04092 0.20932 0.05086
-0.13213 -0.03863 -0.10342
-0.03428 0.21269 0.03344
0.11378 0.20471 0.17283
0.20431 0.16581 -0.16298
-0.07672 0.08786 0.15310
-0.11978 -0.31990 0.12435
0.07695 0.11631 0.06184
-0.14403 -0.32230 -0.13184
0.17650 -0.34516 -0.17632
0.07677 0.11631 -0.14846
-0.05554 0.21364 0.06500
-0.17529 0.41778 -0.04599
-0.14574 -0.40491 -0.12391
-0.10585 0.23315 0.14862
-0.04776 0.08757 -0.10392
-0.02893 0.21245 0.07840
0.00547 0.11944 -0.16162
-0.14648 0.16973 0.14588
0.07952 0.18490 -0.16928
0.07263 -0.15237 -0.13673
-0.14015 -0.30667 -0.10564
0.16798 0.10279 -0.15179
-0.12815 0.36788 -0.06875
-0.15505 0.09196 -0.12904
-0.15038 -0.15080 0.10441
-0.11578 0.25385 -0.14906
-0.17062 0.41839 -0.00155
0.17534 0.11631 0.04784
0.08249 0.20746 -0.05552
0.20120 -0.25341 -0.18037
0.17135 -0.32651 0.17548
0.05294 0.13164 0.16653
0.19391 0.09474 -0.18130
-0.15505 0.06582 -0.01345
0.01404 0.11197 0.08097
0.17799 -0.09262 -0.17990
-0.10827 0.25985 -0.07570
-0.15038 -0.12729 -0.10888
-0.13694 -0.40402 -0.10804
-0.06235 0.21394 -0.09628
-0.00049 0.21118 -0.11664
-0.15538 0.19744 -0.14424
0.18162 -0.40367 0.15099
-0.10872 0.26417 0.01568
-0.14880 0.03077 0.07582
-0.11723 0.02394 0.13301
0.18393 -0.33075 -0.14934
0.02482 0.21004 -0.15504
-0.12122 0.27467 0.14849
-0.13411 0.39030 -0.07006
0.16856 -0.20333 -0.15581
-0.05157 0.21307 0.15571
-0.18140 0.35983 -0.07491
-0.15250 0.41501 -0.10890
-0.14194 0.00656 -0.10342
-0.12204 0.34235 0.09217
0.07062 0.11631 0.14362
-0.03047 0.21252 -0.14929
-0.02221 0.21215 -0.14606
0.10723 0.20636 -0.12375
-0.10635 0.19338 0.15004
0.01758 -0.16016 0.12963
0.00559 0.14031 -0.16163
0.07309 0.11631 0.04279
-0.00300 -0.16443 0.12978
-0.11487 0.30698 -0.04248
-0.15284 0.08202 0.14522
-0.12781 0.36652 0.08805
-0.20377 0.39220 0.06326
0.04454 -0.15022 0.13645
0.19972 -0.08028 -0.18180
-0.14242 -0.12521 0.10396
0.17710 0.11631 -0.09159
-0.17258 0.37743 -0.14318
-0.15505 0.03171 -0.12126
-0.01280 -0.16501 -0.12736
0.06760 0.11631 -0.13737
0.05849 0.20854 0.15262
-0.12039 0.02614 0.10396
0.11569 0.11631 0.14951
-0.16190 0.30866 -0.09747
-0.11741 0.03077 -0.00536
0.06300 0.11631 0.10214
0.09392 0.20695 0.04105
-0.03922 0.21291 -0.06328
-0.14976 -0.23847 0.10451
0.20203 0.19496 0.05155
-0.15939 0.26574 0.01424
-0.14304 -0.30375 -0.13234
0.02040 0.21024 -0.06996
0.20431 0.16122 -0.10394
-0.17292 0.41813 -0.08709
0.19183 0.20060 0.07039
0.16798 0.09527 0.16847
-0.08068 0.21483 -0.00306
0.16798 -0.01478 0.15709
-0.14636 -0.02099 0.13456
-0.08940 0.21341 0.10682
0.10182 0.20660 -0.02084
-0.06611 0.21411 -0.09001
0.20431 -0.13130 -0.17176
-0.09379 0.14544 -0.15134
0.08869 0.19464 0.17023
0.18786 -0.14895 0.14588
0.07723 0.20770 -0.05956
0.19879 -0.21115 -0.14663
-0.12933 0.37258 0.12763
0.16798 0.06418 0.14731
-0.13519 -0.28632 -0.10514
0.17493 0.11631 -0.14207
-0.06230 0.20222 -0.15460
-0.15505 0.15587 -0.01539
0.15732 0.18469 -0.17734
0.18757 0.11631 0.14974
-0.15038 -0.14930 0.11415
-0.17322 0.35352 0.10252
0.10647 0.11631 0.04787
0.07637 0.20774 -0.09979
0.18646 -0.16606 0.07634
-0.11955 0.33080 -0.00219
0.18901 -0.36553 0.17699
-0.07376 0.13353 0.15341
0.17730 -0.23661 0.14721
0.05531 0.11631 -0.13970
-0.12082 -0.36219 0.10916
-0.15038 0.02250 -0.11811
-0.11934 -0.30195 -0.10996
-0.14188 0.25665 0.14636
-0.14651 -0.13034 -0.13400
0.00739 0.11039 0.09124
0.20237 0.11631 -0.10099
0.20327 0.07136 0.18212
-0.12065 -0.35520 -0.12698
-0.14778 0.41230 0.08435
-0.15329 0.03077 -0.03020
0.01114 0.11132 -0.14913
0.10992 -0.16463 0.14623
0.05113 0.20887 0.08221
0.06663 0.20817 0.03313
-0.18905 0.41255 -0.04838
-0.15505 0.10811 0.07129
0.16565 -0.14875 0.15646
-0.18372 0.36109 0.05129
0.08733 0.20725 -0.09490
0.14099 0.11631 0.06429
-0.14818 -0.22621 -0.10366
0.20267 -0.25004 -0.16981
-0.00316 0.10738 0.13065
0.06776 0.17844 0.16807
0.19930 -0.20956 0.14660
-0.16034 0.28193 0.00965
0.19694 -0.36146 0.17777
0.18454 -0.14950 0.02350
0.20431 0.15744 -0.16195
-0.07355 0.14294 -0.15343
0.07865 0.20764 -0.05109
-0.02367 0.21221 -0.08085
0.16798 -0.05211 -0.14734
-0.02168 0.11269 0.15880
-0.09350 0.05207 0.09812
0.20431 0.15039 -0.16166
0.03760 0.11558 0.16435
-0.12367 -0.22625 0.13633
0.20152 -0.07054 0.14588
-0.19299 0.36618 0.13319
-0.15505 0.15716 -0.11981
0.20248 -0.25868 -0.17036
0.08769 0.18493 -0.17013
-0.16086 0.29084 -0.13814
0.02888 0.20986 -0.04353
-0.15505 0.14738 0.08336
-0.00401 0.18628 -0.16063
0.01631 0.11246 -0.10505
0.20431 0.01842 -0.15139
-0.11169 0.28858 -0.06409
-0.16005 0.27702 0.04951
0.18066 0.00983 0.14588
0.19051 -0.16627 -0.08478
-0.12051 -0.27280 0.10535
-0.01755 0.16586 0.15923
-0.09947 0.20513 -0.11622
0.16798 -0.06356 -0.17383
-0.00597 0.10648 0.02667
0.11884 0.11631 -0.10023
0.15011 0.11631 -0.01540
0.18736 -0.41840 -0.17187
-0.11723 -0.14949 0.11570
-0.00726 0.10604 0.05896
-0.15038 -0.04699 -0.10853
-0.11557 0.31085 0.14043
0.16934 -0.23772 0.16936
0.18684 -0.09075 0.14588
-0.15505 0.16607 0.00551
-0.16377 0.33756 -0.05756
-0.11723 0.01359 -0.11422
-0.19249 0.40984 0.03037
-0.15543 0.19825 -0.06833
0.00726 -0.15994 -0.14358
0.02723 0.11437 0.01205
0.18527 -0.12890 0.18054
-0.11975 -0.31876 -0.12477
-0.07018 0.17191 -0.15378
0.16798 0.01176 0.14803
0.02517 0.21003 0.08401
0.07722 0.20770 0.04024
0.12062 0.11631 0.06867
-0.12012 0.00586 0.10396
-0.00129 -0.15557 -0.12485
0.14602 0.11631 -0.02574
0.18331 -0.07337 -0.18037
-0.15866 0.25340 0.02928
0.18298 -0.16079 -0.18034
-0.14592 0.41091 0.12492
0.07200 0.11631 -0.04716
0.03698 0.20950 -0.01842
0.18593 -0.14893 0.01706
0.16798 0.06903 0.16420
-0.14624 -0.02927 -0.13403
0.17596 0.11631 0.17136
0.16798 0.04182 0.14849
-0.18464 0.36157 -0.04616
0.19603 0.08649 -0.14588
0.17680 0.20294 0.13317
-0.14605 0.41101 -0.04450
-0.03862 0.21288 0.06262
-0.11011 0.27733 0.08774
-0.15665 0.21900 0.02689
0.18812 0.20131 -0.05901
0.11212 0.20614 0.10489
-0.16152 0.30210 0.12964
-0.13412 -0.23886 -0.13458
-0.14073 -0.40265 -0.13033
-0.00064 0.21051 -0.16098
-0.03226 0.21260 -0.13511
-0.15505 0.04521 0.06287
-0.19238 0.36569 0.14006
-0.20375 0.38232 0.05148
-0.08330 0.06162 -0.08648
0.06505 -0.15262 0.13721
0.20431 -0.09371 -0.15074
0.20431 0.14731 -0.17272
-0.10229 0.19997 -0.11881
0.20258 -0.25433 0.17901
-0.14635 -0.38000 0.12491
0.09343 -0.15198 0.14177
-0.13178 -0.13051 -0.10342
-0.11212 0.29121 0.06610
-0.16916 0.41837 0.12240
-0.12190 0.09719 0.14843
-0.15505 0.16568 -0.13463
-0.16233 0.31600 0.08073
-0.15505 0.15609 -0.04040
-0.03645 0.09389 -0.04419
-0.10538 0.22731 0.04764
-0.11752 -0.17852 0.13709
-0.11723 0.01342 0.12974
-0.13065 0.27050 -0.14752
-0.15505 0.12958 -0.13540
-0.14463 0.03077 -0.07879
-0.10105 0.08743 -0.15058
-0.10351 0.04157 0.02422
0.16860 -0.20535 -0.17708
0.20431 -0.16594 0.14809
0.19207 0.20056 0.04791
0.02448 0.11394 -0.00824
-0.15505 0.07374 0.11524
0.20431 0.04397 -0.15400
-0.15505 0.17154 -0.05867
0.01853 0.11289 -0.08424
0.02635 0.11425 -0.06460
-0.15038 -0.07690 -0.12183
-0.13127 0.32448 0.14745
0.20431 -0.09863 -0.17457
0.03341 -0.14978 0.13543
0.17946 -0.07829 -0.14588
-0.04252 0.09052 -0.03252
-0.11388 0.30153 -0.14475
-0.00013 0.21116 0.16013
-0.04428 0.21313 -0.09933
-0.15505 0.07984 0.09255
-0.16233 0.31595 -0.05571
0.17843 -0.16901 -0.14588
-0.10361 0.20336 -0.14843
0.14261 0.20269 -0.17582
0.09229 0.20703 0.09218
-0.16661 0.34475 -0.04535
0.13624 0.20506 0.01384
0.05709 0.20860 0.01093
-0.17862 0.41708 0.05835
-0.12535 -0.12360 -0.13586
-0.11902 0.18134 0.14872
0.17417 0.11631 -0.13186
0.12141 0.20572 0.11155
-0.15505 0.14224 0.06084
0.20286 -0.24172 -0.14909
0.15176 0.16172 -0.17677
-0.15646 0.21588 0.01711
0.16798 0.04600 0.15930
-0.11723 -0.05337 -0.11520
0.00493 0.10976 -0.01744
-0.16051 0.28495 -0.09064
-0.09787 0.20504 -0.15091
0.20407 0.19030 0.15509
0.20431 -0.16865 -0.15540
-0.10958 0.06133 0.14970
0.08621 0.11631 -0.01404
-0.13576 0.20775 0.14699
0.20423 0.11631 -0.05467
0.17278 0.20332 -0.05879
-0.12659 -0.17715 0.13629
0.20080 -0.03254 0.14588
0.20431 -0.14033 -0.17341
-0.00099 0.10807 0.04222
-0.15505 0.11707 0.04492
-0.13662 -0.34777 0.13247
-0.14625 0.01280 -0.13403
-0.05906 0.21380 0.10164
-0.04000 0.21294 -0.12199
-0.15038 -0.19742 -0.11890
0.17974 -0.36462 0.17620
0.19511 0.19990 -0.11352
-0.08043 0.06417 -0.14047
-0.05837 0.08086 -0.03929
-0.10919 0.26862 -0.00087
-0.12108 -0.37250 0.11418
-0.17187 0.35215 -0.13012
-0.10763 0.09842 -0.14990
0.08301 0.11631 -0.12310
0.20431 0.16286 0.08873
0.19114 -0.08186 0.18105
-0.12861 0.36974 -0.13215
-0.15505 0.18826 0.04445
-0.20275 0.39589 0.09890
-0.14754 -0.00173 -0.10342
0.06436 0.20827 0.04754
0.13139 0.11631 0.17219
-0.11309 0.29712 0.04738
0.19897 0.11631 -0.00824
-0.16238 0.31678 -0.13773
-0.09802 0.11778 0.15090
0.18190 -0.30063 0.14866
0.16798 -0.17369 -0.17714
-0.13298 0.03077 -0.08650
-0.12856 -0.33107 -0.10624
-0.13633 0.39810 0.07147
0.09522 0.20689 0.13463
0.19881 0.04378 0.14588
-0.11937 -0.00460 0.10396
0.19936 -0.39641 -0.16772
-0.15505 0.08269 0.04214
-0.10149 0.20166 -0.04540
-0.13743 -0.41840 0.11486
0.17259 -0.16201 -0.16636
-0.15694 0.35132 -0.14480
-0.15505 0.14505 0.01852
-0.08824 0.05722 0.00701
-0.15505 0.15577 -0.02053
0.17929 -0.19736 -0.17961
-0.13919 0.17814 0.14663
0.16143 0.11631 -0.14194
0.10166 0.20661 -0.11135
-0.07604 0.21455 0.07810
0.20431 0.08452 0.15325
-0.16262 0.32102 -0.03659
-0.01261 0.21172 -0.05546
0.11735 0.20591 -0.16840
-0.13105 -0.16914 0.10396
0.14931 -0.14885 -0.15210
0.07881 0.20763 0.10990
-0.12818 0.31939 -0.14777
-0.19855 0.40308 -0.09354
0.20431 0.16834 0.02347
-0.02184 0.10066 -0.07459
-0.11496 0.30745 -0.13777
0.18528 -0.37065 0.15025
0.20431 0.16279 -0.14273
0.17737 0.13979 -0.17942
-0.00090 0.13854 -0.16095
-0.11038 0.27988 -0.05524
0.16798 -0.04671 -0.15709
0.02317 0.11373 -0.02273
0.18434 0.04794 0.18046
-0.12185 -0.16066 0.12653
-0.13979 -0.17628 0.13514
0.19129 0.12828 -0.18086
-0.02692 0.15724 -0.15826
-0.14544 -0.41712 -0.11476
0.20431 0.09869 -0.14775
-0.15505 0.04943 0.08393
-0.20375 0.38231 0.01936
-0.05549 0.16661 0.15530
0.16798 -0.04115 0.16444
0.17900 -0.20370 0.14646
-0.15669 0.21970 -0.09427
0.20431 0.17752 0.17723
-0.15505 0.12527 0.11078
0.16798 0.08859 -0.16167
0.15495 0.11631 0.00400
-0.04115 0.09128 0.01217
-0.09575 -0.16447 0.12733
-0.09940 -0.15643 -0.12862
-0.09776 -0.16562 -0.11649
-0.15505 0.14498 0.01080
-0.13899 -0.00599 0.10396
-0.15505 0.15785 0.11797
0.01997 0.14376 -0.16312
0.17506 -0.26577 -0.17783
0.19684 -0.29467 0.14852
-0.13236 -0.39146 -0.10773
-0.01907 0.10170 -0.01185
0.20431 0.17011 -0.16933
-0.06231 -0.15605 0.13565
0.20192 0.19513 -0.00667
0.15832 -0.15729 0.14928
-0.12201 -0.20453 -0.13615
0.19489 -0.30924 -0.14886
0.20011 0.15098 0.18177
0.19256 0.11631 -0.15075
-0.05920 0.21380 -0.13823
-0.09108 0.05454 -0.07249
-0.12230 -0.28786 0.13506
-0.13801 -0.38928 0.13141
0.03333 0.20966 -0.06742
-0.14854 -0.16149 0.10396
-0.10558 0.22981 0.00347
0.17842 -0.31788 0.17705
0.12539 0.20555 0.13603
-0.19494 0.40745 -0.07915
-0.00172 0.10784 0.06300
-0.06827 0.07390 0.05424
0.18620 0.00144 -0.18062
0.19609 0.11631 -0.01496
-0.11092 0.28390 -0.12309
0.19068 -0.05676 -0.14588
0.20431 0.14338 0.08947
-0.06069 0.21387 0.13947
-0.01283 0.10405 -0.00268
-0.07211 0.09282 -0.15358
-0.15330 0.41530 0.07597
-0.11092 0.26672 0.14956
0.09875 0.11631 -0.04640
-0.15113 0.37905 -0.14540
-0.14213 0.40751 0.03609
0.17422 -0.15698 0.15740
-0.11723 -0.14968 -0.11042
-0.11857 0.32616 0.03941
-0.11723 -0.08957 -0.13140
0.18765 -0.16628 -0.11994
-0.10796 0.25653 -0.05278
-0.03801 0.21285 -0.14426
-0.11681 0.21411 -0.14895
0.09298 -0.16292 -0.15424
0.20431 0.02544 -0.14690
0.07266 0.19826 0.16857
-0.11916 -0.29460 -0.12150
0.19723 0.11631 0.17156
0.10027 0.19980 -0.17143
0.06661 -0.14907 -0.13972
-0.04822 0.08732 -0.00466
0.16835 -0.19440 0.17462
0.19550 -0.03752 -0.14588
-0.02171 0.21212 -0.12698
0.19606 0.19043 0.18135
-0.15182 0.16687 -0.14533
-0.05734 0.08155 -0.11121
-0.08189 0.06287 0.11718
0.20431 0.13956 -0.17999
-0.14767 0.03077 0.06947
-0.10001 0.20427 0.04327
0.16798 -0.14471 -0.14592
-0.14734 0.33512 -0.14579
-0.14945 -0.25419 0.11565
-0.05219 0.10474 -0.15564
0.16798 -0.05570 -0.17333
0.19802 -0.14989 0.18166
-0.14060 -0.29578 -0.13274
0.13087 0.11631 -0.05888
-0.11723 -0.18903 0.11977
0.19620 -0.15193 0.08342
-0.16354 0.33669 0.10518
-0.13693 -0.13630 0.13539
0.05365 0.20875 0.03797
0.16798 0.03198 -0.14621
-0.12451 -0.41490 0.10885
-0.12826 -0.24446 0.13552
0.19371 -0.13435 0.18128
0.19215 -0.41840 0.16415
-0.14534 0.15796 -0.14600
-0.15505 0.16828 -0.01335
-0.06052 0.07944 0.11184
-0.15505 0.03173 0.00084
-0.14036 0.40528 -0.04512
-0.12782 0.36658 0.09537
0.06631 0.20819 -0.14479
0.18014 0.00317 -0.14588
0.07704 0.17824 -0.16903
-0.14959 -0.05120 0.13428
0.19254 -0.16568 0.12437
-0.14733 -0.34042 -0.11231
0.15430 0.20425 -0.11374
0.17996 -0.15744 0.05709
-0.14965 0.24514 0.14555
-0.17118 0.41839 -0.07244
0.20431 0.14501 0.01990
0.17492 -0.23230 -0.17851
0.19760 -0.16024 -0.00091
-0.01143 -0.14895 -0.12882
0.01136 0.11137 0.13771
-0.16040 0.28311 -0.06372
-0.15505 0.16023 -0.05809
0.03026 0.11477 -0.08719
0.20202 0.06398 0.14588
0.20431 0.18159 -0.06636
0.08934 0.20716 0.11340
0.04054 -0.16634 -0.13963
-0.02061 0.10112 0.12484
0.11565 0.13201 -0.17303
-0.14775 -0.20758 -0.13389
-0.13303 -0.19067 -0.10342
0.20431 0.05064 0.17326
-0.08546 0.21455 0.07870
-0.12832 -0.41497 0.13168
0.13187 0.17128 0.17471
0.18288 -0.29554 -0.17790
-0.12144 -0.07399 -0.13620
-0.05457 0.08338 0.09634
-0.15505 0.18080 -0.00165
-0.15505 0.08332 -0.07422
0.10238 0.20658 -0.09360
0.04296 0.20923 -0.03654
0.18536 -0.41367 0.17568
0.05550 0.11631 -0.06782
-0.13410 -0.35533 0.10738
0.17261 0.09725 0.17943
-0.14105 0.27030 0.14644
-0.14965 -0.24630 0.13338
-0.07167 0.21436 -0.03506
0.02575 0.16333 -0.16371
0.02128 0.11341 -0.12743
0.18149 -0.02234 0.14588
0.18175 -0.06076 -0.14588
0.20431 0.15181 0.09429
0.04360 0.20920 -0.11281
-0.02414 0.09962 0.00726
-0.12123 0.04733 -0.14849
0.16054 0.17597 0.17767
0.18248 -0.26932 0.17841
-0.12486 0.35450 -0.06780
-0.10551 0.03922 -0.10039
-0.16254 0.31952 -0.13100
0.11559 0.20598 -0.15172
-0.07199 0.07103 0.04487
0.04064 0.20934 -0.09833
0.04585 -0.16213 0.13462
0.20431 -0.09896 -0.16224
0.11146 0.20617 0.15680
0.04702 0.20905 -0.15740
-0.19088 0.41111 0.03895
0.20389 -0.19650 0.15313
-0.18345 0.37958 0.14205
0.20024 -0.35750 0.15830
0.16782 0.13369 -0.17843
-0.08818 -0.14883 0.11985
-0.12180 0.34125 0.01142
-0.11784 0.32247 -0.03477
-0.06601 0.21410 0.02508
0.20431 0.17280 0.03571
0.18606 0.11631 -0.10631
-0.16301 0.32755 0.12782
0.02783 0.11445 -0.07292
-0.10624 0.23793 -0.08998
0.20431 0.05567 -0.17496
-0.09266 0.05292 -0.06540
-0.19910 0.40234 -0.08322
-0.19861 0.40300 0.08589
0.09198 0.16565 -0.17057
-0.18592 0.36215 -0.03574
0.17001 -0.04599 0.17921
-0.12599 0.31885 0.14800
0.03989 0.14787 0.16518
0.17597 -0.35146 -0.17614
-0.09836 0.20656 0.02130
-0.11019 0.27806 0.14736
0.19514 -0.24843 0.14748
0.05103 0.13939 0.16633
-0.17438 0.36285 -0.14299
-0.13233 0.38384 -0.08771
0.14216 0.20480 -0.08788
0.05765 0.11631 0.08890
-0.14113 -0.04680 0.10396
-0.13940 -0.03265 -0.10342
-0.15505 0.10129 -0.08421
-0.13916 -0.35553 -0.10684
0.19847 0.19857 0.04719
0.18638 -0.16603 0.08251
0.20431 0.00710 -0.16043
0.19101 0.04833 -0.14588
0.16798 0.04307 0.16611
-0.09135 0.21250 -0.14882
0.18837 0.02285 0.14588
0.17816 -0.06649 -0.14588
0.08825 0.11631 0.13248
0.16952 -0.24580 0.14867
-0.01134 0.10460 0.07111
0.17247 -0.37624 -0.16112
-0.14622 -0.38565 0.11563
0.16945 -0.24268 -0.17248
-0.15505 0.15452 0.01068
0.11975 0.20580 0.12480
-0.16124 0.29733 -0.02256
-0.05797 0.13127 0.15504
-0.10337 0.19994 0.03591
-0.16398 0.41817 -0.04959
-0.10079 0.04462 0.12416
0.20430 0.18923 -0.08659
-0.12530 0.35640 -0.02027
0.20350 0.09253 0.18214
0.17778 -0.26233 -0.14779
-0.12335 -0.21638 -0.12579
-0.09793 0.18621 -0.15091
0.16124 0.11631 0.09710
-0.10777 0.25454 0.13499
-0.13717 0.39994 -0.11248
-0.10598 0.11591 -0.15007
-0.12137 -0.35885 -0.13301
0.16798 0.05405 0.14849
-0.01894 0.21200 0.14558
-0.14655 -0.37215 -0.11296
-0.14431 -0.41840 -0.10920
-0.07560 0.10995 -0.15322
-0.15505 0.06542 -0.14356
0.16384 0.11631 -0.06443
-0.15505 0.14655 -0.05344
0.20431 0.12588 0.02824
0.16936 -0.23886 0.16276
-0.02644 0.09855 0.03382
0.16798 -0.13532 -0.15247
-0.18007 0.35898 0.12125
0.17800 -0.02418 0.17991
0.08330 0.13938 0.16968
-0.11804 -0.21638 0.12559
-0.11139 0.03235 0.03945
0.16176 0.11631 -0.01342
0.09688 -0.16623 -0.14685
-0.11110 0.28497 -0.04943
0.02154 0.18964 0.16328
-0.11824 0.03077 0.06742
-0.13658 0.02495 -0.13487
-0.12115 -0.37559 0.12217
-0.16417 0.33894 -0.03013
0.17247 -0.37238 0.17540
-0.14545 -0.33532 -0.13142
-0.15038 -0.12039 0.12996
-0.16301 0.32766 -0.12951
-0.15505 0.18567 0.03664
-0.05414 -0.14843 0.12609
-0.11951 -0.15039 -0.10342
0.14147 0.14381 -0.17570
0.16798 -0.06957 -0.15826
-0.14902 -0.27155 -0.12883
-0.07302 0.07024 0.02067
0.11422 0.20605 0.16636
-0.10387 0.07461 0.15029
0.19288 -0.21273 0.18049
-0.12092 0.33717 0.08091
0.20431 0.07574 -0.15659
-0.20430 0.38945 0.09669
0.01230 0.11158 0.10500
-0.00626 -0.14864 0.13207
0.20132 -0.25947 -0.18026
-0.11239 0.29288 0.03206
-0.10417 0.05911 0.15026
-0.11723 -0.20162 -0.12063
-0.12003 -0.33014 -0.12402
0.20364 -0.20736 -0.15639
0.01314 -0.16634 -0.13588
-0.10579 0.23235 -0.12805
0.16639 0.20371 0.09916
0.20109 0.19622 -0.05009
-0.12189 -0.11960 -0.10342
-0.20175 0.37661 0.04365
0.17159 -0.33704 -0.17065
-0.14093 -0.21638 0.12647
0.20431 0.03377 0.14891
0.04973 0.15136 -0.16620
-0.16156 0.30286 0.12181
0.09094 0.20709 0.03364
0.04540 0.20912 0.07486
0.01872 0.21032 0.12254
0.16810 -0.18325 0.14674
0.15162 0.17048 0.17675
-0.12480 -0.11565 -0.13590
0.16465 0.11631 0.11236
0.13757 0.20500 0.03676
0.19658 0.11399 0.14588
-0.12828 -0.03106 0.10396
0.16798 0.01529 -0.15736
0.19969 -0.06264 0.14588
0.18357 -0.15023 -0.02217
0.20029 -0.11414 0.14588
0.20431 0.16241 -0.06098
0.20431 -0.09376 0.17222
-0.13332 0.38753 -0.00749
0.18160 0.19037 0.17985
0.19839 -0.25694 0.18005
0.16826 -0.19015 0.16583
0.16576 0.11631 -0.10917
-0.15505 0.15684 -0.07054
0.07857 0.11631 0.08042
-0.17744 0.41747 -0.10595
-0.12279 -0.14051 -0.13608
0.17967 0.20261 0.02852
-0.12733 -0.29397 0.10587
-0.00719 0.10606 -0.08344
-0.08403 0.18562 0.15235
-0.09072 0.08599 0.15165
-0.00500 0.10679 0.00935
-0.15886 0.25680 -0.01689
-0.15505 0.19003 -0.12815
-0.05434 0.08989 0.15542
-0.10054 0.20343 -0.14407
-0.15658 0.21779 -0.05937
0.19741 -0.29716 0.17914
0.06566 0.20822 -0.02433
-0.11723 -0.07255 0.13033
-0.05341 -0.16620 0.12915
0.02704 0.11434 0.15421
-0.10402 0.20929 0.09424
-0.11723 -0.06388 -0.12157
-0.12472 0.20407 -0.14813
0.19607 0.02195 0.14588
0.16798 -0.05921 -0.17867
-0.10579 0.23241 0.09394
-0.14627 0.06878 0.14590
-0.14446 -0.14190 0.13473
0.16912 -0.18142 -0.14596
-0.20100 0.37509 -0.00428
0.17066 -0.29601 0.15209
0.20431 0.01597 0.17695
-0.13740 0.03077 0.05373
-0.10015 0.04527 0.07771
-0.15505 0.06856 -0.11038
-0.15521 0.19444 -0.07625
0.19307 0.15070 0.18104
-0.14846 -0.29460 -0.11510
0.02675 0.20996 0.15812
-0.12122 0.03077 0.08234
-0.15505 0.11006 -0.06619
0.08043 0.20756 0.04981
0.12652 0.12785 -0.17415
0.20056 -0.34340 0.16473
0.16436 0.16309 -0.17807
0.20311 -0.23092 0.16933
0.19234 0.11631 -0.05716
-0.15636 0.30752 -0.14486
-0.17043 0.41839 0.03255
0.16798 -0.16609 0.17153
-0.14045 0.30631 -0.14650
-0.01640 0.10271 0.02232
0.04372 0.11602 -0.11185
-0.16491 0.34101 0.08839
0.20420 -0.18256 -0.15487
0.19233 -0.25267 0.17961
0.20431 0.06949 0.17358
0.20431 0.14433 0.13018
0.14301 0.11631 0.16843
0.17153 -0.33448 0.16859
-0.16255 0.31968 0.08478
0.20431 0.17412 0.04343
-0.11096 0.03285 -0.02918
-0.12765 0.14024 0.14783
-0.11802 -0.24852 -0.11407
0.18017 -0.24413 -0.14738
-0.11434 0.03077 -0.12294
-0.12000 -0.32881 -0.10680
0.16798 -0.14257 0.14705
0.16798 -0.05190 -0.16564
-0.16238 0.31689 -0.00748
0.05235 0.11629 -0.06206
0.03425 0.20962 -0.13878
-0.20428 0.38788 0.12150
-0.16107 0.29445 -0.03679
0.08140 0.11631 0.11420
-0.14446 -0.08607 0.10396
-0.08777 0.21397 -0.04608
0.06666 0.11631 0.13894
-0.12887 0.37077 -0.04335
0.14900 0.17648 0.17648
-0.12597 -0.32994 -0.13325
-0.20255 0.37822 0.06092
0.06188 0.13034 -0.16746
0.18132 -0.32767 -0.17710
0.00335 0.10932 -0.12289
-0.00413 0.13790 0.16062
-0.03454 0.21270 -0.04590
0.16798 -0.14885 0.16667
0.17562 -0.27041 0.17778
-0.03338 0.10908 -0.15759
-0.15505 0.18517 0.05156
0.09245 0.11631 0.03194
0.19992 -0.37155 -0.16048
0.19027 0.07264 -0.14588
0.20431 -0.06313 0.14970
0.20174 -0.29127 0.16692
0.18678 -0.19890 -0.14636
0.04161 0.11588 0.11688
0.04208 0.11592 0.03177
0.19804 -0.15680 0.02103
0.15873 -0.14902 0.16203
-0.16248 0.31861 0.09264
-0.11723 -0.19983 -0.11416
-0.11723 -0.19559 -0.13007
-0.15505 0.05130 0.14128
0.03585 0.11540 0.03069
-0.15505 0.17339 0.04036
0.20431 -0.14750 0.14868
-0.08935 0.15596 0.15180
0.19182 -0.07133 0.14588
-0.08597 -0.16613 -0.12324
-0.09362 -0.16041 0.11379
0.19893 -0.41546 0.16684
-0.15792 0.24079 0.00725
0.12971 0.19531 0.17448
0.12622 0.11631 -0.02405
0.18752 -0.34822 0.14974
-0.15575 0.20367 -0.01446
0.20431 -0.15579 -0.16739
0.20431 -0.05424 -0.16124
-0.10825 0.25960 0.03071
-0.15505 0.11794 -0.11371
-0.19723 0.36990 0.07369
-0.14939 -0.25679 -0.12284
-0.16323 0.33141 -0.02814
0.19971 -0.30978 0.17908
0.17722 0.11631 0.16063
0.10637 0.11631 0.13451
0.19713 -0.16337 -0.18158
0.17230 -0.36834 -0.15512
-0.15505 0.11371 -0.12764
0.19298 -0.12063 0.18122
-0.15588 0.20594 -0.02446
-0.13267 -0.21370 -0.10342
0.19313 -0.17790 0.17179
0.17153 0.11631 0.10300
0.17106 -0.31383 0.17572
-0.11510 0.30829 0.07773
-0.04697 0.08802 0.05196
0.20431 0.02480 0.15885
-0.13015 -0.01296 0.13598
0.20431 -0.08045 0.14793
-0.14657 -0.35745 -0.10689
-0.16571 0.34292 -0.11131
-0.11723 -0.17841 -0.11767
0.20004 0.19733 0.12156
0.15133 0.11631 -0.00235
-0.11723 -0.06955 -0.10522
-0.06280 0.21396 0.11648
0.18808 0.00099 0.18079
0.05156 0.11628 0.05406
-0.12664 -0.06988 -0.13574
-0.11760 -0.23139 -0.12553
-0.17987 0.37991 -0.14242
-0.13955 0.40426 0.12094
-0.10392 0.20779 0.03427
-0.11723 -0.20464 0.13506
-0.14483 0.03077 0.12952
0.20404 -0.18954 0.17059
-0.10528 0.22609 -0.05151
-0.15038 -0.10100 0.10975
-0.15034 -0.21823 0.11332
-0.12888 0.03077 0.12750
0.18011 -0.15618 0.09496
0.17119 0.11631 0.15448
-0.09277 0.16751 0.15144
-0.10322 0.19786 -0.13548
-0.16246 0.31817 -0.06382
-0.04255 0.21306 -0.09419
0.06276 0.14275 -0.16755
0.04036 0.11686 -0.16523
-0.03925 0.09235 0.10492
-0.05207 0.08504 -0.07000
0.04496 0.20914 -0.06095
0.19386 -0.16503 -0.10308
-0.14391 -0.36276 -0.10702
-0.13552 0.14679 -0.14701
0.19178 -0.16600 0.07442
0.07898 0.11631 -0.07049
-0.08015 0.06442 -0.01172
-0.16302 0.32772 0.07153
-0.15689 0.22314 -0.12252
-0.05369 0.21355 -0.05428
-0.15505 0.18860 0.08892
0.16898 -0.22191 0.17159
-0.10491 0.22154 0.03254
0.19066 0.03168 0.18101
-0.16865 0.34806 -0.11732
-0.03384 0.10724 0.15754
0.20431 0.05127 -0.14619
-0.11737 0.32007 0.03620
-0.11723 -0.18945 0.13635
0.16798 -0.11268 0.15832
0.17787 -0.02116 -0.17989
0.13139 0.20528 0.07163
0.18041 -0.15468 0.10229
-0.10556 0.22958 -0.00678
-0.10658 0.24180 -0.10683
0.19953 -0.38897 -0.16140
0.20431 0.15088 0.12293
0.18319 -0.30902 0.14885
0.18859 0.11631 -0.12246
0.19048 0.10576 0.14588
-0.15505 0.07498 -0.01083
0.19844 -0.41840 -0.17583
-0.13815 -0.18446 -0.10342
0.16798 -0.12537 0.17027
0.11045 -0.16495 0.15628
0.18280 0.05415 0.14588
0.08329 0.20743 -0.14725
-0.16227 0.38807 -0.14424
0.16798 -0.07636 -0.15253
0.06603 0.20820 0.13632
-0.15505 0.12660 -0.02820
-0.00936 0.21157 -0.15696
0.06480 0.11631 -0.06510
-0.13290 0.04716 0.14729
-0.10683 0.24447 -0.02838
-0.18859 0.41282 0.09162
0.15321 0.11631 -0.17045
-0.15505 0.10454 0.03226
0.13559 0.20509 0.13977
-0.16040 0.28311 0.10968
0.15677 0.20414 0.05069
-0.19039 0.36455 -0.09682
0.17028 -0.27960 -0.15676
-0.16264 0.32132 -0.08049
0.17106 -0.31370 -0.17571
0.06587 0.20821 -0.11147
-0.13346 0.38802 -0.11548
0.04735 0.11618 -0.07497
-0.03825 0.09291 -0.05067
0.03435 -0.16140 0.13255
-0.12697 0.03077 -0.07753
-0.11373 0.30067 0.07511
-0.06924 0.21425 -0.13837
0.18718 -0.23084 0.14708
0.15931 0.11631 -0.09979
-0.08106 0.06360 -0.06385
0.07465 0.11631 -0.13004
-0.11347 0.29924 -0.00668
0.05476 -0.14819 -0.14171
-0.14030 0.10244 -0.14652
-0.14189 -0.22676 0.10422
0.20431 0.14920 0.03605
-0.16032 0.28160 -0.12796
-0.14742 -0.33678 0.10777
-0.13277 0.03077 0.07290
-0.10729 0.24935 -0.03193
0.16047 0.11631 -0.16370
0.19844 0.19859 -0.17054
0.20431 -0.02230 0.16853
-0.05806 -0.15163 -0.13259
0.20431 0.13739 0.00908
0.20431 0.05688 -0.16578
0.18895 0.00779 -0.18086
0.20091 -0.32776 -0.15245
-0.11600 0.31314 -0.03691
-0.01179 0.21168 -0.14326
-0.17623 0.35624 -0.01490
0.20338 -0.04871 -0.18213
-0.16155 0.39546 -0.14432
-0.11799 -0.17877 -0.10342
0.19516 0.04590 -0.18141
-0.15938 0.26563 0.02851
-0.11303 0.24044 0.14934
0.19762 -0.02326 0.14588
-0.16196 0.30973 0.14419
-0.15505 0.08894 -0.01145
0.14950 -0.16443 -0.14988
-0.15505 0.10529 -0.09153
-0.09589 0.16650 -0.15112
-0.15726 0.22944 -0.08264
-0.12700 0.36328 0.04474
0.10440 0.11631 -0.08833
-0.20425 0.38991 -0.01050
-0.03432 0.09488 -0.09867
-0.05974 0.07996 -0.01383
0.12878 0.20539 -0.06265
0.13347 0.11631 0.04141
-0.15208 0.20938 0.14530
-0.11096 0.08743 0.14956
0.19862 -0.15504 -0.18171
0.20431 0.15912 -0.17510
-0.15505 0.09505 -0.00442
-0.11723 -0.10223 0.11884
-0.11723 -0.14435 -0.11488
-0.19426 0.36727 -0.05137
0.18185 0.11631 -0.11988
0.18261 -0.17790 -0.17693
-0.06398 0.07715 -0.09001
-0.17966 0.35872 -0.03519
-0.05984 0.21383 -0.06734
0.19456 0.11631 -0.17199
0.16798 0.06192 -0.17181
0.01234 0.14635 -0.16233
-0.11723 0.00520 -0.11481
0.17060 -0.08359 -0.17926
-0.13898 0.40353 0.04668
0.17747 -0.29276 -0.14848
-0.16326 0.33179 -0.10828
-0.11754 -0.22877 0.13662
-0.18899 0.41259 -0.13288
0.16798 -0.03868 -0.15909
0.20333 0.05414 -0.18212
0.01203 0.11152 0.06668
0.19264 -0.39566 -0.17668
-0.15505 0.08094 0.11704
-0.16002 0.27649 -0.12853
-0.10844 0.26149 -0.03023
-0.11365 0.30022 0.05530
-0.13214 0.03077 0.11405
0.16377 0.20383 0.08143
-0.20261 0.39617 -0.13522
-0.15841 0.24904 0.03517
0.19448 -0.17790 -0.15683
0.11190 0.14229 -0.17264
-0.15505 0.10827 0.08745
0.17193 -0.09139 -0.17937
-0.12280 -0.11686 0.13662
-0.05839 -0.16617 0.12869
-0.01414 0.11262 0.15958
-0.11723 -0.21644 0.11035
-0.00871 -0.16446 0.12898
-0.09101 0.19084 0.15162
-0.04534 0.08893 0.08453
-0.17268 0.37346 0.14317
-0.19659 0.40554 0.13001
-0.11135 0.28650 -0.05634
0.17553 0.15162 -0.17923
-0.20331 0.39319 -0.13999
0.14402 -0.15857 -0.14564
0.20424 -0.18082 0.17294
-0.14846 0.09981 0.14567
0.17779 -0.33115 0.14935
-0.15505 0.11930 -0.06470
0.01570 0.11234 0.04831
-0.12590 0.35885 0.01025
-0.12155 0.34012 0.09754
0.07455 -0.14867 0.14911
-0.02523 0.09912 -0.14005
0.12485 0.20557 0.12868
-0.11522 0.03077 0.05221
-0.10930 0.26965 0.09951
-0.09974 0.04569 0.00128
0.16798 -0.13137 -0.15961
-0.15505 0.10762 0.00411
-0.12977 0.37425 -0.05478
0.18704 0.08830 -0.18069
0.19026 -0.16631 0.05112
0.18837 -0.15263 -0.18081
-0.15505 0.08694 0.03085
-0.09184 0.05376 0.12901
-0.08793 0.11415 0.15194
0.16798 -0.14060 0.16798
-0.10414 0.21103 -0.06568
-0.04855 0.15939 -0.15602
0.20431 0.14592 -0.14791
-0.09782 0.20725 0.08017
-0.16086 0.29089 0.08077
0.20041 -0.34987 0.15932
-0.11056 0.28162 0.13518
0.09025 0.20712 0.12565
-0.12341 0.03077 0.13260
-0.15665 0.21910 0.07370
0.11077 0.20620 -0.08152
0.18713 0.15335 -0.18043
-0.15868 0.26926 0.14462
-0.12621 0.01996 -0.13578
-0.13667 -0.20318 -0.13487
-0.10735 0.25002 0.01664
-0.13750 -0.32055 0.10653
-0.01862 0.21199 -0.08853
0.20431 0.17919 -0.08535
0.20431 -0.05795 0.16679
0.19768 0.19903 0.06121
-0.20419 0.39021 0.04691
0.17230 -0.36858 0.17072
0.20431 0.17489 -0.05907
0.09581 0.13679 0.17097
0.03987 0.11575 -0.10760
-0.17439 0.35465 0.05387
-0.15722 0.22886 0.11970
0.18917 -0.06213 0.18088
0.10662 0.20639 0.14742
0.16992 0.20353 -0.01182
0.05460 0.11631 -0.08792
-0.05537 0.08285 -0.11667
0.03231 0.15804 -0.16439
0.19484 0.19995 0.08911
-0.02971 -0.15621 0.14034
-0.14778 0.20107 -0.14574
-0.13883 0.40325 -0.13308
-0.12618 -0.41840 -0.12430
0.15832 0.20407 -0.05648
-0.10776 0.25440 0.06015
0.09212 -0.16419 -0.14133
-0.14882 0.20598 -0.14564
0.18306 -0.20869 -0.17971
-0.14239 0.14195 -0.14630
-0.11746 0.32055 -0.00189
0.17308 -0.40279 0.15310
-0.07793 0.06639 0.14410
-0.15505 0.08487 0.03553
-0.16223 0.31421 -0.01971
-0.02744 0.09809 0.12751
-0.13518 -0.01304 -0.10342
0.12665 0.20549 0.06454
-0.15038 -0.10303 0.11620
0.14819 0.15325 -0.17639
0.09669 0.11631 0.15294
0.10692 0.11631 -0.13699
-0.11723 -0.02146 -0.13434
-0.12248 0.03077 -0.08390
0.14766 0.11631 -0.15169
-0.15657 0.37621 0.14483
0.05689 0.20861 -0.05768
0.05334 0.20877 -0.02197
-0.09829 0.09541 0.15087
0.16888 -0.16553 -0.14588
-0.15505 0.06695 -0.09228
-0.16607 0.34366 0.03418
0.08453 0.20737 0.13202
-0.15505 0.03951 -0.04752
0.19024 -0.18274 0.14599
-0.15505 0.17593 -0.11473
-0.16289 0.32546 -0.09518
-0.12517 0.16132 -0.14809
0.04939 0.20894 0.02009
-0.09270 0.18041 0.15145
-0.11155 0.03217 -0.06104
0.05609 0.20864 -0.00037
0.09996 0.20668 -0.16535
-0.06760 0.10487 -0.15405
-0.16043 0.28361 -0.04454
-0.14250 0.40797 0.04838
-0.10402 0.20924 -0.10918
-0.11723 -0.02605 0.11676
-0.15038 -0.16281 0.11574
0.19801 -0.15821 -0.08001
0.20431 0.16183 0.14225
-0.16124 0.29736 0.08535
-0.09532 0.19690 -0.15118
0.01059 0.20052 0.16215
0.19720 0.19918 -0.18147
-0.10193 0.04341 0.10011
-0.08276 -0.16359 0.13029
-0.15505 0.13847 0.10844
0.20061 0.19676 0.10845
-0.12216 -0.25378 -0.10434
-0.15038 -0.09706 -0.13108
0.20186 0.11631 0.16850
-0.07761 0.06668 0.02506
0.18931 0.11631 0.03108
0.10264 0.11631 0.15082
-0.16279 0.32389 0.11303
0.18921 -0.07958 -0.18089
-0.11723 -0.00215 0.13100
0.19487 0.19995 0.11902
-0.02923 0.21246 -0.01917
-0.13736 0.25724 -0.14682
-0.11533 0.30955 0.08791
-0.04066 0.21297 0.02477
0.04832 0.14362 0.16605
-0.01889 0.10177 0.14527
-0.11108 0.03272 0.11368
0.12980 0.20535 -0.17297
0.17939 -0.17790 -0.15769
0.18946 -0.26488 0.17911
0.16229 0.20389 0.05286
0.20423 -0.18136 -0.16086
0.03492 0.20959 -0.05639
0.16338 0.20385 -0.07149
-0.14594 -0.39701 0.12668
0.16754 0.11631 -0.05163
-0.17568 0.35577 -0.00648
0.17253 -0.32981 -0.14932
0.20431 0.12894 0.01779
0.20431 0.17855 -0.01298
-0.01006 0.12746 -0.16001
-0.16180 0.30687 0.03302
-0.12058 0.33557 -0.04340
0.20431 0.09388 0.14915
-0.13068 -0.09217 -0.10342
-0.15038 -0.05862 -0.13253
-0.00130 0.13045 0.16091
-0.12869 0.06789 0.14772
0.14643 0.20461 -0.01422
0.03416 -0.15390 -0.13044
-0.09035 0.05528 -0.05552
-0.11872 -0.27702 -0.11230
0.00208 0.10896 0.02028
-0.18351 0.36584 -0.14204
-0.12303 0.34664 0.00577
0.13685 0.11631 -0.03785
-0.15505 0.15448 -0.00489
-0.02260 0.10034 -0.13260
0.19606 0.19967 -0.12407
0.07153 0.20795 -0.14273
-0.14969 -0.24442 -0.11107
-0.10791 0.25596 -0.14620
0.20042 -0.00575 -0.14588
0.15585 0.14275 0.17719
-0.09933 0.04611 0.06511
0.20431 0.16394 0.10453
-0.11968 0.27060 -0.14866
0.17164 -0.25649 0.17772
0.07220 0.20792 0.02796
0.17106 0.06337 -0.14588
-0.14579 0.17890 -0.14595
-0.03254 -0.14842 0.12925
0.12872 0.20540 0.01184
-0.15505 0.08575 -0.04533
-0.10301 0.19804 0.14711
-0.14795 -0.31500 -0.11333
-0.15938 0.26573 -0.10990
-0.19367 0.40892 0.00012
-0.15505 0.07887 -0.11696
-0.16522 0.41830 0.06827
-0.12414 -0.19129 -0.13596
-0.11723 -0.21274 -0.11494
0.14592 0.18970 -0.17616
0.09444 0.19410 0.17083
-0.11931 0.32965 0.05141
-0.15562 0.20143 0.09068
-0.14923 -0.20140 0.13431
0.16798 -0.10242 0.16434
-0.02867 0.15105 0.15808
-0.15679 0.22152 -0.01560
0.20431 -0.08504 0.17908
0.18224 0.18388 -0.17992
-0.09872 -0.15442 0.11294
-0.13076 0.00726 0.13593
0.18183 0.11391 -0.14588
0.14926 0.11631 0.17164
0.02289 0.21013 -0.01230
-0.15505 0.08910 0.05861
-0.13645 -0.08013 0.10396
-0.06617 0.11805 -0.15420
0.15907 0.13496 0.17752
-0.15890 0.41724 -0.08275
-0.13081 -0.39257 0.13197
0.20419 0.03429 -0.14588
0.05115 0.20887 -0.16554
0.00408 0.14623 0.16147
0.20392 0.17769 -0.18217
0.17063 -0.29504 0.16780
0.16247 0.20389 0.16864
0.19092 -0.35616 -0.14992
-0.17352 0.41804 0.07651
-0.02899 -0.14889 0.13480
0.11102 -0.16607 -0.14766
0.18359 0.07238 -0.14588
0.18055 -0.18657 0.17995
0.18151 -0.16237 0.10744
-0.13095 -0.14721 0.13591
-0.15505 0.08758 0.06529
-0.11723 -0.18993 0.12738
0.19521 -0.15077 -0.14402
-0.06868 0.07358 -0.00278
-0.15505 0.18120 -0.14472
-0.03045 0.09668 0.14303
-0.15505 0.12943 -0.10804
-0.09740 0.20772 -0.12598
-0.11077 0.28298 -0.10062
-0.10381 0.20624 0.09862
0.06591 0.20821 -0.11826
0.02872 0.13476 0.16402
0.14930 0.11631 -0.05864
0.13581 -0.15517 -0.16218
-0.15038 -0.15305 -0.12970
-0.15651 0.21666 -0.02873
0.11599 0.11631 -0.11311
-0.15505 0.11556 0.04986
-0.11764 -0.23297 -0.13077
0.04140 0.20930 0.12198
-0.18210 0.41596 -0.05728
-0.08254 0.19360 0.15250
-0.11834 0.03077 -0.03720
-0.15590 0.20624 0.06412
-0.10873 0.21293 0.14979
-0.08764 0.09488 -0.15197
0.06719 0.11631 0.10651
0.08272 0.11631 -0.16391
-0.15797 0.41700 -0.02136
0.20431 0.12645 0.06722
0.19775 -0.38445 -0.15056
-0.15505 0.07050 0.07310
-0.06932 0.21425 0.14848
-0.16239 0.31703 -0.03236
0.11507 -0.15719 0.14309
0.11590 0.20597 -0.12877
0.20431 0.12082 -0.06514
0.20431 0.02797 0.17882
0.20431 -0.02749 -0.16247
-0.13204 -0.24865 0.13509
0.12509 -0.16396 -0.15791
0.19314 -0.13092 0.14588
0.06726 -0.16526 0.14106
0.14808 -0.16629 0.15645
-0.10503 0.22303 -0.14852
0.19974 -0.18436 -0.18167
0.04785 0.20901 0.13307
-0.13412 0.39033 -0.02882
-0.15505 0.07271 -0.04506
0.11700 0.20592 0.08205
-0.15505 0.07316 -0.08825
0.03298 0.11511 -0.03544
-0.18941 0.36399 0.02171
-0.10733 0.24984 -0.05639
-0.16552 0.41830 -0.00527
-0.15505 0.05856 0.03660
-0.16101 0.29343 -0.10441
-0.12207 -0.41288 0.12163
-0.11920 -0.29649 -0.11232
-0.11723 -0.08454 0.11153
-0.15505 0.08255 0.04756
0.04597 0.20910 0.03038
0.16873 -0.21077 -0.15188
0.13024 -0.16580 -0.14963
-0.12409 0.35120 -0.06381
0.13331 -0.16063 -0.14466
-0.11723 0.02529 -0.11180
0.19406 -0.01858 0.14588
-0.06335 0.07757 0.10656
0.07944 0.20760 0.01142
0.10865 0.11631 -0.08229
-0.15038 -0.08499 0.13365
0.16798 -0.01622 -0.15586
-0.11313 0.28429 -0.14933
0.17181 -0.15248 -0.15086
-0.08518 0.07365 -0.15223
0.18870 0.20121 -0.08301
-0.10957 0.27227 -0.04639
0.05820 0.15754 -0.16708
0.02117 0.11340 0.03888
-0.14767 -0.32646 0.11582
-0.14760 -0.26726 0.13331
-0.13659 -0.12465 0.13542
0.16798 -0.11701 -0.17155
0.15671 0.11631 0.16140
0.04091 0.20932 0.00981
0.06736 0.20814 0.16701
0.13110 -0.16563 -0.15604
0.13015 0.19571 -0.17453
0.08656 0.20728 -0.02274
-0.14643 -0.00737 -0.13401
-0.15505 0.05048 0.09900
0.17413 0.11631 0.02797
-0.02918 0.09728 -0.10780
0.04429 0.15671 0.16564
0.16861 -0.20565 0.17699
0.20431 0.17703 -0.10876
-0.15927 0.26370 0.04729
-0.15038 -0.03645 -0.11535
-0.16291 0.32589 -0.06667
-0.17283 0.41815 -0.13858
0.19780 0.11631 -0.00128
-0.11723 -0.13905 -0.12923
0.20394 0.19076 0.09834
-0.10725 0.03719 -0.14063
0.20119 0.19610 0.01460
0.04013 0.20936 0.03684
-0.09733 0.11767 -0.15097
0.00930 0.21074 0.05158
0.05827 0.20509 -0.16708
-0.15008 -0.22844 0.12318
-0.08587 0.21447 -0.13632
0.02141 0.12096 0.16327
0.17079 -0.30208 0.15441
-0.20261 0.37834 0.12132
0.06032 0.20846 0.01596
-0.19942 0.37269 0.10134
-0.10386 0.20699 -0.07314
-0.10317 0.04197 -0.01541
0.09954 0.11631 -0.12089
-0.12172 -0.39870 -0.11658
0.19915 -0.40535 0.15584
-0.10777 0.03658 -0.04518
-0.13075 0.03077 0.02237
0.20431 -0.17286 0.16479
0.18788 0.11631 -0.13893
0.10439 -0.16598 -0.15138
-0.13238 0.38405 0.07603
-0.05073 0.21342 0.08593
0.19298 -0.14927 -0.13756
-0.15002 0.25276 0.14551
-0.11723 -0.21038 0.11418
-0.03344 0.09529 -0.01089
-0.11508 0.30814 0.06970
-0.19827 0.40346 0.05969
-0.14737 -0.33857 0.12119
0.18012 -0.15615 -0.08240
-0.12631 0.03077 0.02725
-0.11304 0.29685 0.14580
0.19224 0.05822 -0.18115
0.20431 -0.04016 -0.16083
-0.01542 0.21184 0.04710
-0.12546 -0.08957 -0.10342
0.12349 0.16649 -0.17384
0.20431 0.12457 0.13724
0.16680 0.11631 0.04747
0.18192 0.11631 0.17924
-0.15802 0.24246 0.11868
-0.14250 -0.20150 -0.13436
0.18013 -0.17790 0.15698
0.07692 0.11631 0.01023
-0.10458 0.21737 -0.00520
0.09041 0.20711 -0.05723
-0.02200 0.19005 -0.15877
0.17453 -0.05129 0.14588
-0.14092 0.03077 0.04873
-0.12427 -0.28998 -0.10523
-0.11723 -0.20260 0.10882
0.12595 0.11631 0.04771
-0.14896 -0.27421 -0.11224
-0.11343 0.29901 -0.13248
0.16594 0.20373 -0.06405
-0.03748 0.15114 -0.15717
-0.06344 0.12373 -0.15448
-0.15505 0.05727 0.12739
0.20248 -0.25837 -0.16368
-0.18197 0.36015 0.00202
-0.11723 -0.08205 0.12921
-0.11741 -0.22365 0.12269
-0.13683 0.26681 -0.14688
-0.15505 0.08124 -0.14078
-0.04708 0.21326 0.07420
-0.13834 0.40227 -0.06479
-0.17886 0.39876 0.14253
-0.13596 -0.05881 0.10396
-0.12352 0.34875 0.06264
-0.11723 -0.03030 -0.12369
0.18077 -0.16097 -0.13132
0.19165 -0.05076 -0.18110
0.09499 0.20691 -0.09987
0.18674 0.17271 0.18039
-0.20032 0.40071 -0.00401
-0.09288 -0.14834 -0.12175
0.20226 -0.26834 -0.16497
-0.15505 0.04591 -0.10808
0.20431 0.17974 -0.09043
-0.01107 0.10470 -0.04534
-0.10646 0.24052 0.13318
-0.15695 0.22413 0.14013
0.12976 0.11631 -0.09955
0.20431 -0.02138 -0.16793
0.20431 -0.08283 -0.17099
0.20431 0.07527 0.15049
0.04677 0.11615 0.03514
-0.07739 0.06686 -0.10745
-0.04530 0.20798 0.15636
0.16707 0.20368 -0.07584
0.19173 -0.36815 -0.15019
-0.14946 -0.21638 -0.11990
0.20431 0.08082 0.17867
0.16117 0.15544 0.17774
-0.12855 -0.21290 0.10396
-0.13947 -0.21638 -0.11370
-0.15505 0.12080 -0.13878
0.17543 -0.03466 0.14588
-0.12398 0.35072 -0.14602
0.17047 -0.23349 -0.14714
0.03071 -0.15054 -0.13229
-0.18224 0.37349 -0.14218
-0.14826 -0.21782 0.10400
0.19097 -0.16451 -0.14588
0.16798 -0.07010 0.15168
-0.20424 0.38497 -0.12282
0.18543 0.20178 -0.13251
-0.11723 -0.04825 -0.13626
0.19726 -0.16975 0.14588
-0.00852 0.10559 -0.00538
-0.07238 0.07073 0.00944
-0.13306 -0.10869 -0.13518
-0.10154 0.20156 -0.02573
0.04967 0.11625 0.14503
-0.11723 -0.16870 -0.11488
0.13691 0.11631 -0.08142
0.16967 -0.25226 0.15087
-0.12925 -0.36776 -0.10714
-0.16305 0.32823 0.06333
0.20011 -0.36334 0.15191
0.20431 0.12876 -0.03728
0.19733 -0.15389 -0.09743
0.14159 0.13456 -0.17571
0.17186 0.20339 0.02635
0.19292 -0.26176 -0.17948
0.17939 0.20264 0.04883
0.17116 -0.31808 -0.16160
0.01457 0.15564 0.16256
-0.15505 0.06926 0.05552
0.19436 -0.00096 -0.14588
0.15692 -0.16556 0.16168
-0.16342 0.33449 0.12188
0.09841 0.11631 -0.11047
-0.11723 -0.00690 -0.11686
0.18180 0.20232 -0.01295
-0.03154 0.09618 0.02179
0.20431 0.10122 -0.15948
-0.16783 0.34683 0.05408
0.12458 0.11631 0.11767
0.20396 -0.19344 -0.15900
0.19982 -0.37579 0.17435
-0.00642 0.21144 0.11199
0.04469 0.11606 0.06058
0.17801 -0.12011 -0.14588
0.10989 0.20624 0.06728
0.19034 0.20089 0.17707
-0.10771 0.03666 -0.05037
-0.13083 0.37822 0.00222
0.06367 0.11631 -0.13062
-0.10701 0.03747 0.00361
0.20013 -0.36245 -0.15238
0.01200 0.21062 0.07835
-0.15542 0.41607 -0.05740
0.10965 0.20625 0.05354
-0.13346 -0.24421 0.10465
0.16880 -0.13180 0.14588
-0.15560 0.20123 -0.10068
-0.14752 -0.17311 -0.10342
0.13152 -0.15516 0.14572
0.03093 0.11486 -0.15774
-0.12036 -0.05355 -0.13629
-0.10863 0.19311 -0.14980
0.20269 0.11631 -0.03024
-0.04247 0.14882 0.15665
0.11669 0.11631 0.01477
-0.07901 0.06543 0.13156
0.18676 -0.21307 0.17994
0.20426 -0.18020 0.15218
-0.13154 0.38089 -0.00197
-0.01509 0.21183 0.02130
0.12445 -0.14861 -0.14911
0.03401 0.20963 -0.07357
-0.15793 0.24092 -0.07507
-0.12045 0.33496 -0.09988
0.18431 0.20195 -0.03639
0.20431 0.13569 -0.11757
-0.12215 -0.21638 0.10396
0.15428 0.11631 -0.04239
-0.03743 0.09337 -0.11053
0.15186 0.20436 0.11288
-0.14308 0.40849 0.00744
0.15609 -0.16165 -0.14835
0.19864 -0.17790 -0.17219
0.20431 0.06708 -0.16600
0.16937 0.14291 0.17859
-0.15505 0.09258 0.06563
-0.12204 -0.41156 -0.12218
-0.09326 0.18406 -0.15139
-0.14356 -0.10042 -0.13426
0.16277 -0.16532 -0.15315
-0.14695 -0.35563 -0.12510
0.18569 -0.14903 0.07098
0.16770 0.11631 -0.17620
-0.02609 0.21232 -0.10046
0.12751 0.18181 -0.17425
-0.19996 0.37338 0.07961
-0.11723 -0.04901 0.11010
-0.16912 0.35811 -0.14353
0.20431 -0.09071 0.16615
0.04303 0.20923 0.11141
0.16274 0.11631 0.07862
-0.15006 -0.22930 0.13259
0.20084 -0.33117 -0.16933
-0.11603 0.31328 -0.14501
0.20431 0.11800 -0.08701
0.20431 -0.03840 0.17781
0.15037 0.20443 -0.14976
-0.20416 0.39035 0.10505
0.16798 0.01836 -0.14912
0.00936 -0.16514 0.14153
-0.13613 0.39741 -0.06887
-0.12763 0.36582 -0.02682
-0.12089 0.33701 -0.02669
-0.14255 -0.06943 -0.13435
-0.05272 0.08460 -0.02036
0.11612 0.15427 0.17307
-0.13135 -0.13886 0.13588
0.02453 0.21006 -0.05939
-0.15505 0.13204 -0.03367
-0.15505 0.10015 -0.07849
-0.04317 0.10879 0.15658
