ply
format ascii 1.0
comment VCGLIB generated
element vertex 1783
property float x
property float y
property float z
element face 0
property list uchar int vertex_indices
end_header
-0.15427 0.02854 -0.10085
-0.16381 -0.05863 0.00394
-0.15525 -0.13331 -0.06434
-0.10818 -0.13331 -0.03200
-0.15231 0.34342 -0.05807
0.08280 -0.13331 -0.06194
0.12936 -0.10349 -0.01488
0.03329 -0.13331 -0.00454
0.16657 -0.39084 0.09104
0.16875 -0.21419 0.11387
0.00709 -0.13331 0.06495
-0.14781 -0.11894 0.09648
-0.15750 0.39107 -0.14888
0.10809 -0.10349 0.01298
-0.14392 0.26532 -0.00454
-0.16381 0.27456 -0.00455
-0.16068 0.17937 0.08317
-0.15095 0.33704 0.07364
-0.14780 0.10502 -0.08140
-0.16697 0.03018 -0.07926
0.01260 -0.12140 -0.11522
0.17924 -0.13331 0.02497
-0.19224 -0.37500 -0.07615
-0.16415 0.39733 -0.12541
-0.16118 -0.21634 -0.07645
-0.16381 0.14802 0.05682
-0.16393 0.37905 -0.08073
0.04083 -0.10541 -0.11773
-0.19678 -0.33799 0.09239
-0.01281 -0.10349 0.11216
0.09945 -0.13331 0.04123
0.17826 -0.29006 -0.10187
0.08940 -0.13331 0.05212
0.14946 -0.12576 0.10507
-0.19232 -0.33729 -0.07934
-0.15694 0.39281 0.14983
0.13957 -0.13331 0.02686
-0.17541 -0.28293 -0.10155
-0.14938 0.28223 0.12443
-0.16950 -0.08828 0.08299
-0.16935 -0.00969 -0.09505
-0.02933 -0.13252 -0.11151
-0.16370 0.42274 -0.01652
-0.03094 -0.13331 0.08999
-0.15452 0.25007 -0.09631
0.17784 -0.13331 -0.10642
-0.14718 0.26122 -0.11752
-0.14763 0.09379 -0.08162
0.16442 -0.20761 0.09038
0.08798 -0.13331 0.03618
0.04747 -0.13331 -0.08048
0.14773 -0.13331 -0.07016
-0.14392 0.17212 -0.05687
-0.16526 0.22468 -0.11489
0.15515 -0.36990 -0.10970
-0.17118 -0.30756 -0.07845
-0.14392 0.07415 0.01663
-0.05950 -0.13331 -0.00711
-0.15799 -0.21957 -0.09890
0.17098 -0.27186 -0.11396
-0.14739 0.32378 -0.11610
0.09657 -0.13331 0.00292
-0.16381 0.02507 -0.01936
-0.17742 -0.29779 -0.07574
-0.17398 -0.27143 0.07716
0.00648 -0.10349 -0.10945
-0.16381 0.28094 -0.04370
-0.16381 -0.03338 -0.04486
-0.17079 0.10794 0.09450
-0.16907 -0.11461 0.09769
-0.16381 0.19768 -0.01549
-0.14392 0.22420 0.04341
-0.16381 0.28382 -0.08385
-0.14392 0.18649 -0.04525
-0.14392 0.22292 -0.05195
-0.10696 -0.13331 0.00003
-0.17003 0.13665 -0.09341
-0.15601 0.10109 0.07659
0.16817 -0.35092 0.09171
-0.15881 0.32193 0.09584
0.15638 -0.37541 -0.09341
0.12895 -0.10349 0.01605
0.07303 -0.13331 -0.10244
-0.16178 0.18849 -0.10967
-0.16246 0.12560 -0.07376
0.17791 -0.21701 -0.10554
-0.15580 0.35572 0.01326
-0.10057 -0.10349 0.08483
-0.14392 0.21969 -0.05609
-0.16816 0.10648 0.09889
-0.16381 0.15055 0.01296
-0.09844 -0.13331 0.07075
-0.16935 -0.15076 -0.09506
0.19421 -0.11506 -0.11653
0.08347 -0.13331 -0.02786
-0.14823 -0.05839 0.08307
-0.18595 -0.39856 -0.07764
-0.16656 0.28482 -0.12537
-0.16950 0.03933 0.09713
-0.15737 0.09082 0.10277
0.16174 -0.18798 0.11587
-0.16923 -0.03693 0.08263
-0.14797 0.13656 -0.09614
-0.16636 0.27122 0.12420
0.19796 -0.13331 0.04613
-0.15077 -0.14651 0.08022
-0.15685 0.39690 -0.11376
-0.16381 0.26747 -0.00606
-0.15798 0.35195 0.01802
0.03382 -0.10349 0.05574
-0.17273 -0.27863 -0.10133
0.08798 -0.13331 0.10271
-0.17132 0.33610 0.12331
-0.16748 0.04804 -0.09754
-0.15697 -0.10019 0.07659
0.14364 -0.13331 -0.12439
0.06054 -0.13331 0.08033
-0.14392 -0.06310 0.00511
-0.02091 -0.10349 -0.03696
-0.16381 0.05624 0.04710
0.17703 -0.13331 0.11738
-0.05075 -0.13331 0.05499
0.17473 -0.21768 0.10282
-0.17624 -0.20640 -0.09148
0.11702 -0.13331 -0.04868
-0.16367 0.38796 0.02488
0.16837 -0.11487 -0.08982
-0.16164 0.03433 -0.10111
-0.15700 -0.12516 -0.07590
0.16992 -0.10496 0.13057
-0.13595 -0.13331 0.02738
0.03786 -0.13331 0.01186
-0.15940 -0.19293 -0.10128
-0.15586 -0.13331 0.08241
0.15385 -0.37976 -0.10730
-0.14392 -0.00538 0.07135
-0.08030 -0.13331 0.08634
-0.14392 0.27279 0.02829
0.15693 -0.13331 -0.05800
-0.14713 0.39138 0.14150
-0.17100 -0.24294 -0.10134
0.06402 -0.12130 0.12118
-0.19301 -0.32881 0.09778
-0.16381 0.15026 -0.05489
-0.15099 0.00402 0.10007
0.16658 -0.23764 0.11491
-0.16140 0.38130 -0.06772
0.17540 -0.13331 0.09956
-0.16381 0.02920 0.03345
-0.16381 0.13533 -0.06709
-0.16839 -0.07379 0.09859
-0.15336 0.31490 0.13378
-0.05829 -0.13331 -0.06510
-0.04617 -0.13331 0.05790
-0.11848 -0.13331 -0.01885
-0.15491 0.06188 0.07659
-0.16868 -0.29399 -0.07880
-0.15641 -0.14566 0.10265
0.15307 -0.12992 -0.10463
-0.13164 -0.13331 0.03985
-0.16062 -0.06486 -0.07376
0.15935 -0.13331 -0.05387
0.13163 -0.13331 -0.07664
-0.14392 0.07305 0.04961
-0.16381 -0.11140 0.03769
-0.14618 0.27945 0.09087
-0.14392 0.14366 -0.06422
0.15220 -0.13331 0.10168
-0.14392 0.32094 0.01289
-0.16102 0.31011 -0.10754
-0.15285 -0.21372 -0.08403
-0.17117 -0.16901 0.09356
0.17807 -0.29922 -0.10431
-0.14698 0.04004 0.08566
-0.06331 -0.13331 0.09800
-0.15548 0.38972 -0.05787
-0.11135 -0.11674 0.10564
-0.03296 -0.13331 0.02546
-0.14664 0.00576 -0.08355
-0.14633 -0.03704 0.09168
0.09215 -0.10349 0.11208
-0.18015 -0.25154 -0.08020
-0.02749 -0.13331 -0.08514
0.15135 -0.15068 0.09593
-0.14822 -0.00650 0.07659
-0.14948 -0.19630 -0.09041
-0.16381 0.14753 -0.02362
-0.16381 0.02187 -0.05848
-0.16381 0.34162 0.02845
0.04688 -0.11092 0.11966
-0.14814 0.06342 0.08319
-0.16381 0.00150 -0.01818
-0.16391 -0.05459 0.07829
-0.16530 0.31799 -0.12105
-0.18178 -0.35543 0.07826
-0.07552 -0.13331 -0.01879
-0.10162 -0.12067 -0.10511
0.15612 -0.13331 -0.08982
0.15636 -0.16460 0.11450
-0.15861 0.00132 0.07659
-0.15073 0.13173 -0.09896
-0.15247 0.36138 0.11955
-0.15881 -0.03967 0.10297
-0.17341 -0.34316 0.09570
-0.17101 -0.07605 0.09395
-0.16391 -0.03212 -0.10016
-0.18093 -0.36008 0.07894
-0.13743 -0.10349 0.05230
-0.14934 0.19256 0.07928
-0.16566 -0.25153 0.07846
-0.18629 -0.30135 -0.09843
0.09117 -0.13331 -0.11662
-0.15900 0.37599 -0.12956
0.17467 -0.25491 0.10354
-0.16381 0.25551 0.05610
-0.09434 -0.13331 -0.08840
-0.15643 0.23138 0.11886
0.14595 -0.13331 0.01513
0.17226 -0.13331 -0.11372
-0.17003 0.38941 0.12987
-0.15735 0.38049 -0.07187
-0.15919 -0.03059 0.10294
-0.16457 0.34769 0.06996
-0.16381 -0.11562 -0.06264
-0.14895 0.33500 0.11779
-0.14655 0.10356 0.09341
0.15780 -0.41178 0.11510
0.17128 -0.19959 0.11175
-0.15449 0.41785 -0.04116
-0.16381 -0.12223 0.07078
-0.17029 0.10915 -0.08454
0.18894 -0.10349 0.08938
0.18326 -0.13331 -0.10878
-0.15733 0.32303 -0.10538
-0.16791 0.23214 -0.09692
-0.16444 0.35427 -0.04578
-0.14916 0.32286 -0.13198
-0.16381 -0.08223 0.06724
-0.14087 -0.13331 0.08433
0.05250 -0.13296 -0.11876
0.09399 -0.13331 -0.07632
-0.19218 -0.42656 0.09263
-0.15116 0.25932 -0.08640
-0.15554 0.14665 -0.07626
0.14308 -0.13331 -0.05651
0.17820 -0.11934 -0.10139
-0.16381 -0.12125 -0.09040
-0.17295 -0.18215 -0.08876
-0.15640 -0.05081 0.10265
-0.16381 0.24443 0.03331
-0.15508 -0.02073 -0.07376
-0.16381 -0.02533 0.01949
-0.14925 0.21288 -0.09240
-0.16770 -0.20800 0.10257
-0.16254 0.40161 0.13920
-0.17037 -0.28629 0.07868
0.17378 -0.17629 0.09834
-0.16381 0.17759 0.04927
0.09829 -0.13331 0.05102
-0.16093 -0.19726 0.07740
0.10477 -0.13331 -0.07748
-0.13763 -0.10349 0.04043
-0.10689 -0.13331 0.10339
-0.16459 0.03107 0.07857
-0.13913 -0.13331 -0.00633
0.17180 -0.40445 0.11107
-0.15911 0.05643 0.07716
0.17790 -0.38775 -0.09909
-0.14643 0.28653 -0.12051
-0.20341 -0.41568 0.10041
-0.19721 -0.39830 0.07783
-0.09179 -0.13331 -0.06388
-0.16381 0.27477 0.08934
-0.14392 0.28619 -0.05656
0.16470 -0.23994 -0.11518
0.16298 -0.10349 0.09665
0.07262 -0.13331 -0.09410
-0.06633 -0.11006 -0.10823
-0.14631 0.04527 0.09154
0.20947 -0.12479 -0.02138
-0.14702 0.39675 0.14226
-0.15999 0.17650 -0.08183
-0.16381 -0.05639 -0.01260
0.16025 -0.12321 -0.11401
-0.16674 0.04754 -0.07908
-0.14392 -0.09428 0.05925
-0.15685 0.41821 0.05427
-0.16365 0.42221 0.00721
-0.14392 0.03702 -0.00497
-0.16781 -0.09758 0.09928
-0.13222 -0.10349 -0.09966
0.07599 -0.11000 0.12224
-0.16622 0.30744 -0.10966
-0.14392 0.12039 0.00985
-0.20188 -0.42132 -0.10011
-0.14963 0.18721 0.07856
-0.16381 0.21296 -0.07578
0.16418 -0.14730 -0.11511
-0.17060 0.39688 -0.13354
0.20780 -0.12530 -0.04377
0.14008 -0.13331 0.09714
0.17030 -0.23121 -0.11424
-0.16501 0.10959 -0.09957
-0.16212 0.28942 -0.10389
0.07204 -0.13331 0.07334
-0.14933 0.17145 -0.07616
0.17393 -0.13331 -0.08321
-0.09769 -0.13331 0.02872
-0.14109 -0.10349 -0.09475
-0.14241 -0.11507 -0.10149
0.07062 -0.13331 0.08331
-0.02735 -0.10947 0.11309
-0.16381 0.29250 0.00841
-0.15110 0.07920 0.07996
0.08457 -0.13331 -0.10594
0.16751 -0.30473 0.11452
0.13208 -0.11873 -0.12581
0.08026 -0.10349 0.01691
0.15020 -0.33836 0.09823
0.12645 -0.13331 0.02521
0.00159 -0.13331 0.06301
-0.16675 0.29250 0.12797
-0.15438 0.36430 0.14367
-0.16664 0.07073 -0.07901
-0.12631 -0.13331 -0.01155
-0.14710 0.27186 -0.11934
-0.16381 0.29875 0.06080
-0.15855 0.33977 -0.06917
0.02987 -0.13331 0.08056
-0.15197 -0.04828 -0.09989
-0.01498 -0.13331 0.09304
0.15523 -0.24128 -0.10982
-0.16381 0.04081 0.00867
-0.16381 0.34722 0.05176
-0.16984 0.36507 -0.13614
-0.14392 0.05137 0.01140
-0.14392 -0.00348 0.04122
0.06250 -0.13331 0.02617
-0.15626 0.37812 -0.12046
-0.14625 0.16458 0.09221
0.09735 -0.13331 0.03249
0.17149 -0.42062 -0.11374
-0.14567 0.35967 -0.13127
-0.16381 -0.07695 0.01917
0.15983 -0.10349 -0.00782
0.11610 -0.10349 0.04028
-0.06869 -0.13331 -0.01638
0.14055 -0.13331 0.06674
-0.16198 -0.13331 -0.00038
0.15787 -0.19878 -0.11256
-0.14392 0.25617 -0.03882
-0.00414 -0.13331 -0.10394
-0.17607 -0.21078 0.09668
-0.16350 -0.22443 0.07766
-0.16509 -0.16025 0.10133
0.17305 -0.13331 0.10492
-0.14392 0.23059 -0.00115
0.06127 -0.10349 -0.00278
-0.20242 -0.37411 0.09088
-0.17764 -0.38428 -0.08804
0.19556 -0.13331 -0.00599
0.17116 -0.19717 -0.11388
0.18512 -0.13331 0.00538
-0.14392 -0.09017 0.03042
0.16670 -0.35553 -0.11514
0.15790 -0.30824 -0.11258
-0.17098 0.37709 -0.13356
-0.16286 -0.27027 -0.09607
0.05948 -0.10349 -0.11106
0.15596 -0.41842 0.11433
-0.16088 -0.11646 -0.10114
-0.14392 -0.01468 -0.01240
-0.14562 -0.10961 0.10261
-0.16381 0.21197 0.02648
-0.15610 0.10779 -0.07376
-0.16381 0.33895 -0.05443
0.12740 -0.13331 0.04778
-0.16085 0.38785 0.05491
-0.14649 0.23124 0.10305
0.11535 -0.11979 0.12573
-0.16497 0.15674 0.08022
-0.16048 0.28979 -0.12929
-0.18328 -0.38835 0.08041
-0.16381 -0.12100 -0.08140
-0.16537 0.35690 0.01536
-0.14392 0.14648 0.05489
-0.16381 0.32222 0.01969
-0.16381 0.24501 0.01831
-0.16167 0.04432 0.10261
-0.14392 0.04739 -0.06610
0.17474 -0.13331 0.05225
-0.17083 -0.16706 -0.09022
-0.14667 0.10314 0.08642
0.16571 -0.23162 0.11528
-0.16348 0.42465 -0.01067
-0.15978 0.38332 -0.08817
-0.16381 0.08165 0.01278
-0.16381 -0.08243 0.03460
0.04706 -0.13331 -0.08642
0.17007 -0.18066 0.09312
-0.16987 0.18030 -0.10070
-0.01385 -0.13331 -0.05109
0.15353 -0.30129 -0.10650
0.17583 -0.26726 -0.10986
-0.02767 -0.13331 -0.09708
-0.15553 -0.11535 0.10251
-0.15905 -0.17312 0.07717
0.16922 -0.11612 0.11350
-0.16381 0.17928 0.00680
-0.14392 0.10618 0.02824
-0.15733 0.35592 0.00691
-0.17127 0.06868 0.08695
-0.16017 -0.10906 -0.07599
-0.15977 -0.15458 -0.10138
-0.15185 0.20772 0.11239
-0.14614 0.02440 0.07659
0.07758 -0.10349 -0.08428
-0.14392 -0.02116 -0.06678
0.04711 -0.13331 -0.10564
-0.14392 0.16594 -0.07463
-0.16306 -0.12986 0.09652
-0.16381 0.14784 0.06180
0.15898 -0.21224 -0.09132
0.15085 -0.31405 0.09664
-0.16054 0.15921 0.07659
-0.14695 -0.12785 0.09437
-0.16381 -0.08667 0.02362
-0.14890 0.35936 -0.13863
0.10202 -0.11528 -0.12315
0.15368 -0.13331 -0.02335
-0.15879 0.41176 -0.08503
0.14943 -0.13842 0.10486
-0.16381 0.20403 -0.00087
0.15938 -0.25956 -0.11365
-0.15594 0.04073 0.07659
-0.16270 0.39562 -0.10276
-0.15303 -0.13331 0.01176
-0.18359 -0.41450 -0.09451
-0.15872 -0.21331 -0.10003
-0.17904 -0.23189 0.09695
-0.17901 -0.38049 -0.08181
0.16064 -0.35074 0.09023
-0.16695 0.09100 -0.07925
-0.14597 0.37990 -0.13014
-0.14392 0.21758 0.04062
-0.14392 0.04688 0.06769
-0.15600 0.04541 0.10259
-0.16334 0.40479 -0.08656
0.17824 -0.10349 -0.11550
0.15649 -0.38357 -0.11147
0.16700 -0.10349 -0.02664
-0.17936 -0.23239 -0.09376
-0.13141 -0.13331 -0.03698
-0.14566 0.04608 -0.09002
-0.14392 -0.02925 0.06348
-0.14392 0.34730 -0.03987
-0.14392 -0.09767 -0.07137
-0.07084 -0.13331 0.05773
-0.16381 0.35377 0.00689
-0.15553 0.35436 0.11277
-0.14392 0.16237 0.01014
-0.16149 -0.07102 0.10263
-0.16381 0.30771 -0.08338
-0.09476 -0.13331 -0.02579
-0.14253 -0.10349 -0.07179
0.15059 -0.10349 -0.04511
-0.06229 -0.10349 0.07962
0.17284 -0.17438 0.10970
0.18257 -0.10349 -0.10248
-0.14392 0.17586 -0.01575
-0.16595 -0.22415 -0.07579
-0.15092 -0.04406 0.10002
-0.16481 -0.07395 0.07867
-0.14549 0.32757 -0.12363
-0.16381 0.14838 0.00513
-0.14581 -0.02147 -0.08611
-0.16288 -0.26916 0.08324
-0.16381 0.17354 0.07639
0.14930 -0.16403 0.10379
-0.15793 0.29318 -0.10397
-0.15589 0.33113 -0.13719
-0.20100 -0.36895 -0.08788
-0.16381 0.16162 -0.01207
-0.15585 0.22657 0.11786
-0.15096 0.27006 0.12362
-0.15984 0.28874 0.10399
-0.05646 -0.11800 0.11051
-0.16654 -0.04705 0.10028
0.16326 -0.26217 0.11573
0.08952 -0.10349 -0.03974
-0.17020 0.18958 0.09204
-0.14392 -0.10058 -0.03287
0.04145 -0.13331 -0.09137
-0.15967 0.05326 -0.07376
-0.14892 -0.18833 -0.09304
0.16509 -0.33149 0.11548
-0.11793 -0.10349 -0.09563
-0.15346 0.35047 -0.03856
0.11484 -0.13331 0.05798
-0.14919 0.04790 -0.07376
0.04856 -0.10349 0.00870
0.16200 -0.35547 0.09006
-0.15501 0.08149 0.10229
-0.14392 0.11296 -0.01663
-0.15418 0.08180 -0.07376
-0.10375 -0.13331 -0.08279
-0.16071 0.41601 0.00269
-0.01762 -0.13331 0.11360
-0.15294 -0.02450 0.07868
-0.14660 0.34326 0.06127
0.15734 -0.27279 -0.09259
-0.14639 0.24760 -0.08504
-0.16381 0.03542 0.06992
-0.14392 -0.03053 0.05088
0.20003 -0.11030 -0.09271
-0.05957 -0.12530 0.11023
-0.03916 -0.10349 -0.02139
-0.14758 -0.13136 -0.08168
-0.18497 -0.36513 0.07757
0.19569 -0.12707 0.11267
0.15156 -0.42262 0.11030
-0.16381 0.27597 -0.04318
-0.16381 0.24321 0.00179
-0.19526 -0.37180 0.07867
-0.06226 -0.10349 -0.04515
0.15748 -0.10349 -0.07320
-0.16949 0.00207 0.08298
-0.14392 0.07268 -0.01673
-0.14525 -0.10153 0.07659
-0.16381 0.13487 -0.01470
-0.14680 0.22592 -0.10982
-0.14392 0.06017 -0.03760
0.15950 -0.13331 -0.09958
0.14344 -0.13331 0.03026
-0.17137 0.07231 0.09241
-0.05064 -0.13331 0.10033
-0.03788 -0.13331 0.01986
-0.14392 0.02448 0.03372
-0.16381 0.29554 -0.06108
0.12325 -0.10349 0.08939
0.16861 -0.10349 0.00381
-0.15787 0.01838 -0.10153
-0.14392 0.33399 -0.02532
-0.17073 0.10572 -0.09098
-0.09398 -0.13331 -0.00849
-0.14392 0.19223 -0.06568
-0.16226 0.39066 -0.06496
0.05179 -0.13331 0.01499
-0.14871 0.35056 -0.13669
-0.15616 0.23854 -0.09376
-0.15663 0.39772 0.08478
-0.14392 0.00853 -0.06679
0.08475 -0.13331 -0.06763
-0.17157 0.35505 0.13054
-0.14640 -0.04935 0.08786
-0.16455 -0.28090 -0.09619
-0.17084 0.30752 0.12499
-0.14829 0.18921 -0.08914
0.16867 -0.22874 -0.08986
-0.15199 -0.05940 0.07659
0.05401 -0.13331 0.03877
0.01212 -0.10349 -0.06411
0.16143 -0.33966 0.09013
-0.16381 0.07522 0.07411
-0.16392 0.38656 -0.07471
0.20638 -0.12267 0.05645
0.16769 -0.27330 0.09151
-0.08029 -0.10349 0.00702
-0.15679 -0.01155 0.10270
-0.14878 0.01409 0.08234
-0.15423 -0.12068 -0.07647
0.01522 -0.10349 0.11259
-0.16455 0.35046 -0.03744
0.16403 -0.13331 0.03257
-0.16381 0.31523 0.00963
-0.16381 0.12046 0.01705
-0.14591 -0.00328 -0.09199
-0.14392 -0.05217 0.03072
-0.14392 0.00278 0.01320
0.16506 -0.14284 0.11549
0.12614 -0.10349 -0.02594
-0.00096 -0.10349 -0.04538
-0.05529 -0.13331 0.01048
0.17782 -0.10349 0.03631
-0.15889 0.10439 -0.10149
-0.14392 0.32537 0.00622
-0.14392 0.04275 -0.00819
-0.16381 0.04619 0.01182
-0.16381 0.12308 0.00892
-0.16706 -0.07384 -0.09798
-0.14392 0.05837 -0.06117
-0.16466 0.03160 0.10151
-0.16381 -0.02810 -0.06632
0.19341 -0.13331 -0.11377
-0.14392 -0.02404 0.01290
0.16677 -0.10349 -0.01017
0.17449 -0.37851 0.10498
-0.15542 -0.23469 -0.09160
-0.17056 0.12288 -0.08521
0.15343 -0.27453 0.09345
-0.18645 -0.29011 -0.09648
-0.15183 0.40410 -0.14743
-0.07277 -0.13331 -0.02744
-0.14392 0.35233 0.03402
-0.15994 0.35350 -0.02559
-0.13427 -0.13331 0.04828
0.16135 -0.13331 0.02188
-0.16418 0.39121 0.00486
-0.15743 0.35825 -0.02402
-0.15995 0.35801 -0.03281
0.15193 -0.32286 0.09517
-0.14392 0.30871 -0.07041
0.12610 -0.11336 -0.12528
-0.16381 0.09045 0.05665
-0.18082 -0.23806 0.08484
-0.14392 0.22670 -0.05901
-0.16000 0.24184 0.12105
-0.16381 0.01381 -0.05754
0.17241 -0.20220 -0.11319
-0.16823 0.38152 -0.12595
0.09874 -0.12261 0.12426
-0.20234 -0.40308 0.09978
0.14709 -0.13331 -0.09632
-0.12419 -0.13331 -0.00188
0.03510 -0.10349 0.08127
-0.14392 0.15974 -0.01694
0.16877 -0.12926 -0.11486
-0.16706 -0.15455 0.08024
-0.15259 -0.09496 -0.07716
-0.14910 0.11120 0.09820
-0.07928 -0.10349 0.10480
-0.20139 -0.36773 0.09141
-0.14392 0.14999 -0.05962
-0.14750 -0.00134 0.09572
0.03329 -0.10349 -0.09642
-0.17543 -0.31182 -0.07650
-0.14939 -0.08651 0.09858
-0.15505 0.16736 -0.08028
-0.06631 -0.13331 -0.10629
0.19693 -0.10349 -0.04991
-0.15780 0.35949 -0.01103
0.16398 -0.13331 -0.06108
-0.14392 0.17143 -0.02505
-0.16381 0.21027 -0.04977
-0.16546 -0.21102 -0.07587
-0.16381 0.25914 0.07441
0.11485 -0.13331 -0.11992
-0.17077 0.19764 -0.10089
-0.16451 0.19015 -0.08591
0.17418 -0.31954 -0.11182
0.17899 -0.10349 0.02723
-0.00364 -0.13331 -0.02634
0.14927 -0.36100 0.10362
0.15079 -0.13331 -0.08401
0.16653 -0.38051 -0.08958
0.20144 -0.13331 0.07406
-0.12795 -0.13331 -0.03111
-0.16162 0.35618 0.04615
-0.16774 -0.21319 0.10267
-0.17628 -0.22121 -0.08110
-0.16381 -0.11515 0.06510
-0.17533 -0.23563 0.07896
-0.15685 -0.23050 -0.09605
0.13436 -0.13331 -0.04365
-0.14392 0.27236 0.00166
0.07658 -0.12205 0.12230
-0.15217 0.25713 0.09984
-0.16754 0.39697 -0.14592
-0.14964 -0.13331 0.09017
-0.17174 -0.22950 0.10230
-0.17166 0.15587 0.09144
-0.16195 0.00167 -0.07633
-0.08508 -0.10349 0.06660
-0.14392 0.06869 -0.02639
-0.15363 -0.05044 0.07839
-0.16381 0.08617 -0.01209
-0.09994 -0.10349 -0.10220
-0.14392 0.17395 0.01407
-0.15724 0.14539 0.07735
-0.11857 -0.13331 -0.02618
-0.06299 -0.10349 -0.09792
0.16604 -0.38983 -0.11522
0.15605 -0.10349 0.07269
-0.14392 0.21891 0.07974
0.04949 -0.13331 -0.09873
0.02968 -0.13331 0.09549
-0.14392 0.28577 -0.02920
-0.16181 -0.13331 -0.01677
-0.15574 -0.10740 -0.10124
0.00231 -0.13331 -0.05614
0.11459 -0.10349 0.09848
-0.10148 -0.13331 0.08699
-0.16381 0.00306 0.00469
-0.14392 0.24733 0.01698
-0.16381 0.22748 0.02330
-0.15840 0.34090 0.06671
0.04320 -0.13331 0.07914
0.16079 -0.19051 -0.09050
0.15423 -0.13331 -0.07509
-0.15924 0.39716 -0.03296
-0.14627 -0.04415 0.08891
0.14847 -0.10349 -0.00686
-0.13023 -0.13331 0.06080
-0.14392 0.01284 -0.00698
0.17335 -0.18278 0.09728
-0.16956 0.35623 0.13705
-0.18153 -0.37789 0.09957
-0.15758 0.01919 0.07659
-0.15742 0.00411 -0.10146
0.15356 -0.28167 0.09335
-0.16086 0.38965 -0.01256
-0.18981 -0.36732 -0.10133
0.19974 -0.10359 0.09534
-0.17008 -0.02045 0.09622
0.16888 -0.13331 0.05859
0.01084 -0.13331 -0.04474
-0.15692 0.28164 0.10277
-0.16167 0.32639 -0.08705
-0.16381 0.13651 -0.02500
-0.16261 0.24839 -0.12078
-0.16381 0.02704 0.01311
-0.16349 0.42135 -0.02163
0.09583 -0.13331 0.09891
-0.17146 0.05534 0.08841
-0.14652 0.39511 0.13424
-0.06644 -0.13331 0.03759
0.19493 -0.11709 0.11537
0.15413 -0.12272 -0.09678
-0.16436 0.32026 0.11283
0.15343 -0.13331 0.08582
-0.16381 0.31204 -0.08109
-0.14392 0.13447 0.00641
0.13554 -0.10349 0.10963
0.08169 -0.13331 0.05934
0.12469 -0.13331 -0.09873
0.01472 -0.13331 0.08565
-0.16830 0.08314 0.08141
-0.05882 -0.13331 0.04800
-0.16381 0.06169 -0.05454
-0.16381 0.20223 -0.05719
-0.16069 -0.11839 0.09652
-0.16381 0.26929 0.03790
-0.04229 -0.13331 -0.05090
-0.14392 0.22990 0.07516
0.15017 -0.38425 0.10766
0.08506 -0.13331 -0.03973
0.16315 -0.42504 0.11574
0.05980 -0.13331 -0.11754
0.17626 -0.31322 -0.10930
-0.18452 -0.37972 -0.07697
-0.16630 -0.25196 -0.10076
-0.16889 0.27832 -0.12141
-0.14392 0.05499 -0.05085
-0.08162 -0.10349 -0.01860
-0.14392 0.19735 0.01139
-0.02392 -0.13331 0.02991
-0.16105 0.37347 0.06807
0.11888 -0.13331 0.00955
-0.16381 0.30300 -0.04639
-0.15619 0.30382 0.10711
-0.16387 0.33154 -0.10421
-0.16768 0.33273 -0.11587
-0.18130 -0.37980 0.08094
-0.20388 -0.41254 -0.07952
-0.14629 -0.11552 0.09140
-0.16381 -0.12780 -0.03978
0.15554 -0.21707 -0.09452
0.06143 -0.10349 -0.07619
0.07627 -0.13331 0.11985
-0.14392 0.10037 -0.03229
0.15878 -0.25619 -0.09147
-0.14758 0.04469 -0.08169
-0.14392 0.10606 0.03607
0.17495 -0.35352 -0.09371
0.18230 -0.13331 -0.10011
-0.16297 0.39874 0.08693
-0.14392 0.05661 0.00104
-0.17163 0.03771 0.09038
-0.16381 -0.05349 0.05624
0.15398 -0.40382 -0.09713
0.15435 -0.10349 -0.08404
-0.14640 -0.01048 0.09224
0.13345 -0.10349 -0.08475
-0.17178 -0.27623 -0.07605
0.12945 -0.13331 0.09515
-0.16640 -0.08671 -0.09848
0.17684 -0.37581 -0.10828
-0.16381 -0.11558 -0.02091
-0.18087 -0.40356 -0.09170
-0.16204 0.12957 -0.07637
0.14933 -0.20274 0.10188
-0.18350 -0.38182 -0.09973
-0.11392 -0.13331 0.09285
-0.13130 -0.13331 -0.07522
-0.14392 0.10478 -0.06031
0.15528 -0.35221 0.11393
0.14953 -0.25685 0.10556
-0.02198 -0.13331 0.08780
0.16218 -0.26809 -0.11482
0.15828 -0.42121 -0.09186
-0.03957 -0.13331 -0.05915
-0.16334 -0.17575 -0.10076
-0.14392 0.24492 -0.07175
0.17461 -0.39229 0.10190
-0.14704 0.11662 0.09460
-0.08238 -0.13331 -0.07912
0.18229 -0.10349 -0.07643
-0.14392 0.20806 0.01667
0.16542 -0.10349 -0.05714
-0.16228 0.21948 -0.08176
0.20989 -0.11373 0.00596
-0.16497 0.31524 0.13362
-0.16976 -0.28101 -0.07693
0.17495 -0.16006 -0.11102
-0.14921 0.15486 -0.08133
0.15097 -0.22719 0.10953
-0.16381 0.02059 0.02098
-0.17016 -0.02960 -0.09307
0.09571 -0.10349 0.11973
-0.15842 0.26470 -0.09850
0.09191 -0.13331 -0.10162
-0.16642 0.34056 -0.11616
0.17079 -0.33521 -0.11404
0.11991 -0.10349 -0.06812
-0.06722 -0.10349 -0.09528
-0.12806 -0.10349 0.06921
-0.15959 0.40300 0.13192
0.16858 -0.31780 0.09196
-0.17073 0.23414 -0.10820
-0.04002 -0.10349 -0.04410
-0.16381 -0.10066 0.07218
-0.15517 0.21221 -0.08885
-0.16381 0.33783 -0.06373
-0.08369 -0.10349 0.09876
-0.14614 0.07433 0.08988
0.16396 -0.10349 0.07272
-0.14758 -0.05915 -0.07376
-0.16043 0.07609 -0.07376
-0.14638 -0.14858 0.09205
0.12445 -0.13331 0.06864
0.17364 -0.32445 0.09800
-0.19922 -0.35933 0.09494
0.15858 -0.13331 0.11196
-0.14392 0.08314 0.03851
-0.14613 0.25607 0.11068
-0.16381 0.18125 0.02279
0.18272 -0.10349 -0.09149
0.16545 -0.34713 0.11538
-0.16943 0.04269 -0.08246
-0.16381 0.23998 0.06348
-0.09375 -0.13331 0.06679
-0.15658 0.32740 0.13726
0.17344 -0.40065 0.09751
-0.16381 0.17450 0.02663
-0.16381 0.07579 -0.00600
-0.16463 0.39513 -0.01948
-0.17831 -0.30910 -0.10146
0.17187 -0.26317 0.11097
-0.15198 -0.20755 0.08717
-0.20285 -0.38498 -0.09253
-0.11754 -0.13331 0.01718
0.16630 -0.13331 0.02600
0.07507 -0.10349 -0.07627
-0.14730 0.19652 -0.09186
-0.15483 0.36808 0.11982
-0.14392 0.09902 0.02809
-0.16024 0.39011 0.12344
-0.19400 -0.38251 -0.07635
-0.16381 0.08483 -0.03556
0.14566 -0.13331 -0.08257
0.16999 -0.32845 0.09305
0.11016 -0.10349 -0.09023
-0.17811 -0.21328 0.09155
-0.14617 0.30956 0.12143
-0.15895 -0.14571 -0.07582
-0.16278 0.42055 -0.05296
0.13178 -0.13331 -0.02019
-0.15289 -0.03930 0.07870
-0.17071 -0.11004 -0.09117
-0.16180 0.37063 -0.11412
0.17269 -0.36232 -0.11298
-0.15410 0.41250 0.05789
0.11214 -0.10349 0.05195
0.17651 -0.19425 -0.09577
-0.16381 0.19519 0.01271
-0.14392 -0.08953 -0.02763
-0.06060 -0.13331 0.08620
-0.02265 -0.13331 -0.03000
0.15598 -0.26950 0.09162
-0.14392 -0.05920 0.05569
0.10197 -0.13331 -0.02531
-0.16847 0.18605 -0.10430
-0.17008 -0.11926 -0.09327
0.16229 -0.16840 0.09010
0.15311 -0.29454 -0.10494
0.05580 -0.10349 0.09283
-0.15453 -0.03052 0.07659
-0.16381 -0.00877 -0.02324
-0.16274 0.36286 -0.12601
-0.16381 -0.06425 0.01963
-0.02366 -0.10349 0.02954
-0.00088 -0.13331 0.10188
0.15995 -0.30567 0.11563
-0.14841 0.14926 0.08297
-0.15688 -0.17597 0.10260
-0.17048 0.36583 0.13705
-0.15851 0.41990 0.05017
-0.17145 0.19262 0.10037
-0.16344 0.21943 0.11593
0.20703 -0.10537 0.05126
-0.16381 -0.00614 0.02636
-0.14788 0.29849 0.11224
-0.16880 -0.28618 -0.07781
0.18977 -0.13331 0.03469
-0.16228 0.16791 0.08121
-0.15470 0.37776 -0.13057
0.15659 -0.13331 -0.01316
-0.16209 0.08439 0.10255
-0.16602 -0.16540 0.10068
-0.14392 0.26523 -0.03526
0.18952 -0.10349 -0.05396
0.14843 -0.13331 -0.01502
-0.14392 0.28466 0.05084
-0.16381 -0.01151 0.00225
-0.14392 0.18803 0.07551
0.12751 -0.13331 0.04185
-0.14392 -0.08784 -0.00453
-0.15099 0.20701 -0.11129
-0.14691 0.15431 0.09559
-0.04692 -0.13331 0.02487
-0.17149 0.28369 0.11746
-0.16381 -0.09128 0.03540
-0.14856 0.18483 0.10469
-0.16030 -0.26240 -0.09358
-0.08228 -0.13331 -0.05255
-0.17196 -0.33741 0.09429
0.15575 -0.19862 -0.09423
-0.14392 0.33248 -0.00975
0.15478 -0.40029 0.11355
0.03659 -0.13331 0.01700
-0.16293 0.38427 -0.13011
-0.20488 -0.41565 0.08083
-0.05039 -0.13331 -0.07067
-0.05165 -0.13331 0.03557
-0.05180 -0.13331 -0.10621
-0.15043 0.11385 0.08048
0.15402 -0.20778 -0.09704
-0.17062 -0.05740 -0.09183
-0.16381 0.11869 0.04516
0.06131 -0.13331 -0.10362
-0.14392 -0.08416 -0.06475
-0.14392 -0.05389 -0.01779
-0.16122 0.38352 0.03853
0.19320 -0.10349 -0.07017
-0.16864 0.16128 -0.08434
-0.12770 -0.10349 0.00469
-0.08581 -0.13331 0.10522
0.04356 -0.10349 0.05327
0.19813 -0.10349 0.03963
-0.14567 -0.04820 -0.09012
-0.00828 -0.13331 -0.08553
0.01036 -0.13331 -0.01187
0.06310 -0.13331 0.07152
0.17220 -0.16884 -0.09138
0.00826 -0.10349 -0.03751
0.11071 -0.13331 -0.00955
-0.14392 0.30324 -0.03831
-0.15107 -0.13331 0.02635
-0.17945 -0.29422 0.07738
-0.15737 0.42674 0.00746
-0.16381 0.19635 -0.04778
-0.16381 -0.06029 0.01032
0.10332 -0.13331 -0.03227
-0.15247 0.33419 -0.11329
-0.18758 -0.27504 0.09028
0.02146 -0.13331 0.05760
-0.17078 0.35333 -0.12657
0.20521 -0.13331 0.01811
-0.16381 0.09680 -0.06327
-0.14828 0.36815 -0.12340
-0.14695 0.00762 0.08573
-0.15367 0.18799 0.08584
0.15420 -0.20182 -0.10813
-0.14392 0.03251 -0.06840
0.17763 -0.13994 -0.09839
0.05921 -0.13331 0.01830
-0.16062 0.07759 0.10275
-0.15761 -0.10273 -0.07582
0.18562 -0.10349 -0.11721
-0.15771 0.37728 -0.14627
-0.14900 -0.19212 -0.08581
-0.16692 -0.09815 0.08013
0.19781 -0.10349 0.08781
-0.19991 -0.36791 0.08371
0.13659 -0.10349 -0.07195
-0.05847 -0.10349 -0.05523
-0.15765 0.14359 -0.10150
0.13567 -0.13331 -0.03111
-0.14694 0.39685 -0.13098
-0.16878 -0.30271 -0.09742
-0.14814 -0.07821 0.08318
0.00806 -0.10581 -0.11482
-0.16905 -0.30216 0.09843
-0.16381 0.15081 0.06619
0.16684 -0.13331 0.00357
-0.16813 0.33729 0.11726
0.08098 -0.13331 0.05033
0.01380 -0.10349 0.00378
-0.16381 0.23307 0.02553
0.07401 -0.10349 -0.06750
-0.15090 0.01722 -0.07822
-0.02827 -0.10349 0.10335
-0.04903 -0.13331 -0.02189
-0.05491 -0.13331 0.02538
0.17726 -0.29718 -0.09747
-0.16014 0.35213 -0.00215
-0.16381 0.26046 -0.07146
0.15956 -0.13331 -0.00701
-0.14673 0.13032 0.08627
-0.04233 -0.10349 0.07372
-0.16671 0.18318 -0.08627
0.17460 -0.20250 0.10411
0.20405 -0.13331 -0.06711
0.15293 -0.28672 0.11211
-0.16381 0.16326 0.00998
-0.14392 0.13095 -0.00386
0.17807 -0.39302 -0.10437
-0.14392 0.01072 -0.04675
0.17144 -0.26294 0.09442
0.10021 -0.13331 -0.11575
0.11333 -0.13331 -0.06678
0.15010 -0.33029 0.09847
-0.16694 0.07303 0.08015
-0.14392 0.34087 0.03667
-0.14392 0.12977 0.05674
-0.16467 0.39104 -0.05241
0.17824 -0.15843 -0.10170
-0.14426 0.00510 0.07659
-0.17061 0.32606 -0.12001
0.17518 -0.21612 -0.09402
-0.16132 -0.07327 -0.10117
0.10557 -0.13331 -0.09444
-0.14392 0.00065 0.06181
-0.15801 0.38347 -0.02509
0.17306 -0.29793 0.10938
0.15524 -0.30012 0.09205
0.06650 -0.10349 -0.04876
0.16913 -0.28068 0.09239
-0.14578 -0.07487 -0.07376
-0.15089 0.11618 -0.07822
-0.02806 -0.10349 0.09114
-0.16395 0.36637 -0.11892
0.06504 -0.13331 0.11172
0.19168 -0.13331 0.00766
0.11814 -0.12858 -0.12458
-0.08714 -0.10349 0.02989
-0.16381 -0.06079 -0.03965
-0.16985 0.13681 -0.08347
-0.14392 0.25286 -0.00586
-0.14392 -0.07423 -0.02911
-0.16468 -0.08047 -0.07748
0.14642 -0.10349 0.11864
0.15887 -0.13331 0.01190
-0.15516 0.34908 -0.11505
-0.02121 -0.13331 0.00515
-0.10660 -0.13331 0.02215
-0.16096 0.18773 -0.07806
0.15428 -0.22435 -0.09640
0.02927 -0.13331 -0.10624
-0.16387 -0.28198 0.08520
0.15489 -0.31746 -0.09538
0.15906 -0.25303 -0.11348
0.00842 -0.12832 -0.11485
0.11919 -0.13331 -0.00730
-0.16381 0.15594 -0.05720
-0.16381 0.07239 -0.06067
-0.14621 -0.07707 0.08934
0.19752 -0.10349 0.08122
0.20450 -0.10462 -0.06884
-0.15201 0.05348 -0.09991
-0.14392 0.28207 0.04103
-0.16449 -0.02440 -0.09991
0.13919 -0.10349 0.04305
-0.14392 0.13154 -0.06719
-0.17751 -0.22973 -0.08103
-0.04436 -0.13331 -0.02944
-0.16764 0.11936 -0.09733
0.10287 -0.10349 -0.00320
0.13276 -0.13331 -0.06430
-0.16417 -0.27487 0.09744
-0.14392 0.32611 0.00062
-0.15585 0.33313 -0.09260
-0.07972 -0.10349 0.07037
0.04023 -0.13331 -0.04439
0.06799 -0.10349 0.08494
-0.20897 -0.42334 -0.08621
-0.17851 -0.37194 0.08304
-0.17084 0.22185 0.09983
-0.14392 0.00131 0.05054
-0.16381 0.03047 -0.04348
-0.14038 -0.13331 0.07541
-0.09441 -0.10349 -0.01258
-0.16381 0.13043 -0.02154
-0.15337 0.17331 -0.08211
-0.15330 0.35376 -0.02410
0.07738 -0.10349 -0.03378
-0.14711 0.17770 -0.10137
0.03257 -0.13331 -0.04746
0.02980 -0.13331 -0.05433
-0.14256 -0.10349 -0.06102
-0.16533 0.25523 0.12196
-0.07716 -0.13331 -0.00004
-0.14457 0.35436 0.02354
-0.02471 -0.13331 0.05797
-0.16589 0.38284 -0.14466
-0.11736 -0.10349 0.03908
-0.16381 -0.05425 0.04576
0.19567 -0.13331 0.06793
-0.15335 0.24896 0.12116
-0.14392 -0.02795 0.02404
0.01785 -0.13331 0.05296
-0.14589 0.33547 -0.12838
-0.15729 0.34168 -0.08334
-0.15468 -0.13331 -0.04165
-0.16381 0.24996 -0.03012
-0.06031 -0.10349 0.00326
-0.17066 -0.10049 -0.08574
-0.17429 -0.31674 -0.07728
-0.14392 0.06894 0.02707
-0.16314 0.35462 0.11620
-0.16381 -0.10152 -0.00666
0.18230 -0.13331 0.05204
-0.16462 0.20268 0.08887
-0.14944 -0.04439 -0.07935
-0.02841 -0.13331 0.06098
-0.16389 -0.22238 0.10260
-0.18644 -0.35568 -0.07577
0.14900 -0.10349 0.06864
0.16581 -0.19513 -0.08948
-0.12996 -0.13331 -0.06786
-0.16412 -0.23439 -0.07636
-0.15406 -0.13331 0.04012
0.00437 -0.11034 -0.11450
-0.16790 0.06839 -0.09700
0.15298 -0.20704 -0.10399
0.11566 -0.10349 0.00066
-0.14712 0.22408 0.10947
-0.15052 -0.10520 -0.10114
-0.14392 0.13964 -0.00108
0.10806 -0.13331 0.04752
0.16982 -0.10349 0.09844
0.09004 -0.13331 0.03055
-0.14677 -0.12287 0.09916
-0.05025 -0.13295 0.11106
0.12952 -0.10349 -0.12388
-0.19517 -0.32529 0.09009
-0.12635 -0.13331 0.01839
-0.15418 0.39520 -0.10640
-0.14392 0.27454 0.06685
0.06963 -0.13331 0.00694
0.08130 -0.10349 0.03535
-0.16267 0.33665 -0.07148
-0.15684 -0.02112 0.07659
-0.15413 0.39022 0.10647
0.19019 -0.13331 0.10921
-0.14392 -0.01076 -0.01709
0.15537 -0.20774 0.11401
0.15182 -0.13331 -0.00302
-0.18195 -0.24709 -0.09285
0.15740 -0.26468 0.09102
-0.17633 -0.34401 -0.09860
-0.15426 0.34900 -0.04345
-0.15828 0.17752 0.10880
-0.14392 0.00172 -0.00180
-0.16368 0.37949 0.12265
-0.14701 0.29168 0.09250
-0.15557 -0.04405 0.07758
-0.17267 -0.34465 0.08682
-0.16208 -0.05741 -0.10092
0.15309 -0.21537 -0.09992
-0.06772 -0.13331 -0.03347
0.15951 -0.34321 -0.11371
-0.05671 -0.13331 0.09334
-0.17125 -0.05333 0.09331
-0.16381 -0.10557 -0.05201
-0.14392 -0.01218 0.01551
-0.16743 0.28988 -0.12557
0.15286 -0.31633 -0.10168
0.03979 -0.12906 -0.11764
0.16977 -0.31306 0.11307
0.15782 -0.17412 -0.09222
0.07505 -0.13331 0.10125
-0.11215 -0.13331 0.06944
-0.14392 0.32738 0.06416
-0.15081 -0.07160 -0.07828
0.06842 -0.10349 0.09838
-0.16568 0.26188 0.10080
0.03706 -0.13331 -0.06113
-0.16381 0.32569 0.05946
-0.20839 -0.41554 0.08721
-0.15408 0.21499 -0.08124
-0.18191 -0.34841 0.07777
-0.14392 0.02660 0.05487
-0.17216 -0.29936 0.10136
-0.00371 -0.13331 -0.07262
-0.14392 0.07763 0.07526
0.13708 -0.13331 0.09214
-0.18594 -0.32431 -0.10066
-0.18906 -0.37775 0.10283
-0.16381 0.24154 -0.01262
0.06294 -0.10349 0.06680
-0.16915 -0.27248 -0.10066
-0.15686 0.16894 -0.10628
0.16662 -0.11218 -0.11515
0.03431 -0.10349 0.10215
-0.11457 -0.10349 0.07128
0.15252 -0.38566 0.09439
-0.08561 -0.13331 -0.04679
0.15083 -0.31644 0.10927
-0.16381 0.03275 0.02898
-0.14392 0.06089 0.00740
-0.16514 0.35740 0.02140
-0.15829 0.31558 0.11703
-0.17017 -0.16945 -0.08423
0.18572 -0.13331 -0.04467
-0.15193 0.33195 0.08240
-0.15777 0.33357 0.08746
0.19054 -0.11570 -0.12954
0.15957 -0.30087 0.11558
-0.18970 -0.33179 0.10124
-0.14820 0.38940 -0.14343
-0.17972 -0.39332 -0.09285
-0.16098 0.27249 0.10103
-0.16287 0.05675 0.10226
-0.14641 0.18948 0.09574
0.10133 -0.11569 0.12449
-0.16381 0.28675 -0.06827
-0.14571 0.40077 -0.13944
0.02481 -0.10349 -0.05431
0.15763 -0.33509 -0.11237
-0.15069 -0.12990 -0.10114
-0.02176 -0.10349 -0.02439
-0.14392 -0.06698 -0.01357
0.17812 -0.32109 -0.10078
-0.15526 -0.00708 -0.07613
0.11986 -0.13331 0.07479
0.14563 -0.10349 0.02964
0.04082 -0.13331 0.03341
-0.14392 0.12483 -0.01730
-0.14898 0.30577 -0.12848
-0.14589 -0.01073 -0.08551
-0.16381 0.07203 0.02539
-0.16379 0.35298 0.01157
-0.14392 0.29052 0.05093
-0.15838 -0.10349 -0.09483
-0.14943 0.02360 -0.09795
-0.14392 -0.05039 -0.00553
-0.14392 0.05469 -0.02981
-0.18681 -0.28184 0.08348
-0.16726 -0.16938 -0.09782
0.14966 -0.13331 -0.07872
0.17081 -0.29445 0.09369
-0.16381 0.18459 0.01439
0.03839 -0.13331 -0.10018
-0.15752 0.10929 -0.10148
-0.06065 -0.13331 0.04223
-0.15036 -0.13331 -0.00625
0.16763 -0.10349 0.04902
-0.15705 0.35108 0.05853
0.10532 -0.13331 0.05206
-0.15622 -0.05576 0.07749
0.08273 -0.13331 -0.01420
-0.15421 -0.13331 -0.02409
-0.16196 0.35910 0.02834
-0.14292 -0.13331 0.02604
-0.16381 0.30086 -0.07224
-0.09046 -0.13331 0.04931
0.01951 -0.13331 -0.02631
0.04278 -0.12326 -0.11790
-0.16064 0.24172 0.09510
0.04836 -0.10349 -0.05451
-0.16152 -0.03965 0.07659
-0.16814 0.06055 -0.08063
-0.10762 -0.13331 0.06674
0.17533 -0.28409 -0.11052
0.16994 -0.34481 -0.09034
0.16836 -0.10349 0.09090
-0.14392 -0.05269 -0.07352
-0.17173 -0.21169 -0.07806
0.12903 -0.13331 -0.03066
-0.16381 0.21229 0.07501
0.11663 -0.10349 -0.03217
0.13440 -0.10349 0.01144
0.09611 -0.13331 0.12326
-0.14392 0.16192 0.07103
-0.08059 -0.13331 -0.06421
-0.15680 0.03238 -0.07593
0.19008 -0.10899 -0.13095
-0.17012 -0.22717 0.07748
-0.02663 -0.13331 0.02292
-0.06140 -0.13331 0.09158
0.09743 -0.13331 0.08663
-0.15828 0.38338 -0.06028
-0.16560 -0.10783 0.10100
-0.16718 0.33692 0.13613
-0.15406 0.41730 0.04173
-0.03708 -0.13331 -0.06492
-0.20045 -0.38313 0.09873
-0.15809 -0.10970 0.07724
-0.16829 0.40228 0.13568
-0.14613 -0.01741 0.08999
-0.16101 -0.23155 0.07937
-0.16110 -0.13331 -0.05575
-0.18296 -0.28038 -0.07874
-0.14392 0.32059 0.04534
0.06010 -0.13331 -0.03289
0.16999 -0.10349 0.11857
0.16821 -0.13331 0.12427
-0.17612 -0.19898 0.08983
-0.16381 0.19946 0.07799
-0.00723 -0.13331 0.06013
-0.16256 0.37416 -0.12030
-0.17605 -0.26709 -0.07616
0.17265 -0.35437 0.10995
-0.16143 0.38656 -0.11579
-0.13740 -0.13331 -0.04135
-0.14392 0.27194 -0.02606
-0.14392 0.32131 0.02217
-0.20094 -0.41019 -0.09977
-0.14392 -0.06064 0.04282
-0.14557 0.05493 -0.08933
0.01370 -0.10349 -0.02580
-0.18481 -0.26488 -0.08488
0.15319 -0.15082 -0.10561
-0.15629 0.20734 -0.11355
0.15490 -0.25111 -0.09536
0.16048 -0.20343 0.11570
-0.16889 -0.18374 0.10010
-0.16294 0.33046 0.10940
0.00167 -0.13331 0.10867
-0.15389 -0.11435 -0.10114
-0.15001 -0.13331 0.03592
0.04094 -0.10349 -0.04674
0.17412 -0.37160 0.09918
0.10608 -0.10349 -0.05202
-0.07049 -0.13331 0.07181
-0.16381 0.10408 0.04232
-0.15643 -0.20478 0.10032
-0.16049 0.10306 0.07659
0.14016 -0.13331 0.10999
-0.15011 0.40128 0.14092
-0.16381 0.06535 -0.00232
0.15353 -0.39833 0.09337
-0.12672 -0.10349 0.01664
0.17653 -0.13331 0.07977
-0.16381 0.12767 0.00755
0.05712 -0.13331 -0.08982
-0.14392 -0.07166 0.02674
0.17448 -0.26166 0.10096
0.20557 -0.10671 -0.06148
0.06077 -0.13331 0.06336
0.15003 -0.36893 0.09864
0.01947 -0.10349 0.06520
0.09343 -0.10349 -0.09024
-0.14392 0.33140 0.07426
0.07278 -0.10349 -0.05199
-0.15383 0.40143 0.12662
-0.17096 0.11182 -0.08927
0.17565 -0.11816 -0.12967
-0.16381 0.14042 -0.05983
-0.09169 -0.13331 0.03228
-0.15163 -0.06062 0.10057
-0.14749 0.19469 0.09327
-0.02499 -0.13331 -0.02209
-0.19416 -0.38126 -0.10081
-0.14392 -0.02040 0.00328
-0.16255 0.38602 0.11747
-0.03768 -0.12031 0.11217
-0.18193 -0.41287 -0.08915
-0.16532 0.09134 0.07889
-0.16324 0.21613 -0.09034
-0.16381 -0.09543 -0.00169
-0.16381 0.25496 0.00644
-0.16400 -0.25878 -0.09898
-0.14392 0.24395 0.00635
-0.16819 0.30844 0.11183
0.13333 -0.13331 -0.05622
-0.15552 -0.14649 0.07760
-0.18128 -0.39508 -0.08173
-0.15958 0.39805 -0.00301
-0.15206 0.32257 0.09498
0.10806 -0.13331 0.07010
-0.16107 0.40455 -0.10010
0.17662 -0.32779 -0.10881
-0.16381 0.12574 0.05895
-0.05491 -0.13331 -0.07297
-0.15000 0.28110 -0.12469
0.15743 -0.18957 0.09101
-0.14392 0.02479 0.01070
-0.14771 -0.04815 -0.09580
-0.16609 0.24707 -0.09801
-0.15670 0.32956 -0.10542
-0.14519 -0.02363 -0.07376
-0.16833 0.17466 0.10394
-0.04014 -0.10349 0.10648
0.17453 -0.16328 0.10461
-0.13601 -0.10349 -0.02411
0.17006 -0.30019 0.11285
0.20890 -0.12262 0.03049
0.20620 -0.13331 0.01304
-0.16381 0.34019 0.00634
-0.16381 0.33314 0.06704
-0.18465 -0.26601 0.09619
0.15455 -0.38740 0.11337
-0.15909 -0.12634 0.10295
-0.14392 0.23189 0.02747
-0.14392 0.18666 0.00026
-0.15087 0.07510 -0.07376
-0.16913 -0.14240 -0.09537
-0.15234 -0.03795 -0.07376
0.16703 -0.23902 0.09123
0.14736 -0.10349 0.06055
-0.15483 0.40790 -0.07578
-0.15563 -0.23423 0.08991
-0.14392 0.13617 -0.03133
0.16453 -0.23096 -0.11515
0.02346 -0.13331 -0.06350
-0.15569 0.40158 -0.08893
-0.16021 0.40589 0.06562
-0.17138 -0.23291 0.07753
-0.15646 0.18566 -0.10942
-0.16719 -0.06294 -0.07943
0.06245 -0.10349 -0.04053
0.08564 -0.13331 -0.07643
-0.16381 0.05719 0.03401
-0.14392 0.23667 0.04949
-0.14392 0.24013 0.08256
0.15204 -0.13331 0.06538
0.14939 -0.37664 0.10147
-0.14392 0.29027 -0.06608
-0.01318 -0.13331 0.00418
-0.15962 0.39808 0.10183
-0.14705 -0.09367 0.08551
-0.07685 -0.13331 -0.07979
-0.14392 0.31580 -0.04869
-0.16173 0.02078 0.10260
-0.15427 -0.20188 0.08126
0.13311 -0.13331 0.10551
-0.18268 -0.33602 -0.10151
-0.15084 0.23468 -0.11647
0.16164 -0.13331 -0.00150
-0.16623 0.24411 0.09782
-0.16455 -0.13728 0.07856
0.17705 -0.34134 -0.09697
-0.16473 0.38290 0.05905
0.12192 -0.13331 0.04120
-0.16883 0.19227 -0.09053
0.15078 -0.11289 0.10914
0.10777 -0.13331 -0.11011
-0.16381 -0.07840 -0.06371
0.07894 -0.13331 0.04302
0.16398 -0.12445 0.11563
-0.16649 -0.21478 0.07725
-0.14909 0.24559 0.08635
0.04451 -0.13331 0.05053
-0.16381 0.28224 0.08686
-0.18376 -0.27441 -0.09691
-0.14565 0.11129 0.07659
-0.14392 0.28825 -0.08068
-0.00445 -0.10349 -0.08554
-0.15406 -0.02872 -0.07655
-0.17124 -0.25076 0.10295
-0.06162 -0.13331 0.02540
-0.16007 0.40324 -0.01997
-0.15754 0.35772 0.02976
-0.16766 0.13240 -0.08000
-0.17093 -0.07243 -0.08949
-0.15980 0.04492 -0.10137
-0.14392 0.08035 0.00257
-0.05004 -0.13331 -0.03590
-0.16381 0.28104 0.05091
-0.13562 -0.12193 -0.10209
0.17102 -0.33283 -0.09079
-0.16468 -0.02050 0.10150
-0.13647 -0.13331 -0.02450
-0.15194 -0.01250 -0.09988
0.11753 -0.10349 0.08311
-0.14578 0.26704 -0.11444
0.09308 -0.13331 -0.04230
0.17493 -0.31147 -0.09368
0.00187 -0.10349 -0.07235
0.17165 -0.22449 0.09470
-0.16224 0.12529 0.07659
-0.16381 0.13695 0.03846
-0.16087 0.30439 -0.13204
-0.00357 -0.10349 -0.02713
0.16413 -0.25029 0.09034
-0.14392 0.20663 0.07826
-0.15066 -0.20052 0.09097
0.08431 -0.13331 -0.11484
-0.17240 -0.21431 0.07917
-0.15688 0.20271 0.08767
0.17159 -0.38082 0.09461
-0.06489 -0.10349 0.09002
-0.15349 0.26608 -0.12398
0.07229 -0.10349 0.06570
-0.14392 0.19958 -0.05138
0.14599 -0.13331 0.07207
-0.18315 -0.32831 0.07719
0.16335 -0.13331 0.06281
-0.16096 0.34653 0.07722
0.07918 -0.13331 -0.03475
0.06124 -0.13331 -0.02189
0.16087 -0.16054 0.09020
-0.16550 -0.29750 0.09275
0.08099 -0.10349 0.08390
-0.16381 0.04575 -0.05877
0.05623 -0.10349 0.03194
-0.19026 -0.31595 0.08129
-0.16540 0.32993 0.10354
-0.17031 0.38287 -0.13011
-0.06915 -0.13331 0.00916
-0.15598 -0.16287 -0.10127
0.15540 -0.17812 -0.11003
0.09989 -0.13331 -0.04630
-0.14690 0.08875 -0.09440
-0.15635 0.35262 -0.03053
0.17213 -0.32181 -0.09132
0.00564 -0.10349 0.02318
-0.11648 -0.13331 0.00395
-0.16381 0.01537 -0.02656
-0.14714 0.26939 0.10844
-0.14770 0.31255 -0.09260
0.11978 -0.13331 -0.04421
-0.14889 0.34500 0.13579
-0.15890 0.25071 0.12289
-0.16381 0.25409 -0.05101
-0.16381 -0.10952 -0.06935
-0.16527 0.16043 -0.10258
-0.14392 0.23031 -0.00849
-0.16189 0.41506 -0.07475
-0.14392 0.33573 0.01896
-0.16469 0.37738 0.07318
-0.16381 0.27047 0.05677
-0.14392 0.21247 0.02788
-0.02887 -0.13331 -0.00700
0.00287 -0.13331 0.08243
0.17375 -0.13331 -0.07190
-0.16432 0.39112 0.01112
0.08115 -0.13331 0.03790
-0.05033 -0.13331 -0.07563
0.00942 -0.10349 -0.01513
-0.15709 0.32348 0.11075
-0.18546 -0.40454 0.09951
-0.10472 -0.13331 0.02700
-0.16381 -0.00008 0.03050
0.09234 -0.10349 -0.08127
-0.15203 0.01141 0.10088
-0.19047 -0.40310 0.10247
-0.14392 0.12676 -0.06530
0.00499 -0.10349 -0.08456
-0.10937 -0.10349 0.03416
0.17677 -0.42096 -0.10846
-0.17514 -0.36004 0.09374
-0.15190 0.02966 -0.07745
-0.15690 0.02479 -0.07376
0.17698 -0.10349 0.00929
-0.03200 -0.10349 -0.10328
-0.07232 -0.13331 -0.03219
-0.16381 0.12758 -0.03800
-0.16541 0.34699 -0.06004
-0.15553 0.26389 0.12494
-0.14994 0.25643 0.08780
-0.14392 0.14111 0.06711
0.15399 -0.11045 -0.12775
-0.16381 0.12422 0.00175
-0.01409 -0.13331 -0.07242
-0.16381 0.15679 -0.02877
-0.16507 0.05785 -0.09952
-0.15402 -0.21820 -0.09449
0.10947 -0.10349 0.05838
-0.00035 -0.10349 0.01787
0.00503 -0.10349 0.00705
-0.16381 0.29301 -0.07791
0.17284 -0.37647 -0.09187
0.06774 -0.13331 0.05230
-0.15218 0.35525 0.01839
-0.16864 0.34359 0.13586
-0.14392 0.05559 0.03402
-0.14392 -0.05767 0.00201
-0.16943 0.11561 0.09722
-0.14395 0.06974 0.07659
-0.10834 -0.10349 -0.05863
0.17328 -0.30413 -0.11252
-0.19538 -0.42608 0.08158
0.16196 -0.13391 -0.09000
0.14238 -0.10598 -0.12673
-0.15091 0.25805 -0.09973
-0.16457 0.27096 -0.12426
-0.15876 0.38971 -0.02495
-0.13227 -0.10349 -0.04168
0.14961 -0.15420 0.09978
-0.17150 -0.00338 0.09141
-0.15682 0.06748 -0.10139
-0.14392 0.17225 -0.04982
-0.14772 -0.05304 0.07659
0.04134 -0.13331 0.09512
-0.16810 0.17947 0.08703
-0.15618 0.38901 -0.06492
0.15309 -0.11388 -0.10484
-0.06740 -0.10349 0.10636
-0.14392 -0.00591 0.01637
-0.13485 -0.10349 0.02378
-0.16381 0.28395 -0.05016
-0.17951 -0.38540 0.08504
-0.16741 -0.29382 0.08217
-0.16381 0.23715 -0.06726
-0.16943 0.30767 -0.11354
-0.16381 0.07310 -0.06595
-0.17090 0.34578 -0.12609
0.17222 -0.22457 -0.11334
-0.11518 -0.13331 0.02576
-0.14790 0.00010 -0.09604
-0.19909 -0.35795 -0.09132
-0.14738 0.35791 0.12480
-0.16925 0.36705 -0.12454
-0.17069 -0.15865 -0.08600
-0.14392 -0.07334 -0.01457
-0.16381 0.21715 0.00622
0.16837 -0.39712 0.11416
0.15628 -0.12248 -0.11120
-0.16887 -0.05241 -0.09571
-0.18171 -0.37301 0.10028
-0.00482 -0.11957 0.11508
-0.14392 0.02521 0.02708
-0.17602 -0.36996 -0.08488
-0.14698 0.17040 -0.08753
0.19076 -0.13331 -0.06241
0.05226 -0.13331 -0.05913
-0.14392 0.23929 0.01862
-0.12819 -0.13331 0.00414
-0.11176 -0.13331 -0.05541
-0.15441 0.24400 -0.12015
-0.16381 -0.07372 0.05682
0.18848 -0.13331 -0.03519
-0.09025 -0.10349 0.02056
-0.02294 -0.10349 -0.09963
0.11109 -0.13331 -0.11658
0.20959 -0.12520 0.01784
-0.16467 0.03981 0.07861
-0.17245 -0.21602 0.10109
0.03420 -0.13331 0.04384
0.02563 -0.10349 0.01306
0.15995 -0.36685 -0.09085
0.16204 -0.17895 -0.11476
0.04205 -0.13331 -0.08435
-0.02500 -0.13331 0.01804
-0.16381 0.14613 -0.00158
0.14965 -0.23175 0.10638
-0.16751 0.23713 -0.11538
0.17405 -0.20796 -0.11192
-0.14827 -0.01324 -0.08077
-0.16381 0.02999 -0.06695
-0.16381 0.31964 0.04382
-0.14685 0.21758 0.10753
0.10938 -0.13331 -0.08692
-0.14392 0.12180 0.06753
-0.14392 0.31201 0.03283
-0.14392 0.11995 0.04761
0.14667 -0.10349 0.07595
0.03023 -0.13331 -0.11205
-0.16200 0.21486 0.08225
-0.17218 -0.34719 -0.08707
-0.16381 0.14609 0.01031
-0.14813 0.24049 -0.08421
-0.16786 -0.03551 -0.08027
-0.15707 0.40227 0.02432
-0.16339 0.40342 0.07933
-0.15782 0.33511 -0.08160
0.15673 -0.24657 0.11465
0.14957 -0.19960 0.10587
0.14953 -0.40470 0.10039
-0.06435 -0.13331 -0.01437
0.06502 -0.10349 -0.11535
-0.14392 0.00663 0.03986
0.03762 -0.13331 -0.07880
0.17243 -0.14775 -0.09156
-0.14668 0.37989 -0.13898
-0.16381 -0.06776 -0.05148
-0.03230 -0.13331 0.03654
-0.14797 0.35315 0.12258
-0.18308 -0.41445 0.09256
-0.15989 0.31566 -0.11423
0.15389 -0.23174 0.11286
-0.15457 0.31184 -0.10811
-0.14676 0.23718 0.10322
-0.12522 -0.10349 0.04267
-0.16067 0.20414 -0.11288
-0.16381 0.28701 -0.08760
-0.15155 0.02945 0.07960
-0.14392 0.26439 -0.05595
0.05564 -0.13331 -0.04006
-0.17044 0.29775 -0.11416
-0.05087 -0.13331 -0.09252
-0.14190 -0.10349 -0.02702
-0.16381 0.12019 0.03008
0.06409 -0.10349 -0.06260
0.08565 -0.13331 0.00952
-0.14994 0.18556 -0.08662
-0.15379 0.39449 0.12531
0.16531 -0.28968 0.11545
-0.15625 0.01153 -0.07376
-0.17866 -0.37696 0.08402
-0.19880 -0.42556 -0.08749
-0.17947 -0.24163 -0.09605
-0.16381 0.26446 -0.02663
0.05500 -0.13331 0.02140
0.15630 -0.14320 0.11447
-0.15102 -0.01373 0.08001
-0.16381 0.31663 0.05192
-0.14392 0.21479 0.01703
-0.15785 0.38601 -0.04914
0.12408 -0.13331 -0.00242
-0.10081 -0.13331 0.00750
-0.16381 0.22074 -0.07260
-0.16381 -0.11325 0.04646
-0.14791 0.10885 -0.09606
0.17760 -0.19440 -0.10641
-0.15183 0.04437 -0.09981
0.19674 -0.10598 0.10847
0.16899 -0.16292 -0.08994
-0.14671 -0.12121 -0.09392
-0.03462 -0.13331 -0.11034
-0.00160 -0.10349 -0.10055
-0.16123 0.03589 -0.07376
0.04693 -0.10349 0.07547
-0.12075 -0.10349 0.07901
-0.08337 -0.13331 0.07871
-0.18773 -0.33374 0.07793
-0.14587 0.20046 -0.09630
-0.15802 -0.13331 0.03371
-0.16399 0.36714 -0.10703
-0.07511 -0.13331 0.06031
-0.19658 -0.34881 -0.09452
-0.14392 0.23330 -0.06322
0.16533 -0.29134 -0.08947
-0.14754 -0.06667 0.07659
0.16941 -0.13331 -0.04602
0.16565 -0.13331 -0.05311
-0.02438 -0.10349 -0.10774
-0.16435 -0.24831 0.10131
-0.04941 -0.13331 -0.00722
-0.15723 0.36786 -0.01843
0.20387 -0.13331 -0.04745
-0.14766 0.19714 0.07989
-0.06388 -0.13331 0.03187
-0.15581 0.37459 -0.10218
-0.16381 0.16615 0.03801
-0.16122 0.35745 -0.11977
-0.00911 -0.13331 -0.02848
-0.14752 0.13062 0.09575
0.20938 -0.10349 0.02106
0.06477 -0.13331 -0.06309
0.00194 -0.10349 0.03073
-0.16192 0.04164 -0.07376
-0.16998 -0.16139 0.08363
-0.09462 -0.10349 0.02855
0.17817 -0.10349 0.00319
-0.14795 -0.18268 0.09082
0.09634 -0.10349 -0.03856
0.11856 -0.10349 0.06607
-0.17080 -0.10356 -0.09048
-0.02406 -0.12111 -0.11198
-0.17009 0.34922 -0.13249
-0.16007 -0.00543 0.10282
0.16663 -0.38356 -0.11515
-0.15913 -0.13331 0.06814
-0.16661 0.35196 0.11877
-0.16381 0.21355 0.03698
-0.16989 -0.04530 -0.09374
0.15026 -0.23864 0.09808
-0.14681 -0.13331 -0.06621
0.08151 -0.10349 -0.10094
