ply
format ascii 1.0
comment VCGLIB generated
element vertex 1780
property float x
property float y
property float z
element face 0
property list uchar int vertex_indices
end_header
-0.09077 -0.15990 -0.15436
0.05128 -0.33435 0.13588
0.16203 -0.04274 -0.15837
-0.14675 0.17035 -0.20328
0.13111 -0.40164 0.09206
0.14540 -0.22315 -0.17741
0.06361 -0.02824 -0.08857
0.12174 -0.36221 0.17534
-0.06791 -0.36221 0.14891
-0.17020 0.15164 0.11686
-0.00872 -0.37035 0.19896
0.17759 -0.36967 -0.17442
-0.04239 -0.02824 0.04653
0.13002 -0.10261 -0.12862
0.11150 -0.36221 0.09031
-0.09113 -0.32137 -0.15046
-0.11155 -0.33286 0.11948
-0.05188 -0.41234 0.08652
-0.17636 0.20988 0.11593
-0.06774 -0.02824 -0.05245
0.15600 -0.06811 0.13100
0.13013 -0.17872 0.14319
-0.16441 -0.41234 0.07164
-0.12687 0.30806 0.11276
-0.12684 -0.41234 0.07038
-0.09824 0.39986 -0.19582
-0.04728 -0.33286 0.12008
-0.06612 -0.09508 -0.09477
-0.14835 0.14274 -0.18603
-0.10583 -0.00614 -0.11398
-0.15226 0.30890 0.11852
-0.12359 0.35935 -0.20236
-0.16764 0.04838 0.02200
-0.11199 0.15884 -0.04759
0.10533 -0.09508 0.10314
0.00130 -0.40066 0.19989
-0.13286 0.37962 -0.20322
-0.05777 -0.09508 -0.16517
0.10615 -0.05508 0.11622
-0.14810 0.06112 -0.18865
-0.06285 -0.33286 0.08113
0.15822 -0.18283 -0.17622
-0.08839 -0.31162 -0.18002
-0.13394 -0.04274 0.07871
0.13395 -0.09508 -0.11493
-0.08787 -0.09508 0.01854
0.08380 -0.02824 -0.10540
0.10711 -0.06160 0.10581
-0.15009 -0.14885 -0.15467
0.06139 -0.02824 0.08942
-0.13155 -0.36221 0.14986
-0.14966 -0.40748 -0.15935
-0.16207 0.16420 -0.03811
-0.08964 -0.19312 -0.16653
0.17863 -0.05139 -0.10046
0.13975 -0.09508 -0.04404
0.10712 -0.02824 0.00561
-0.11737 -0.29253 0.11979
-0.01156 -0.34373 0.15547
0.15585 -0.17782 0.13257
0.10598 -0.28235 0.11801
-0.15158 0.08882 -0.15115
-0.13323 -0.37054 0.18741
0.18125 -0.21328 -0.12868
-0.16438 0.07161 -0.01316
-0.12611 -0.01221 0.10457
-0.16965 0.06354 0.04360
-0.09282 -0.02824 0.11638
-0.05556 -0.02824 0.10807
-0.15386 0.36192 0.01097
-0.16949 0.36192 -0.00500
0.10667 -0.41234 0.10391
-0.11784 0.20032 -0.20183
0.10384 -0.04337 0.14228
-0.03437 -0.41234 0.16348
-0.07926 -0.33286 0.09168
0.07145 -0.02824 0.12109
0.13369 -0.06811 -0.17849
0.13884 -0.35343 0.15068
0.04754 -0.39747 0.08431
-0.01748 -0.09508 -0.17560
-0.10535 0.36192 -0.04318
-0.11946 0.35343 0.03289
0.12003 -0.05903 -0.17976
-0.05741 -0.09508 -0.01578
-0.10924 0.04254 -0.07730
0.15916 -0.37986 0.09688
-0.17177 -0.05126 0.06643
-0.01164 -0.09508 0.10940
-0.11463 -0.26716 -0.14879
-0.10053 0.05516 -0.17120
-0.07088 -0.34590 0.15504
0.17075 -0.02824 -0.10907
0.10555 -0.19823 0.12264
-0.07013 -0.03352 0.12614
-0.17632 0.13472 0.11629
-0.15036 -0.13632 0.05935
0.13113 -0.39039 0.14329
-0.13163 -0.28793 0.12043
-0.16143 0.25660 -0.04503
-0.13737 -0.38273 -0.20364
-0.12129 -0.09508 -0.01026
0.00383 -0.09508 0.10644
0.01099 -0.40147 0.08092
-0.05265 -0.09508 -0.01242
-0.14929 0.27528 -0.17586
-0.15491 -0.08714 -0.11528
-0.11094 0.00246 -0.05897
0.15783 -0.30670 0.11119
0.16360 -0.07092 -0.17572
-0.16744 0.20498 0.01975
-0.16611 -0.06951 0.00546
-0.16316 -0.04274 0.11737
-0.17556 0.26613 0.10732
0.10336 -0.41087 0.20936
-0.05900 -0.04326 -0.19637
-0.16310 -0.02629 -0.02694
-0.15057 0.27248 -0.16211
-0.10506 0.40362 -0.12235
0.14284 -0.18176 0.09315
-0.04878 -0.02824 0.08129
-0.16092 -0.41234 0.16425
0.05316 -0.02824 0.00341
0.03066 -0.41234 0.16245
0.16569 -0.09679 -0.12430
-0.17076 0.31495 0.05557
-0.15024 -0.24177 -0.15209
0.03622 -0.33462 0.13859
0.12720 -0.36221 0.09388
-0.12590 0.21783 0.10229
0.05517 -0.02824 -0.11806
-0.12561 0.24591 0.09918
-0.08571 -0.09508 -0.08984
0.01682 -0.02824 -0.16564
-0.05789 -0.34121 0.12575
-0.17288 -0.13949 0.11661
0.16455 -0.05986 0.05128
0.15479 -0.02824 0.13352
0.16431 -0.22265 -0.17565
-0.03317 -0.02824 -0.16512
-0.02184 -0.41234 0.15037
-0.10694 0.09689 -0.10204
0.15222 -0.09508 -0.10012
-0.15803 0.24354 -0.08166
-0.11188 -0.35259 0.16689
-0.12356 0.00092 0.07709
0.17855 -0.02908 -0.09964
0.10651 -0.22669 0.11226
-0.12520 0.21060 0.09474
-0.12704 0.20028 0.11456
-0.15244 -0.36221 0.07719
-0.14397 -0.16627 0.05994
-0.14575 -0.17896 -0.20150
0.16412 -0.06776 0.05597
-0.03679 -0.09508 -0.12341
0.06783 -0.09508 -0.09830
-0.12588 0.25705 0.10207
0.01030 -0.09508 0.09944
-0.14671 -0.37561 0.18616
-0.12462 -0.00068 0.08849
0.08238 -0.02824 -0.14749
0.14790 -0.18630 -0.17718
0.01631 -0.37400 0.20128
-0.10591 -0.02824 -0.09064
-0.08838 -0.38170 -0.18016
-0.11374 -0.41234 -0.17329
-0.16192 0.12983 -0.03968
0.08844 -0.02824 -0.11984
-0.17479 -0.29478 0.09899
-0.10415 0.41234 -0.13232
-0.16544 0.25113 0.11730
0.17670 -0.09067 -0.07965
-0.00958 -0.41234 0.12817
-0.15046 0.37683 -0.16323
-0.10258 -0.09508 0.03491
0.18374 -0.11064 -0.15560
0.01887 -0.02824 0.10809
0.13909 -0.33465 -0.12677
0.08112 -0.36221 0.20057
-0.11031 0.08781 -0.06575
0.14248 -0.36221 0.20428
-0.00386 -0.08514 0.13229
-0.08331 -0.41234 0.12064
-0.04738 -0.38157 0.19537
-0.12258 -0.41234 0.07530
-0.14712 -0.38725 -0.18676
0.02625 -0.02824 -0.09155
-0.16084 0.19636 -0.05137
-0.15575 0.03292 -0.10620
-0.16514 -0.34370 0.11732
-0.17147 -0.34444 0.06326
-0.14938 0.18846 -0.17490
-0.15299 -0.04507 -0.13596
0.10549 -0.34658 0.12333
0.14588 -0.19382 0.09343
-0.14574 -0.22966 -0.20162
-0.08940 -0.21399 -0.16919
0.13444 -0.33687 0.14360
-0.11241 0.11493 -0.04309
-0.11640 -0.04274 -0.15855
-0.00268 -0.06564 -0.19115
-0.07656 -0.02824 0.00158
-0.11197 0.20075 -0.04780
-0.01280 -0.35617 0.18446
0.12395 -0.25316 0.14262
-0.10935 0.06373 -0.07607
-0.12150 0.22766 0.05492
-0.05836 -0.40814 0.19436
-0.11975 -0.09508 -0.14808
0.13410 -0.17235 -0.12723
-0.17416 -0.40613 0.09223
0.00691 -0.33515 0.13712
0.05332 -0.09508 -0.01762
-0.05791 -0.09508 -0.02789
-0.12485 -0.35438 0.12106
-0.14062 -0.09508 -0.06723
0.04979 -0.02824 0.04756
-0.14959 -0.27669 -0.16007
-0.17520 -0.21685 0.10350
0.10676 -0.34497 0.10957
-0.05617 -0.36221 0.18416
-0.16752 -0.38036 0.06436
0.13462 -0.11813 -0.17823
-0.13910 -0.30934 -0.20380
-0.15044 0.00168 -0.16344
-0.15524 0.34113 -0.11174
-0.09077 -0.12301 -0.15444
-0.16160 0.21040 -0.04319
0.14961 -0.37718 -0.12579
-0.02418 -0.04028 0.13040
0.10748 -0.40439 0.10182
-0.14583 -0.28994 -0.15168
-0.17182 -0.38821 0.10851
-0.17021 0.19802 0.04968
-0.17059 0.27147 0.05379
-0.15605 0.34471 -0.10293
-0.10418 0.32167 -0.13181
0.14007 -0.04274 -0.13654
-0.14785 0.36192 0.06039
-0.09055 -0.35841 0.12272
-0.10066 -0.09126 0.12331
-0.13864 0.20055 0.11978
0.05571 -0.09508 -0.02404
-0.04127 -0.41176 0.19594
-0.12479 0.06046 -0.20247
0.07094 -0.02824 -0.15161
-0.15153 0.08508 0.11859
-0.12969 -0.30222 -0.20293
-0.04476 -0.02824 0.05563
-0.09363 -0.16339 -0.14684
-0.02125 -0.36088 0.07793
0.16121 -0.04951 0.08727
-0.14799 -0.35571 -0.15188
-0.17573 -0.30727 0.10916
0.14675 -0.36221 0.11672
-0.17244 0.04868 0.07371
-0.15597 0.13772 -0.10389
-0.00687 -0.36221 0.15119
-0.10314 0.22271 -0.14299
0.06225 -0.02824 -0.12406
0.13468 -0.24794 -0.17840
0.07916 -0.36993 0.08724
0.13616 -0.38142 0.21240
-0.06308 -0.09508 -0.08337
-0.16784 -0.36221 0.09943
-0.15112 0.24579 -0.15614
-0.11333 -0.06714 0.07630
-0.15357 0.32066 -0.12969
-0.11251 0.25305 -0.04202
-0.14674 0.19022 -0.20337
-0.15529 0.07226 -0.11120
0.13431 -0.36221 0.18650
0.07973 -0.09508 0.03400
-0.10586 -0.04274 -0.17652
0.15587 -0.11765 0.13239
-0.09812 -0.02824 -0.07771
-0.10835 0.23520 -0.08685
0.02307 -0.02824 0.08890
-0.12623 0.26847 0.10590
0.13189 -0.02824 -0.00720
-0.09337 -0.09508 0.02603
-0.13923 0.27959 -0.20381
0.06697 -0.41234 0.18521
0.10709 -0.20651 0.10600
-0.12519 0.16369 0.09469
-0.15853 0.34567 -0.07623
-0.16152 0.15391 -0.04407
0.03882 -0.09508 -0.06658
0.09201 -0.33286 0.10981
0.15481 -0.08445 0.14381
-0.14904 -0.09508 -0.14611
0.03063 -0.03036 0.13549
-0.09993 0.29847 -0.17763
-0.12893 0.36192 0.01253
-0.16687 -0.03934 0.01364
0.03539 -0.33286 0.09119
-0.05649 -0.41234 0.17926
-0.10895 0.31474 -0.08045
-0.13813 -0.27355 -0.20371
-0.08879 -0.05556 -0.17573
0.14128 -0.02824 0.14191
0.10465 -0.20997 0.13232
0.11435 -0.02824 0.11163
-0.03258 -0.02824 -0.04605
-0.17426 0.27462 0.09328
0.05969 -0.09508 0.06016
0.13584 -0.02824 -0.01202
0.14467 -0.02824 0.09886
0.11648 -0.09508 -0.09736
0.09684 -0.09508 0.04429
-0.09856 0.28962 -0.19236
-0.15377 -0.01494 -0.12761
0.17972 -0.03263 -0.11218
0.06359 -0.40099 0.08580
0.15597 -0.40330 0.13132
-0.16786 0.13976 0.02433
0.17597 -0.09508 -0.08278
0.10722 -0.28030 0.10461
-0.17406 0.20479 0.09113
-0.06047 -0.09508 -0.04395
0.14930 -0.02824 0.09665
-0.08697 -0.29726 -0.19539
-0.11049 0.19247 -0.20115
-0.10072 0.01758 -0.20024
0.05384 -0.09508 0.01715
0.05723 -0.41234 0.16618
-0.13876 0.36192 -0.08079
0.01152 -0.02824 -0.14269
0.11365 -0.34392 0.16754
0.15512 -0.38510 0.14048
-0.01777 -0.09508 -0.09611
0.08656 -0.09508 -0.06173
0.16776 -0.34641 -0.17533
0.15867 -0.39721 0.10214
0.18269 -0.31240 -0.14418
-0.11104 0.21089 -0.05785
0.18427 -0.09893 -0.16127
0.11421 -0.06516 0.09050
-0.10650 0.18746 -0.10681
0.13340 -0.02824 -0.04384
-0.15331 0.26475 -0.13252
-0.17111 0.30872 0.05937
0.05078 -0.09508 -0.00757
0.13313 -0.29705 -0.16217
0.09563 -0.09508 -0.15098
-0.17392 -0.09498 0.08968
-0.09820 0.32610 -0.19630
-0.15619 0.20289 -0.10144
-0.15834 -0.01617 -0.07835
-0.06093 -0.09508 -0.19324
-0.09334 -0.09508 -0.12560
-0.13952 0.41234 -0.15574
-0.11859 0.14994 0.02350
-0.06692 -0.08545 -0.19710
0.13914 -0.18866 0.09281
-0.17602 0.00533 0.11233
-0.10562 0.36192 -0.06082
0.13139 -0.05772 -0.14336
0.06456 -0.33286 0.10928
-0.10279 0.01657 -0.14676
-0.12486 -0.22578 0.06171
0.12120 -0.10187 0.14237
-0.14616 -0.14748 -0.19709
0.02330 -0.09508 0.07516
-0.10761 -0.09508 -0.04007
0.17319 -0.04274 -0.14501
-0.12410 0.32826 0.08295
-0.11493 -0.25591 0.09352
0.14571 -0.25712 -0.17738
0.01632 -0.02824 -0.04374
-0.11261 -0.10189 0.06855
-0.10868 0.41234 -0.16269
-0.14637 -0.07528 -0.19477
-0.10232 0.31655 -0.15186
-0.16360 0.35950 -0.02162
0.17465 -0.09487 -0.05757
-0.09846 0.04501 -0.19343
-0.08792 -0.06208 -0.18506
-0.16035 0.27037 -0.05662
-0.01929 -0.09508 0.06996
-0.10482 -0.02824 0.08482
-0.15745 -0.07542 0.11804
0.00509 -0.41234 0.12816
0.11325 -0.09508 0.08868
-0.12506 0.31644 0.09327
0.07077 -0.33789 0.13769
-0.10944 -0.00905 -0.07513
-0.11912 0.23144 0.02929
0.13536 -0.30577 -0.17834
0.13858 -0.36221 0.19637
-0.17639 -0.29908 0.11623
-0.02616 -0.37583 0.19734
-0.11533 -0.10046 0.09783
0.13416 -0.25017 -0.17324
-0.12319 0.25989 0.07313
0.14115 -0.28249 0.14422
0.14835 -0.15346 0.09366
-0.17366 0.34555 0.08688
-0.16455 -0.07859 -0.01135
-0.14806 0.26161 -0.18911
-0.15173 0.37033 -0.14959
0.17800 -0.06425 -0.09372
-0.16681 0.12375 0.01299
-0.10177 0.38253 -0.15776
0.01107 -0.06330 0.13367
-0.13393 -0.36221 0.18644
-0.13659 -0.38279 0.06062
0.15269 -0.30243 -0.12551
-0.10291 -0.26919 -0.20044
0.15878 -0.41234 -0.13341
0.15349 -0.41071 -0.12543
-0.15878 -0.00812 -0.07356
-0.01086 -0.02824 0.02363
-0.17618 0.23962 0.11403
-0.11098 0.02152 -0.05850
-0.03700 -0.02824 0.12916
0.14284 -0.06857 0.09315
-0.10389 -0.05545 -0.20053
-0.09801 -0.36221 0.14184
0.14347 -0.06594 -0.17759
0.01054 -0.04961 0.13362
0.13103 -0.09508 0.09465
0.18339 -0.26522 -0.15182
-0.05478 -0.09508 0.10038
-0.11380 0.30417 -0.02810
0.13182 -0.27545 -0.14800
-0.11332 0.36192 0.02053
0.10232 -0.41234 0.15599
-0.01213 -0.37897 0.07878
-0.15652 0.16380 -0.09797
-0.13859 0.22107 0.11979
-0.12422 0.24027 0.08417
-0.02955 -0.09508 0.04845
-0.09964 0.34323 -0.18079
-0.15128 -0.19883 0.11861
-0.13054 -0.06844 -0.15026
-0.16956 0.11872 0.04262
-0.15418 0.36192 -0.13386
-0.02625 -0.06709 0.13021
-0.11228 0.18204 -0.04451
-0.16945 -0.01198 0.04150
0.00093 -0.33286 0.10994
-0.11970 0.17016 0.03545
0.08362 -0.05592 -0.18314
-0.04723 -0.09508 0.01680
-0.10788 0.11439 -0.09197
0.18488 -0.32216 -0.16787
0.06038 -0.03935 0.13825
-0.15638 0.08855 0.11814
0.11028 -0.05682 -0.18066
-0.12980 -0.38007 -0.20294
-0.17247 -0.14666 0.07398
0.15715 -0.28912 0.11854
0.18014 -0.21411 -0.17419
0.08606 -0.37645 0.20775
-0.11014 -0.10375 -0.20111
0.15787 -0.15719 0.11077
-0.06631 -0.04875 -0.19705
0.05976 -0.09508 -0.15357
-0.17251 -0.38301 0.07441
0.16132 -0.41234 -0.15270
0.09096 -0.36221 0.20006
-0.15429 0.19329 -0.12201
-0.17612 0.03582 0.11340
-0.11014 0.20071 -0.06758
-0.00051 -0.05382 0.13260
-0.15399 0.29356 -0.12519
0.10138 -0.09508 -0.14082
-0.10979 0.08605 -0.07135
-0.10840 0.12884 -0.08628
-0.15120 -0.41234 0.10404
-0.14922 0.24933 0.11880
-0.13856 -0.09508 -0.01687
0.13484 -0.03258 -0.17839
-0.09743 -0.12723 -0.19993
-0.10809 0.22560 -0.08968
0.08872 -0.41234 0.13872
0.03872 -0.09508 -0.18407
-0.15870 0.25076 -0.07445
-0.11635 -0.09508 -0.05189
-0.11208 0.32566 -0.04665
-0.16603 0.14294 0.00465
-0.15136 -0.02800 -0.15357
0.07443 -0.35057 0.08680
-0.12289 0.04264 0.06987
0.03683 -0.02824 -0.17957
-0.00672 -0.02824 0.05295
-0.16843 -0.23112 0.05767
-0.13806 -0.09508 -0.05349
0.13053 -0.26207 -0.13408
-0.13222 -0.39528 -0.15042
-0.09980 -0.02824 0.10446
-0.16775 -0.39883 0.06462
-0.16748 0.21567 0.02024
-0.11578 -0.20226 0.10267
0.12843 -0.09508 0.10753
-0.00508 -0.07291 0.13217
0.14743 -0.12424 0.09358
-0.11652 0.24533 0.00122
-0.10640 0.26998 -0.20077
-0.08531 -0.09508 0.07997
-0.15581 0.00954 -0.10553
0.03273 -0.09508 -0.01191
-0.17192 -0.21268 0.06811
-0.10644 0.30087 -0.10749
-0.14414 -0.07795 -0.20427
-0.16017 0.28834 -0.05858
-0.11300 0.30661 -0.03669
0.18501 -0.06654 -0.16923
0.15378 -0.26897 -0.12541
-0.09018 -0.40328 -0.16076
-0.11973 0.01793 0.03580
0.18306 -0.27883 -0.14820
-0.17618 0.35800 0.11404
-0.16791 0.16925 0.02488
-0.10397 0.15785 -0.13404
-0.10899 -0.41234 0.07981
0.14008 -0.41234 0.12509
0.02994 -0.41234 0.09180
-0.12196 0.29223 0.05986
-0.01661 -0.07755 -0.19244
-0.14805 -0.25254 0.11891
0.15345 -0.36221 0.13416
-0.10750 0.29119 -0.09604
0.14025 -0.02858 -0.17789
-0.17501 0.04341 0.10139
-0.14978 -0.23747 -0.15806
-0.08381 -0.34698 0.15637
0.10504 -0.28935 0.14087
-0.17008 0.33091 0.04827
-0.10071 -0.41234 -0.19713
-0.06237 -0.09508 0.05662
-0.11151 0.13522 -0.05285
0.03062 -0.09418 -0.18805
-0.11464 0.38186 -0.11038
-0.15137 -0.35002 0.13646
-0.16761 -0.04347 0.02157
-0.10511 0.34091 -0.12182
-0.17275 0.06730 0.07701
0.01246 -0.08899 0.13380
-0.11422 0.31506 -0.02355
-0.11865 -0.31280 -0.14916
0.12427 -0.02824 0.03511
-0.01704 -0.02824 -0.00901
0.13443 -0.40548 -0.17621
-0.17549 -0.36285 0.14806
-0.15595 0.22173 -0.10404
0.04467 -0.41234 0.12189
-0.16572 0.24872 0.00120
-0.12492 0.13881 0.09177
-0.14980 -0.18254 -0.15787
-0.00824 -0.36886 0.07914
0.05601 -0.09508 -0.05289
-0.17018 0.15684 0.04931
-0.16791 0.15071 0.02490
0.06258 -0.02824 -0.08197
-0.17186 -0.09466 0.06739
-0.15976 0.02390 -0.06304
-0.11219 0.36192 -0.04439
0.00629 -0.34133 0.13171
0.00328 -0.02824 -0.04652
-0.16251 -0.09508 -0.01912
0.01750 -0.36128 0.19922
0.18169 -0.11239 -0.13343
-0.07454 -0.33286 0.09419
-0.14417 0.41234 -0.17817
0.09386 -0.09508 0.02103
0.15694 -0.12363 0.12079
-0.14540 -0.08767 -0.15164
-0.11465 -0.30036 0.09052
0.15443 -0.34080 -0.17657
-0.15028 -0.21761 -0.15271
-0.10927 0.18663 -0.07694
-0.05607 -0.36221 0.13163
-0.14787 -0.10091 -0.17860
-0.16011 0.03672 -0.05924
0.13361 -0.07394 -0.16732
0.15061 -0.40971 0.18911
0.15593 -0.02824 0.08221
0.00075 -0.41234 0.10970
-0.11997 -0.24075 0.12152
-0.15281 0.06810 -0.13788
-0.13740 -0.09508 -0.06138
-0.10516 -0.35724 -0.14791
-0.09030 -0.12128 -0.15946
0.11548 -0.41234 0.12642
-0.05946 -0.09508 -0.08776
-0.11440 0.02067 -0.02164
-0.16397 0.18579 -0.01765
-0.17009 -0.07529 0.04833
0.07892 -0.34346 0.08722
0.04395 -0.05820 0.13672
-0.12107 0.20889 0.05023
-0.17039 0.24319 0.05157
-0.14749 0.24555 -0.19529
-0.17190 0.35854 0.06788
-0.01239 -0.02824 0.07272
0.14467 -0.41234 -0.15251
-0.13801 -0.41234 -0.16731
-0.11706 -0.40742 0.11646
0.01617 -0.09508 0.10748
0.09407 -0.06132 0.14137
-0.04655 -0.06317 -0.19521
-0.17408 0.17470 0.09140
-0.09959 0.05616 -0.18133
0.08339 -0.35604 0.08764
-0.02370 -0.39726 0.07770
0.15823 -0.28878 -0.17622
-0.11814 0.25856 0.01862
0.11993 -0.09508 0.10569
-0.10751 -0.41234 -0.17449
0.10802 -0.13806 0.09602
-0.09149 -0.27488 -0.14666
0.09363 -0.09508 -0.10840
0.17453 -0.30759 -0.12348
0.18505 -0.14235 -0.16966
0.08503 -0.03774 -0.18301
0.11505 -0.41234 0.10401
-0.16172 0.11265 0.11764
-0.10267 -0.35126 -0.20042
-0.15368 0.40012 -0.12859
-0.17512 -0.00225 0.11640
-0.05087 -0.34329 0.07518
0.04315 -0.02824 0.08694
0.14930 -0.34060 -0.12582
0.08292 -0.33286 0.10622
0.13942 -0.04325 0.14558
0.17359 -0.33271 -0.17479
-0.05652 -0.33588 0.13293
-0.15549 0.31684 -0.10906
-0.12121 0.02641 0.05175
-0.17251 0.27476 0.07447
-0.08819 -0.38750 -0.18221
-0.15999 -0.28366 0.05845
-0.15379 -0.08767 0.11838
0.05823 -0.33378 0.08530
-0.15966 -0.01570 -0.06408
-0.17161 -0.15810 0.06475
0.13083 -0.34329 0.09204
-0.11013 0.15037 -0.06773
0.16716 -0.04992 0.02322
-0.10841 0.11994 -0.08627
-0.13288 -0.04274 -0.18108
-0.15365 0.02624 -0.12890
-0.08387 -0.02824 -0.05478
-0.15191 0.21521 -0.14759
-0.06995 -0.03074 -0.19739
-0.11428 -0.26516 0.08657
0.15533 -0.31408 0.13821
-0.15712 0.02885 -0.09148
-0.09943 0.36540 -0.18299
-0.11575 -0.33583 0.12732
-0.10732 0.06667 -0.09797
-0.16256 -0.41234 0.17400
-0.17369 0.08823 0.08717
-0.05935 -0.02824 -0.10374
-0.16954 0.07683 0.04238
-0.12606 0.23104 0.10408
0.10743 -0.15337 0.10238
-0.00392 -0.33618 0.13852
-0.17170 0.35070 0.06574
0.05284 -0.02824 -0.02678
-0.10725 0.32388 -0.09872
-0.11447 -0.22754 0.08858
-0.10306 0.04271 -0.14386
-0.04613 -0.04702 0.12837
-0.09030 -0.22215 -0.15950
0.03606 -0.02824 -0.05546
0.03558 -0.09508 0.03359
-0.17325 0.30870 0.08238
-0.17172 0.13013 0.06589
-0.15277 0.11244 -0.13836
-0.16304 0.26497 -0.02763
-0.13876 -0.26880 0.06042
0.07277 -0.36221 0.20369
0.07692 -0.02824 -0.18193
-0.12968 -0.28143 0.06126
0.15461 -0.37848 0.14594
0.15696 -0.02824 0.04444
-0.12071 0.05190 0.04635
-0.15587 0.26847 -0.10498
0.10553 -0.09508 -0.11011
-0.11475 -0.20475 0.06265
0.12992 -0.10334 0.09195
-0.14223 -0.08279 0.11945
0.18487 -0.33030 -0.17375
0.12845 -0.02824 0.12134
0.10796 -0.40631 0.09668
-0.16651 -0.25061 0.11720
-0.06040 -0.05766 0.12704
-0.13858 -0.33209 -0.15101
0.11812 -0.41234 0.10816
-0.12989 -0.21397 -0.20295
-0.16362 0.04796 -0.02137
-0.17274 -0.39916 0.18375
0.08548 -0.09508 -0.14247
0.10548 -0.38677 0.08969
-0.16216 -0.15598 0.11760
-0.04169 -0.39642 0.07603
-0.11138 0.05825 -0.05417
-0.08785 -0.22116 -0.18589
-0.10213 -0.41234 0.18332
0.12495 -0.05135 0.14424
-0.10914 -0.02444 -0.07830
-0.09035 -0.41234 0.17212
-0.09058 -0.18424 -0.15643
-0.02647 -0.09508 0.05868
0.13372 -0.12246 -0.16854
-0.12537 0.11038 0.09657
-0.10476 0.27701 -0.12559
-0.09224 -0.09508 0.04788
0.17683 -0.20558 -0.12327
-0.11588 0.14011 -0.20165
-0.14589 -0.23701 -0.20002
-0.11356 -0.28192 0.07871
-0.11377 -0.14349 0.08106
0.15180 -0.02824 0.00998
-0.01437 -0.02824 -0.04676
-0.02614 -0.02824 -0.17855
-0.10762 0.22239 -0.09468
0.10524 -0.20286 0.12597
0.11906 -0.19761 0.14217
0.13732 -0.24266 -0.17816
0.02337 -0.09508 -0.11313
-0.16839 -0.40602 0.07153
-0.10970 -0.12023 -0.20107
-0.08956 -0.41234 0.17874
0.06149 -0.09508 0.13118
-0.12693 -0.09508 -0.10897
0.15868 -0.34693 0.10205
-0.11928 0.16339 0.03099
0.11792 -0.35202 0.09084
0.13315 -0.16976 0.09225
0.17418 -0.06618 -0.05252
-0.16003 -0.03439 -0.06004
-0.15428 -0.02696 -0.12207
-0.11807 0.35502 0.01797
-0.15366 0.19249 -0.12872
-0.13156 0.36192 0.02950
-0.15357 -0.07061 -0.12976
0.13286 -0.13016 -0.15921
-0.10104 0.02605 -0.16570
-0.08830 -0.36221 0.14252
0.11046 -0.04274 0.10508
0.02436 -0.36258 0.08216
-0.15886 0.02607 -0.07272
-0.14113 -0.38827 -0.15124
0.14111 -0.26970 -0.12658
-0.17110 0.12517 0.05926
-0.02319 -0.08655 0.13049
-0.09196 -0.05115 0.12411
-0.11424 -0.13769 0.08606
0.13329 -0.32947 -0.16386
0.09271 -0.02824 0.11080
0.17688 -0.07655 -0.12326
0.15890 -0.03890 0.11217
0.14621 -0.27027 -0.12611
0.12882 -0.35364 0.19167
-0.13593 0.33544 0.12004
-0.10498 0.12850 -0.20064
-0.16255 -0.22697 0.05821
0.17995 -0.03907 -0.11470
-0.14783 0.27631 -0.19159
0.04362 -0.07117 0.13669
-0.14908 -0.22203 -0.16560
0.15562 -0.34973 -0.17646
-0.13901 -0.19553 0.06040
-0.12519 -0.18375 0.06168
0.08342 -0.09508 0.02619
-0.10180 0.04592 -0.15749
-0.16162 -0.08247 -0.04299
0.15807 -0.19373 0.10860
0.10637 -0.35403 0.19050
0.17208 -0.06592 -0.02981
-0.12238 0.15251 0.06433
-0.15695 -0.03610 -0.09325
0.15906 -0.17036 0.09802
-0.09790 0.21789 -0.19954
-0.12143 0.06681 0.05414
-0.12780 -0.41234 0.09857
0.11328 -0.09508 0.12796
-0.11838 0.36192 -0.06374
-0.02037 -0.09508 -0.18132
0.15815 -0.04889 0.12028
0.17566 -0.18720 -0.17460
-0.11970 0.11033 0.03552
-0.07618 -0.09508 -0.11448
-0.16017 -0.09367 0.11779
-0.17241 -0.19727 0.07331
0.10715 -0.24774 0.14106
0.00036 -0.02824 0.03451
-0.16733 0.19827 0.01864
-0.08668 -0.33286 0.08862
-0.16738 0.29658 0.01913
0.14402 -0.41234 0.12040
-0.11607 0.03454 -0.00368
-0.17281 -0.30367 0.07767
-0.11295 0.18057 -0.03725
-0.16964 0.26172 0.04349
-0.17613 0.34192 0.11346
-0.14725 0.10158 -0.19784
-0.06596 -0.02824 -0.03824
-0.09357 -0.09508 -0.09510
0.15957 -0.06659 0.10504
0.06160 -0.09508 -0.01744
-0.11185 0.01454 -0.04917
-0.12125 -0.04274 0.10855
0.15648 -0.39215 0.12576
-0.02396 -0.02824 -0.16682
0.18078 -0.17497 -0.12365
-0.11620 -0.09508 -0.02921
0.02100 -0.09508 -0.08933
-0.15517 0.29050 -0.11248
0.15935 -0.13421 0.09479
-0.14112 -0.17193 -0.20399
-0.11993 -0.04274 -0.16867
-0.14674 0.39009 -0.20330
-0.15359 -0.15904 0.11840
-0.14793 0.33824 -0.19054
-0.15159 -0.35032 0.05923
0.09148 -0.02824 -0.01139
0.11577 -0.07595 0.14339
0.17638 -0.26050 -0.12331
-0.10869 -0.33573 -0.20098
-0.14759 -0.33435 -0.18162
-0.12610 0.08781 0.10452
-0.10229 0.10498 -0.15222
-0.11415 -0.02824 0.05727
0.15609 -0.05148 0.12997
0.12372 -0.36221 0.15414
-0.05324 -0.09508 0.00807
-0.09649 -0.39134 -0.19985
-0.08787 -0.04919 -0.18567
0.11580 -0.25526 0.14187
-0.10956 0.11878 -0.07381
0.14112 -0.41234 0.15129
0.15625 -0.41234 -0.17374
-0.14633 -0.25472 -0.15172
-0.12148 0.30055 0.05472
0.10461 -0.02824 0.03526
-0.14396 0.34234 -0.20425
-0.14936 -0.06978 -0.17510
0.11549 -0.20944 0.09061
0.00716 -0.41234 0.13361
-0.16821 0.14430 0.02808
-0.01231 -0.41234 0.17011
0.15923 -0.28660 0.09616
0.17741 -0.16091 -0.12322
-0.15952 -0.06199 -0.06557
0.13325 -0.12380 -0.16340
-0.16016 -0.00868 -0.05868
-0.12633 -0.19255 -0.20261
0.10593 -0.07968 0.11851
0.12899 -0.09508 0.07789
0.10804 -0.38370 0.09582
-0.13280 0.03912 0.12033
0.06361 -0.09508 0.10608
0.15805 -0.19340 0.09456
0.13285 -0.30642 -0.15912
-0.17118 -0.02138 0.06008
-0.10132 -0.39858 -0.20030
0.00362 -0.35222 0.13146
-0.17335 -0.11437 0.08348
0.15613 -0.40907 0.12953
0.14100 -0.18554 -0.12659
0.06367 -0.02824 0.05754
-0.01262 -0.02824 -0.15497
-0.06216 -0.35024 0.16600
0.06942 -0.34541 0.16691
-0.07905 -0.35300 0.07257
-0.02089 -0.02824 -0.19109
0.18408 -0.23452 -0.15923
0.03284 -0.04595 0.13569
0.00037 -0.41234 0.12589
-0.10211 0.09004 -0.15415
0.15377 -0.05692 0.14691
0.01489 -0.41234 0.15619
-0.17575 0.15003 0.10934
-0.12575 0.27018 0.10069
0.06864 -0.09508 0.00298
0.18359 -0.08283 -0.15394
-0.00101 -0.09508 -0.09109
0.17621 -0.04891 -0.07441
0.10737 -0.09410 -0.18094
-0.12675 -0.12903 -0.14991
-0.17576 -0.21213 0.10950
-0.11430 0.30093 -0.02271
-0.10573 0.29361 -0.11513
0.11308 -0.24529 0.14161
-0.13939 -0.34833 0.06036
-0.13810 -0.09734 0.11983
-0.05238 -0.36221 0.14092
-0.11175 0.09249 -0.05016
0.10399 -0.33286 0.09912
-0.09054 -0.18689 -0.19929
0.03809 -0.34476 0.16249
0.12795 -0.39494 0.09177
-0.11403 -0.37103 0.06932
0.15756 -0.22331 0.11411
-0.14807 -0.27197 -0.17646
-0.16814 0.28320 0.02730
0.13592 -0.02824 -0.02140
-0.14785 0.28139 -0.19133
0.10302 -0.02824 -0.13428
0.14545 -0.02824 0.12450
-0.01229 -0.41234 0.10487
-0.07594 -0.08165 0.12560
-0.16482 -0.39265 0.11736
0.12126 -0.14447 0.09115
-0.09950 0.27414 -0.18230
-0.05446 -0.02824 -0.00381
-0.10005 -0.34045 -0.20018
-0.16355 -0.36221 0.16345
-0.14635 -0.31849 -0.19502
-0.10337 0.37128 -0.14056
-0.17543 -0.26072 0.10590
0.16580 -0.12664 -0.17552
0.18182 -0.15549 -0.13484
0.18022 -0.04929 -0.11762
0.00573 -0.02824 -0.15881
-0.14840 0.01060 -0.18543
0.14372 -0.04274 -0.12871
-0.11428 -0.36221 0.16582
0.12426 -0.02824 0.13536
0.12678 -0.04274 0.09633
0.15336 -0.27557 0.09413
0.09787 -0.33599 0.14751
0.14563 -0.34130 -0.17739
-0.16552 0.06943 -0.00089
-0.14962 -0.37727 -0.15976
0.18164 -0.26955 -0.13287
-0.17366 -0.18235 0.08682
0.10430 -0.19420 0.13610
-0.17422 -0.36961 0.13439
-0.14124 -0.35960 0.18058
0.04291 -0.41234 0.19868
-0.17076 0.19203 0.05554
0.18115 -0.07166 -0.12762
-0.13261 -0.24916 0.12034
-0.10195 -0.22307 -0.14761
-0.11195 0.17207 -0.04811
-0.16829 0.06009 0.02899
-0.08873 -0.38696 -0.17638
0.03358 -0.09508 -0.14390
-0.17373 -0.00379 0.08757
-0.17374 -0.07385 0.08772
0.17526 -0.41234 -0.13931
0.12139 -0.02824 -0.09792
-0.12031 -0.02824 0.10446
0.15847 -0.26008 0.10437
0.17864 -0.06098 -0.17432
-0.15963 0.00087 -0.06439
-0.16124 0.36192 0.09757
-0.11048 0.00986 -0.06388
0.09174 -0.33286 0.12878
0.13552 -0.07439 -0.17832
-0.15253 0.36192 -0.17010
-0.17164 -0.20468 0.06507
-0.09531 -0.36221 0.16858
-0.11898 0.19484 0.02774
0.02126 -0.09508 0.05199
0.02209 -0.41234 0.08568
-0.15014 -0.07084 -0.16674
-0.17377 0.10308 0.08798
-0.10862 -0.15133 -0.14823
-0.10491 -0.20583 -0.20063
-0.11048 0.06622 -0.06387
-0.12179 -0.41234 0.15982
-0.16490 -0.00692 -0.00763
-0.12323 0.01418 0.07348
-0.09584 -0.41234 0.08077
-0.15849 0.20809 -0.07663
-0.00050 -0.02824 -0.07591
-0.15010 -0.01981 -0.16716
-0.11719 0.04173 0.00839
-0.11739 -0.18890 -0.20179
-0.17300 0.17952 0.07975
-0.14247 -0.18689 0.11943
-0.11747 0.19932 0.01147
-0.10952 -0.33286 0.11415
0.17043 -0.09508 -0.03374
-0.15188 0.28647 -0.14799
-0.17511 -0.02991 0.10244
-0.09155 -0.09508 -0.04214
-0.15191 0.19786 -0.14759
0.02043 -0.09508 -0.01324
-0.13930 0.36268 -0.11267
0.08524 -0.02824 -0.17265
-0.14724 0.18874 -0.19801
-0.12236 0.14358 0.06414
0.16985 -0.04575 -0.00585
0.13927 -0.37543 -0.17798
-0.12009 0.16279 0.03973
-0.14818 -0.19396 -0.17525
0.17075 -0.41234 -0.14960
-0.02565 -0.09508 0.00150
-0.17428 0.21017 0.09349
0.12910 -0.20862 0.14310
-0.12359 0.30566 0.07745
-0.08905 -0.22700 -0.17297
0.08378 -0.09508 -0.10233
-0.15157 0.16932 -0.15131
-0.09735 -0.08462 -0.19993
-0.15338 -0.02091 -0.13174
0.08734 -0.09262 -0.18279
-0.15692 0.00286 -0.09366
0.15038 -0.39436 0.19152
-0.15465 0.33357 -0.11813
0.10464 -0.21702 0.13250
0.18533 -0.11212 -0.17268
-0.15853 -0.21931 0.05859
-0.08888 -0.35948 -0.17472
-0.11484 -0.11752 0.09259
-0.15939 -0.41234 0.09079
-0.11736 -0.02824 0.04458
-0.09097 -0.41234 0.08948
-0.16964 0.20612 0.04352
0.10765 -0.25238 0.09997
-0.11934 0.01344 0.03164
-0.14832 0.03536 0.11889
0.13202 -0.26585 -0.12743
-0.17353 -0.09014 0.08543
0.01460 -0.33590 0.08125
-0.05256 -0.09508 -0.00507
-0.14925 0.32975 -0.17628
0.15263 -0.41234 0.12021
0.11703 -0.02824 -0.10892
0.18277 -0.24259 -0.14504
-0.04950 -0.04438 -0.19549
0.13713 -0.13112 0.14384
-0.12026 -0.27913 -0.14931
-0.07162 -0.02824 -0.17692
0.16439 -0.02824 -0.00082
-0.06320 -0.09508 0.07208
0.09782 -0.02824 0.08787
-0.17042 0.13460 0.11683
-0.11250 -0.06780 0.06739
0.17335 -0.04274 -0.13259
-0.11460 0.05259 -0.01945
0.05021 -0.09508 0.09899
-0.10708 0.35696 -0.10057
-0.11220 0.02774 -0.04535
0.15527 -0.17779 0.13879
-0.10572 0.21681 -0.20070
0.15898 -0.05722 0.09889
-0.11264 -0.22785 0.06880
-0.11687 -0.39317 0.18893
-0.17497 -0.36703 0.10101
-0.14909 0.10791 -0.17803
-0.11475 0.10115 -0.01792
-0.11705 0.15146 0.00688
-0.16937 0.28608 0.04057
-0.12603 0.06326 0.10375
-0.09087 -0.05922 -0.15332
0.14593 -0.13914 -0.17736
0.11387 -0.07301 -0.18033
-0.16284 0.16830 0.11754
0.17475 -0.03591 -0.17469
-0.16173 0.36192 -0.08171
-0.16854 0.13777 0.03166
0.07945 -0.41234 0.16923
-0.11220 -0.06270 0.06407
0.11299 -0.02824 0.06665
-0.16175 0.29532 -0.04152
-0.05396 -0.09508 -0.18466
-0.09733 -0.19666 -0.19992
0.17180 -0.05839 -0.02684
-0.12399 -0.04700 0.12114
-0.10512 -0.09508 -0.10686
-0.13765 -0.41234 0.12560
-0.09174 -0.20262 -0.19941
0.12397 -0.41234 0.20525
0.15803 -0.07987 0.12158
0.15764 -0.02824 -0.13565
0.15751 -0.12048 0.11468
-0.10884 0.38463 -0.10984
-0.16580 -0.01769 0.00208
-0.15436 0.17994 -0.12116
-0.06641 -0.41234 0.16202
0.13768 -0.04274 0.10356
-0.17273 0.12488 0.07687
-0.11389 -0.34119 0.08233
0.14534 -0.09508 0.09290
-0.12138 -0.10000 0.12139
-0.11449 -0.27570 0.08873
-0.11441 0.20477 -0.02151
-0.01638 -0.09508 -0.13184
-0.12935 -0.35456 0.16987
0.17440 -0.07805 -0.05484
0.18458 -0.37451 -0.16462
-0.16409 0.03753 -0.01630
0.17665 -0.06941 -0.07910
-0.06904 -0.02824 0.01764
0.14756 -0.31474 -0.12599
-0.05522 -0.05072 -0.19602
0.10966 -0.09508 -0.06277
-0.15844 -0.34320 0.11795
-0.11779 0.31113 0.01489
-0.15180 -0.01531 -0.14875
0.15433 -0.39350 0.14899
-0.13624 -0.09508 0.08839
-0.11690 0.06650 0.00531
-0.15368 0.06120 -0.12851
0.11707 -0.09508 -0.07572
-0.14797 -0.36092 -0.17761
0.01196 -0.09508 0.11562
-0.11549 -0.05128 0.09959
-0.04282 -0.02824 -0.00823
-0.07256 -0.04237 -0.19763
0.15551 -0.02824 0.11742
-0.12335 0.17374 0.07488
0.10562 -0.41234 0.14494
-0.16124 0.17391 -0.04699
-0.11638 -0.07280 -0.20169
-0.06824 -0.02824 0.08180
-0.08966 -0.20904 -0.16640
0.15780 -0.15118 0.11158
-0.07861 -0.39089 0.19248
-0.16081 0.05929 -0.05164
0.10606 -0.34591 0.11711
0.10669 -0.18800 0.11035
-0.15170 -0.39784 0.11857
0.07340 -0.41234 0.10754
-0.09955 -0.00454 -0.18176
-0.14911 -0.26683 -0.16526
-0.00293 -0.02824 0.10571
-0.10283 0.12057 -0.14634
0.01142 -0.09508 -0.16126
-0.14374 -0.14388 0.11931
-0.16950 0.31739 0.04204
-0.14702 0.40974 -0.20028
-0.10236 -0.12994 -0.14765
-0.01023 -0.09508 0.02487
-0.13308 -0.41234 -0.19600
-0.04762 -0.34741 0.12671
-0.16035 -0.35495 0.13285
-0.10428 0.38853 -0.20057
-0.15500 0.05695 0.11826
0.15643 -0.35706 0.12637
-0.14715 -0.34609 0.11899
-0.15757 0.22938 -0.08666
-0.16364 -0.36221 0.11582
-0.11951 0.08189 0.03342
-0.14532 -0.21766 -0.20438
-0.14581 -0.33345 -0.20082
-0.11767 0.25853 -0.20181
-0.10396 -0.40917 -0.20054
-0.14470 0.09627 -0.20432
-0.15474 0.00715 -0.11706
-0.14712 -0.04717 -0.18673
-0.12591 0.00098 0.10242
0.13208 -0.25004 -0.15081
0.12892 -0.02824 0.03264
0.14941 -0.02824 -0.03721
0.13273 -0.20957 -0.15790
-0.16264 -0.41234 0.08617
-0.11233 0.15212 -0.04391
0.16625 -0.03819 0.03305
0.10754 -0.41234 0.18193
-0.15211 0.36192 -0.16305
-0.01172 -0.41234 0.14935
-0.17066 0.11608 0.05447
0.09716 -0.09508 0.08567
-0.09851 0.22553 -0.20003
0.01517 -0.09508 0.13046
0.13437 -0.15842 -0.17550
-0.13106 -0.20954 0.12049
-0.12037 -0.23580 0.06213
-0.13152 0.26178 0.12044
-0.11567 0.30586 -0.00796
0.13244 -0.24182 -0.15476
-0.17559 -0.08675 0.10760
-0.15738 -0.24210 0.11804
-0.15033 -0.09105 -0.15213
0.14460 -0.10475 0.09331
-0.16510 0.16993 -0.00546
-0.06377 -0.02824 -0.16890
-0.08986 -0.30174 -0.16424
0.10529 -0.12693 0.12546
-0.12053 0.29106 0.04443
-0.07228 -0.02824 -0.15692
-0.15367 0.10831 -0.12863
-0.09963 0.18061 -0.18091
-0.01835 -0.09278 0.13094
-0.04676 -0.34271 0.14983
0.17414 -0.07180 -0.05201
-0.16899 -0.31871 0.05762
-0.13337 -0.41234 0.10531
-0.10966 -0.06697 -0.20107
-0.14627 -0.08464 -0.19584
-0.10927 0.15215 -0.07697
-0.12581 0.35928 0.10129
-0.00561 -0.41234 0.19466
0.01840 -0.33932 0.14794
0.01231 -0.09508 -0.10763
-0.17208 -0.07334 0.06982
-0.14605 -0.24556 -0.19828
-0.09884 0.23872 -0.18940
-0.11770 -0.41234 0.07836
-0.06558 -0.41234 0.09129
-0.10515 0.30931 -0.12139
0.14372 -0.02824 0.01527
-0.17247 -0.33148 0.07406
-0.17383 0.18024 0.08869
-0.14956 0.01478 -0.17296
0.10849 -0.30677 0.14119
0.00554 -0.09508 -0.15297
0.18527 -0.27918 -0.17209
0.16267 -0.04894 0.07160
-0.17043 -0.38573 0.09349
-0.08937 -0.30850 -0.16948
-0.17510 0.31797 0.10232
-0.16025 0.13833 -0.05776
-0.09182 -0.24309 -0.14667
-0.12252 0.29536 0.06594
-0.10317 0.38530 -0.14273
-0.17544 -0.32405 0.10602
0.11024 -0.05528 0.14135
-0.15048 -0.05871 -0.16301
-0.14746 -0.04484 -0.19559
-0.16901 -0.08595 0.11697
0.16074 -0.02824 -0.12334
-0.10333 0.09066 -0.14097
-0.17002 0.21655 0.04756
-0.10335 0.35391 -0.14076
0.14890 -0.36689 -0.17708
0.01566 -0.33768 0.14385
-0.16682 0.35752 0.01315
0.12517 -0.06252 0.09151
-0.02448 -0.35011 0.16920
-0.13493 0.01600 -0.20341
-0.12140 0.27729 0.05386
-0.11420 -0.17956 0.08562
0.14368 -0.15096 0.09323
0.13226 -0.36272 0.09217
-0.11307 0.35788 -0.03603
-0.05438 -0.06794 -0.19594
0.11121 -0.10529 0.14144
-0.15161 0.36192 0.08030
0.10955 -0.29792 0.14129
0.17540 -0.40442 -0.12340
-0.12338 0.26558 -0.20234
0.16792 -0.31094 -0.12409
-0.10502 0.15142 -0.12276
-0.10140 0.16301 -0.16175
0.17085 -0.05497 -0.01655
0.10671 -0.35718 0.19792
0.00480 -0.09508 -0.04566
-0.09334 -0.02824 -0.02277
0.03448 -0.02824 0.02178
0.00566 -0.02824 0.03287
-0.15168 -0.03123 0.11857
-0.16554 0.21724 0.11729
-0.11442 0.11332 -0.02139
-0.11610 0.02108 -0.00333
0.05388 -0.33286 0.12510
-0.10691 0.16965 -0.10244
0.14789 -0.09468 0.14636
-0.09954 -0.21801 -0.20013
0.06079 -0.41234 0.15911
0.14407 -0.02824 -0.16018
-0.08800 -0.22830 -0.19906
-0.13198 0.36192 0.06614
-0.10356 0.15302 -0.13848
-0.14969 -0.27587 0.11876
-0.13875 -0.37235 0.06703
0.07071 -0.09508 -0.15233
-0.11908 -0.08978 0.12160
-0.00443 -0.34876 0.16791
-0.17627 0.25719 0.11495
-0.10909 0.41234 -0.15639
0.08692 -0.35819 0.13919
-0.13151 -0.39678 0.06109
-0.02656 -0.02824 -0.15568
-0.11475 -0.15524 0.09155
-0.08356 -0.41234 0.13228
-0.10503 0.05561 -0.20064
0.08350 -0.02824 -0.13076
0.11362 -0.09508 0.11020
0.17291 -0.19423 -0.17486
-0.12388 0.18257 -0.20239
0.06870 -0.35191 0.18205
-0.11030 -0.02276 -0.06583
-0.14779 -0.21370 -0.17954
0.02215 -0.36221 0.17483
-0.14607 -0.09508 -0.08338
0.08188 -0.09508 0.12520
-0.06353 -0.02824 -0.14670
-0.17192 -0.30693 0.11670
-0.17295 -0.37637 0.12061
-0.15928 0.19127 -0.06813
-0.17084 -0.25340 0.05745
0.10483 -0.29586 0.13043
-0.14591 -0.34924 -0.15169
-0.12114 0.12413 0.05101
0.14755 -0.36221 0.09650
0.10677 -0.09508 0.03782
0.17734 -0.09945 -0.12322
-0.16098 0.21776 -0.04986
-0.17477 -0.13146 0.09882
-0.09847 -0.02700 -0.19335
-0.12939 -0.37504 -0.15015
-0.14001 0.41234 -0.13823
-0.15802 0.14789 0.11799
-0.14428 -0.35851 0.11926
-0.14612 -0.30965 -0.19753
0.08277 -0.36221 0.16673
-0.17595 -0.08296 0.11153
-0.11396 -0.00779 -0.20147
-0.17441 -0.09937 0.09490
0.06128 -0.09508 0.12378
-0.13187 -0.39964 0.18754
-0.12799 -0.41234 0.08062
-0.12576 -0.41234 0.18795
0.01958 -0.36221 0.18624
-0.02056 -0.02824 0.02752
0.13864 -0.02824 0.11788
-0.13851 -0.38968 -0.20375
-0.03679 -0.35592 0.18166
-0.02164 -0.09508 -0.04953
-0.06557 -0.02824 0.08979
-0.16169 -0.08817 -0.04219
-0.11521 0.35858 -0.01297
0.17900 -0.08543 -0.10448
-0.01285 -0.04139 0.13145
-0.02667 -0.35812 0.18774
-0.16222 -0.04298 -0.03651
-0.01905 -0.02824 -0.15218
0.15187 -0.12270 0.14521
-0.11625 -0.40932 0.06912
0.05344 -0.09508 -0.11326
-0.11287 0.16142 -0.03814
-0.17578 0.00046 0.10966
0.10653 -0.09508 -0.12712
0.06243 -0.02824 0.03295
0.13009 -0.12645 -0.12934
-0.11734 -0.31895 0.11954
-0.15098 0.07012 -0.15761
0.13723 -0.09508 0.07650
-0.12594 -0.09508 -0.14397
-0.13344 -0.39021 0.06092
-0.15150 0.11026 -0.15201
-0.17447 0.22031 0.09563
-0.11480 -0.39705 -0.20155
-0.14997 0.03559 -0.16848
0.05414 -0.02824 -0.10904
0.11535 -0.23803 0.09060
-0.15536 -0.13619 0.05888
0.06844 -0.38958 0.20612
-0.10374 -0.02824 0.03071
-0.15427 -0.07628 -0.12219
0.18274 -0.34063 -0.14472
0.12476 -0.36221 0.16219
-0.17442 0.00589 0.09504
-0.17246 -0.17925 0.07393
0.13231 -0.26484 0.14340
-0.10736 0.27213 -0.09759
-0.14590 -0.21245 -0.19989
-0.13229 -0.11918 0.12037
-0.17515 -0.35846 0.10287
-0.16660 0.13797 0.01077
-0.11444 -0.40380 0.08821
-0.13235 0.32255 0.12037
0.03882 -0.04165 0.13625
-0.11080 0.13272 -0.06050
-0.12384 0.36192 -0.03868
-0.14524 0.36192 0.08391
-0.12402 -0.41234 -0.15803
-0.11390 -0.11116 0.08238
0.11699 -0.02824 0.07459
0.16696 -0.07910 0.02537
0.14592 -0.19778 0.14466
-0.00420 -0.07088 -0.19129
0.03242 -0.37811 0.08291
0.04961 -0.02824 0.07322
0.15688 -0.35942 0.12143
-0.09660 -0.02824 0.03103
-0.16923 0.15666 0.03908
0.16782 -0.04809 -0.12410
-0.10718 0.26555 -0.09952
-0.03371 -0.02824 0.07220
-0.11347 -0.02633 -0.03170
-0.09886 0.21842 -0.18918
-0.11893 -0.02865 -0.20193
-0.11916 0.18507 0.02962
-0.10649 0.35836 -0.20078
-0.14074 0.36192 -0.21067
0.13291 -0.02824 -0.11781
0.14628 -0.26984 -0.17733
-0.13406 -0.04274 0.10552
-0.09061 -0.02824 -0.04797
-0.05871 -0.33503 0.12568
0.10776 -0.08246 0.09879
-0.17809 -0.40556 0.17602
-0.14288 -0.41234 0.15401
-0.11394 0.22195 -0.02661
-0.00180 -0.09508 -0.17714
-0.06878 -0.02824 0.05394
-0.12958 0.09772 0.12062
-0.12506 -0.31009 0.06169
0.18522 -0.03546 -0.17151
-0.13586 -0.16833 0.12004
-0.10426 0.25919 -0.13095
-0.16668 -0.08472 0.01161
-0.15990 0.06427 -0.06149
-0.11351 -0.40581 0.18924
-0.12386 -0.25404 -0.14964
-0.17240 -0.40451 0.11470
-0.13416 0.02789 -0.20334
0.15607 -0.04871 0.09438
-0.14951 0.36192 -0.19539
-0.11691 -0.04414 0.12180
-0.11551 -0.28083 0.09979
0.11214 -0.19116 0.14153
-0.14881 -0.25916 -0.16850
0.15556 -0.38169 0.13575
-0.16867 -0.02430 0.03302
-0.11703 -0.07760 0.12179
-0.14876 -0.07801 -0.15195
-0.02740 -0.33286 0.11907
-0.16086 0.30087 -0.05110
0.14126 -0.02824 -0.16562
-0.05600 -0.04034 0.12745
-0.08777 -0.14949 -0.18671
-0.11367 -0.38715 0.07994
-0.13839 -0.09508 0.11201
-0.11827 -0.09508 -0.08288
-0.10705 -0.09508 -0.08277
-0.12703 -0.40254 0.12086
-0.16765 -0.10821 0.05774
-0.04833 -0.36136 0.12664
-0.02538 -0.41234 0.17317
-0.17497 -0.08041 0.10094
-0.10246 0.07727 -0.15036
-0.13218 -0.22653 -0.15041
0.10401 -0.26494 0.13920
-0.11742 0.41234 -0.17438
-0.13667 -0.09971 -0.15083
-0.15810 -0.17748 0.05863
-0.10733 0.05368 -0.09786
0.18108 -0.32232 -0.12689
0.09658 -0.02824 0.00986
-0.13787 0.35533 0.11986
0.14535 -0.02824 -0.08170
-0.14840 -0.08288 -0.18542
0.13137 -0.30785 -0.14317
-0.11212 0.12769 -0.04626
0.00980 -0.02824 -0.06576
0.13793 -0.21247 -0.17810
-0.10286 0.09540 -0.14607
-0.16121 -0.13283 0.11769
0.07612 -0.36221 0.14787
-0.00604 -0.03240 -0.19146
-0.14802 -0.08455 -0.17703
-0.10325 -0.09508 0.06435
-0.11713 0.12721 0.00780
-0.00469 -0.02824 0.12898
-0.17485 -0.14869 0.11642
0.13007 -0.04453 -0.12923
-0.01025 -0.36221 0.16353
-0.17579 -0.05987 0.10980
-0.08977 -0.17732 -0.16515
-0.12636 0.05235 0.10731
-0.17475 0.31169 0.09858
0.05715 -0.09508 -0.00665
0.13163 -0.35020 0.16779
-0.17436 -0.13798 0.09434
0.16359 -0.12124 -0.12450
0.13036 -0.19057 -0.13233
-0.13847 -0.37276 0.11980
0.15420 -0.02824 -0.11714
0.13467 -0.41234 0.20216
-0.11260 -0.24695 -0.20134
0.07746 -0.41234 0.14419
0.10788 -0.21999 0.09751
0.09828 -0.09508 -0.04366
0.10543 -0.30752 0.12392
-0.05925 -0.09508 -0.00806
-0.17341 0.20853 0.08412
0.03850 -0.41234 0.10186
-0.14879 -0.22481 0.05949
-0.16836 0.36192 0.12176
-0.00042 -0.09508 -0.14398
0.10894 -0.09901 0.09001
-0.14378 -0.36221 0.14849
-0.09191 -0.02824 -0.14878
-0.17374 0.28996 0.08771
0.09432 -0.41234 0.20471
0.10678 -0.02824 0.01196
0.16035 -0.08748 0.09659
-0.14901 -0.11634 -0.16637
-0.07452 -0.38618 0.19286
-0.10393 0.17590 -0.13453
-0.17238 -0.35987 0.16221
0.02708 -0.33286 0.10376
-0.14160 -0.12044 -0.15129
0.15704 -0.37670 0.11980
0.12043 -0.09508 0.00346
0.01878 -0.07860 0.13439
-0.11559 -0.19680 0.10061
-0.09932 0.13777 -0.18420
-0.17211 0.18681 0.11668
-0.06207 -0.05573 -0.19665
0.13233 -0.11683 -0.15351
0.04141 -0.09508 0.08347
-0.12395 0.12229 0.08130
0.14413 -0.26690 0.09327
0.12017 -0.02824 -0.13504
-0.10454 -0.16946 -0.14785
-0.13256 -0.08058 0.12035
0.16838 -0.41234 -0.17166
-0.11539 -0.28860 0.09845
-0.03198 -0.41234 0.09618
-0.12330 -0.13953 -0.20233
0.00789 -0.02824 -0.17288
-0.14785 0.18043 0.11893
-0.02733 -0.09508 0.01330
-0.15046 -0.41234 0.17356
-0.12941 0.32917 -0.20290
-0.11443 -0.08947 0.08814
0.14177 -0.40494 0.14427
-0.16607 -0.14909 0.05789
0.18500 -0.17812 -0.16908
0.13116 -0.39200 -0.14092
-0.12186 -0.09093 0.06199
-0.16173 0.33682 -0.04176
-0.17402 0.05179 0.09067
-0.03906 -0.41234 0.11434
-0.10131 0.17328 -0.16273
0.10192 -0.09508 -0.15402
-0.11352 0.23194 -0.03109
-0.05916 -0.09508 -0.13776
-0.14007 -0.09508 0.08139
0.15250 -0.21644 -0.12553
0.12986 -0.41234 0.11077
0.04838 -0.09508 -0.05207
-0.01925 -0.38162 0.07812
-0.11413 -0.01553 -0.02460
-0.12785 -0.11036 -0.20276
0.08199 -0.36531 0.20738
0.13351 -0.29401 0.09229
-0.17042 -0.36678 0.09344
-0.07170 -0.02824 0.01100
-0.11452 -0.41234 0.08698
-0.16767 0.15936 0.02226
-0.14866 0.37202 -0.18266
-0.16350 0.30312 -0.02272
0.12010 -0.02824 0.08215
-0.10538 0.39247 -0.11893
0.15911 -0.33588 0.09743
-0.17261 -0.40223 0.07555
-0.06529 -0.36221 0.14163
-0.11450 -0.37613 0.08885
-0.15732 0.23747 -0.08934
0.15383 -0.40971 0.15439
-0.05916 -0.35435 0.12563
-0.11373 0.39355 -0.20145
0.13069 -0.26066 0.09202
-0.06164 -0.35284 0.07418
-0.10778 -0.01571 -0.09302
-0.15155 -0.08440 -0.15155
0.09979 -0.41234 0.17688
-0.13365 -0.36396 0.06750
0.05092 -0.09508 -0.09725
0.05017 -0.02824 -0.15152
0.18229 -0.25288 -0.13997
-0.02557 -0.09508 0.10487
-0.13613 -0.32994 0.12002
-0.17605 0.26788 0.11257
-0.12109 -0.12159 0.12141
0.08722 -0.09508 -0.10818
0.12226 -0.29492 0.09124
-0.08910 -0.34179 -0.17240
-0.16181 -0.04013 -0.04090
-0.11683 -0.01679 0.00452
0.12423 -0.09508 0.09411
-0.06831 -0.06576 -0.19723
-0.09948 0.16272 -0.18251
-0.10984 0.29822 -0.07078
0.15897 -0.21596 0.09892
0.15584 -0.12557 0.13270
-0.14739 -0.27679 -0.18379
-0.16059 0.29391 -0.05408
0.01588 -0.33286 0.11105
0.13546 -0.20398 -0.17833
-0.09017 -0.09442 -0.16088
-0.14742 0.17679 -0.19598
-0.17265 -0.07724 0.07600
0.13417 -0.38207 0.14357
-0.11477 0.35659 -0.01765
-0.15216 -0.09508 0.03231
-0.14768 -0.22613 -0.18067
0.05210 -0.33286 0.09588
0.15948 -0.02824 -0.01238
0.15631 -0.18844 0.12763
-0.10500 0.06768 -0.12298
-0.11349 -0.33699 0.07798
0.10521 -0.08619 -0.18114
0.17902 -0.05936 -0.12307
-0.15682 0.36192 0.05355
-0.03687 -0.33286 0.07979
-0.11650 0.07919 0.00103
-0.12142 -0.30412 0.12138
-0.10072 0.40040 -0.16908
-0.12616 -0.41234 0.17663
-0.02836 -0.09508 -0.12925
0.14807 -0.30302 0.14486
0.15647 -0.04776 0.12585
-0.11008 0.16650 -0.06826
-0.17600 0.07235 0.11206
-0.12650 0.33704 0.10877
0.06522 -0.02824 -0.17517
-0.11710 0.21458 0.00748
-0.16786 0.12742 0.11707
0.04057 -0.02824 0.00190
-0.03001 -0.09508 0.09615
-0.05373 -0.09508 -0.06857
0.00696 -0.09508 0.02941
-0.14810 0.11399 -0.18871
0.16378 -0.09410 0.05967
0.11385 -0.39710 0.14169
-0.17496 -0.25576 0.10083
-0.14692 -0.14284 -0.18884
-0.17132 0.29132 0.11675
-0.12893 -0.36221 0.17116
-0.12689 -0.04274 0.11409
0.16391 -0.38080 -0.17569
-0.11604 -0.34836 0.15661
-0.14572 -0.29919 -0.20179
-0.11401 -0.38248 0.08361
-0.08238 -0.09508 -0.17550
-0.16185 0.09518 -0.04048
0.15680 -0.23713 0.09445
-0.07794 -0.02824 -0.05377
0.06334 -0.02824 0.07933
-0.15280 0.26535 -0.13801
-0.15082 -0.40425 0.11865
0.12602 -0.09508 -0.09043
-0.10048 0.04944 -0.17166
-0.15189 0.03823 -0.14780
0.15470 -0.36292 0.14494
-0.17246 0.10184 0.07390
-0.13126 -0.24052 0.06112
-0.11846 0.19187 0.02207
-0.11940 -0.38610 0.06882
-0.15990 0.36192 -0.08879
0.13489 -0.40570 -0.12716
-0.11360 -0.41234 0.13620
0.13773 -0.07233 0.14542
-0.12689 -0.08270 0.12087
-0.17373 -0.04112 0.08764
-0.07373 -0.02824 -0.10271
0.15789 -0.08878 0.11062
-0.17394 -0.32280 0.08987
0.15666 -0.09508 -0.09195
-0.10153 0.11012 -0.16040
-0.15640 -0.38464 0.18526
-0.16510 0.05977 -0.00544
0.15148 -0.09508 -0.06978
-0.12212 0.09085 0.06151
0.13172 -0.19952 -0.14697
-0.10107 -0.36085 0.18722
-0.14768 -0.22858 -0.15185
-0.10826 0.14557 -0.08784
-0.15090 0.20674 -0.15848
-0.12281 -0.07468 -0.14954
-0.15191 -0.04356 0.11855
0.16508 -0.05166 0.04564
0.12394 -0.02824 -0.01619
-0.10470 0.30976 -0.20061
0.13418 -0.06799 -0.17347
-0.15358 0.24262 -0.12963
-0.14649 -0.09659 -0.19356
-0.11181 0.33113 -0.04962
0.12536 -0.02824 -0.11816
-0.12298 0.05574 0.07081
-0.17008 -0.35977 0.13944
-0.15487 0.37959 -0.11577
-0.09901 0.36123 -0.18749
-0.16832 -0.05084 0.02927
-0.12524 0.17371 0.09518
0.15598 -0.15552 0.13116
-0.11017 -0.08773 -0.14837
-0.17038 0.06870 0.05151
0.11564 -0.33976 0.14366
-0.14720 -0.25586 -0.18584
-0.14724 -0.18296 -0.18544
-0.14025 -0.30992 -0.15116
-0.17150 0.22783 0.06353
-0.09030 -0.31735 -0.15949
0.14227 -0.09508 0.02423
-0.07188 -0.09508 0.04335
0.12140 -0.09508 -0.14624
-0.13184 -0.04274 -0.17083
0.14652 -0.37033 0.09349
-0.04201 -0.02824 -0.16091
-0.05465 -0.09508 -0.11349
0.12086 -0.20825 0.14233
-0.10391 -0.41234 0.16426
-0.15935 -0.03257 0.11786
-0.09904 0.29964 -0.18720
-0.12779 -0.14425 -0.20275
-0.11951 -0.02018 0.03345
-0.13569 0.22325 -0.20348
-0.14500 -0.41234 0.08598
-0.06242 -0.38989 0.07411
-0.12456 -0.02555 0.08787
-0.05974 -0.41234 0.08786
0.17455 -0.29115 -0.17470
0.13151 -0.31556 0.14332
-0.10960 0.09729 -0.07342
-0.12750 -0.20302 0.06147
-0.13023 0.00991 0.12056
-0.14137 0.36192 0.05970
-0.14921 0.28359 -0.17667
0.13286 -0.36054 -0.15920
0.09731 -0.33491 0.08893
0.07647 -0.36221 0.16077
-0.14954 0.41234 -0.16174
-0.15294 0.25797 0.11846
-0.16811 0.33952 0.11705
-0.10249 -0.09508 -0.14205
-0.03864 -0.02824 -0.12357
-0.12068 -0.41234 -0.16330
-0.17109 -0.33440 0.05914
-0.15765 0.32686 -0.08575
-0.17232 -0.29893 0.07244
-0.15707 -0.41234 0.09598
0.11976 -0.08575 0.14375
-0.17293 -0.03759 0.07901
-0.08951 -0.20145 -0.16795
-0.17147 -0.37480 0.06324
-0.15577 0.29628 -0.10601
-0.14206 0.06858 -0.20408
-0.15130 0.14870 -0.15416
0.12101 -0.04274 0.10381
-0.00234 -0.09508 0.11722
-0.11299 0.11830 -0.03679
-0.16314 0.06290 -0.02657
-0.07403 -0.09508 0.06198
-0.12642 0.36192 0.00606
-0.12420 0.41234 -0.15601
-0.16228 0.03117 -0.03580
-0.14591 -0.33640 -0.15169
-0.12234 0.31709 0.06390
0.07758 -0.02824 0.12774
0.14018 -0.24466 0.14413
-0.11483 -0.29227 0.09241
-0.02260 -0.09508 -0.03940
-0.15170 0.40385 -0.14986
-0.14955 -0.03724 -0.17303
-0.11285 -0.09508 0.08946
-0.09959 -0.36221 0.16161
-0.17210 -0.35304 0.07001
-0.14384 -0.23224 0.05995
-0.12182 -0.06672 0.06199
-0.04023 -0.02824 -0.11296
0.05726 -0.02824 -0.18288
-0.15436 -0.01004 -0.12125
0.18169 -0.30835 -0.13343
0.16860 -0.04112 0.00764
0.14107 -0.13127 -0.12659
0.14250 -0.16785 -0.12645
0.06536 -0.07490 0.13871
0.12817 -0.11252 0.14301
-0.10250 0.39625 -0.14990
0.15650 -0.06220 0.13806
-0.00872 -0.05512 0.13184
-0.15520 0.23890 -0.11220
0.15856 -0.04405 -0.12496
-0.16637 -0.27837 0.05786
0.15722 -0.31778 0.11783
0.07878 -0.09508 -0.10527
-0.08446 -0.02824 0.05091
0.14044 -0.41234 0.10996
0.16995 -0.06720 -0.12391
0.13273 -0.05875 -0.15790
-0.14558 0.11014 0.11914
0.12535 -0.34541 0.14513
-0.15307 0.17712 -0.13509
