ply
format ascii 1.0
comment VCGLIB generated
element vertex 1777
property float x
property float y
property float z
element face 0
property list uchar int vertex_indices
end_header
-0.12466 0.36270 -0.12675
-0.17012 -0.07372 0.19937
-0.12241 -0.08326 0.04328
-0.18124 0.08615 0.03671
-0.18124 -0.24049 -0.05624
0.08078 -0.00070 -0.14370
0.12295 -0.36402 -0.16729
-0.15863 -0.33831 0.01164
-0.14642 0.39937 0.08717
-0.10587 -0.00070 0.02785
-0.12089 0.16628 -0.03842
0.12090 -0.00070 0.08986
0.14108 -0.38747 -0.19937
0.10224 -0.20499 0.19459
-0.03242 -0.00070 0.10990
-0.12089 -0.00277 -0.18900
-0.03719 -0.02970 0.01409
-0.12089 0.16497 -0.18315
0.10770 -0.29967 0.19567
-0.12089 0.26665 -0.07365
-0.09237 -0.00881 0.19937
-0.18124 0.13874 0.11622
0.11267 -0.00070 -0.18390
-0.18124 0.23736 -0.09676
-0.11681 -0.00070 0.10493
-0.00873 -0.00070 0.19542
-0.18124 -0.29657 -0.15630
-0.04341 -0.02970 0.01949
-0.18049 -0.41862 -0.16073
-0.12550 0.36546 -0.19792
0.02239 -0.02970 0.09544
-0.18124 0.17599 -0.07684
-0.03008 -0.02970 -0.08102
-0.18124 -0.29636 -0.16952
0.12084 -0.02970 -0.12817
0.10210 -0.01755 0.19937
-0.12089 0.19535 0.14965
0.04085 -0.02970 0.18132
0.04487 -0.00070 0.03779
-0.13055 -0.18166 -0.09570
-0.12732 -0.15193 -0.16610
0.12206 -0.00070 0.06296
-0.18124 0.27666 0.08759
-0.18124 0.19697 0.04523
0.14500 -0.11179 0.15066
0.05455 -0.00070 0.03010
0.11287 -0.12380 -0.14687
-0.16096 -0.34792 -0.02343
-0.12714 -0.15006 -0.14581
0.11392 -0.00070 -0.02041
-0.18124 -0.32498 0.01155
-0.12089 0.06236 -0.01113
-0.18124 -0.19910 0.13419
-0.07866 -0.02970 0.07149
0.13186 -0.08243 -0.13412
-0.15136 -0.30012 0.19937
-0.12089 -0.02695 -0.09932
-0.15608 -0.32782 0.05238
-0.18124 0.28049 0.03044
-0.12089 -0.02291 -0.09703
-0.18124 0.15186 -0.04109
-0.12089 0.31518 -0.08466
0.14500 -0.23040 -0.18694
-0.18124 -0.19577 -0.06571
-0.12089 0.08763 0.08360
-0.18124 -0.13300 0.06584
-0.18124 -0.20999 -0.14947
-0.18124 -0.28441 -0.17495
0.03415 -0.02970 -0.12791
-0.18124 0.04334 0.00165
-0.18124 -0.00030 0.10887
-0.12229 -0.08045 -0.01866
-0.12089 0.12573 0.01402
0.16533 -0.02970 0.06999
-0.18124 0.26248 -0.15439
-0.05283 -0.00070 -0.08377
-0.18124 -0.14919 0.00242
-0.18124 0.04820 -0.16715
-0.12089 0.25570 0.16802
-0.18124 0.17862 0.10072
-0.13140 -0.18897 -0.15648
0.10668 -0.29409 -0.16913
0.00163 -0.00070 -0.08562
-0.14339 0.39632 0.16168
-0.18124 0.10351 0.17384
-0.18124 -0.34373 -0.06160
-0.18124 0.12684 -0.17657
0.10260 -0.00070 -0.04982
-0.18124 0.39331 0.17745
-0.12089 0.07834 0.01957
-0.13079 -0.18377 0.12078
-0.04235 -0.00070 0.11725
-0.15352 -0.31632 0.17194
-0.16553 -0.36584 0.07279
-0.18124 0.28541 0.01937
-0.15667 -0.33026 0.10288
-0.18124 0.00671 0.01188
-0.15319 -0.31484 0.06891
-0.13029 0.26953 -0.19937
0.15190 -0.02970 0.05706
-0.18124 0.06777 0.01461
-0.18124 -0.19540 0.09772
0.15391 -0.00070 0.04552
-0.18124 0.04953 0.11882
-0.12095 -0.03271 -0.05072
0.18101 -0.02607 0.04921
-0.18124 -0.08047 -0.18105
-0.12830 -0.16248 0.14666
-0.12226 0.06700 0.19937
-0.18124 0.24791 -0.09301
-0.12089 0.11890 0.13676
-0.14644 -0.19780 -0.19937
-0.18124 -0.00357 0.11867
-0.18124 0.24660 0.14043
-0.18124 0.11941 -0.04901
0.13942 -0.04286 0.16400
-0.12877 -0.16644 0.05887
-0.12089 0.03551 -0.03363
0.12324 -0.31754 -0.13412
-0.18124 0.26351 -0.04821
0.00419 -0.02970 -0.02612
-0.01386 -0.00070 0.19586
-0.12089 0.12457 0.04755
-0.12685 0.36899 0.07243
-0.12089 0.07873 0.15301
0.08582 -0.01907 0.19937
-0.16231 -0.15481 0.19937
0.14500 -0.16708 -0.16492
0.14500 -0.07932 -0.14823
-0.18124 0.25334 -0.12963
0.14500 -0.38052 -0.17726
-0.18124 -0.05355 0.10972
-0.18124 0.11139 -0.11296
0.13524 -0.32587 -0.19937
0.13787 -0.04652 0.17947
0.13695 -0.11205 0.19937
-0.12089 0.27541 -0.12358
-0.12089 0.22454 -0.16480
-0.18124 0.03427 0.03878
-0.04635 -0.00070 0.19627
-0.01708 -0.00070 0.02370
-0.12089 0.00542 -0.17931
0.11724 -0.00070 -0.08525
-0.18124 0.26335 0.16789
-0.18124 0.12230 -0.13859
0.08426 -0.02970 -0.14777
-0.08213 -0.00070 -0.03564
-0.04834 -0.00070 -0.15235
0.06774 -0.00070 -0.03465
0.09325 -0.00070 0.16955
-0.11705 -0.00070 0.05820
-0.14255 -0.26222 0.02791
-0.07336 -0.00070 -0.18482
0.12781 -0.00070 0.18871
0.03382 -0.02284 -0.19937
0.10243 -0.00070 -0.00999
-0.18124 0.20648 -0.04637
-0.13312 -0.20215 -0.00534
-0.17083 0.23705 0.19937
-0.12089 0.25816 -0.18970
0.11971 -0.16311 0.13412
-0.18124 -0.01477 -0.07418
-0.12092 -0.03119 -0.11423
-0.18124 -0.36877 0.18085
0.06834 -0.02970 -0.17831
0.12712 -0.07462 -0.18390
0.14500 -0.04204 -0.17172
-0.17184 0.08390 0.19937
-0.18124 -0.26109 -0.07417
-0.09392 -0.02970 -0.19772
-0.12366 -0.10633 -0.11586
-0.12089 0.18873 -0.13304
0.10729 -0.15350 -0.18680
-0.18120 -0.42103 0.12441
-0.18124 -0.35919 -0.09621
-0.13769 -0.08620 -0.19937
-0.14696 -0.28524 0.00529
-0.18124 0.23033 0.04318
0.16173 -0.00169 -0.06164
0.14075 -0.02970 0.02033
0.14355 -0.24971 -0.13412
-0.14318 -0.26554 0.00779
-0.13694 -0.22890 0.11185
-0.18124 0.23176 0.14199
0.00130 -0.00070 -0.16718
-0.14561 0.39855 -0.13673
-0.18124 0.25544 -0.02526
-0.18124 -0.24079 -0.00728
-0.18124 0.24330 0.02067
-0.12089 0.06029 0.12911
-0.18124 -0.12958 0.00533
-0.16483 -0.36323 0.09125
-0.12089 0.18342 0.19596
0.12803 -0.07194 0.13898
-0.12754 -0.15431 -0.07195
-0.18124 -0.26766 0.13571
-0.18124 -0.29682 0.13650
-0.15126 0.40397 0.17159
-0.18124 -0.20421 -0.12611
-0.16524 0.22412 -0.19937
-0.18124 0.22628 -0.00925
0.13001 -0.38476 -0.14739
-0.16022 0.02731 0.19937
-0.13868 -0.23930 -0.01297
0.01968 -0.00070 -0.13706
-0.18124 0.15005 -0.07682
0.14500 -0.37824 0.18491
-0.14189 -0.25854 -0.14795
-0.18124 0.13106 -0.15746
-0.13962 -0.24498 -0.18543
-0.14345 -0.10659 0.19937
-0.18124 -0.37442 -0.00672
-0.12089 -0.02805 0.02338
-0.12089 0.31123 -0.08056
-0.18124 -0.10272 -0.01135
0.10427 -0.02970 0.11889
-0.17691 -0.30033 -0.19937
-0.18124 0.05092 -0.18113
0.14080 -0.00070 -0.09542
-0.12518 -0.12872 -0.13912
-0.17656 -0.31514 -0.19937
-0.18049 0.03426 0.19937
-0.16011 -0.20175 -0.19937
-0.13274 0.38160 0.04282
0.11771 -0.10522 -0.19596
0.17862 -0.01728 0.08051
-0.15180 -0.30840 -0.06043
0.12691 -0.13836 0.13412
-0.18124 -0.03199 -0.05618
-0.12089 0.29590 0.08550
-0.12089 0.11419 0.13165
-0.18124 0.39514 0.12025
-0.18124 -0.18143 0.02731
-0.12089 0.18097 -0.09761
0.14041 -0.14149 -0.19937
-0.12089 0.32547 -0.18756
-0.14983 -0.29933 0.09578
-0.12089 0.29528 0.16418
-0.18124 -0.36917 -0.16711
-0.18124 0.21201 -0.07397
-0.18124 -0.03821 -0.09949
-0.07884 -0.00070 -0.13646
-0.17701 0.41953 -0.07305
0.14500 -0.26017 -0.15824
-0.12526 0.30854 -0.19937
0.10200 -0.23926 0.14511
0.14500 -0.11591 0.16614
-0.18124 -0.28678 0.02921
0.11611 -0.02970 0.05314
-0.18124 -0.35154 -0.15985
-0.18124 0.10946 -0.04511
-0.16543 0.13399 -0.19937
0.13649 -0.00070 -0.01219
0.01154 -0.00070 0.02051
-0.18124 -0.30348 0.18737
0.14500 -0.03261 -0.14825
-0.12477 -0.12274 -0.14705
-0.15862 0.26748 0.19937
-0.18124 -0.13550 -0.10909
-0.18124 -0.10565 0.08455
0.08548 -0.02970 0.17585
-0.12089 0.28216 0.05693
-0.13084 0.37790 -0.00736
0.13355 -0.00070 0.19628
-0.12089 0.13806 -0.11270
0.06065 -0.02970 -0.11948
-0.18124 -0.18645 0.09264
-0.12387 -0.10944 0.05984
-0.06066 -0.00070 -0.07065
0.14500 -0.35937 0.18447
-0.15955 -0.34016 0.19937
0.14500 -0.39214 0.14539
-0.18124 -0.01393 -0.09458
0.14500 -0.17535 -0.15279
0.13007 -0.38493 -0.17695
-0.18124 -0.20406 -0.18001
-0.12089 0.05999 0.17436
-0.12910 -0.16933 -0.17911
-0.18124 0.34870 0.00747
0.01328 -0.02970 0.03021
-0.12089 0.14527 0.01858
-0.18124 -0.20100 -0.19035
-0.13502 -0.21553 0.12638
-0.18124 0.09682 0.01034
-0.12089 0.30598 0.15532
-0.17037 -0.35439 -0.19937
-0.13093 -0.18491 0.05482
0.15041 -0.00070 -0.04660
0.10804 -0.14944 0.15345
-0.12867 -0.16561 -0.17361
0.14500 -0.20126 0.15439
-0.14654 -0.28307 -0.13428
-0.05807 -0.02970 0.03506
-0.18124 -0.14042 -0.03728
0.06511 -0.02970 0.01159
-0.18124 0.09699 -0.03050
0.14880 -0.02970 0.05276
-0.18124 0.32407 0.01156
0.11449 -0.25864 -0.13412
-0.18124 -0.27470 -0.02484
-0.16823 0.10153 0.19937
-0.12649 0.07428 -0.19937
0.13318 -0.39332 0.15093
-0.18124 0.37201 0.07424
0.17242 -0.02970 -0.03287
-0.12089 0.32553 -0.07598
-0.02345 -0.00070 -0.04871
0.15241 -0.00070 0.12136
-0.12089 0.11279 0.14007
-0.12881 -0.16682 0.16665
-0.00514 -0.01207 0.19937
0.14500 -0.38981 -0.17514
0.17072 -0.00685 -0.05125
-0.18124 0.11412 -0.02646
-0.12089 0.30608 -0.11102
-0.18124 0.37201 -0.13930
0.14500 -0.04728 -0.14661
-0.12089 0.19281 0.06280
-0.18124 -0.21370 -0.00120
-0.14267 -0.26287 0.07110
-0.18124 -0.36483 0.00057
-0.18124 -0.21931 0.09836
-0.13399 -0.20827 -0.01487
0.02070 -0.02970 -0.06493
-0.18124 -0.20398 0.19244
-0.15415 -0.31926 0.07560
-0.12196 -0.07306 -0.16648
0.04578 -0.00070 0.09567
-0.12089 0.33422 0.00628
0.14500 -0.37149 0.17536
-0.18124 0.26414 -0.14010
-0.18124 0.19905 0.16556
-0.18124 -0.12462 -0.15247
0.12492 -0.08107 0.17598
0.12628 -0.24358 0.13412
-0.18124 0.09335 0.14886
-0.12089 -0.00715 -0.15926
-0.12089 0.21933 -0.19175
-0.18124 -0.04340 -0.17835
0.14500 -0.11630 -0.14513
-0.12416 -0.11373 -0.12133
-0.15542 0.40738 0.14308
-0.18124 0.18176 -0.14094
-0.12089 0.29274 -0.19588
-0.12610 -0.13871 -0.16854
-0.18124 -0.40590 0.06808
0.16717 -0.02970 -0.12125
-0.18124 -0.16645 -0.13865
-0.15609 -0.32784 0.18898
-0.18082 -0.41977 0.03102
-0.16495 -0.36367 0.12438
0.01033 -0.02970 -0.02763
-0.14322 0.37629 0.19937
-0.18124 -0.17553 -0.13449
-0.07622 -0.02970 0.15120
-0.18124 -0.30177 -0.19231
0.14500 -0.11421 0.18373
0.15571 -0.00070 0.09641
-0.18124 -0.37477 -0.11497
-0.12089 0.24724 -0.04916
-0.12240 -0.08322 0.00380
0.03072 -0.02970 0.17825
-0.18124 -0.03185 0.06981
-0.12445 0.36190 0.17107
0.13747 -0.12617 -0.19937
-0.07808 -0.02970 0.15913
-0.16670 -0.37017 -0.15854
-0.17028 0.41659 0.07536
-0.12089 0.12433 0.01987
-0.18124 0.20163 0.06939
-0.18124 0.06504 0.04382
0.08711 -0.02970 0.05391
-0.18124 -0.40923 -0.11835
-0.12130 -0.05100 -0.12019
-0.16651 -0.36950 0.10782
-0.15017 -0.30090 -0.19435
-0.12089 -0.02060 -0.11209
-0.18124 0.40484 0.02737
-0.16408 0.04946 0.19937
0.14500 -0.40941 0.19405
-0.17039 -0.23667 -0.19937
-0.15421 -0.31950 0.05923
-0.14919 0.40162 0.19937
-0.12089 0.22471 0.13408
-0.18124 0.00434 0.02618
-0.12424 -0.11483 0.09413
-0.10458 -0.00070 -0.03061
0.11860 -0.10182 -0.18235
0.06226 -0.02970 -0.17514
-0.18124 0.39064 0.02116
0.04263 -0.00070 0.01733
0.17680 -0.01870 0.19937
-0.14175 -0.25774 -0.11905
0.06921 -0.02970 -0.08607
-0.18124 0.18170 -0.04545
-0.12089 0.11645 0.16940
-0.18124 0.24202 0.17957
-0.16001 -0.31316 -0.19937
-0.10574 -0.02970 -0.12092
-0.18124 -0.31775 0.17648
-0.17508 -0.16010 -0.19937
-0.18124 -0.35326 0.10993
-0.12175 -0.06801 -0.12945
-0.18124 -0.36572 -0.18684
-0.13441 -0.21123 -0.08060
-0.12089 0.32864 0.16201
-0.18124 0.36286 0.15026
0.13949 -0.40772 0.13412
0.06913 -0.02970 0.03524
-0.12089 0.24327 -0.13047
-0.18124 0.37806 0.03558
-0.18124 0.23088 0.07281
-0.09289 -0.00070 -0.06556
0.12417 -0.36761 0.14972
0.08451 -0.02970 0.03649
-0.15526 -0.32433 -0.06076
0.14500 -0.42107 -0.16722
0.14500 -0.37759 0.16756
-0.12089 0.33313 0.08571
0.05276 -0.00981 0.19937
0.10500 -0.00070 -0.17202
0.12720 -0.00070 0.08214
0.14500 -0.11818 0.15653
-0.18124 0.08763 0.10127
-0.18124 0.30753 -0.00533
0.12340 -0.25764 0.13412
-0.18124 0.23068 0.07902
0.14500 -0.11108 -0.16565
-0.18124 -0.09059 0.05026
-0.13799 0.17983 0.19937
-0.18124 -0.21999 0.08735
-0.12385 -0.10911 -0.19011
-0.18124 0.14323 0.18146
-0.18124 -0.25189 -0.07196
-0.12089 0.17515 0.00236
-0.18124 -0.19286 0.15068
-0.12089 0.30490 0.13104
-0.12089 0.32202 0.07790
0.11645 -0.11007 0.18649
-0.18124 0.05184 0.05550
-0.18068 -0.41929 0.08276
-0.12089 0.21713 0.18516
-0.18124 -0.40743 -0.10877
-0.18124 -0.17457 -0.12188
-0.13445 0.38426 -0.18672
-0.18124 -0.37971 -0.11523
-0.18124 -0.06758 -0.01881
0.14500 -0.03382 -0.17866
0.12014 -0.28075 -0.13412
0.07040 -0.02970 -0.13904
-0.18124 0.39824 0.10268
0.10858 -0.02970 -0.10697
0.10085 -0.00070 0.15629
-0.18124 0.34235 -0.07614
-0.12089 0.17692 0.17192
0.13475 -0.02970 -0.09893
0.01665 -0.00070 0.03499
-0.12089 0.30568 -0.07779
-0.12119 -0.04519 -0.19518
0.13646 -0.04985 0.16674
0.14500 -0.38333 -0.14128
-0.02741 -0.00070 -0.01639
-0.18124 -0.04492 -0.06371
-0.12089 -0.00687 -0.06412
-0.12089 0.13334 0.18787
-0.12461 -0.12035 0.14265
-0.18124 -0.28470 0.13336
-0.16325 -0.35734 -0.07374
0.09266 -0.02970 -0.06355
-0.12089 0.30563 -0.09615
-0.12102 -0.03665 0.06427
-0.18124 -0.05153 -0.17450
0.16245 -0.00191 0.08373
0.14500 -0.39738 0.15617
-0.12089 0.20294 0.12649
-0.12216 0.16433 0.19937
-0.18124 0.24164 0.01211
-0.16423 0.41341 -0.16374
-0.12089 0.10172 0.17996
0.06607 -0.00070 0.09930
-0.18124 0.09096 -0.15767
0.09533 -0.02970 -0.05592
0.01678 -0.02970 -0.12139
-0.12089 0.32947 -0.11064
-0.13518 -0.21665 -0.19733
-0.12623 0.17484 -0.19937
-0.14245 -0.26173 -0.05739
-0.12089 0.09679 0.08876
-0.18124 0.05985 -0.15079
-0.02718 -0.02970 0.02152
-0.18124 -0.07330 0.08736
-0.12089 0.27266 -0.19334
-0.12739 -0.15272 -0.02021
-0.03065 -0.02328 -0.19937
-0.18124 -0.37894 -0.17623
0.13948 -0.00070 -0.12604
0.13656 -0.40128 0.17380
-0.06670 -0.00070 -0.08544
-0.14368 -0.26813 -0.00798
-0.12089 0.30765 0.17939
-0.18124 0.01603 0.02739
-0.12434 -0.11631 -0.10058
-0.18124 -0.17591 0.10164
-0.12477 -0.12276 0.03053
-0.15257 0.18763 -0.19937
-0.17042 0.41666 0.04149
-0.18124 0.36231 0.08238
-0.05505 -0.00070 -0.15037
0.07210 -0.00070 -0.15421
-0.12089 0.27908 0.11267
-0.12089 -0.00999 -0.16876
-0.17039 -0.01731 0.19937
-0.18124 0.13599 -0.06997
-0.18124 -0.08241 -0.08431
-0.03311 -0.02970 0.14170
-0.12089 0.12031 -0.03954
-0.18124 0.33919 -0.05839
-0.13462 -0.21274 0.03136
-0.18124 -0.38507 -0.06560
-0.12089 0.10887 0.15913
0.10193 -0.23736 -0.16180
-0.17269 -0.39220 0.14862
0.17877 -0.01768 0.16845
-0.12089 0.23941 -0.19516
-0.18124 0.37149 0.04164
-0.05454 -0.00070 0.10184
-0.18091 -0.42007 0.12931
0.04921 -0.02970 -0.08593
-0.18124 0.03289 0.04339
-0.18124 0.07762 -0.13890
-0.06659 -0.02970 0.04249
-0.18124 0.36111 -0.19542
-0.18124 0.02192 0.19783
-0.18124 -0.35480 0.11572
0.11231 -0.19167 0.19937
-0.18124 -0.11121 0.11695
-0.01972 -0.02970 0.03316
0.15390 -0.00070 0.15775
-0.18124 0.28653 0.11302
0.14500 -0.29613 -0.17519
0.17696 -0.01420 -0.15928
-0.18124 0.27140 -0.17852
-0.18124 0.29894 0.16707
-0.18124 0.13116 -0.19002
-0.03586 -0.00070 -0.02430
-0.09071 -0.00070 0.15450
-0.14328 -0.26606 0.14219
-0.08404 -0.01429 -0.19937
-0.12089 0.06960 0.12067
0.14500 -0.04922 -0.17053
0.11084 -0.25540 -0.13412
-0.15808 -0.33604 0.08302
-0.13251 0.38122 -0.10472
-0.13157 0.21864 -0.19937
0.00676 -0.02970 0.16024
-0.18124 -0.28091 0.10356
-0.00972 -0.01932 0.19937
-0.12116 -0.04371 0.15127
-0.15019 0.09908 -0.19937
-0.12148 -0.06093 0.19205
-0.02130 -0.02970 0.03865
-0.16185 0.41184 0.10479
-0.12093 -0.03151 -0.14169
0.12932 -0.00070 0.06941
-0.13711 -0.22988 0.13385
-0.01704 -0.02970 -0.06216
-0.16725 -0.37223 -0.12336
-0.15835 -0.11048 -0.19937
0.07101 -0.02970 0.07432
-0.12089 0.00022 0.02577
0.12962 -0.02970 -0.08344
-0.17367 -0.39552 0.14270
-0.13588 -0.22161 0.12223
0.11101 -0.31759 0.16390
-0.16788 -0.09029 0.19937
-0.14812 0.38140 -0.19937
-0.18124 -0.08596 -0.19800
-0.18071 -0.41938 0.19414
-0.18124 -0.31465 0.05819
-0.17015 0.32325 -0.19937
0.05530 -0.02970 -0.11048
-0.18124 0.21414 0.17178
-0.12089 0.01096 0.09263
0.13931 -0.28462 0.13412
0.12702 -0.02970 0.08242
-0.00452 -0.02970 -0.05713
-0.13077 0.09346 -0.19937
0.14500 -0.07268 0.13889
-0.12104 0.34024 0.15409
0.14500 -0.04338 0.13609
-0.12439 0.36167 0.14439
-0.12434 0.32986 -0.19937
-0.12089 0.06330 0.15744
0.12551 -0.33337 -0.19937
-0.18124 0.31351 -0.04565
-0.18124 0.23144 -0.02357
0.08673 -0.00070 -0.08287
-0.17281 -0.39260 0.13883
-0.18124 -0.15255 0.05399
0.00579 -0.02970 -0.14221
-0.09025 -0.00070 0.11537
-0.18124 0.03514 0.13589
-0.15244 0.40494 -0.19481
-0.09840 -0.02970 0.00931
-0.12089 0.19980 -0.13932
-0.12291 -0.09497 -0.10240
0.14500 -0.22491 -0.15222
-0.18124 0.14669 -0.01949
-0.18124 -0.39789 -0.11045
-0.12089 0.12527 -0.02309
0.14729 -0.02970 0.03264
0.11303 -0.00070 0.07414
-0.12089 0.31602 0.08429
-0.12089 0.09652 -0.16339
-0.18124 -0.11813 0.18001
-0.04371 -0.02970 -0.08409
-0.00770 -0.02970 0.06225
0.10326 -0.02970 0.17965
-0.14467 -0.19700 0.19937
-0.18124 -0.19415 0.12800
-0.12089 0.27159 0.00092
-0.16912 -0.16770 0.19937
-0.11305 -0.02970 -0.00183
0.10334 -0.26470 0.19883
0.14141 -0.03818 -0.17647
-0.13026 0.37677 -0.10156
-0.18124 -0.12267 -0.02034
-0.12181 -0.06948 0.01996
-0.00217 -0.02970 0.16468
-0.15629 -0.32868 -0.01548
-0.18124 0.02210 0.02524
-0.18124 0.07026 -0.17139
-0.12773 -0.15637 -0.05393
0.01983 -0.00070 0.15368
-0.15383 0.25158 -0.19937
0.03909 -0.00070 0.05988
0.14500 -0.40089 0.19317
-0.12089 0.11441 0.16002
-0.12089 0.25680 0.04692
-0.18124 -0.06593 0.10552
-0.18124 -0.29434 0.00076
0.14324 -0.17403 0.19937
-0.12089 0.33030 -0.16077
-0.12202 -0.07445 0.12523
-0.12089 0.01933 0.05663
-0.12828 -0.16224 -0.08841
-0.16144 0.41157 -0.10334
0.14500 -0.32209 0.15370
-0.02108 -0.02970 -0.04497
0.06748 -0.02970 -0.11534
-0.05204 -0.00070 0.16383
0.12106 -0.09242 -0.14639
0.14500 -0.36902 -0.17138
-0.12127 0.34477 0.04152
0.12464 -0.30198 0.19937
-0.17555 -0.40190 0.14131
0.14333 -0.35582 -0.19937
0.15506 -0.00070 -0.02365
-0.03925 -0.02970 -0.08499
-0.12454 -0.11933 0.13406
-0.12089 0.17583 0.19046
-0.04304 -0.00070 -0.04966
0.14500 -0.33105 0.13903
0.11452 -0.02970 0.14923
0.10196 -0.21277 0.13537
-0.18124 0.32408 -0.04650
-0.18124 0.32960 -0.15468
-0.18124 -0.37136 -0.07168
0.00414 -0.00070 0.08523
0.15094 -0.00070 -0.12219
-0.12471 -0.12180 0.18885
-0.13420 0.17056 0.19937
-0.18124 0.01964 0.00437
-0.05167 -0.00070 0.12631
-0.12223 0.02538 0.19937
-0.15657 -0.32984 0.19734
-0.18124 -0.22678 -0.05398
0.03254 -0.02970 -0.10971
-0.09410 -0.02970 -0.04096
0.14500 -0.37742 -0.14799
-0.17130 0.00858 0.19937
-0.12676 -0.14592 0.08296
-0.18124 -0.13860 0.10016
-0.18124 -0.32416 -0.01641
-0.12089 0.07257 -0.00583
-0.18124 0.21586 0.12687
0.14323 -0.35827 -0.13412
-0.18124 -0.20103 -0.03318
0.11233 -0.20946 -0.19937
-0.18124 -0.32591 -0.17271
-0.12089 -0.01808 0.13827
0.11152 -0.13103 -0.13412
0.01004 -0.02970 0.11479
-0.15787 -0.33519 -0.12851
-0.05807 -0.02970 0.09208
-0.18124 0.33095 0.10713
-0.13045 -0.04744 -0.19937
-0.12158 0.34796 -0.10007
-0.12089 0.20329 0.10774
0.14500 -0.30591 -0.16619
-0.18124 -0.11197 -0.11482
-0.18124 -0.39410 -0.14197
-0.17422 -0.39737 0.16779
-0.12089 0.12029 -0.18119
-0.07510 -0.00070 -0.06357
-0.12089 0.23817 -0.16582
-0.09730 -0.00070 -0.10435
-0.01775 -0.02970 0.02611
-0.18124 0.18832 -0.12168
-0.02040 -0.00473 -0.19937
-0.18124 -0.11882 -0.14392
-0.18124 0.01633 -0.18164
-0.08363 -0.00070 0.00927
-0.13396 -0.20805 0.13310
-0.05993 -0.02970 -0.17804
-0.14008 -0.00333 0.19937
-0.12089 0.26794 -0.00327
-0.18124 -0.07689 0.09005
-0.18124 0.16444 -0.11470
-0.13385 -0.20727 0.14732
0.07162 -0.02970 -0.03185
-0.01393 -0.02970 0.14181
-0.18124 -0.07601 0.05191
-0.12558 -0.13314 -0.19232
-0.08183 -0.00070 0.07498
-0.13517 -0.21661 0.06276
-0.18124 0.22512 -0.13495
-0.18124 0.27977 0.14377
0.13709 -0.04834 -0.15181
-0.12089 0.04868 0.13599
-0.12089 0.29091 -0.00834
-0.16585 -0.07099 0.19937
0.12913 -0.02336 0.19937
0.08223 -0.00070 0.09388
-0.18124 0.38196 0.09725
-0.12131 -0.05156 -0.17162
0.14500 -0.13990 0.15301
0.14500 -0.14384 -0.18679
0.14500 -0.30198 0.19505
-0.18124 -0.19914 0.08508
0.08377 -0.00070 0.05462
-0.15633 -0.32884 0.02130
-0.18124 -0.11123 -0.01018
0.14500 -0.15720 -0.16686
0.14500 -0.34553 0.19372
-0.18124 -0.04992 -0.00346
-0.10654 -0.02970 -0.07101
0.02207 -0.00070 -0.02722
0.14420 -0.41932 0.17097
-0.15162 -0.28547 -0.19937
-0.18124 -0.07654 0.15478
-0.01001 -0.00070 0.09200
-0.17492 0.41871 0.04632
-0.18124 -0.36973 0.03935
-0.18124 -0.40034 0.18558
-0.02925 -0.00070 -0.00511
-0.16611 0.40340 -0.19937
-0.12857 -0.16478 -0.07675
0.13808 -0.32672 -0.13412
-0.12951 -0.17278 0.06805
-0.15465 -0.32154 0.15621
-0.15248 -0.31153 0.08626
0.11438 -0.02970 -0.12081
-0.18124 -0.23726 0.19152
0.14500 -0.41990 -0.16279
-0.18124 -0.04688 0.09542
-0.12512 -0.12786 -0.08982
0.08021 -0.02970 0.08894
-0.07395 -0.00070 0.17300
-0.15312 -0.31449 0.11471
-0.12467 -0.12126 0.16336
-0.12089 0.32404 -0.02352
-0.18124 -0.23498 0.14478
0.11928 -0.26046 -0.19937
-0.18124 0.14283 0.14357
0.16579 -0.02970 0.12344
0.01628 -0.00070 0.01907
-0.13354 0.29708 0.19937
0.11177 -0.12918 0.14779
-0.18124 -0.23650 0.05959
0.14500 -0.06949 0.15844
-0.13450 0.38432 -0.05731
-0.14079 -0.25198 -0.11195
-0.13302 -0.15768 0.19937
-0.00579 -0.02970 -0.14899
-0.18124 0.22143 -0.01414
-0.12089 0.11391 0.18829
0.00156 -0.00070 0.11716
-0.12089 0.21535 -0.17132
0.06720 -0.02970 0.05145
0.06378 -0.02945 -0.19937
-0.17825 -0.41103 0.17397
-0.17221 -0.38873 -0.19937
-0.13566 0.38613 0.13673
-0.18124 0.10896 -0.01983
-0.18124 0.09326 0.16254
-0.18124 -0.36049 0.02832
0.13009 -0.02970 -0.17913
-0.14625 -0.28152 0.11027
-0.18124 0.02794 0.07551
-0.04066 -0.02970 0.08721
-0.12538 0.36515 0.18342
0.05733 -0.00070 -0.03224
-0.18124 -0.35227 0.07992
-0.18124 0.25428 -0.00408
-0.06695 -0.02970 -0.09747
0.14500 -0.25879 0.17556
-0.18124 0.26122 -0.14962
0.14075 -0.02970 -0.12724
0.10938 -0.26127 0.13412
-0.18124 0.40596 -0.04237
-0.18124 0.16774 0.09012
-0.12106 -0.03858 0.05244
-0.18124 0.38660 0.14188
0.10331 -0.26443 0.18697
0.12166 -0.14138 -0.13412
0.15272 -0.00070 0.01758
0.14458 -0.42022 -0.18446
0.10932 -0.30845 0.19331
-0.18124 0.26752 0.18338
-0.18124 0.08505 0.13953
-0.18124 0.36052 0.13607
0.14500 -0.34114 -0.16548
-0.18124 0.40502 -0.03470
-0.12089 -0.01398 0.02989
0.13665 -0.00070 -0.19153
-0.18124 -0.07995 -0.10116
-0.18124 -0.37957 -0.00939
0.04034 -0.02970 0.17294
-0.18124 -0.36194 -0.01605
-0.13725 -0.23070 0.15540
-0.18124 0.04053 -0.13581
-0.18124 -0.06353 0.02464
-0.14924 -0.18507 -0.19937
-0.16544 0.18860 0.19937
-0.12089 0.33266 0.04147
-0.12089 0.21273 -0.03408
-0.06287 -0.02970 -0.07238
-0.18124 0.21822 0.18981
-0.13807 -0.23563 -0.03064
-0.15707 0.39426 0.19937
-0.15352 -0.06358 0.19937
-0.18124 -0.36159 -0.15010
0.07595 -0.02970 -0.06406
-0.16534 0.18322 -0.19937
-0.18124 0.15360 -0.13898
-0.07855 -0.00070 -0.15035
-0.18124 0.01205 -0.09220
-0.03634 -0.00070 -0.05423
0.10240 -0.25021 0.17611
0.14500 -0.41293 -0.16396
-0.17267 -0.22888 -0.19937
-0.18124 0.36881 0.00616
-0.05614 -0.02970 -0.08540
-0.16890 -0.37839 0.01413
-0.18124 0.05336 0.16521
-0.14726 -0.28680 0.04829
-0.18124 -0.24174 0.16798
0.09398 -0.01804 0.19937
-0.18124 0.14314 -0.07044
0.00011 -0.00070 0.17806
-0.18124 0.13628 -0.06108
-0.18124 -0.24292 -0.06201
-0.13665 0.38766 0.02370
0.10798 -0.18854 -0.13412
0.14500 -0.25285 0.17690
-0.12089 0.24301 -0.10006
-0.14286 0.39448 -0.19937
0.08554 -0.02970 0.15236
-0.14297 -0.26443 -0.01027
-0.12089 0.07916 0.16111
0.10247 -0.19892 0.18045
0.14500 -0.15413 -0.18220
-0.16857 0.09364 0.19937
-0.03638 -0.00070 0.12503
-0.12089 0.17297 -0.03060
-0.15835 0.40954 0.12693
-0.18124 0.20160 -0.06242
-0.16249 0.41226 0.04622
0.17966 -0.01999 0.18344
-0.18124 0.21471 -0.05461
0.17835 -0.02970 0.04206
-0.18124 -0.32417 -0.19663
-0.18124 -0.10474 0.12143
-0.12159 -0.06436 0.18448
0.10341 -0.26032 -0.19937
-0.18124 -0.10930 -0.05879
0.17359 -0.00957 0.10399
-0.12089 0.00069 0.00607
-0.05323 -0.02970 -0.13668
0.16240 -0.02970 0.00950
-0.18124 0.24246 0.04200
-0.04093 -0.00070 0.03534
-0.12089 0.08054 0.11607
-0.18124 0.03192 -0.09836
0.10254 -0.19679 -0.19819
0.13095 -0.29480 0.19937
0.17647 -0.01334 -0.03093
-0.17073 -0.38518 -0.03198
-0.12133 -0.05305 0.15498
-0.12089 0.20256 -0.18316
-0.13018 -0.12328 -0.19937
-0.02210 -0.02970 0.10246
0.14500 -0.28588 -0.18298
-0.18124 -0.00745 -0.13753
0.10803 -0.30144 -0.15363
-0.18124 0.22926 0.13771
-0.18124 0.29394 -0.14136
0.14474 -0.39823 -0.13412
-0.17434 0.35978 0.19937
-0.18124 0.38618 0.06304
-0.18124 -0.20649 -0.00143
-0.18124 -0.37177 0.07126
0.06518 -0.00070 0.03989
-0.18124 0.23794 -0.19399
-0.18124 0.22944 -0.16004
-0.12089 0.20271 -0.11383
-0.18124 -0.32367 0.10856
-0.13132 -0.18829 0.10505
0.11202 -0.32311 -0.16870
0.02969 -0.00070 -0.16618
-0.18124 0.18696 -0.15671
-0.05652 -0.00070 0.12650
-0.18124 0.06043 -0.05748
-0.00633 -0.02970 0.05807
-0.09497 -0.00070 -0.17067
-0.18124 -0.20460 -0.17373
-0.14167 -0.25724 -0.10156
-0.04099 -0.00070 -0.17037
-0.18124 0.34475 -0.09496
-0.18124 -0.41588 -0.11509
-0.07584 -0.02970 -0.18915
-0.18124 -0.09339 0.04468
-0.12247 -0.08463 -0.19574
-0.12089 0.05185 0.18277
-0.12089 0.07565 0.19095
-0.18124 0.17365 0.06554
-0.18124 -0.25459 0.15891
-0.16905 0.41595 0.06079
-0.18124 0.27954 -0.12622
0.03784 -0.02970 0.09253
0.15863 -0.02970 0.16731
-0.12089 0.06357 0.09685
-0.18124 0.11401 0.14891
-0.18124 -0.34190 0.13664
0.16141 -0.02970 0.14810
-0.18124 -0.00584 -0.18960
0.11940 -0.17467 0.19937
-0.11999 -0.00070 -0.15443
-0.18124 -0.35242 0.19414
-0.18124 -0.33009 -0.13192
0.10952 -0.14135 -0.18557
0.11119 -0.31855 -0.16799
-0.18124 0.36260 -0.04361
-0.18124 0.07976 0.15739
-0.12110 0.34138 0.08339
0.13412 -0.00070 0.05619
-0.12089 0.25414 0.06441
0.16440 -0.02970 -0.18858
-0.17298 -0.39320 0.03154
-0.02802 -0.02970 0.15533
-0.12089 0.18279 -0.06064
-0.18124 0.35760 -0.05775
-0.12089 0.19231 0.14430
-0.18124 -0.21337 0.08329
0.12395 -0.18996 -0.13412
-0.12089 0.05788 -0.01324
0.14500 -0.10278 0.17795
0.16091 -0.02970 0.10385
-0.06319 -0.02970 0.10160
-0.18124 0.02466 -0.09680
-0.18124 0.33993 -0.09869
-0.18124 -0.34033 0.10411
-0.18124 0.37341 -0.02548
-0.12709 0.36962 -0.10275
-0.07586 -0.01739 -0.19937
0.16409 -0.00269 0.09052
-0.14993 -0.29979 0.04341
-0.13371 -0.20627 0.17671
0.09186 -0.02970 0.16897
-0.14000 -0.24722 0.08429
0.14500 -0.32668 -0.16009
-0.16174 -0.35113 0.11246
-0.18124 0.22588 -0.05207
-0.12089 0.03958 -0.06788
-0.18124 -0.39437 0.03372
-0.18124 0.11041 0.15403
-0.15016 -0.30087 -0.10234
-0.18124 0.34522 -0.19791
-0.18124 0.23358 -0.03155
-0.18124 -0.01978 -0.04346
-0.12089 0.12324 0.10064
-0.18124 -0.02605 -0.00254
-0.18124 -0.09068 0.10536
-0.13517 -0.21662 -0.10942
-0.18124 -0.07266 -0.03198
-0.12089 0.09502 0.00977
-0.12874 0.37376 0.00098
-0.12089 0.13260 0.15467
0.03586 -0.00070 -0.11275
-0.17579 -0.11193 0.19937
-0.17289 -0.39289 0.00405
-0.18124 -0.25237 -0.10410
-0.13427 -0.21027 -0.03871
0.11985 -0.35387 -0.19745
-0.12089 0.28988 -0.04175
0.05541 -0.00586 0.19937
-0.12089 -0.01758 0.01382
-0.12688 -0.14724 0.19506
0.09365 -0.02970 0.00551
-0.12089 0.11508 -0.04722
-0.13877 -0.23985 -0.09325
-0.12089 0.18043 0.12782
-0.18124 0.17509 0.03757
-0.12089 0.17923 -0.02618
-0.18124 -0.24756 0.04006
0.14985 -0.02970 0.01701
-0.12089 0.15206 -0.14786
-0.18124 -0.07945 0.07401
0.04580 -0.00070 -0.13810
0.00183 -0.00070 -0.10164
-0.12089 0.27508 0.05899
-0.18124 -0.24028 0.14020
-0.12089 0.01088 0.18107
-0.12120 -0.04581 0.16467
-0.01138 -0.02970 -0.18638
-0.09247 -0.00070 0.17563
-0.18124 -0.00115 -0.16645
0.14500 -0.04830 0.19131
-0.15522 -0.32417 -0.02344
-0.14660 0.39955 -0.13010
-0.18124 -0.06928 -0.06200
-0.13540 0.38572 -0.11813
0.03704 -0.02970 0.03461
-0.18124 -0.24812 0.02913
-0.18124 0.17650 0.05447
-0.12089 0.04743 -0.17607
-0.18124 -0.13917 -0.01625
-0.17925 -0.41442 -0.16651
0.02692 -0.02970 0.13836
-0.12089 0.13700 -0.09562
-0.12089 0.18187 -0.17273
-0.13066 -0.18263 -0.12664
0.13342 -0.39389 -0.15649
-0.18124 -0.11890 -0.06887
0.00024 -0.00070 -0.17520
-0.00898 -0.00070 0.05356
-0.18124 -0.00351 0.16152
-0.18124 0.41610 0.13005
-0.14555 -0.27789 -0.15882
-0.17780 -0.40953 -0.01586
-0.17687 -0.10268 0.19937
-0.12114 0.34227 0.07364
-0.18124 -0.38800 -0.01927
-0.18124 -0.37004 -0.10754
-0.18124 -0.05615 -0.09868
-0.09268 -0.00070 -0.09833
-0.12632 -0.14118 -0.15453
-0.18124 0.14902 0.13504
-0.12089 0.21377 0.06761
0.11039 -0.13663 -0.17045
0.14500 -0.36387 0.17619
-0.13276 -0.19962 -0.10812
0.09530 -0.00070 0.17936
-0.18124 -0.11286 -0.13422
0.11270 -0.00070 -0.19478
-0.14976 0.40274 -0.12372
0.14500 -0.32399 0.14485
-0.12089 0.13307 0.05477
0.16828 -0.02970 -0.17349
-0.12089 0.10084 -0.02292
0.05104 -0.02970 -0.10264
-0.18124 0.03678 -0.15473
-0.12089 0.33254 -0.07946
-0.12089 0.12055 -0.06061
-0.12307 -0.09766 -0.13846
-0.13879 -0.23997 0.01108
-0.13469 -0.21322 -0.15682
-0.18124 -0.24675 0.11375
-0.18124 0.12833 -0.19612
-0.18124 -0.30239 0.07010
-0.18124 -0.42084 0.15818
-0.18124 -0.04721 0.11696
-0.12146 -0.05964 0.07707
-0.18124 0.02324 -0.06309
-0.18124 0.39690 -0.15849
-0.00447 -0.00070 -0.09990
-0.05781 -0.00070 0.06250
0.14500 -0.06802 -0.14684
0.11848 -0.02970 -0.05740
0.15903 -0.02970 -0.02441
0.16921 -0.02970 -0.11160
-0.16059 0.41102 0.05262
-0.12089 -0.01658 -0.18691
-0.12089 0.03694 -0.02619
-0.18124 -0.34109 -0.15034
-0.18124 -0.37239 -0.02839
0.04976 -0.00070 0.12178
0.14500 -0.20676 -0.18881
0.14500 -0.24313 -0.13445
-0.12089 0.17464 0.09315
0.12788 -0.23878 -0.19937
-0.18124 -0.04393 0.12735
-0.12089 0.32228 -0.06041
-0.12188 -0.07116 0.17322
0.17322 -0.00919 0.01205
0.14500 -0.29766 0.15036
-0.13680 -0.22802 0.08516
-0.18124 0.31549 0.17650
-0.12089 0.19030 0.03019
0.10229 -0.24733 0.19635
-0.18124 -0.06137 0.17302
-0.18124 0.34315 0.07333
-0.18124 0.12371 -0.02748
0.02369 -0.00070 -0.02112
-0.14550 -0.27764 -0.03555
-0.18124 0.02585 -0.14874
0.08687 -0.00070 0.07069
-0.18124 -0.13048 -0.16552
0.17065 -0.02970 0.02906
-0.12688 -0.14725 0.09290
-0.15813 0.27268 -0.19937
-0.12089 0.05381 -0.14556
0.03119 -0.00070 0.08683
-0.01425 -0.00070 0.16195
-0.12091 0.33772 -0.02435
0.10841 -0.30347 0.13493
-0.13915 -0.24214 0.14163
-0.18124 0.31898 0.05381
-0.18124 -0.40733 0.02642
0.14500 -0.15913 -0.14827
-0.08721 -0.00070 0.08465
0.14500 -0.14105 -0.15980
0.12814 -0.00070 0.05060
-0.18124 -0.38409 0.02066
-0.18124 0.19746 0.17196
-0.06249 -0.00070 -0.11227
0.16564 -0.02970 0.19707
0.11899 -0.00070 -0.13141
-0.04133 -0.02970 -0.03291
-0.16628 0.04251 0.19937
-0.18124 -0.28512 -0.00695
0.02853 -0.02970 0.16162
-0.03052 -0.00070 0.10161
-0.16090 -0.34769 -0.10145
0.15912 -0.02970 -0.19617
0.12925 -0.38255 0.15077
-0.18124 -0.33401 0.00173
-0.18124 0.34273 -0.17708
0.12742 -0.02970 0.17040
-0.12089 0.25847 -0.02169
-0.17729 -0.04206 -0.19937
-0.18124 0.26659 0.01106
-0.12094 -0.03199 -0.08890
-0.18124 -0.13385 -0.03622
-0.18124 -0.14092 0.03834
0.05707 -0.02970 -0.05931
-0.18124 0.05738 0.13208
-0.18124 -0.35072 0.09951
-0.12925 0.08122 -0.19937
0.03117 -0.02970 0.17048
-0.18124 -0.28753 0.16914
-0.14572 0.20350 -0.19937
-0.15171 -0.30800 0.14916
-0.18124 -0.14482 -0.07552
0.11894 -0.25385 0.13412
-0.18124 -0.17267 0.03960
0.10179 -0.23348 0.15726
-0.15410 -0.31903 0.05046
0.14500 -0.08287 -0.15603
-0.16398 -0.36006 0.11067
-0.16913 -0.37923 0.06791
-0.03268 -0.02970 0.01943
-0.01937 -0.02970 -0.11949
-0.12398 -0.11106 0.14228
-0.18124 0.24219 -0.08412
-0.18124 0.23765 0.18565
0.12244 -0.36251 -0.18573
-0.18124 0.20121 0.15494
-0.12271 -0.09021 -0.19762
0.00811 -0.02970 0.09049
-0.12089 0.22221 -0.12988
0.10980 -0.00070 -0.10469
-0.12089 0.30563 -0.02278
0.07092 -0.02970 0.19701
-0.14285 -0.26380 0.13497
-0.18124 0.17245 -0.01332
-0.18124 0.36135 -0.13180
0.01892 -0.02970 0.08139
0.14022 -0.00070 0.09314
0.12128 -0.09179 0.19648
-0.18124 0.24288 -0.00264
-0.12660 0.36835 -0.07856
0.12857 -0.23409 0.13412
-0.12089 0.16483 0.09883
-0.13062 -0.18232 -0.07656
0.13139 -0.12460 0.13412
-0.12129 0.34503 -0.11461
-0.18124 0.09034 0.03248
0.12007 -0.09616 0.13949
-0.09225 -0.00070 0.00544
-0.18124 -0.12137 0.04910
-0.12089 0.21059 -0.14404
-0.12958 -0.17338 0.15193
-0.08370 -0.02970 0.19242
-0.18099 -0.42032 0.01742
0.03127 -0.02970 -0.16103
-0.12089 0.14172 0.18443
-0.12089 0.10228 -0.17632
-0.15260 -0.03654 0.19937
-0.16111 -0.34851 -0.14819
0.16739 -0.00445 0.19870
0.10280 -0.19110 -0.17618
-0.12089 0.33460 0.05268
-0.13007 -0.17762 -0.11066
0.10632 -0.15904 -0.17053
0.10262 -0.25623 -0.15347
0.10353 -0.20244 0.13412
0.11498 -0.12647 -0.19937
-0.18124 0.35013 -0.00581
-0.16547 -0.36561 -0.19020
-0.09033 -0.02970 0.02170
-0.12089 0.18862 0.01897
0.14323 -0.34138 0.13412
0.02642 -0.00070 0.17964
0.11513 -0.25068 0.13412
0.07408 -0.00070 0.17378
-0.18124 0.05538 -0.19791
0.01616 -0.00070 -0.17140
-0.14761 -0.28862 0.02421
-0.18124 0.06232 -0.18884
0.13028 -0.37511 -0.13412
0.12872 -0.27427 0.19937
0.11403 -0.02970 0.06009
0.10449 -0.22373 -0.19937
0.11128 -0.31910 -0.18594
-0.05591 -0.02970 0.13838
0.11056 -0.13572 -0.14561
-0.12089 0.18896 0.13170
0.14500 -0.25320 0.14138
-0.12089 0.23940 0.00920
-0.16984 -0.11187 0.19937
-0.18124 0.05122 0.19906
-0.18124 0.28197 -0.19773
-0.18124 0.26964 -0.05792
-0.18124 -0.12910 -0.06734
-0.18124 -0.18414 0.06895
-0.12089 0.15081 0.01688
-0.01389 -0.00070 -0.02963
-0.18124 -0.29171 0.05780
0.04293 -0.00070 -0.00319
-0.11597 -0.00070 -0.01496
-0.18124 -0.39168 -0.09846
-0.12089 0.27352 0.17376
-0.18124 -0.04666 -0.14486
0.08948 -0.00070 -0.12270
0.14500 -0.30419 -0.15139
0.10859 -0.02970 -0.16093
-0.17217 0.18102 -0.19937
-0.18124 0.09746 -0.04178
-0.01633 -0.00070 -0.07827
-0.12089 0.28379 -0.14695
-0.12089 0.17486 -0.13643
-0.16069 -0.34681 0.03421
-0.18124 0.30852 -0.12512
-0.12126 -0.04890 0.05693
0.14271 -0.03509 -0.17266
-0.18124 -0.25944 -0.17553
0.05851 -0.00070 -0.18374
-0.18124 -0.13479 -0.11720
-0.18124 -0.15538 -0.12490
-0.17520 -0.09472 -0.19937
-0.18124 0.31396 -0.02480
0.00449 -0.00070 -0.00252
-0.18124 0.10382 -0.14910
-0.18124 -0.15871 -0.03521
-0.13309 -0.20190 -0.09097
0.12442 -0.00070 0.17126
-0.18124 -0.21315 0.11334
-0.18124 -0.01303 -0.08187
-0.18124 0.09896 0.18787
0.14500 -0.34253 0.18346
-0.12089 0.22719 0.07357
-0.15185 -0.09494 -0.19937
0.14500 -0.25427 -0.15965
-0.12089 0.20382 -0.11998
-0.18124 0.25894 0.06728
0.10518 -0.28148 -0.18399
-0.18124 -0.08242 -0.14583
-0.18124 0.11281 0.07442
-0.14962 0.40260 0.15553
-0.18124 -0.02536 -0.14729
-0.02025 -0.02970 -0.10981
-0.18124 -0.31682 -0.19854
-0.18124 -0.40691 0.13464
-0.15854 -0.33795 0.00618
0.13087 -0.25223 0.13412
-0.18124 -0.32609 0.18460
-0.05060 -0.00070 -0.06033
0.09356 -0.00070 0.03959
0.03752 -0.00070 -0.02692
0.13435 -0.05481 0.18443
-0.10774 -0.02970 0.01609
-0.12089 0.03493 -0.17687
-0.12089 0.23116 0.14416
-0.18124 0.35069 0.05133
-0.12473 0.36297 -0.16157
-0.18124 -0.12981 0.19362
-0.18124 0.08640 -0.11286
-0.18124 -0.37769 -0.02598
-0.16531 0.12355 0.19937
-0.12089 0.22138 -0.17186
-0.12545 0.34796 0.19937
-0.18124 0.25111 -0.16648
-0.12089 0.09005 -0.16814
0.07572 -0.02970 0.01827
-0.18124 -0.04608 -0.05787
0.01077 -0.02970 0.01713
-0.18124 0.00729 0.16660
-0.07108 -0.02970 -0.06100
-0.12231 -0.08094 -0.09260
-0.18124 -0.07882 0.12924
0.10610 -0.28985 0.18418
-0.18124 0.05753 0.08795
-0.12326 -0.10042 0.02427
0.12090 -0.24812 0.19937
0.14500 -0.07592 0.17043
0.03234 -0.02970 0.09539
0.06936 -0.02970 -0.00734
-0.12089 0.28188 -0.05862
-0.18124 0.06259 -0.12772
0.13940 -0.40800 -0.13912
-0.18124 0.23247 -0.08532
-0.05324 -0.00070 -0.00866
-0.14055 -0.08971 0.19937
-0.17020 0.41654 0.15800
-0.16917 -0.30621 -0.19937
-0.06842 -0.00070 0.07127
-0.18124 0.29997 0.12369
-0.14043 -0.24979 -0.06140
-0.18124 0.20796 -0.00055
-0.12438 -0.11695 0.16070
-0.18124 -0.31816 0.01017
-0.06628 -0.02970 -0.19709
-0.00527 -0.02970 0.19865
0.12218 -0.08913 -0.15763
-0.12089 0.28326 -0.18662
0.14972 -0.00070 -0.14647
-0.12572 -0.13465 0.09179
-0.18124 0.16503 -0.19243
-0.18124 -0.19149 0.14447
-0.12903 0.37433 0.18677
-0.12089 -0.01591 0.09712
0.14395 -0.14836 -0.19937
-0.12089 0.21246 0.08491
-0.14874 -0.29432 -0.12521
-0.18124 -0.30839 -0.00375
-0.18124 -0.39770 0.13901
-0.18124 0.20636 -0.15193
-0.18124 -0.33641 0.05626
-0.18124 0.00354 -0.00354
0.10175 -0.23236 -0.19728
-0.08926 -0.00070 -0.13071
0.17578 -0.01234 0.05236
0.11932 -0.19080 0.13412
-0.18124 0.18204 0.15435
-0.15906 -0.34010 -0.11790
0.16840 -0.00514 -0.16470
-0.12089 0.32581 -0.05649
-0.02438 -0.02970 -0.15269
-0.18124 -0.03499 0.17933
0.06000 -0.02970 0.04484
-0.18124 -0.16892 0.12391
-0.12849 0.14062 0.19937
-0.18124 -0.04801 -0.13263
-0.12089 0.03680 0.13931
-0.17881 -0.23692 0.19937
-0.14721 -0.01810 0.19937
-0.18124 -0.20802 0.15642
-0.16699 -0.37128 -0.04777
-0.00064 -0.00070 -0.15588
-0.12089 0.15601 -0.16452
-0.05134 -0.00070 -0.17001
-0.12080 -0.00070 0.13338
-0.18124 -0.04550 -0.18420
-0.06889 -0.02970 0.06338
-0.18124 -0.08907 -0.10319
-0.14018 0.24233 0.19937
-0.16550 -0.36573 -0.08609
-0.12663 0.02064 0.19937
-0.18124 -0.04846 -0.03114
-0.14608 0.20635 0.19937
-0.18124 -0.39262 -0.18801
-0.12815 -0.16099 -0.00440
-0.16181 -0.35139 0.03304
0.15147 -0.00070 0.14666
0.14500 -0.14892 0.19823
-0.14985 0.40281 0.00578
0.13128 -0.38850 -0.18232
-0.15781 -0.22738 -0.19937
0.14500 -0.35102 -0.19436
-0.07525 -0.00070 0.18105
-0.18124 -0.41411 0.17221
-0.05121 -0.02970 0.08752
-0.12089 0.08354 0.03944
-0.15722 0.00895 0.19937
0.12402 -0.00070 -0.11751
0.05303 -0.00070 0.01431
-0.12980 0.11890 0.19937
-0.18124 0.19126 0.02958
-0.18124 0.12273 0.08625
-0.18124 -0.04049 0.11040
0.07113 -0.00070 -0.00613
-0.18124 0.16717 -0.12470
-0.17362 0.41820 0.10277
-0.13701 -0.10347 -0.19937
-0.16240 -0.35383 -0.06366
-0.17589 0.41909 0.19909
0.13900 -0.25839 0.13412
-0.13375 -0.03312 0.19937
-0.18124 -0.39860 -0.00761
-0.18124 0.03058 -0.07165
-0.12089 0.26211 0.08432
-0.03353 -0.00070 0.05068
-0.12089 0.12843 -0.12119
-0.18124 0.08904 0.06344
0.11229 -0.15428 -0.13412
-0.18124 0.35882 -0.13962
-0.18124 -0.26443 0.14485
0.15875 -0.00078 -0.10709
-0.18124 -0.04758 0.06334
-0.16730 0.26653 -0.19937
-0.14282 -0.01933 0.19937
-0.12157 -0.06398 0.00713
-0.13648 -0.22587 -0.02327
-0.12426 -0.11513 0.03058
-0.12346 0.35818 -0.15907
0.12637 -0.09983 -0.19937
-0.18124 -0.24073 -0.09235
-0.04408 -0.02970 -0.15497
-0.18124 -0.11453 -0.14117
0.12924 -0.29739 -0.13412
-0.12749 -0.15382 -0.00573
-0.12603 -0.13800 0.07153
-0.10296 -0.00070 -0.16573
-0.13552 0.37204 -0.19937
0.13191 -0.02970 -0.05933
-0.18124 0.42061 0.16561
-0.18124 0.41087 -0.14986
-0.12089 0.09477 -0.11400
-0.18124 0.33273 -0.10089
0.10420 -0.27252 -0.15777
-0.12282 -0.09271 -0.13676
0.10254 -0.25402 0.16505
-0.18124 0.04171 -0.11443
-0.15304 -0.10068 0.19937
-0.13741 0.22867 0.19937
0.11950 -0.23915 -0.13412
-0.18124 0.29554 -0.07472
-0.18124 -0.21302 -0.03609
0.15286 -0.02970 -0.00078
-0.17770 -0.40917 0.04248
-0.18124 -0.08003 0.17857
-0.18124 0.42100 -0.07290
0.13325 -0.29270 -0.13412
0.16506 -0.00315 0.17307
-0.15481 0.40688 -0.05935
0.04688 -0.00070 -0.05101
0.12468 -0.36910 -0.16759
-0.18124 -0.07734 -0.04801
0.14500 -0.18146 -0.16372
-0.12089 0.32060 -0.10981
-0.12089 -0.00817 -0.19069
0.12119 -0.19940 0.13412
0.14500 -0.34666 -0.13948
-0.12126 -0.04919 -0.11621
-0.18124 0.31009 0.01363
0.11153 -0.32043 0.13908
-0.16925 0.25258 -0.19937
0.17777 -0.01562 0.04395
-0.15882 -0.15583 -0.19937
0.00996 -0.00070 0.00687
0.14500 -0.22110 -0.14088
-0.14706 -0.28574 0.05278
-0.12245 -0.08436 0.15801
-0.18124 -0.01950 0.13262
0.11746 -0.02970 0.10227
-0.18124 0.13559 -0.19267
-0.16019 -0.34475 -0.11099
0.16990 -0.02970 -0.04635
-0.18124 0.05482 -0.10059
-0.09872 -0.02970 -0.02069
-0.18124 0.21787 -0.19590
0.12762 -0.13483 0.19937
-0.18124 0.15881 0.07154
0.10772 -0.21856 -0.19937
-0.17630 -0.40442 -0.00439
-0.18124 0.10286 0.13624
-0.12089 0.23827 0.14772
-0.18124 0.08160 -0.10139
-0.18124 -0.04922 0.00613
-0.18037 0.06325 0.19937
0.05416 -0.00070 0.17652
-0.15851 -0.33781 0.12680
-0.16264 -0.17756 -0.19937
0.14500 -0.20162 -0.16401
-0.12089 0.00686 -0.09235
-0.12211 -0.07636 0.03769
0.10454 -0.17528 0.14390
-0.18124 0.22429 -0.16836
0.14500 -0.37192 0.15079
-0.18124 -0.03869 -0.07064
-0.18124 0.25482 0.19169
0.13828 -0.08076 -0.19937
-0.10816 -0.00070 -0.04261
-0.18124 -0.36034 0.09178
-0.12089 0.13048 0.11092
-0.18124 0.29521 -0.17464
-0.15647 0.18504 0.19937
-0.13846 0.00253 -0.19937
0.18069 -0.02402 0.15601
-0.03300 -0.02970 -0.14222
-0.18124 -0.31515 0.10146
0.17917 -0.01873 -0.11245
-0.16681 -0.37058 -0.03151
-0.18124 0.10024 -0.04998
0.13518 -0.00070 -0.10800
0.14500 -0.33303 0.15316
-0.12089 0.16886 0.16277
-0.18124 0.02860 -0.06532
0.13468 -0.05404 0.16756
-0.15582 0.16144 -0.19937
-0.18124 -0.37576 0.03543
-0.00092 -0.02970 0.13964
-0.08099 -0.00070 -0.00929
-0.18124 0.19097 -0.01823
-0.15288 -0.31338 0.09752
-0.12089 0.11426 0.05840
0.11169 -0.02736 -0.19937
-0.18124 -0.05417 0.04068
0.09365 -0.02970 0.10630
-0.12089 0.03678 0.10362
-0.12089 0.30354 0.11908
-0.18124 0.29264 0.04907
0.14707 -0.00070 0.05272
-0.18124 -0.13201 0.09782
-0.14567 0.39862 -0.04796
-0.17947 -0.41517 -0.09654
0.10254 -0.00070 0.00016
-0.12089 0.10981 0.12674
0.18063 -0.02377 -0.18207
0.14500 -0.28688 0.16614
0.14500 -0.28192 -0.16873
0.15658 -0.02970 -0.09417
-0.18124 -0.31772 -0.05579
0.13651 -0.00070 -0.00291
-0.16301 0.21695 0.19937
-0.17179 -0.33182 0.19937
-0.18124 0.27754 0.03716
-0.12089 0.03790 -0.08935
-0.13140 0.37902 -0.13909
0.11543 -0.33692 0.18621
0.14500 -0.39071 0.13953
-0.17521 -0.17148 0.19937
-0.18124 0.18185 -0.15016
-0.14100 -0.25324 0.14311
-0.18124 0.12886 0.02061
0.07300 -0.02970 0.13421
0.08119 -0.02970 0.02572
-0.18124 0.29645 0.19894
-0.12089 0.14314 0.08179
-0.13899 -0.24118 -0.18813
-0.18124 -0.24038 0.02632
-0.09364 -0.00070 0.12016
-0.12089 -0.01273 0.04297
0.14500 -0.03222 -0.18373
-0.18124 0.04071 -0.01182
-0.17872 0.42020 -0.09068
-0.18124 0.12489 0.10119
-0.07372 -0.02970 -0.07591
-0.12352 -0.10426 0.18562
-0.18124 -0.06820 0.12699
0.14500 -0.25981 0.18227
0.11804 -0.34696 0.19781
-0.12089 0.17237 -0.11486
-0.18124 -0.21236 -0.13237
0.01571 -0.00070 -0.15500
-0.18124 -0.03933 -0.17235
-0.01731 -0.00070 -0.01715
-0.15437 0.20572 -0.19937
-0.18124 -0.26880 0.18354
-0.18124 0.25660 -0.01114
-0.16174 0.04714 -0.19937
-0.12089 0.07361 -0.11715
-0.17076 0.34920 -0.19937
-0.12089 0.25652 -0.01274
-0.15602 0.23409 -0.19937
-0.18124 -0.02377 0.04026
0.01361 -0.02970 -0.06019
-0.15083 -0.18061 -0.19937
0.14500 -0.32200 0.19418
-0.12104 -0.03732 -0.14533
0.14338 -0.31650 -0.19937
0.05906 -0.00070 0.13941
-0.10036 -0.00070 -0.18860
0.11657 -0.00070 -0.00703
-0.18124 0.33250 0.01317
-0.12089 0.02762 0.18243
0.10200 -0.23924 0.13645
-0.18124 0.30857 0.16747
-0.12182 0.34950 0.19513
-0.05177 -0.00070 -0.19635
0.15000 -0.00070 -0.10221
-0.04588 -0.02970 -0.12010
0.10065 -0.02970 0.19326
-0.18124 -0.22531 -0.00644
-0.12487 0.36348 0.07786
0.13239 -0.16967 -0.19937
0.15938 -0.02970 -0.06538
-0.12089 0.02962 0.19180
-0.18124 -0.08891 -0.09226
-0.18124 -0.25798 0.12231
-0.18124 -0.25714 -0.03751
-0.17899 -0.06651 0.19937
-0.16763 -0.31593 -0.19937
-0.18124 -0.20164 0.00730
-0.12129 -0.05047 0.13053
-0.14339 0.39632 0.12572
0.12629 -0.34891 -0.13412
-0.18124 0.30203 0.07055
0.13285 -0.32017 -0.19937
0.14750 -0.02417 -0.19937
-0.18124 0.02505 -0.08112
0.13924 -0.13718 0.13412
-0.17948 -0.41522 -0.17496
-0.12089 0.08109 -0.03566
-0.13923 0.39115 -0.04158
-0.12089 0.27910 -0.02404
0.10699 -0.00070 0.02944
-0.15161 -0.30755 -0.16029
-0.06074 -0.02970 -0.13813
-0.12089 0.14931 -0.10557
-0.15559 -0.32578 -0.12393
-0.12089 0.26079 0.11586
0.12455 -0.18939 -0.19937
-0.18124 -0.21439 -0.14885
-0.12089 0.05280 0.06876
0.01601 -0.02970 -0.15546
-0.04000 -0.02970 0.01002
0.10303 -0.18902 -0.19841
-0.12089 0.01958 0.09912
-0.18124 -0.08511 -0.00746
-0.18124 -0.22025 0.13240
-0.18124 0.38660 -0.07716
0.04923 -0.02970 -0.12702
-0.04876 -0.00299 0.19937
-0.12089 0.33081 0.14006
0.06610 -0.00070 -0.11439
-0.12089 0.14147 -0.19692
-0.18124 0.23221 0.11706
-0.16777 0.19765 -0.19937
-0.18124 0.21439 0.13445
-0.18124 0.33143 -0.05718
0.16482 -0.00304 -0.09253
-0.13262 -0.19862 0.11197
-0.18124 -0.34561 -0.10063
-0.12089 -0.00614 0.02848
-0.18124 0.39405 0.16047
-0.18124 0.31918 0.03511
0.10285 -0.21421 0.19937
-0.18124 0.12824 0.15246
-0.14491 -0.27457 -0.14452
-0.17351 0.41816 0.16897
-0.00967 -0.00070 0.10379
-0.18124 -0.30267 -0.12896
-0.18124 0.08479 -0.05511
-0.18124 0.21286 -0.02487
0.10156 -0.22370 -0.17997
-0.08808 -0.00070 -0.02058
-0.18124 0.02249 -0.00015
-0.09695 -0.02970 0.04004
-0.18124 0.31931 0.06826
0.16062 -0.02970 -0.01454
0.13588 -0.11946 0.13412
-0.18124 0.29867 -0.16131
-0.18124 0.03973 0.02609
-0.12774 -0.15653 0.08694
-0.17392 -0.17792 0.19937
-0.15317 0.28806 -0.19937
-0.00822 -0.02970 0.04130
0.14317 -0.33315 -0.13412
-0.18124 -0.40189 0.00449
-0.12089 0.32194 -0.09253
0.04985 -0.02970 -0.16726
-0.12089 0.12756 -0.15463
-0.10212 -0.02970 -0.12947
-0.12089 0.01099 -0.00531
-0.12218 -0.07809 -0.08477
-0.18124 0.27726 -0.15638
-0.18124 -0.01922 -0.08129
0.14500 -0.34775 0.16032
-0.00193 -0.02970 0.05726
-0.11260 -0.00070 0.17656
-0.18124 0.41876 0.01696
-0.12089 0.28660 0.16971
-0.18124 0.35252 -0.05283
-0.18124 0.08366 0.04242
-0.13524 0.38548 0.18033
-0.11438 -0.02970 -0.07458
-0.10910 -0.00070 -0.19410
-0.18124 0.19591 -0.00122
-0.17424 -0.39746 0.13408
0.13988 -0.32445 0.19937
-0.06543 -0.00070 0.05928
-0.18124 0.37536 -0.01545
-0.12089 0.29119 0.10826
0.17198 -0.00803 -0.19885
-0.18124 0.03184 0.17279
-0.00877 -0.00070 0.13628
0.05516 -0.02970 0.13460
-0.12636 0.22484 -0.19937
0.10373 -0.20913 0.19937
-0.18124 0.22321 -0.03416
-0.18124 -0.04455 0.17652
-0.09400 -0.02970 -0.18082
-0.12089 0.28943 -0.14365
-0.12089 0.05485 0.15705
-0.18124 -0.11274 0.04655
-0.12089 0.27229 0.13884
-0.18124 -0.29604 -0.09090
-0.17003 -0.38259 0.12472
-0.18124 0.39372 -0.14171
0.05807 -0.00993 0.19937
0.05677 -0.02970 0.06367
-0.18124 0.25881 -0.12874
-0.14666 -0.03259 0.19937
-0.10150 -0.02970 -0.09094
-0.12160 0.34812 -0.08080
-0.16617 -0.36821 -0.13889
0.14500 -0.41852 0.18860
-0.18096 0.07134 0.19937
-0.18124 -0.16807 0.15330
-0.18124 -0.22423 -0.07632
-0.18124 0.33129 0.07473
-0.12089 0.17914 -0.13357
-0.15660 0.40835 0.00876
0.04696 -0.00070 -0.09539
0.16937 -0.00580 -0.09194
-0.18124 -0.01665 0.11922
-0.12089 0.14329 -0.16385
-0.02856 -0.02970 -0.02080
0.10326 -0.18689 0.16707
-0.18124 0.22153 0.08123
0.13142 -0.06199 -0.15987
0.07255 -0.00070 -0.03549
0.10634 -0.15884 0.16271
0.13624 -0.02970 -0.07514
0.07857 -0.00070 -0.14951
-0.18124 -0.20461 0.10817
-0.14314 -0.26533 -0.09555
-0.12089 0.25044 0.07686
0.14408 -0.02970 -0.04192
0.14500 -0.41983 -0.13986
-0.12089 0.03019 -0.16359
0.17228 -0.02970 0.00290
-0.18124 0.19743 0.09852
-0.17271 -0.39227 -0.10253
-0.12089 0.21062 0.00330
-0.17035 0.41662 -0.12146
-0.12089 0.13517 0.19545
0.15315 -0.00070 0.17148
-0.14931 -0.29696 0.10582
-0.13061 -0.18221 0.13750
-0.13932 0.39126 0.11268
-0.12089 0.32522 -0.08207
-0.05977 -0.00070 0.11717
-0.18124 -0.31100 0.06910
