ply
format ascii 1.0
comment VCGLIB generated
element vertex 1807
property float x
property float y
property float z
element face 0
property list uchar int vertex_indices
end_header
0.21195 0.05730 -0.16595
-0.09372 -0.20983 0.14695
0.06253 0.01517 -0.16431
-0.14745 0.01517 -0.16522
0.20115 -0.07267 -0.13369
-0.06167 0.00541 -0.11929
0.15665 -0.34958 0.19358
-0.06542 -0.22320 -0.18421
-0.10315 0.01517 -0.05695
-0.20649 0.29078 -0.05398
-0.15028 0.31476 0.04067
-0.10830 -0.00175 -0.16378
-0.06607 -0.00175 0.18210
-0.20566 0.11041 0.05830
-0.10784 0.10975 0.19123
-0.11262 0.09938 -0.19524
0.10878 0.06687 -0.10944
0.16345 -0.33926 -0.19370
0.20942 0.00159 -0.13397
0.13621 0.06699 0.07333
-0.07567 -0.08248 -0.19368
0.03639 0.01517 0.17960
-0.12298 0.23333 0.11934
0.02037 0.01517 0.02996
-0.17769 0.01517 -0.03112
0.16061 -0.08248 -0.19348
0.18845 -0.07189 0.20030
0.09861 0.01517 -0.08271
-0.20711 0.09183 0.05073
-0.11592 0.36321 0.19801
-0.08785 -0.26060 -0.17549
-0.07170 -0.23762 -0.19370
-0.04727 0.01517 -0.13596
-0.08940 -0.22377 0.13095
-0.18339 0.09007 0.12688
-0.13714 0.33558 0.08925
0.17730 0.06699 -0.05595
0.21195 0.03520 -0.09212
0.05238 0.01517 0.20545
0.14372 -0.33511 -0.18419
0.13678 -0.21390 0.12984
0.01543 0.01517 0.05004
-0.21012 0.24670 -0.02882
0.04485 0.06699 0.19262
0.20942 0.00976 0.12503
-0.19617 0.20440 0.09448
-0.00760 0.06699 -0.17469
-0.21059 0.35999 -0.02130
0.05316 0.01517 -0.16517
0.14111 -0.09194 0.14538
0.20115 -0.10369 0.16472
-0.13206 0.12034 -0.10042
-0.15381 0.19174 -0.00476
-0.13641 0.12577 0.19915
-0.12597 0.24507 0.11324
-0.20499 0.40197 -0.01404
-0.07706 -0.25555 0.17613
-0.11353 -0.10744 -0.13516
-0.06229 -0.23762 -0.13461
-0.20780 0.06247 -0.04716
0.06464 0.03690 0.20857
-0.11062 0.31558 -0.19357
0.17610 -0.24902 -0.19686
-0.09583 -0.27655 -0.16786
-0.20348 0.34524 0.06958
-0.08669 0.20070 -0.17351
0.14550 -0.09632 -0.16372
-0.10621 0.37996 0.14534
0.14290 -0.07742 0.17261
-0.03464 0.04210 -0.20857
0.18646 0.06699 0.08995
0.03114 0.01517 0.06450
-0.18886 0.01517 0.10516
-0.11314 -0.00175 0.12898
-0.11105 -0.34404 0.18545
-0.09391 0.36979 -0.17956
0.17519 -0.29269 0.17628
0.17713 -0.14639 -0.15482
-0.01191 0.01517 0.01848
0.16825 0.06699 -0.03872
0.19754 -0.09194 -0.14414
-0.20957 0.30862 -0.03738
-0.02111 0.01517 -0.00178
-0.12824 0.24427 -0.10845
-0.18524 0.40197 0.10582
0.18347 -0.37826 0.15096
-0.12120 0.38636 -0.12212
-0.19928 0.40197 0.00850
-0.07776 -0.06952 -0.13322
-0.11336 -0.08248 -0.18482
-0.20725 0.26382 -0.05002
0.01399 0.01517 0.00524
-0.20721 0.21695 -0.05025
0.16540 0.01517 0.03282
-0.12044 0.01517 -0.06410
-0.01773 0.06699 -0.04168
-0.11691 -0.06952 -0.16587
0.19958 0.01517 0.14111
-0.00257 0.01517 0.18607
-0.15386 0.01517 -0.10609
-0.18567 0.21296 0.12208
-0.10949 0.31536 0.14036
-0.08931 -0.40197 -0.16302
0.01115 0.06699 0.07093
-0.10463 -0.23323 -0.13242
-0.11687 0.27665 0.19880
-0.09694 0.26686 -0.15640
-0.20933 0.06607 -0.03925
0.18063 -0.23998 0.19037
-0.20355 0.39405 0.06923
-0.14785 0.13500 -0.05324
-0.09340 -0.14454 0.16136
0.19184 0.01517 0.20436
-0.10348 -0.24687 0.12835
0.05761 0.06699 0.18920
0.16038 -0.37195 -0.14204
0.16871 -0.07903 -0.13846
-0.06206 0.01517 -0.11997
-0.12607 0.25324 0.20652
0.21195 0.03726 0.15626
-0.12075 0.38197 0.12282
-0.09558 -0.30356 0.16698
0.13076 0.06699 -0.15313
0.20942 0.00425 0.15489
-0.13159 0.25274 0.10143
-0.17942 0.01517 0.09788
0.07479 0.02077 0.20857
-0.13607 0.16759 0.19956
0.15573 0.06699 -0.14060
-0.14289 0.29569 0.07174
-0.06713 -0.20983 -0.17734
-0.13445 0.12821 0.09541
-0.20975 0.10327 -0.03451
0.20098 -0.22817 -0.14045
-0.00792 0.01517 0.14633
0.13228 0.01067 -0.20857
-0.21011 0.17559 0.02894
0.19209 -0.22817 -0.15702
-0.06537 -0.22377 -0.14633
0.16493 -0.26382 -0.17628
-0.06844 -0.31203 0.15895
-0.13153 0.01517 0.16980
0.13115 -0.00175 0.12082
-0.20451 0.11027 -0.06427
-0.09771 0.01517 -0.14612
0.16506 0.01517 -0.09450
0.15849 -0.07153 -0.12835
0.12147 0.01517 -0.12519
-0.15105 0.32615 -0.03666
0.02206 0.01517 0.13162
-0.10400 0.01517 0.19405
0.18554 -0.20983 -0.14754
-0.13402 0.40197 -0.12946
-0.05957 -0.23323 -0.16029
-0.09976 0.01517 -0.16229
-0.11469 -0.08688 -0.12939
-0.11127 0.01517 -0.14029
-0.08888 -0.24902 0.18600
-0.08609 -0.24630 0.12835
-0.12901 0.38519 0.10685
0.09244 0.01517 -0.10217
0.03540 0.01517 -0.02375
0.06306 0.05980 0.20857
-0.11526 0.08656 -0.13137
-0.09233 0.01517 -0.06836
0.05648 0.01517 -0.19841
-0.20407 0.29799 0.06654
-0.19839 0.38544 -0.08771
0.13963 0.06699 -0.15865
0.13723 0.01517 0.17427
-0.08514 0.26136 -0.17047
-0.06544 0.03770 -0.20857
0.19814 -0.08248 -0.18265
-0.14016 0.39444 -0.08005
-0.09709 -0.24902 0.17779
-0.10950 -0.00175 0.19799
-0.09435 0.30416 0.15949
0.17833 -0.31987 0.13959
0.16135 0.06699 -0.07032
-0.14791 0.24388 -0.05297
0.18233 -0.22817 -0.19406
0.14762 0.01517 -0.15598
-0.11601 -0.07742 -0.13395
0.14340 -0.07742 -0.16068
0.20142 0.01517 0.12221
0.16924 -0.25863 0.15237
0.15644 0.03943 -0.20857
-0.10469 0.03526 -0.20857
0.14194 -0.24902 -0.15452
-0.02457 0.01517 -0.19595
-0.03596 0.01517 -0.19958
0.17642 -0.06952 0.18921
0.20115 -0.08685 -0.16939
-0.14840 0.31380 0.05040
-0.15277 0.24528 -0.02112
-0.13183 0.33281 -0.20462
0.08019 0.01517 0.03544
-0.09340 -0.06402 0.17439
0.13771 -0.21871 0.16826
-0.19288 0.23985 -0.10450
-0.13544 0.21906 -0.09333
0.15454 -0.37836 0.14616
-0.11724 0.01517 0.11327
0.16317 -0.38002 -0.18141
0.18398 -0.30940 -0.18021
-0.11741 -0.10232 0.17016
0.06079 0.06699 0.15053
-0.16181 0.09297 -0.16569
0.16080 -0.13821 0.17298
-0.08997 -0.08248 0.19385
0.17260 0.01517 -0.07707
-0.15364 0.13098 0.00753
0.17138 0.06699 0.01721
-0.18740 0.20012 0.11844
-0.09322 0.19294 -0.16084
-0.14826 0.15442 -0.18502
-0.11354 -0.22377 -0.13854
0.19657 0.01517 0.13083
-0.09070 0.35482 -0.16384
0.16906 0.06699 0.07019
0.16338 -0.06507 0.15237
0.18972 0.06699 0.10555
0.18728 -0.09194 0.19929
-0.09259 0.12859 0.16159
-0.12940 0.39863 -0.10603
-0.16327 0.40197 0.08530
-0.16886 0.40197 0.05827
-0.11731 0.02787 0.20857
-0.20777 0.20691 -0.04735
-0.05758 -0.08248 0.16251
0.18069 -0.23762 0.13631
-0.17421 0.20475 -0.14618
-0.11011 0.07654 -0.13939
-0.06264 -0.32439 0.14923
-0.13007 0.11146 -0.10462
-0.11418 0.20544 -0.13305
0.21044 0.01517 -0.02896
0.16707 -0.10012 0.13073
-0.03054 0.01517 0.16947
0.01020 0.01517 0.18411
0.15484 -0.10012 -0.12857
0.10311 0.06699 0.14683
0.17713 -0.29902 -0.16636
-0.15371 0.26900 -0.00635
-0.12015 0.39476 0.12375
0.09997 0.06149 0.20857
-0.05729 -0.10744 -0.16732
0.20090 0.06699 0.08647
-0.19858 0.37344 -0.08713
-0.15734 0.01517 -0.00503
0.13630 0.01517 -0.12186
-0.21160 0.32862 -0.00544
0.16080 -0.06201 -0.16720
-0.10608 -0.07742 0.19029
0.21195 0.03313 -0.20445
-0.12812 -0.00004 -0.19173
0.18296 -0.30789 -0.14666
-0.16308 0.27443 -0.16371
0.19167 -0.10012 0.14836
0.17663 -0.20087 -0.17628
-0.13298 0.37987 -0.20325
-0.08565 0.36984 0.17263
-0.13629 0.09422 0.19930
-0.07771 0.01517 0.14099
-0.08256 -0.17447 -0.15157
-0.13670 0.39834 0.09060
-0.21024 0.34118 -0.02688
-0.20440 0.25531 0.06483
0.13121 0.01517 0.17123
0.09463 0.06699 0.01862
-0.09303 0.01517 0.01779
-0.11088 -0.34663 0.14311
0.21195 0.01676 -0.00489
0.05491 0.06699 -0.15521
-0.00700 0.06699 0.16623
0.15882 -0.24902 -0.15967
0.16381 0.06699 0.10958
-0.07724 -0.04002 0.15237
0.10617 0.06327 0.16199
0.16738 -0.06426 0.17628
-0.04416 0.04021 -0.20857
0.17978 0.01517 -0.00122
-0.14836 0.17339 0.05061
-0.11057 -0.22377 -0.19653
-0.13412 0.04441 0.20189
0.20115 -0.22390 0.17263
0.17713 -0.11811 0.17007
-0.11741 -0.22592 0.18284
-0.17453 0.32427 0.14551
-0.20885 0.08095 0.04170
-0.20197 0.21686 -0.07681
0.17324 0.06699 0.06705
-0.18055 0.02754 -0.13286
-0.20391 0.25466 -0.06737
0.13808 -0.06952 -0.13715
-0.10734 -0.08248 -0.19925
-0.14954 0.17224 -0.04449
0.16450 0.06699 0.06107
-0.19761 0.39558 -0.09010
-0.09584 0.06699 0.03356
0.04850 0.01976 -0.20857
0.17677 0.01517 0.13991
-0.09765 0.01517 0.16928
-0.12226 -0.00013 -0.11929
-0.15410 0.07900 0.00025
0.06646 0.06699 -0.14261
-0.16211 0.10892 -0.16522
0.17268 0.06105 -0.20857
-0.09583 -0.19005 -0.15871
-0.09462 0.36272 0.18015
0.16926 -0.38201 -0.17965
-0.08787 0.01517 -0.07958
-0.08528 -0.20983 0.18825
-0.12326 0.01517 -0.07045
-0.10120 -0.23762 -0.12808
-0.06006 -0.33485 0.13534
0.00565 0.06699 0.16540
-0.13574 0.36019 0.09270
-0.06615 -0.36567 -0.18702
-0.06877 -0.32769 -0.19105
-0.14093 0.05023 0.19376
-0.09340 -0.11269 0.17223
-0.11481 -0.08466 0.20030
-0.09139 0.10847 0.17745
-0.08899 -0.30801 0.18219
-0.06564 -0.20983 0.15180
-0.11985 -0.09343 -0.19358
-0.08788 0.09915 0.16721
-0.09713 0.27445 0.18225
-0.12547 -0.00175 0.17722
0.19349 -0.09194 0.14986
-0.10276 0.01517 0.07909
-0.17578 0.22147 -0.14287
-0.16577 0.13084 -0.15952
-0.11760 0.17020 -0.12773
-0.01902 0.01517 -0.05190
-0.17742 0.01517 -0.11906
-0.09863 -0.09632 -0.19907
-0.19687 0.11240 0.09234
-0.09425 -0.15134 -0.17549
-0.05548 -0.08343 -0.14875
0.21195 0.01683 0.07636
-0.08615 0.14106 -0.17306
0.16672 -0.22377 0.13352
-0.12812 0.01106 -0.13515
0.18779 -0.23557 0.20030
-0.14776 0.28427 0.05376
0.20612 0.00157 0.12008
-0.06324 -0.22817 -0.16775
-0.15032 0.38927 -0.18256
0.17568 0.06699 -0.06985
-0.20089 0.40043 0.08011
-0.15110 0.01517 0.10338
-0.08555 0.14859 -0.16998
-0.17915 0.40197 0.06815
-0.21009 0.33365 -0.02925
-0.08636 -0.28961 -0.17549
-0.14488 0.37427 0.18906
0.10327 0.06320 -0.00930
-0.07459 -0.24902 -0.19899
-0.01426 0.01517 0.09430
-0.17600 0.29346 -0.14241
0.14538 0.01517 -0.09022
-0.10174 -0.35320 -0.19228
0.17152 -0.34314 0.19396
-0.12083 0.27812 -0.20213
-0.10757 0.01517 -0.17976
0.16412 -0.06952 0.13415
-0.19381 0.07389 -0.10165
-0.11614 -0.00175 0.15720
-0.15310 0.17831 0.01604
-0.15507 0.22616 -0.17619
0.20159 0.06699 -0.13850
0.04261 0.06651 -0.20857
-0.20867 0.20256 0.04264
0.15665 -0.20983 0.20020
0.14769 -0.36634 0.17752
-0.20351 0.10989 0.06943
-0.10279 -0.07098 -0.19951
0.19880 0.01517 -0.03915
0.16080 -0.28376 -0.15247
0.21195 0.03917 0.17255
0.01488 0.01724 0.20857
-0.19493 0.23667 -0.09825
-0.12554 0.25360 -0.11415
-0.14322 0.31883 -0.19103
-0.08142 0.01517 -0.00409
-0.21185 0.24487 -0.00155
-0.11345 0.01517 0.20365
-0.10184 0.10450 0.18621
0.19478 -0.34269 -0.18931
-0.04614 0.06699 0.13841
0.20839 0.06699 0.03246
0.16080 -0.11848 0.15259
0.16131 0.01517 -0.13332
0.17788 0.01517 0.09751
0.14672 -0.24093 -0.15124
0.10857 0.04878 -0.20857
0.12852 0.00182 -0.20043
0.12852 0.00690 0.15583
-0.14983 0.28661 0.04301
-0.01256 0.06699 -0.07691
-0.06348 0.06699 0.15104
0.00806 0.06699 -0.18371
0.16943 0.01517 0.12076
-0.08502 0.06699 0.05214
0.17954 -0.08688 0.13283
0.17606 -0.08109 0.13846
0.05075 0.06699 0.10626
-0.13326 0.36917 -0.09790
-0.08251 -0.08688 0.19149
-0.08909 -0.38130 -0.14759
-0.21034 0.32627 -0.02529
0.14838 0.01517 0.16141
-0.09422 0.37080 0.17982
-0.02572 0.06699 0.12062
0.18800 -0.07777 -0.19019
-0.18737 0.35900 -0.11850
-0.06982 -0.21684 0.12835
-0.11114 0.36472 -0.13778
0.21195 0.05482 -0.00606
-0.08528 -0.01205 0.17628
-0.08078 -0.07742 0.13133
-0.01465 0.05678 -0.20857
-0.17871 0.08374 0.13673
0.20516 0.06699 -0.12835
0.21195 0.05873 0.00067
-0.09211 -0.24902 0.14661
-0.18804 0.16215 -0.11711
-0.06363 -0.32149 0.17656
-0.19591 0.14573 -0.09527
0.20042 -0.22572 -0.20030
-0.06183 -0.00175 -0.16430
0.17713 -0.00866 0.16931
-0.15274 0.20813 0.02167
-0.11625 0.34312 0.12983
0.00552 0.06699 -0.08009
-0.04269 0.01517 -0.12657
-0.05944 -0.34463 0.17872
-0.15346 0.12336 0.01039
-0.08160 0.01517 -0.01873
-0.20624 0.15353 -0.05528
-0.06196 -0.08688 0.13179
0.16358 0.01517 0.17514
-0.03958 0.06699 0.05841
0.14570 0.01517 -0.18659
-0.14341 0.15328 -0.07016
-0.11124 -0.06952 -0.17603
-0.10275 0.01517 -0.03782
-0.17215 0.01517 -0.10813
-0.11875 0.01151 0.12008
-0.12580 0.18392 -0.11360
-0.08558 0.06699 -0.14042
-0.19405 0.12374 -0.10094
0.05620 0.01517 0.13022
-0.16685 0.05798 0.15784
-0.21051 0.37001 -0.02266
0.14466 0.01517 -0.19597
-0.08728 -0.00175 -0.20099
-0.15091 0.31114 -0.03741
-0.08316 0.01517 -0.18865
0.19461 -0.00175 -0.12295
-0.09733 -0.22817 0.19102
0.17278 -0.33204 0.19275
0.00971 0.06699 -0.01654
0.16080 -0.00306 0.16908
-0.16625 0.09210 0.15878
-0.13250 0.02428 -0.20382
-0.20313 0.19093 -0.07141
0.01707 0.06699 -0.15168
-0.19793 0.01772 -0.08912
-0.05455 -0.00175 0.17324
-0.16459 0.01517 0.10912
0.05073 0.01517 0.01366
-0.16071 0.40197 -0.01829
-0.14573 0.35518 -0.06309
-0.20678 0.01517 -0.04609
-0.05452 0.01517 -0.17380
-0.19798 0.03364 0.08898
-0.13769 0.06699 0.02434
-0.05844 -0.07742 -0.17972
-0.04478 0.01085 0.18817
0.17713 -0.18242 -0.16771
-0.15298 0.16349 -0.01784
-0.14440 0.37752 0.06713
0.15531 -0.08248 -0.19679
-0.05150 0.01517 0.07049
-0.08696 -0.23416 0.12835
-0.09340 -0.04514 0.15994
0.14371 -0.35173 -0.18843
0.15784 -0.06952 0.18176
-0.09339 -0.23762 -0.19619
-0.06316 -0.09178 0.18330
0.15035 -0.10744 0.13923
0.12489 0.06699 -0.16943
-0.15755 0.30874 0.17233
0.08137 0.06699 -0.12409
0.15471 -0.08248 0.19703
-0.07671 -0.00175 -0.14007
-0.15355 0.33674 0.00895
0.08027 0.04141 -0.20857
-0.09806 0.40197 -0.17195
0.03377 0.01517 0.03307
-0.15232 0.14491 0.02835
-0.05221 0.06699 0.14109
-0.13771 0.10672 -0.19760
-0.19881 0.09623 0.08643
-0.06248 0.06699 0.09250
-0.15377 0.22468 -0.00549
-0.11890 0.38727 -0.20050
-0.04355 0.06699 0.17902
-0.07811 -0.09194 -0.19165
-0.05993 -0.22817 0.17286
0.06981 0.01517 0.08837
-0.04722 0.01143 -0.18793
0.14419 -0.08339 0.20030
-0.17399 0.38718 0.14664
-0.19338 0.19736 -0.10299
-0.10831 -0.09632 -0.19025
-0.19699 0.36435 0.09199
-0.16658 0.17370 -0.15826
-0.16315 0.36949 -0.16360
-0.20288 0.18055 -0.07273
-0.01027 0.06699 0.05086
-0.18952 0.21778 0.11400
0.09090 0.01517 0.04850
0.04306 0.01737 0.20857
-0.16612 0.08287 0.15898
-0.20447 0.13779 -0.06446
0.11593 0.06320 -0.14294
0.15475 -0.24902 0.19759
-0.04175 0.06699 -0.10608
0.02594 0.06699 -0.20644
0.20953 0.04873 0.20857
-0.06444 -0.09154 0.13846
-0.15979 0.27342 0.16884
-0.11182 -0.20983 0.17550
0.13678 -0.08655 0.14555
-0.09032 0.09450 -0.16429
0.20115 -0.08330 -0.15792
-0.11079 0.31819 0.19371
0.04289 0.06699 0.06889
-0.11388 0.16598 -0.19630
0.17367 -0.27431 0.15237
0.00916 0.01517 -0.06818
-0.04691 0.01517 0.14191
0.03695 0.01517 -0.03022
0.15161 0.06699 -0.05898
0.03602 0.06699 -0.00817
0.14355 -0.10744 0.13070
-0.13685 0.19054 -0.09015
0.19948 0.01517 0.16853
-0.09734 -0.23323 -0.13014
0.11480 0.06699 -0.06799
-0.21063 0.12416 -0.02074
-0.13763 0.09498 0.08777
-0.06131 -0.32852 0.17483
0.19080 0.01517 0.15757
0.06814 0.06699 0.01310
-0.17733 0.37097 0.13961
-0.07592 0.01517 -0.06812
0.13033 0.04582 0.20857
0.17910 -0.24902 -0.18044
0.16083 0.00758 -0.12008
0.14301 0.06699 0.05906
0.06152 0.06699 -0.07058
-0.08833 -0.00175 -0.18133
0.07184 0.06699 -0.19326
0.16064 -0.00175 -0.13656
-0.08417 -0.31210 0.14370
0.13678 -0.07199 -0.17314
-0.14836 0.20845 -0.05065
0.08355 0.06699 -0.15460
-0.15550 0.08400 0.17553
-0.15382 0.36881 -0.00467
-0.15145 0.36784 0.03460
0.20078 -0.09632 -0.13732
0.13678 -0.07372 -0.18329
-0.12709 0.18128 0.11088
-0.17995 0.02125 -0.13411
0.15167 -0.35684 0.13630
0.09854 0.03546 0.20857
-0.14864 0.26285 -0.18456
0.14868 -0.00175 -0.19599
-0.08011 -0.11589 0.17628
0.17713 -0.14039 0.15952
-0.08046 0.06591 -0.20857
-0.08608 -0.25001 -0.15157
-0.04831 0.06699 -0.19908
0.15979 -0.24902 0.13056
-0.21097 0.26200 0.01542
-0.03566 0.06254 0.20857
-0.09257 0.32073 0.16161
0.00737 0.06699 0.11627
0.10135 0.06699 0.16470
0.16080 -0.15427 0.16675
0.17599 -0.03230 -0.17628
0.18931 -0.22377 -0.19351
-0.15370 0.27892 0.00651
0.14444 -0.22817 0.18891
-0.03949 0.06699 -0.11799
-0.11243 0.40197 -0.13876
0.09596 0.06699 -0.08874
0.10995 0.01517 0.07017
0.14022 -0.08248 0.16144
-0.08380 -0.24902 -0.18229
-0.11061 0.23332 0.19355
-0.05952 -0.10744 0.17783
-0.13692 0.26919 0.19854
0.18160 -0.07742 -0.13018
-0.10028 0.01517 0.14067
-0.13643 0.40197 -0.17318
0.12171 0.03476 0.20857
-0.20753 0.12786 -0.04857
0.05789 0.06699 0.20260
-0.16701 0.01517 -0.12215
-0.20354 0.12715 -0.06929
-0.14987 0.20397 0.04279
-0.07304 0.01517 0.13635
0.15191 0.01517 0.07693
-0.11472 0.19058 -0.19701
-0.02114 0.01517 -0.03533
-0.09348 -0.35340 -0.19225
-0.14741 0.33641 -0.18603
-0.17866 0.25995 -0.13682
0.14131 -0.10012 0.17720
-0.15279 0.05131 -0.17961
0.16131 -0.17124 -0.17628
-0.21034 0.18141 -0.02530
0.21195 0.05599 -0.10194
0.18690 0.06699 -0.17436
-0.07706 -0.29759 0.17455
-0.18229 0.37121 -0.12919
-0.10399 -0.06952 -0.14058
0.19382 -0.23323 0.19012
-0.10265 -0.20983 -0.15373
-0.07878 0.06699 0.17569
-0.09749 -0.20983 0.15745
-0.11686 -0.08688 -0.19297
-0.14343 0.06592 -0.19078
0.07160 0.06363 -0.20857
0.18276 -0.10744 -0.18963
-0.10974 -0.09752 -0.14786
-0.15135 0.10773 -0.03511
-0.07625 -0.20983 0.15494
0.18458 -0.10729 -0.20030
-0.08470 -0.00175 -0.18847
0.16080 -0.05866 -0.17207
-0.15229 0.28659 -0.02871
-0.08860 0.01517 0.17464
-0.09362 -0.00175 -0.14946
-0.03328 0.06699 -0.15675
0.19312 0.01517 0.15162
-0.08600 0.21992 0.16945
0.17238 0.06699 0.19877
-0.09924 -0.07742 0.13436
0.16080 -0.15302 0.17294
0.16054 0.01517 0.15819
-0.09676 -0.36081 0.13736
-0.05257 0.01517 0.07949
-0.16666 0.20919 0.15814
-0.10730 -0.09173 0.16142
0.19615 0.01517 0.10451
-0.12159 0.37064 -0.12151
0.00147 0.06699 0.13726
0.02317 0.06699 0.16207
-0.16765 0.09771 -0.15660
-0.03038 0.06699 -0.07789
-0.17124 0.01517 -0.06937
-0.14489 0.23953 -0.06565
-0.14467 0.21793 -0.18929
-0.09672 0.01517 -0.05113
0.17644 -0.10073 -0.20030
-0.09641 -0.22817 -0.19196
-0.14568 0.01517 0.10650
0.11365 0.06322 0.17266
-0.13504 0.10369 0.20079
-0.18235 0.08162 0.12906
-0.09583 -0.10693 -0.12756
-0.20889 0.05497 -0.04153
0.16908 -0.15852 0.15237
-0.11985 -0.21689 -0.16325
-0.19492 0.04539 0.09830
-0.12702 0.11596 -0.11103
-0.20013 0.07833 0.08240
-0.16379 0.26933 -0.16260
-0.03378 0.06699 -0.17672
-0.10273 -0.07974 0.13846
-0.03115 0.06699 0.10565
-0.11263 -0.00175 -0.12385
-0.09083 0.06699 -0.05884
0.15336 -0.31028 -0.16881
-0.19948 0.31396 0.08441
-0.17799 0.28728 -0.13822
-0.09395 0.21424 0.15996
-0.12416 0.01517 0.19725
0.20628 0.01517 -0.01077
0.04192 0.01517 0.18088
0.06852 0.06699 0.14760
-0.17544 0.40197 -0.11314
0.14161 -0.07388 0.20030
-0.02107 0.01517 0.02803
-0.09566 0.01517 -0.18563
-0.14002 0.36759 -0.19485
-0.15466 0.01517 0.02685
-0.03279 0.06699 -0.10570
0.12654 0.01517 0.13760
-0.11601 -0.00175 -0.19015
0.17877 0.01517 0.15605
0.16425 -0.35194 0.13532
-0.10395 0.24620 -0.14804
-0.11727 -0.09194 -0.14041
-0.07706 -0.14823 0.16660
-0.20726 0.12889 0.04998
-0.06416 -0.06952 -0.13534
0.16814 -0.20983 -0.13846
0.19550 0.01517 0.14701
0.20467 -0.00175 -0.14097
0.17818 -0.37706 -0.18343
-0.19462 0.27892 -0.09921
0.19792 -0.08688 0.19725
0.14430 -0.24672 0.12835
-0.20997 0.31787 0.03106
0.12042 0.06342 0.15266
0.15710 -0.38163 -0.15878
0.17384 -0.02056 0.17628
-0.20486 0.30782 0.06243
-0.10748 -0.24074 0.14797
-0.13908 0.17117 -0.08336
0.19250 -0.24141 0.16800
-0.16808 0.04742 -0.15592
-0.08974 -0.06952 0.14269
-0.01396 0.01517 -0.05262
-0.05894 -0.06952 0.13271
-0.05361 0.06699 0.03938
0.13033 -0.00175 0.13533
0.02285 0.01517 -0.19483
0.11419 0.01517 0.12605
-0.18874 0.27775 0.11564
-0.10065 0.06699 0.10082
-0.15132 0.28079 -0.18136
-0.20360 0.35646 0.06896
-0.08699 0.25448 0.17376
-0.08881 0.33871 0.16610
-0.11319 0.40197 -0.18391
0.21195 0.05089 0.12627
0.14989 -0.08688 -0.19309
0.20115 -0.10269 -0.13679
-0.00165 0.06699 0.17299
-0.07834 0.06699 0.03517
-0.11332 0.09571 -0.13439
-0.09340 -0.19289 0.15399
0.18556 0.01517 0.01198
-0.12881 0.06699 -0.04735
0.12096 0.06699 0.00822
-0.04098 0.06699 -0.00148
-0.11426 -0.23762 -0.13851
0.15894 -0.22221 0.13829
-0.06672 -0.08688 -0.19130
0.20942 0.01265 0.13445
0.13982 -0.08688 -0.19653
0.16482 -0.00175 -0.17697
-0.12101 0.31302 0.12242
0.11807 0.06477 -0.16803
0.12125 0.01517 -0.10494
0.13497 0.01127 0.12008
0.02155 0.06699 0.16983
-0.06559 -0.08123 -0.16671
0.21195 0.02933 -0.13758
-0.07921 -0.00175 -0.19608
-0.05000 0.05415 0.20857
0.18467 -0.10611 -0.12835
-0.19085 0.28928 0.11070
-0.18695 0.22863 -0.11940
0.09753 0.06699 0.06960
0.21195 0.03855 0.06671
0.15213 -0.21182 -0.20030
0.20492 0.01517 -0.07398
0.12322 0.01517 -0.05555
-0.09124 0.24423 0.17732
-0.05803 0.01517 -0.18529
-0.14185 0.36985 0.07492
0.05995 0.06699 -0.12363
-0.15333 0.20809 0.01243
-0.10024 0.27387 -0.18486
-0.09339 -0.11997 0.17628
0.00220 0.06699 0.07084
-0.07005 0.06699 0.08101
-0.06730 0.06699 -0.19624
0.05395 0.06699 0.06886
0.16234 -0.10744 -0.17941
-0.20745 0.38344 -0.04898
0.11970 0.01517 0.03509
-0.04321 0.01517 -0.14980
0.17911 0.01517 0.15006
-0.11791 0.06985 -0.12724
0.21195 0.04549 0.09051
-0.09577 0.39123 -0.15779
0.17095 -0.23858 -0.19037
-0.19251 0.01517 0.02451
-0.09340 -0.25928 0.15552
0.14314 -0.07742 0.19604
-0.14519 0.15183 -0.06472
-0.03236 0.06699 0.17396
-0.07950 -0.28028 -0.16086
0.12219 0.06640 -0.12097
-0.02343 0.06699 0.10372
0.18526 -0.24141 -0.19695
0.15272 -0.37385 -0.18559
-0.07068 -0.07271 -0.12756
-0.19841 0.11231 0.08764
-0.11434 0.06699 -0.01473
0.15886 -0.35627 -0.13619
-0.11570 0.19240 -0.13069
-0.12854 0.08144 -0.10782
0.14672 -0.21893 0.19004
-0.09765 -0.38375 -0.16705
0.17591 -0.14234 0.15237
-0.09042 0.01517 0.20203
-0.14431 0.13075 0.06741
-0.11789 0.40164 -0.12727
-0.08383 0.01517 0.05840
-0.11961 -0.23323 -0.13824
-0.17871 0.01517 -0.00589
-0.15104 0.40197 -0.12674
-0.20852 0.09573 -0.04346
-0.11741 -0.24396 0.15601
-0.05305 -0.07596 0.13564
0.11285 0.05311 0.20857
0.19572 0.06699 0.14052
0.03178 0.06699 0.11145
0.01927 0.01517 -0.09878
-0.14267 0.01517 0.08162
0.14411 -0.09194 -0.15771
-0.16163 0.01517 -0.12936
-0.10730 -0.07954 0.15696
-0.20100 0.12137 -0.07976
-0.17344 0.08874 0.14758
0.13004 0.01517 -0.07990
0.11965 0.06535 -0.06528
-0.05183 0.06699 -0.10296
-0.12240 0.25742 0.20344
-0.14568 0.01517 0.04190
0.03181 0.06699 -0.12421
-0.13961 0.37485 0.08173
-0.12202 0.01517 -0.15238
0.18318 -0.36049 0.13725
-0.14484 0.36935 -0.06578
-0.20702 0.13320 -0.05123
-0.06228 -0.06952 -0.17875
0.16080 -0.05191 0.17462
-0.07706 -0.05007 0.17385
0.14279 -0.23323 0.17596
0.19397 -0.06952 0.18879
-0.14977 0.35293 -0.04329
0.19513 -0.20983 0.16906
-0.14802 0.11861 0.05241
-0.11214 -0.10744 -0.14516
-0.09427 0.01517 -0.10388
-0.08984 0.34588 -0.17615
0.14531 -0.07055 -0.20030
-0.19112 0.16845 -0.10988
-0.09537 -0.07742 -0.13244
0.14531 -0.33519 0.13528
0.14072 0.06561 -0.20857
-0.09583 -0.17593 -0.15984
-0.04917 0.06699 -0.08287
-0.12702 0.36419 -0.11104
0.00412 0.01517 -0.10911
-0.10295 0.06699 0.03185
-0.10542 -0.09632 0.19660
0.16257 -0.25070 0.17628
0.14220 -0.06952 -0.14293
0.10521 0.01517 -0.09943
-0.01697 0.06699 0.10619
0.04983 0.06699 -0.05535
0.07319 0.01517 0.01013
0.17540 -0.23762 0.19878
0.00300 0.01517 0.00738
0.02539 0.01517 0.19540
-0.06359 0.04652 -0.20857
-0.07996 0.01517 0.04449
-0.08756 -0.30626 -0.18006
0.12141 0.06699 -0.17528
-0.12935 0.06699 0.09590
-0.00870 0.01517 0.15238
-0.14584 0.39846 0.06276
0.21195 0.03835 -0.15638
0.08128 0.06699 -0.14404
0.17713 -0.20275 0.15957
0.19114 -0.07209 -0.12835
-0.08580 0.10961 0.16969
-0.10991 -0.24000 -0.16269
-0.17325 0.20963 0.14788
0.17376 -0.13656 -0.15237
0.01021 0.06699 0.02233
0.01103 0.06699 0.06363
0.18909 -0.31820 -0.18525
-0.15248 0.31506 0.02572
-0.10514 0.07930 0.14662
-0.07160 -0.00175 -0.15763
-0.10937 0.01517 0.17130
-0.09415 -0.24313 0.20030
-0.11985 -0.07383 -0.17302
0.21195 0.01900 -0.14839
-0.12048 0.38780 0.20183
-0.13273 0.22412 -0.20355
-0.19379 0.04662 -0.10173
-0.21057 0.33007 0.02173
0.10745 0.06699 0.06950
-0.09123 0.20503 0.17732
-0.09639 -0.10744 0.19417
0.19868 -0.21871 0.16341
0.17448 0.03804 -0.20857
0.14410 -0.23762 0.13728
0.12241 0.06699 0.05834
0.11725 0.06699 -0.10779
-0.15299 0.28312 -0.01771
0.17713 -0.05634 -0.16989
0.17426 0.06699 0.20774
0.05354 0.01517 -0.17791
-0.06975 -0.35462 -0.13506
-0.15895 0.32933 0.17015
0.04845 0.01517 0.02131
-0.05994 -0.23323 0.16223
-0.07086 -0.08688 -0.19795
0.14458 -0.08688 -0.18153
-0.11076 0.01517 -0.03425
-0.08998 -0.24141 -0.19064
-0.13128 0.20830 0.10208
0.10844 0.06699 0.05992
0.10062 0.05232 -0.20857
0.17713 -0.01038 0.17431
-0.19843 0.06247 0.08760
-0.09331 0.01517 -0.14958
0.18744 -0.33107 -0.19255
-0.20419 0.36715 -0.06593
-0.18354 0.04882 0.12656
-0.00546 0.01517 0.03158
-0.14113 0.11152 -0.07710
-0.21177 0.03352 0.00276
-0.14191 0.16811 0.19259
0.18272 0.01517 0.18748
-0.08435 -0.09194 0.19617
-0.04664 0.00642 0.20857
-0.11314 0.40197 -0.15713
0.02853 0.04112 0.20857
0.17167 0.01517 -0.12641
-0.09404 0.37133 0.15986
0.15545 0.01517 0.14087
0.20600 0.01517 -0.08380
0.14941 -0.21871 0.13730
0.15491 0.06699 -0.18499
-0.12375 0.23717 -0.20457
-0.09901 -0.36385 -0.18946
-0.05555 -0.08688 0.19263
-0.10991 -0.22301 -0.15960
-0.21149 0.29628 0.00726
-0.08439 0.08069 0.17158
-0.20171 0.08148 -0.07758
-0.18465 0.16449 -0.12422
0.17066 -0.25392 -0.15237
0.16422 0.01517 -0.11394
-0.06316 -0.08718 0.14086
-0.13998 0.27539 -0.08060
0.11149 0.01517 0.17620
-0.20419 0.15460 0.06593
0.15802 -0.21871 -0.19501
-0.20987 0.27094 -0.03268
0.13028 0.01517 -0.01866
-0.09888 0.40197 -0.15896
-0.16214 0.40197 0.05247
0.17983 -0.22377 0.19260
0.21195 0.03490 0.17986
-0.11767 0.00122 0.20857
-0.08597 0.00162 -0.11929
-0.19770 0.08863 -0.08981
-0.16008 0.18166 0.16839
-0.10930 0.17170 -0.19246
0.00681 0.01517 -0.15516
-0.05661 0.06699 -0.06202
-0.13036 0.01517 0.13387
-0.08974 0.14131 -0.16498
0.17713 -0.17018 0.16086
0.15323 -0.06952 0.19762
-0.07706 -0.19011 0.16595
0.00213 0.06699 -0.14761
-0.06045 0.04018 0.20857
0.20073 -0.08248 -0.13222
0.13678 -0.21848 0.18625
-0.10557 0.28998 -0.18934
-0.11466 -0.23762 -0.16744
-0.06768 0.01517 -0.00599
0.17713 -0.39090 0.17470
-0.18659 0.02228 -0.12015
-0.21167 0.05202 -0.00438
0.20064 -0.22377 -0.16963
0.13914 -0.09632 0.17998
-0.18433 0.40197 0.05590
-0.04505 -0.00175 0.15202
-0.07950 -0.27782 -0.15288
0.21195 0.01811 0.16827
-0.20960 0.30331 -0.03701
0.02922 0.01517 -0.13028
-0.14521 0.22045 0.06466
-0.10230 0.17777 0.18659
-0.11343 -0.24902 -0.13206
0.18639 0.01517 0.12278
-0.20423 0.26934 -0.06568
-0.09685 0.01345 0.20857
0.13768 -0.22817 0.19360
-0.13167 0.40197 0.14003
-0.15627 0.06587 -0.17433
-0.20024 0.16849 0.08207
-0.10032 0.19997 0.18493
-0.03484 0.01517 0.08404
-0.14795 0.01517 -0.06353
-0.17191 0.01517 0.09609
-0.14141 0.22375 -0.07625
0.14152 -0.22817 -0.16322
0.16845 0.01517 0.15482
-0.15254 0.19127 0.02481
0.19324 -0.33026 0.16873
0.05297 0.01517 -0.04977
0.10876 0.06320 -0.13024
0.17791 -0.30784 -0.18208
0.01777 0.06699 0.01035
0.19691 0.06699 -0.07256
-0.00326 0.01517 0.09778
0.13682 -0.08688 -0.16833
-0.08714 -0.00574 -0.17549
-0.13756 0.10501 -0.08797
0.14622 -0.08688 0.19715
-0.11315 -0.34919 -0.16372
0.17329 -0.07240 0.12835
-0.19034 0.03324 0.11225
-0.01746 0.06699 0.06216
-0.14393 0.25639 0.06858
-0.16970 0.40197 0.10799
-0.11283 0.35328 -0.13515
-0.09834 -0.00175 -0.16292
-0.18866 0.18272 0.11580
-0.06608 0.01517 0.17945
-0.21093 0.03220 -0.01603
-0.07950 -0.11737 -0.17280
-0.09156 -0.17559 0.15237
-0.15158 0.35266 0.03389
-0.11929 -0.24902 -0.18185
0.15987 -0.33066 -0.19247
-0.00062 0.06699 0.01344
-0.21167 0.14733 0.00429
-0.06905 0.01517 -0.16485
0.01701 0.01517 -0.16532
0.06109 0.01517 0.10922
0.14207 -0.09194 0.19100
0.08537 0.06699 -0.11513
-0.21010 0.20615 -0.02906
0.16080 -0.28065 0.16007
-0.19047 0.19264 0.11184
-0.10742 -0.21871 0.19499
0.14690 -0.08075 0.15159
-0.07706 -0.11850 0.16777
0.18005 -0.38251 0.15684
0.00094 0.01517 -0.14910
0.10106 0.06699 0.13389
-0.06234 -0.34683 -0.13410
0.21195 0.04699 -0.08081
0.17521 -0.09632 -0.13313
0.14492 0.01517 -0.03892
-0.07706 -0.02990 0.15345
-0.10330 0.01517 0.20239
-0.11023 0.38642 0.13920
-0.05444 0.01517 0.04272
-0.06857 -0.37074 -0.14764
-0.06181 -0.34360 -0.14513
-0.14580 0.12706 -0.06286
0.15997 -0.10008 -0.13846
-0.14601 0.01517 0.05378
-0.06209 -0.33914 -0.17827
0.14594 -0.36124 0.15695
-0.15197 0.25421 0.03186
-0.20700 0.12069 0.05134
0.14690 -0.08177 -0.15305
-0.07411 0.06699 0.06531
-0.12137 0.01517 -0.00050
-0.09020 0.01517 -0.01341
-0.20982 0.11779 0.03348
0.19677 0.00245 0.12008
-0.15619 0.13711 0.17444
-0.06227 0.06699 -0.07174
0.14057 0.00597 -0.12008
-0.05723 -0.10012 0.15414
-0.01170 0.01517 -0.10986
0.11155 0.06608 -0.19263
0.16735 -0.40197 0.16413
0.16004 -0.30196 0.16866
0.11259 0.01517 -0.08969
0.17182 -0.02379 -0.15237
-0.14713 0.24767 0.18636
-0.15385 0.18949 -0.17809
0.10489 0.01517 -0.01618
-0.11715 0.06699 0.04784
-0.13659 0.38947 0.19894
-0.18705 0.35111 -0.11919
-0.01052 0.01517 -0.06296
-0.19180 0.08547 0.10780
0.20474 0.01517 0.18090
-0.07950 -0.13511 -0.15795
0.19435 -0.35069 -0.18908
-0.04458 0.06699 -0.12336
-0.08432 0.27593 -0.17153
-0.19993 0.15470 -0.08301
-0.07706 -0.15584 0.15960
-0.11385 -0.24141 -0.19217
-0.07774 -0.22817 -0.19468
-0.09698 0.35789 -0.15635
-0.11333 -0.34645 -0.15873
0.14666 -0.10012 0.17395
-0.11985 -0.24413 -0.18069
-0.03661 0.01517 0.01552
-0.09812 0.07937 0.18309
0.18236 0.06699 0.17081
-0.11896 0.13344 0.12561
0.13117 0.01517 0.20022
-0.19843 0.33394 0.08758
0.01251 0.06699 -0.04721
-0.19393 0.24511 -0.10130
0.05675 0.06699 0.08622
-0.17707 0.40197 0.12840
-0.08167 -0.32437 0.19070
-0.05548 -0.10163 -0.13878
-0.10438 -0.09632 -0.19759
0.13882 -0.00175 0.18502
0.19678 0.04258 -0.20857
0.14723 -0.06952 0.14341
-0.07370 -0.06952 0.15631
0.19562 -0.10744 0.19739
-0.17304 0.05704 -0.14820
-0.07070 0.01517 -0.01550
-0.06648 0.01517 0.05909
0.16080 -0.39317 0.15927
-0.13727 0.29008 -0.19813
0.02002 0.01517 0.02478
0.18742 -0.24902 -0.13204
0.18276 -0.37931 -0.16429
-0.11985 0.18648 0.12423
-0.08459 -0.19858 -0.15157
0.21150 0.01517 -0.10666
-0.05496 -0.23762 0.19156
-0.20216 0.17548 0.07624
0.14258 -0.07742 0.14360
-0.09490 -0.23762 0.13427
-0.07616 -0.23762 -0.12759
0.18620 -0.10744 -0.14572
0.12135 0.06699 0.10665
0.15102 -0.06952 0.17612
-0.16124 0.01517 0.00484
-0.10348 -0.20985 -0.19951
0.17937 0.01517 0.08262
-0.21134 0.06908 0.00960
-0.09583 -0.39091 -0.15758
0.13039 0.06699 0.07052
0.19304 -0.10012 -0.15258
0.13678 -0.07492 0.18535
0.17313 -0.04504 0.15237
-0.09340 -0.13819 0.17474
-0.06679 -0.34625 -0.19300
-0.21059 0.17589 -0.02131
-0.14866 0.35346 -0.04907
-0.11224 0.01517 0.03003
0.13692 -0.06952 0.17004
-0.03191 0.06699 0.01218
0.18002 0.06699 -0.03456
-0.03262 0.06306 -0.20857
-0.07209 -0.20983 -0.15259
0.02692 0.01517 0.15380
-0.05645 0.01517 0.16797
0.19122 -0.23118 0.15372
-0.09928 -0.37787 -0.14497
0.06824 0.06699 -0.17780
0.16185 -0.00175 0.13819
-0.11600 -0.21871 0.19994
-0.01926 0.06699 0.00439
0.05633 0.01517 -0.07301
-0.08435 0.01517 0.12337
0.19683 -0.23323 0.19984
-0.20428 0.03419 -0.06545
0.19782 0.01517 0.19841
0.11557 0.01629 0.20857
0.21195 0.06028 -0.20033
-0.20148 0.05134 -0.07829
-0.18658 0.14601 -0.12018
-0.02484 0.06699 0.08756
-0.09743 -0.23527 -0.19951
-0.08398 0.01517 -0.15408
0.20451 0.01002 -0.20857
-0.11854 0.40197 0.15308
0.19845 0.06699 -0.01106
0.18087 -0.23744 0.20030
-0.07087 -0.31361 -0.14191
-0.09583 -0.16586 -0.16199
0.04344 0.06699 -0.12790
-0.12615 0.09537 -0.20658
0.15320 -0.07742 0.19821
-0.21111 0.09197 0.01322
0.01641 0.01517 -0.18123
0.15410 -0.20983 -0.17208
-0.14157 0.01517 0.00335
-0.18428 0.29306 -0.12502
-0.18818 0.29992 -0.11682
0.13952 0.01517 0.07426
0.17574 0.06699 -0.14575
-0.14742 0.40136 0.05551
-0.16804 0.03900 -0.15599
0.10303 0.01517 0.05888
0.03880 0.01517 -0.03879
-0.05501 -0.22817 0.13376
0.13678 -0.24680 0.13899
0.17709 0.01517 0.16159
0.18334 -0.10744 0.15971
-0.12823 0.23981 0.10848
-0.19868 0.21918 0.08682
0.14237 -0.10012 0.13085
-0.21073 0.21401 0.01920
-0.09340 -0.04830 0.17252
0.01329 0.06699 0.15972
0.14694 0.06699 -0.04045
-0.14801 0.01517 -0.12371
-0.06154 -0.24902 -0.17925
0.20237 0.01517 0.15586
-0.08430 0.07025 0.17150
0.17507 0.01517 -0.17954
-0.12749 0.16997 0.11004
-0.11873 0.40197 0.17509
-0.13081 0.35962 0.20584
0.00745 0.06699 0.15527
-0.20605 0.16060 0.05627
0.03700 0.06699 0.17103
0.11181 0.06699 -0.15942
-0.20534 0.09915 0.05993
-0.09583 -0.00247 -0.15840
-0.11011 -0.24902 -0.15679
-0.14291 0.39476 0.19140
-0.06289 0.01517 -0.12517
0.04357 0.06699 0.14556
0.03940 0.01517 -0.09576
-0.06405 -0.09632 -0.16950
-0.14840 0.10215 0.05043
-0.15363 0.28997 -0.00767
-0.08033 -0.24902 -0.14653
-0.15520 0.01517 0.06960
-0.21090 0.07448 0.01650
0.17713 -0.00960 0.15252
-0.14658 0.30806 -0.05988
-0.10055 -0.24160 -0.19951
0.17278 0.01517 -0.14815
0.11794 0.01517 0.16048
-0.19191 0.29678 -0.10746
-0.08975 -0.26263 0.17628
0.21195 0.01675 0.20577
-0.07912 -0.10744 -0.17533
0.17713 -0.19442 -0.15351
0.03377 0.01517 -0.07973
-0.07110 -0.20983 -0.13251
-0.20253 0.19422 0.07453
0.08704 0.06699 0.15232
0.15744 -0.06952 0.14977
-0.19520 0.16887 0.09745
0.00280 0.06699 -0.15260
0.10904 0.06699 0.20089
0.15129 -0.22377 0.19753
-0.15893 0.28978 -0.17019
0.18568 -0.34694 0.13490
-0.08437 0.34602 0.17156
0.14088 -0.08248 -0.14651
-0.09861 0.30811 0.15441
0.05757 0.01517 0.15227
-0.11850 0.01517 -0.08778
-0.13288 0.04920 0.20336
-0.14924 0.16173 0.04604
-0.17952 0.40197 0.01775
0.19814 -0.07742 0.16791
-0.08167 0.06699 0.03913
0.06426 0.06699 -0.14791
-0.20380 0.04123 -0.06793
-0.07706 -0.14883 0.17612
-0.01998 0.06699 0.09236
0.08285 0.01517 0.13828
-0.08972 0.06699 -0.16221
-0.08894 0.01517 -0.13884
-0.09649 0.20253 -0.18172
-0.14040 0.09491 -0.07933
-0.11119 0.17084 0.13770
-0.10020 0.21506 0.15251
-0.10913 0.08854 -0.14092
-0.11219 -0.33153 -0.15296
-0.09335 -0.01403 -0.15157
-0.13172 0.32046 0.10114
0.12852 0.01273 -0.17167
0.16653 -0.05159 -0.17628
-0.14622 0.07775 0.06160
0.01061 0.01517 -0.10553
0.16080 -0.01029 -0.16167
0.08652 0.06699 0.00649
-0.12149 0.06699 0.09903
-0.05306 0.01517 0.18030
0.21195 0.05597 -0.17492
-0.17340 0.02465 0.14764
-0.19939 0.40197 0.00308
-0.18100 0.01517 0.00712
0.13942 -0.23323 -0.19033
-0.15039 0.13816 -0.04008
-0.11741 0.06699 -0.11076
0.16481 -0.08987 0.13846
-0.08398 -0.10744 0.14116
-0.17569 0.11431 -0.14307
0.13993 -0.10744 -0.16354
-0.04628 0.01517 0.00949
-0.08110 0.01517 0.00527
-0.18710 0.30397 0.11909
-0.15260 0.30430 -0.02396
0.17894 0.01517 -0.17310
-0.18030 0.12436 -0.13339
-0.12677 0.19202 -0.11156
0.20884 -0.00175 0.12687
0.05670 0.01517 0.20777
-0.09108 0.06699 0.03507
-0.12773 0.14168 -0.10953
0.04220 0.06699 -0.07986
0.07160 0.01517 0.00389
-0.15968 0.24610 -0.16902
0.19221 -0.35211 0.19330
0.18269 0.01517 0.07734
0.20471 0.01517 0.19918
-0.09604 -0.38282 0.17359
0.19260 -0.20983 -0.19164
0.17713 -0.02953 0.15666
-0.12821 0.17674 -0.20831
0.05949 0.06699 -0.15021
-0.01219 0.01517 0.17286
0.17047 -0.10012 0.13791
0.17956 -0.06952 -0.15393
0.16080 -0.02001 -0.17170
-0.06269 -0.33380 -0.17149
-0.11078 -0.23323 0.19093
0.17872 -0.24902 0.13273
0.19458 -0.34722 0.16518
-0.07502 0.01517 0.10052
0.20942 0.00155 -0.15651
-0.13563 0.25005 0.20008
-0.05282 0.01517 0.15309
0.00463 0.01517 0.02981
-0.19421 0.01517 -0.08506
-0.16485 0.15684 0.16096
-0.20655 0.37467 -0.05366
-0.05528 -0.23323 0.14037
0.03045 0.06699 -0.13920
-0.11586 -0.06952 0.17535
0.07822 0.06699 -0.19532
-0.18249 0.01517 -0.10127
-0.16865 0.16425 0.15504
-0.10106 -0.20983 0.15354
-0.13831 0.38329 0.08569
-0.14329 0.40197 -0.10083
0.13987 0.03172 -0.20857
0.02663 0.06699 -0.04167
0.17152 -0.15232 0.17628
-0.10536 0.32700 -0.18915
-0.06812 0.06699 -0.01975
0.17109 -0.05313 -0.15237
-0.15372 0.14876 0.00621
0.16665 -0.22817 0.12944
-0.21113 0.23034 -0.01278
0.19027 -0.22510 0.20030
-0.14313 0.38637 -0.07101
0.16023 0.01517 -0.04464
-0.14000 0.26114 -0.08055
-0.04478 0.00676 0.17825
0.01555 0.06699 0.08966
-0.05828 -0.23592 -0.19951
-0.09004 -0.20307 0.15237
-0.07848 -0.38465 -0.16917
-0.08555 0.01517 0.20827
-0.11985 -0.24588 -0.19274
-0.11792 -0.22817 -0.15305
-0.09426 -0.18006 -0.15157
-0.07950 -0.05057 -0.15313
-0.20289 0.10014 0.07266
0.19105 -0.36399 -0.14620
0.04861 0.06699 0.02362
-0.18794 0.16662 0.11731
0.21195 0.02670 -0.04871
-0.20768 0.40197 -0.02927
-0.07364 -0.21201 0.12835
-0.16394 0.23092 -0.16238
0.17721 0.01517 0.20014
-0.15721 0.01517 0.16475
-0.20817 0.13039 0.04524
0.17713 -0.28586 0.17321
-0.05540 0.01427 -0.11929
-0.17579 0.19264 0.14286
-0.16072 0.40197 -0.08830
-0.15974 0.04065 0.16892
0.18777 -0.22453 -0.12835
-0.10231 0.05046 -0.20857
-0.07485 -0.23323 -0.19062
0.10196 0.06699 -0.16322
0.15260 -0.08248 0.19045
-0.08990 -0.30181 0.17691
-0.00186 0.06699 -0.07668
-0.18901 0.02379 0.11506
-0.21150 0.36471 0.00704
-0.15014 0.06669 -0.18277
-0.01802 0.06699 -0.16653
-0.15215 0.11840 0.03089
0.01833 0.06699 0.09886
0.19159 -0.22377 0.13284
0.19812 0.01517 0.15942
0.17279 0.01517 0.00531
0.17227 -0.23323 0.19808
0.12852 0.00250 0.16435
-0.12960 0.21803 0.20727
0.00447 0.06699 -0.03672
-0.19601 0.29594 -0.09497
-0.05956 -0.24141 -0.17749
-0.05137 0.01517 -0.19421
0.07377 0.01517 0.11630
-0.20253 0.01603 0.07455
0.08870 0.04000 0.20857
-0.15519 0.22983 0.17601
0.20029 0.01517 -0.03246
-0.21079 0.07226 -0.01825
-0.05390 -0.22817 0.19353
0.14672 -0.22862 0.17322
-0.06324 -0.32264 0.17152
0.04675 0.01517 -0.14489
0.20942 0.01245 -0.18085
0.03192 0.06699 -0.10448
-0.20517 0.24567 -0.06085
-0.09093 -0.03945 -0.15157
0.16080 -0.39613 0.17267
-0.13223 0.01517 -0.07453
0.16080 -0.18838 -0.15292
-0.14749 0.30815 0.05515
0.20030 -0.00175 -0.12719
-0.11349 -0.09632 -0.18816
-0.15880 0.38670 -0.17037
-0.12812 0.01020 -0.17195
0.12116 0.01517 0.20716
0.09376 0.06699 -0.01269
0.18072 -0.22776 -0.12835
0.16920 0.06699 0.01204
0.15131 -0.31332 0.15614
-0.19982 0.17569 0.08336
0.07767 0.01517 -0.15282
0.20092 -0.24141 0.17995
-0.09214 0.01214 -0.20777
0.16589 -0.03111 0.15237
-0.04274 0.06571 0.20857
0.16901 -0.21871 -0.13566
-0.11413 0.01517 -0.17113
0.14211 -0.23762 -0.18365
-0.09366 0.11670 0.16031
-0.11653 -0.24902 0.13196
-0.06779 -0.24902 0.14299
-0.19176 0.40197 -0.07486
-0.14950 0.27509 -0.04468
0.19285 0.06699 0.10175
-0.05746 -0.10012 0.17204
0.02177 0.01517 0.04547
-0.20939 0.23358 -0.03890
0.14189 -0.20983 0.12880
0.14755 -0.23323 0.13580
0.17088 -0.26717 -0.15237
0.18490 -0.09194 0.12947
-0.08991 0.01517 -0.10034
-0.07326 0.04010 0.20857
-0.09941 -0.10744 0.18392
0.16080 -0.29615 0.17047
0.13974 -0.10744 0.14048
-0.18267 0.20164 -0.12840
0.07062 0.06699 0.07446
0.21195 0.04093 -0.00359
-0.06651 0.01517 0.14804
-0.19847 0.36007 -0.08746
-0.20658 0.33949 0.05349
-0.14863 0.28553 -0.18457
0.18805 -0.10744 0.13496
-0.10730 -0.08080 0.17633
-0.13558 0.01517 -0.03983
0.21195 0.06250 0.14691
-0.14810 0.35838 -0.05199
-0.11677 0.01517 -0.15201
0.10126 0.06699 -0.08679
-0.01964 0.06699 0.13129
-0.10919 -0.32127 -0.17949
0.13186 0.04892 -0.20857
-0.13295 0.38638 -0.20328
-0.14614 0.20151 0.18754
-0.15255 0.40116 -0.02459
-0.18013 0.03857 0.13373
-0.15772 0.37710 -0.17206
-0.09284 0.38394 0.16129
-0.20965 0.31990 0.03614
-0.13697 0.01517 -0.05988
-0.07472 -0.22377 -0.12873
0.21195 0.03821 -0.05834
-0.09123 0.34249 -0.16322
0.14482 0.01517 0.18796
0.18122 -0.10744 0.17738
-0.02173 0.06699 0.15623
0.12559 0.06699 -0.08813
-0.17445 0.33589 -0.14569
-0.05640 -0.08248 -0.18993
-0.10882 0.00936 0.12008
-0.15277 0.39136 0.02118
-0.11383 0.33882 0.19625
-0.06783 0.01517 0.15281
0.19024 -0.32053 0.15302
-0.09151 -0.01900 0.15237
-0.03377 0.01517 0.19769
-0.14161 0.22512 0.07565
0.02521 0.01517 0.01495
-0.08962 -0.22817 -0.13334
0.00307 0.01517 0.01530
-0.11539 -0.00175 0.19064
-0.11741 -0.07534 0.17381
0.13823 -0.23762 -0.14516
0.19375 -0.33282 0.16413
-0.18948 0.02251 -0.11406
-0.00671 0.06604 0.20857
-0.10200 0.01517 -0.11442
-0.14533 0.36038 -0.18851
0.19971 0.06699 -0.11085
-0.05548 -0.24777 -0.16386
-0.11453 -0.00175 -0.12962
0.14090 0.00784 -0.20857
-0.06303 -0.20983 0.19931
-0.21170 0.27303 0.00389
0.20058 -0.08688 0.18737
-0.12887 0.28122 0.10715
-0.10806 0.01517 -0.12657
-0.20961 0.29944 0.03681
0.17614 -0.24141 0.13299
0.15618 0.00658 0.12008
0.12312 0.06699 0.17230
0.03801 0.06699 0.11592
-0.08949 0.39110 -0.16529
0.05306 0.06699 -0.08867
0.19737 -0.07742 -0.13002
-0.11750 0.01517 0.03427
0.19298 -0.10012 0.16135
-0.20349 0.19173 0.06956
-0.10827 0.11743 0.19159
-0.12721 0.18257 -0.20747
0.18030 -0.08688 -0.19481
0.10420 0.06699 0.08135
-0.13090 0.25427 0.20573
-0.14894 0.01517 -0.01010
-0.18629 0.20494 -0.12077
-0.20955 0.23471 0.03778
-0.10639 0.06699 -0.12271
-0.20536 0.18763 0.05984
0.10347 0.01517 0.20484
0.14692 -0.06952 -0.13160
-0.19833 0.10680 -0.08791
-0.06827 -0.07306 0.20030
-0.06772 0.01517 -0.11648
-0.11309 0.10249 -0.13475
-0.19889 0.30743 0.08620
-0.12298 0.32977 0.11934
-0.06412 -0.24141 -0.19746
-0.02608 0.01517 -0.01499
-0.12812 0.00889 -0.20160
0.15278 0.01517 -0.13578
-0.07159 -0.31097 -0.17281
0.19122 -0.23943 0.15215
-0.18062 0.40197 -0.10243
0.13523 0.01517 -0.11294
-0.15684 0.19895 0.17344
-0.09583 -0.15733 -0.16417
-0.10643 0.01517 0.10642
-0.14839 0.40197 -0.05317
0.19609 -0.09194 0.17902
0.17713 -0.04424 -0.17111
-0.11459 -0.10744 0.19525
0.13678 -0.21482 -0.17827
-0.08916 -0.09632 0.13770
0.17713 -0.11738 0.16505
-0.08671 0.17299 0.17353
-0.09529 -0.21610 0.12835
-0.21006 0.07163 -0.02974
-0.17238 0.01517 -0.05581
0.17098 0.00710 0.20857
0.14312 -0.34368 0.19298
0.14869 -0.00175 -0.17611
-0.11139 0.31006 -0.13739
0.13164 0.01517 -0.09179
0.21195 0.01907 -0.20430
0.17355 -0.20072 -0.15237
0.17198 -0.12077 -0.17628
0.20115 -0.21567 -0.14980
-0.05728 -0.09632 0.13315
-0.14157 0.07524 0.19299
-0.09095 0.01517 0.19343
-0.11824 0.18975 -0.12673
-0.13003 0.16280 -0.20677
-0.15278 0.32834 0.17963
-0.19500 0.01517 0.06192
0.17499 0.01517 -0.00262
0.04735 0.01517 -0.10710
-0.08181 0.01517 -0.12419
0.21195 0.03842 0.05876
-0.08574 0.33518 0.17271
-0.12493 -0.00175 -0.17460
-0.06783 -0.07790 0.19019
0.10967 0.06699 0.02655
0.16783 -0.32373 -0.19049
0.20091 0.06215 -0.20857
0.14305 -0.00175 -0.14428
-0.06105 0.06699 0.19951
0.17713 -0.13486 0.15668
-0.11821 0.01517 0.17843
-0.06298 -0.23785 0.13970
0.09690 0.01517 0.09555
-0.12527 0.40197 -0.18482
-0.12693 0.35364 0.11122
0.15716 0.01517 0.10493
-0.15300 0.21767 -0.01756
0.17659 -0.23762 0.19222
-0.14816 0.37840 -0.05163
-0.08752 -0.00175 0.14100
0.17681 0.01517 -0.20638
0.02301 0.06699 -0.19183
-0.06412 0.06699 -0.04183
-0.21046 0.03132 0.02335
-0.09511 -0.30303 0.15728
-0.06384 0.06699 -0.10528
0.09580 0.06699 -0.18027
0.13678 -0.10152 0.16005
-0.15170 0.26565 -0.03329
-0.20458 0.34797 0.06391
-0.07372 -0.35699 0.19232
0.13695 -0.10744 -0.15180
-0.11116 0.06699 0.12295
-0.09161 0.27224 0.16276
0.04805 0.01755 0.20857
-0.14976 0.33971 0.04334
-0.13549 0.27305 -0.20025
-0.01984 0.06699 0.05421
-0.10433 -0.23048 0.13829
-0.06971 -0.08991 0.19019
-0.06859 -0.06952 -0.14802
-0.19717 0.01517 -0.07956
0.19720 -0.09632 0.16874
-0.04478 0.00024 0.12136
-0.06361 0.06699 -0.20565
0.20332 0.01517 0.14573
-0.19355 0.35666 0.10245
0.14833 -0.21443 0.20030
0.21195 0.06147 -0.10454
0.06243 0.01517 -0.18722
-0.21107 0.21796 0.01375
-0.08608 0.07661 -0.17299
-0.19370 0.36290 -0.10201
-0.10481 0.31347 0.14701
0.17713 -0.19407 -0.15985
-0.10902 0.28976 -0.14109
0.19920 0.01517 -0.06543
0.20642 -0.00175 0.16462
0.10365 0.06699 0.09405
-0.15379 0.40197 0.13257
-0.06356 -0.10210 -0.12756
-0.05348 -0.23323 0.13292
-0.01874 0.06355 0.20857
0.12852 0.00444 0.14914
-0.21030 0.14440 0.02587
-0.12685 0.01517 0.00804
-0.09576 -0.26149 -0.17549
-0.10397 0.12227 -0.14800
0.20130 0.06699 0.03139
-0.15259 0.27540 -0.02403
-0.20532 0.13809 0.06003
0.18343 -0.35095 -0.19349
0.21195 0.05146 -0.19581
0.17144 -0.34220 -0.13475
-0.19829 0.18571 0.08803
-0.09518 0.11956 -0.15850
0.19023 -0.24902 0.15452
0.09415 0.06699 0.04454
-0.21186 0.06157 -0.00140
-0.11773 0.16337 0.12752
-0.11873 0.21805 0.12596
0.13101 0.01517 -0.03609
-0.11741 -0.23592 0.13924
0.16168 -0.06890 0.17628
0.04599 0.01517 -0.13712
-0.08126 -0.18199 -0.15157
0.21195 0.04446 0.14665
0.13136 0.01517 0.13053
-0.16804 0.20170 -0.15599
-0.11813 -0.21871 -0.19043
0.19330 -0.21871 0.14743
0.17154 -0.21871 0.13753
-0.01937 0.01517 -0.20012
-0.10394 -0.37563 -0.16170
0.13741 0.01517 -0.13648
-0.09384 -0.22817 0.19750
0.15604 -0.20983 -0.15437
-0.05903 -0.24902 -0.13991
-0.07157 -0.34583 0.13483
-0.16802 0.01517 0.12933
-0.15622 0.07542 0.17439
-0.15329 0.16489 -0.17896
-0.02720 0.01517 0.03913
-0.00540 0.06699 0.05353
-0.12332 0.31149 -0.11880
-0.18469 0.32066 0.12415
-0.17949 0.20869 0.13507
-0.14710 0.20541 -0.18640
0.11645 0.06699 -0.09901
-0.07706 -0.16327 0.15272
-0.14125 0.18398 0.07674
-0.08984 0.06699 -0.04295
0.05563 0.06699 -0.00858
0.16209 -0.22817 0.19856
-0.06833 -0.00175 0.15276
-0.20710 0.28736 0.05080
0.19107 -0.07742 -0.19676
0.15612 0.05153 0.20857
-0.08506 0.19818 0.17058
-0.20949 0.01517 0.03710
0.06189 0.01517 -0.00704
-0.16575 0.22281 -0.15955
0.20074 0.05669 0.20857
-0.10466 -0.00175 -0.15910
-0.15750 0.40197 -0.12582
0.14349 -0.34933 0.16909
-0.05143 0.01517 -0.10108
0.18771 -0.32187 -0.18985
-0.11556 -0.07742 -0.14538
-0.00347 0.06699 0.12169
-0.00615 0.01517 -0.00139
-0.09340 -0.02427 0.16044
-0.18527 0.26564 -0.12292
-0.13711 0.26097 -0.08936
-0.18888 0.01517 -0.00583
-0.08630 0.19573 -0.16909
0.21195 0.05322 0.10151
-0.20451 0.07008 -0.06424
-0.11654 0.01737 -0.20857
-0.10086 -0.06952 -0.18512
-0.08100 -0.03799 0.17628
-0.13066 0.01517 0.19819
0.20942 0.00854 0.17963
0.15977 -0.00175 -0.17356
0.10224 0.06699 -0.16826
-0.15103 0.35119 -0.03677
-0.06298 -0.22367 0.15125
-0.07104 -0.10744 0.18756
-0.20734 0.14124 -0.04956
0.13056 0.01517 0.07689
0.08580 0.01517 -0.00482
0.13896 0.01517 0.12194
0.21195 0.03132 0.20069
-0.09703 0.01902 -0.20857
0.19678 -0.10012 -0.14613
-0.14533 0.11041 0.18852
-0.12153 0.37560 -0.12160
-0.10171 0.30352 0.18609
0.13885 -0.00175 0.20118
-0.10124 -0.08248 -0.19775
-0.17596 0.27329 -0.14251
-0.10878 0.01517 0.16600
-0.08512 0.35854 0.17050
-0.08591 -0.06952 -0.17859
-0.15419 0.02274 -0.17757
-0.07706 -0.02424 0.17325
0.08888 0.06699 0.16275
0.09889 0.06699 -0.19496
-0.14283 0.17302 0.19150
0.04583 0.04349 0.20857
0.14690 -0.08986 -0.17172
-0.15399 0.31364 -0.00195
-0.08143 0.01517 -0.17097
-0.08378 -0.40197 -0.15356
0.12404 0.06699 -0.01443
-0.06403 0.01517 -0.14243
-0.11293 0.13119 0.13500
-0.08269 0.06699 0.07535
0.18906 -0.36876 0.16984
-0.15363 0.23572 -0.00762
0.21195 0.05362 -0.08410
0.08191 0.01517 -0.09051
0.11025 0.06616 0.00213
-0.11487 -0.09194 -0.18394
-0.09583 -0.01818 -0.17443
-0.10031 0.29855 0.15238
0.19127 -0.21871 -0.16271
-0.07706 -0.18675 0.16009
-0.07368 -0.10744 0.14106
-0.08532 -0.06952 0.13392
-0.07466 0.01517 0.01375
-0.11222 0.17606 0.19491
0.09325 0.06391 -0.07059
-0.20962 0.14069 0.03661
0.01173 0.01517 -0.09473
