ply
format ascii 1.0
comment VCGLIB generated
element vertex 1867
property float x
property float y
property float z
element face 0
property list uchar int vertex_indices
end_header
-0.17112 0.28868 -0.19272
0.26007 0.07756 0.28868
0.05789 0.05686 -0.28868
0.11942 0.13110 0.28868
0.24781 0.07513 -0.22174
0.02943 0.26260 -0.00274
0.04705 -0.00915 0.22092
0.13366 0.08273 0.28868
0.01630 -0.13313 -0.14897
-0.07782 0.11223 -0.21193
-0.14976 -0.18628 -0.03430
0.22797 0.14839 0.28868
-0.21433 0.22639 0.28868
-0.24723 0.28868 -0.21172
-0.28868 0.21620 0.16064
-0.09679 0.13528 0.20239
-0.24078 -0.21651 -0.07147
-0.28868 -0.01314 -0.22473
-0.23330 0.07707 -0.28868
-0.13096 0.05841 0.22394
-0.24084 0.17567 0.28868
-0.05615 0.28868 -0.09763
-0.08370 0.14656 0.19771
-0.01895 0.28868 -0.04755
0.16471 0.04904 0.22517
0.10630 -0.01704 -0.28868
0.04000 -0.28868 -0.17618
0.20434 -0.12026 0.28868
-0.08758 -0.19066 0.00102
-0.28868 -0.13010 0.25779
-0.17292 0.21330 -0.13855
0.22918 -0.21651 0.10008
-0.00312 0.28868 -0.12720
-0.13576 -0.10295 -0.17684
0.10472 -0.21651 0.26741
0.15547 0.28868 0.17677
0.27419 -0.21651 -0.00383
-0.25790 0.28868 -0.05720
-0.04395 0.11217 0.21195
-0.10643 0.15185 -0.28868
0.23709 -0.21651 -0.28005
0.19959 -0.14233 -0.13698
-0.26439 0.11317 -0.28868
0.10787 0.28868 0.15403
-0.18773 0.19654 0.16039
0.01139 0.11054 -0.28868
-0.20301 -0.28868 -0.13749
-0.26432 -0.05450 0.20595
0.08966 0.28868 0.26787
-0.28868 -0.09189 -0.20121
-0.00165 -0.00217 -0.28868
0.11019 0.08524 0.22041
0.13357 -0.04010 -0.28868
-0.22298 -0.28868 -0.08219
-0.19966 -0.11053 -0.17102
0.12233 -0.17011 0.09000
-0.19458 -0.28868 0.07191
0.02373 0.20248 -0.15265
-0.22958 -0.28868 0.08646
0.21199 -0.14878 0.28868
0.28868 0.00517 0.27561
0.05388 -0.21651 -0.02617
0.25146 -0.21651 0.16591
-0.24942 -0.21651 0.15599
-0.02682 -0.15914 0.28868
-0.20407 0.24598 -0.28868
0.19496 -0.11059 -0.17098
-0.05357 -0.21651 0.07707
-0.12232 -0.21651 0.04830
0.15290 0.20811 -0.28868
-0.28868 0.24799 -0.16138
-0.24186 -0.04578 0.28868
-0.01805 0.28868 0.11756
0.15150 -0.06517 -0.20153
0.16162 -0.21651 0.03758
0.03349 -0.03613 0.21356
0.12776 0.28868 -0.14459
0.26421 0.27694 0.28868
-0.09551 0.28868 0.17799
-0.12403 0.26887 -0.28868
0.04392 -0.06082 0.28868
-0.15346 -0.17097 0.28868
0.01791 0.23893 0.09808
-0.12274 -0.28868 0.05809
0.03028 0.23745 0.10165
-0.21875 0.14743 0.28868
-0.03622 -0.13246 0.14984
0.02061 -0.08287 -0.19225
0.14910 0.28868 0.16469
-0.24056 -0.23950 0.12281
0.15313 -0.21651 -0.14185
-0.28868 0.19288 0.19962
-0.21740 0.02040 0.28868
-0.28868 0.15290 -0.28836
0.11132 0.18293 -0.17085
-0.06677 -0.18596 -0.03668
-0.24056 -0.28345 0.11715
0.25254 0.24298 0.08830
-0.28422 0.16122 0.28868
0.00747 0.24258 -0.28868
0.09766 0.12399 0.28868
-0.10070 -0.28868 -0.14753
0.25072 0.06301 0.22333
-0.07110 0.05415 -0.28868
-0.28868 0.18412 0.19944
0.08153 0.15104 0.19532
-0.12222 -0.28868 -0.02513
0.23295 0.19723 -0.28868
-0.17822 -0.28868 -0.03906
0.19982 0.28868 -0.27005
-0.23205 0.28868 -0.25775
0.21434 0.28868 -0.25444
-0.16273 -0.21651 -0.24282
0.08212 0.12359 -0.28868
0.00807 -0.16535 -0.10149
0.28868 -0.07669 0.21497
-0.22332 -0.18718 0.02742
0.16487 -0.09797 -0.18066
0.26524 -0.21651 -0.28214
-0.16841 0.11518 -0.28868
-0.22993 -0.00018 0.28868
0.03250 0.24790 -0.28868
-0.12099 0.28868 0.16013
-0.28868 -0.20254 -0.01370
-0.18666 0.24249 -0.08948
-0.11866 -0.19507 0.28868
-0.09832 -0.28868 0.09339
0.16739 -0.06931 -0.28868
-0.25963 0.28868 -0.12071
-0.00369 0.25789 0.03853
-0.01850 -0.08727 0.18887
0.24997 -0.21651 -0.18871
0.18662 0.16389 -0.18546
0.23833 0.28868 -0.02653
0.09607 0.23443 -0.10894
-0.08579 -0.21651 0.11704
-0.00528 -0.10719 0.17359
-0.18134 -0.20483 -0.28868
0.19504 -0.21651 0.02918
-0.08238 0.20960 0.28868
0.04920 -0.11838 -0.28868
-0.18350 -0.07613 0.28868
-0.19646 -0.12554 0.15887
0.23238 0.26224 -0.00551
-0.24984 0.28868 0.16203
0.20347 0.13218 -0.20367
-0.28868 0.02211 -0.26742
-0.11209 -0.28868 0.05677
0.08807 0.26163 -0.01013
0.25657 0.06217 0.28868
-0.17852 0.24104 -0.09299
-0.09046 -0.21651 0.08172
0.12912 -0.00227 -0.28868
0.12050 -0.00369 0.22164
-0.13446 -0.03960 0.21212
0.12182 0.10665 -0.28868
0.27215 -0.18380 0.05314
-0.04223 0.25746 0.28868
0.24627 -0.21651 0.18356
0.11081 -0.21651 0.17119
0.27597 0.28868 -0.22790
-0.19293 -0.14319 -0.13587
-0.06106 -0.19797 -0.28868
0.10489 -0.21651 -0.26674
0.28868 0.05903 0.24461
0.11098 0.26904 -0.28868
-0.23243 -0.01753 -0.28868
0.11585 0.17003 -0.18075
0.17315 -0.27176 -0.24056
-0.23149 0.28868 -0.04124
-0.26406 -0.18594 -0.03689
-0.00692 0.18987 -0.16553
0.02735 -0.17662 0.07428
-0.03290 -0.23269 -0.24056
0.11336 0.12737 0.20566
-0.17650 0.25757 0.04098
0.21696 -0.17642 -0.07476
0.28868 0.09926 0.21846
0.28710 -0.16785 0.28868
0.24678 -0.15540 -0.28868
0.28589 -0.16391 -0.28868
0.19520 0.26197 -0.00755
-0.20653 0.28868 -0.14633
0.28868 0.06271 0.27808
0.01647 -0.07532 0.19732
-0.04963 -0.23718 -0.24056
-0.14897 0.28868 -0.25017
-0.11255 0.28868 -0.22444
-0.21462 -0.11738 -0.28868
-0.19343 -0.06889 0.28868
0.19285 -0.21651 0.24214
0.07783 0.23389 -0.11023
-0.24105 0.28868 -0.07814
-0.23700 -0.17216 0.08505
-0.28868 0.19837 -0.18861
0.05672 0.28868 -0.09416
0.24413 0.28868 -0.13594
-0.09327 -0.21651 -0.14798
-0.23771 0.26177 -0.00908
0.14483 0.28868 0.28278
0.13638 -0.09138 -0.28868
-0.15926 -0.28868 -0.21835
-0.24056 -0.27493 0.00934
-0.20719 0.01673 -0.28868
0.21689 0.28868 -0.16324
-0.23969 -0.03817 0.28868
-0.01984 0.08063 -0.28868
0.17756 0.28868 0.28485
-0.09284 -0.21651 0.00221
0.20493 -0.21651 0.14315
0.14973 0.07625 -0.28868
0.01486 0.08361 -0.22062
-0.14117 0.28868 0.08889
0.08850 0.28868 -0.04957
-0.23163 -0.28868 0.00918
0.01268 0.19583 0.16095
-0.01645 -0.16540 0.10136
-0.08777 0.28868 0.06192
0.05714 0.28868 0.12839
-0.11361 0.26083 -0.01619
0.24127 0.26904 -0.28868
0.00731 0.28868 0.19172
0.02482 -0.17215 0.08507
-0.05898 0.28868 -0.17120
-0.05612 0.25586 -0.05395
0.24047 -0.21651 0.21897
-0.05197 0.25994 0.02293
-0.28868 0.24321 0.16303
0.23842 0.28868 0.08002
0.22559 0.07930 0.22119
-0.28824 0.21980 -0.28868
-0.27886 0.28868 0.08453
0.28552 0.28868 -0.02252
-0.17927 -0.28868 -0.09194
-0.02263 -0.21651 -0.12189
-0.05813 -0.21651 -0.25029
-0.04966 -0.00169 -0.28868
-0.17077 -0.04968 -0.28868
0.12834 0.22359 0.28868
0.04848 0.28868 0.04351
0.28064 -0.03924 -0.28868
0.27811 0.07020 -0.28868
0.13913 -0.16527 -0.10167
0.28868 -0.11303 -0.26101
0.16113 0.28868 0.22748
-0.17561 0.28868 -0.03640
-0.20434 0.23991 0.09570
0.28868 0.22164 0.12813
-0.16743 -0.24032 -0.24056
-0.28825 0.11459 0.28868
-0.17830 -0.28033 -0.24056
0.14485 0.24716 -0.07820
0.19781 -0.03742 -0.28868
-0.00010 -0.00951 -0.22088
0.15562 -0.11740 0.28868
-0.24133 -0.05296 0.28868
0.28623 -0.21651 -0.01210
-0.13856 -0.28868 -0.01645
-0.18179 -0.05605 -0.28868
-0.10542 -0.21651 -0.03423
0.10945 0.24776 -0.07677
0.24845 -0.21651 0.15776
0.23414 0.02796 0.28868
-0.10403 -0.03645 0.21343
-0.20043 -0.21651 0.22599
0.23432 -0.12924 -0.15405
-0.24024 0.28868 0.23080
0.27146 -0.21651 -0.20199
0.03296 0.10785 -0.28868
0.27090 -0.05248 -0.28868
0.08839 -0.28868 -0.19270
-0.14443 0.28868 0.25098
-0.08967 0.28868 -0.20621
-0.23871 0.26705 0.28868
0.25202 -0.03508 -0.21399
0.05130 0.28868 -0.00093
0.23491 0.28868 -0.22971
0.24778 0.26292 -0.00033
-0.06921 0.14978 0.28868
-0.10867 0.01911 0.22464
0.28868 0.20786 0.26312
0.10147 -0.15953 -0.28868
-0.11630 -0.22201 -0.24056
0.07834 -0.21651 -0.19345
0.27590 0.28868 0.25280
-0.04595 0.20797 0.14550
-0.23380 0.02514 0.22544
-0.03998 -0.21651 -0.24721
0.26389 0.23905 0.09778
-0.13357 -0.28868 0.00429
0.28868 -0.17141 0.16309
-0.16844 -0.28868 -0.09325
0.12988 0.02641 -0.28868
0.09922 -0.28868 -0.14566
-0.22421 -0.23631 -0.24056
-0.22593 -0.26259 -0.24056
-0.03708 -0.21651 0.11455
0.17004 -0.27804 -0.24056
-0.12420 -0.07401 -0.19787
0.00223 0.25956 -0.02587
-0.28868 0.02762 0.24485
-0.12412 -0.21651 -0.19071
-0.05230 -0.28868 0.04752
-0.28868 0.25196 0.27476
-0.02558 -0.24977 -0.24056
0.23189 0.01630 -0.28868
0.22991 -0.21651 -0.14954
-0.17510 0.28868 0.04988
0.28868 0.23531 -0.28079
-0.24056 -0.25764 0.18454
-0.13421 -0.00384 0.28868
-0.04459 -0.03596 -0.28868
-0.18541 -0.28868 0.18385
-0.19526 0.28868 -0.03894
-0.20833 -0.09274 0.28868
0.28868 -0.20511 -0.28114
-0.13733 -0.03308 0.28868
0.28868 -0.15509 -0.18188
-0.19661 -0.21651 0.16777
0.17107 0.12567 -0.20636
0.02854 -0.02462 0.21833
0.20741 0.05059 0.28868
-0.16739 -0.21651 -0.26100
-0.20549 -0.21651 0.04986
0.02544 0.02497 0.28868
0.11442 -0.07571 0.28868
-0.20359 0.07397 -0.22189
-0.21185 0.28868 0.16965
0.11087 -0.04908 0.28868
-0.23651 0.18545 -0.28868
-0.28868 0.00983 -0.25903
0.28868 0.23082 -0.16577
-0.11952 0.16064 0.18795
-0.13672 -0.19263 0.28868
0.28393 0.28868 -0.01175
-0.00263 -0.21651 0.21391
0.15657 -0.09125 0.18582
-0.28147 0.06819 0.28868
0.17184 0.28868 -0.07503
-0.08230 -0.01794 -0.21976
-0.25888 -0.18533 -0.04147
-0.10123 -0.18269 0.05963
-0.23166 0.28868 -0.19490
-0.13938 -0.17906 -0.06839
-0.28868 0.14816 0.25142
0.16251 0.15770 -0.19021
-0.04590 -0.28016 -0.24056
-0.13989 -0.21651 -0.28648
0.18183 -0.15275 -0.28868
-0.16468 -0.10494 -0.17532
-0.28868 0.20580 -0.18242
0.13659 0.03575 -0.28868
-0.21369 -0.14824 -0.28868
0.26806 -0.15573 -0.28868
0.28868 0.27398 0.23628
0.04684 0.03989 0.28868
-0.26013 -0.19043 0.00280
0.26661 -0.21651 0.16251
-0.28868 0.14532 0.28854
-0.27196 -0.18867 -0.01610
0.01172 -0.21651 -0.04871
0.21455 -0.21651 -0.05023
-0.24056 -0.22379 0.22435
0.28868 0.15337 -0.19821
0.19538 0.21053 0.28868
-0.25546 -0.21651 0.27958
0.13568 0.13226 0.20363
0.11363 0.28868 0.17141
0.21826 -0.11203 -0.16987
-0.14078 -0.21712 -0.24056
0.08356 0.04582 0.28868
0.28736 0.23164 -0.11464
-0.15230 0.01503 -0.28868
-0.09064 -0.21651 -0.16817
0.08998 0.17468 -0.28868
-0.06375 0.16377 0.28868
0.16457 -0.14804 0.12955
-0.21036 -0.28868 -0.12653
-0.07183 0.26821 0.28868
0.22461 -0.21437 0.28868
-0.01813 -0.20606 0.28868
-0.20047 -0.21651 0.13181
-0.09132 -0.01270 0.22046
-0.15274 0.28868 0.24596
0.00839 -0.14734 -0.28868
0.23867 -0.18499 -0.04408
-0.28868 -0.19637 0.10127
-0.21407 0.04989 -0.22506
-0.22239 -0.28868 -0.01653
0.22250 -0.04804 -0.28868
0.04777 0.15163 0.19486
0.17022 0.28868 0.19003
0.28868 -0.11922 0.22431
0.02885 0.21516 0.13612
-0.12102 -0.01501 -0.22015
-0.26269 -0.11006 -0.17139
0.13103 0.25196 -0.06663
-0.01905 0.11710 0.20991
-0.01631 0.28868 0.21378
-0.18386 -0.21651 0.23934
-0.07338 -0.28868 -0.14047
-0.22326 -0.21651 0.03553
-0.11794 0.13259 0.28868
0.13467 -0.21732 -0.24056
0.03931 0.15576 0.19170
-0.28868 0.25299 -0.10940
-0.11968 -0.28868 -0.23114
-0.11119 0.25557 0.05613
-0.03061 -0.28868 -0.05003
0.03609 -0.28868 -0.05706
-0.18042 -0.28868 -0.21043
0.15380 -0.21651 0.13603
-0.10169 -0.28868 -0.19043
-0.28476 0.28868 -0.15263
0.20342 -0.05310 0.28868
0.13984 0.16346 -0.18578
0.25521 -0.21651 0.01529
-0.13558 0.28868 0.23516
0.02309 0.07653 0.22155
-0.26535 -0.04169 0.21125
-0.28868 0.14593 0.22703
0.26571 0.23739 0.28868
-0.17843 -0.07374 0.19798
0.28868 0.27802 -0.14630
0.01528 0.23127 0.11513
0.19435 0.14504 0.28868
0.16436 0.06224 -0.28868
0.08960 0.05310 0.28868
-0.01198 0.18995 -0.28868
0.28868 0.25771 0.15754
0.28035 0.25656 -0.28868
-0.02512 -0.20587 0.28868
-0.07129 0.28868 0.09969
0.28868 0.24262 0.24257
-0.07242 0.13320 0.20325
0.07178 -0.28868 -0.23649
0.28868 -0.20779 0.02979
0.04720 0.08274 0.22074
-0.18057 -0.03505 0.21401
0.20078 0.28868 0.24471
-0.18552 -0.21651 0.14809
0.03722 -0.15862 -0.11576
-0.01587 0.12626 -0.28868
0.13895 0.23186 -0.11435
0.14874 0.03923 -0.22646
0.01756 -0.24651 -0.24056
0.01569 0.25032 0.07059
-0.28868 -0.01781 -0.24923
0.20381 0.23084 -0.28868
0.27830 -0.21651 -0.19896
-0.01481 -0.11332 -0.28868
-0.26664 -0.18397 -0.05180
-0.28868 -0.18094 -0.15406
0.01855 -0.06373 0.28868
0.03877 -0.21651 -0.23905
-0.00194 -0.04859 -0.20839
-0.07891 -0.28868 -0.11631
-0.00994 0.15388 -0.28868
0.16584 0.10181 0.28868
0.09114 0.10832 0.28868
-0.17985 -0.02927 -0.28868
0.28868 -0.08141 -0.20170
-0.19621 -0.28868 -0.04211
0.24740 -0.18986 0.00708
-0.19517 0.28868 -0.04868
-0.22232 0.05338 0.22460
-0.04314 -0.19719 0.28868
-0.23677 -0.28868 0.17237
0.19671 -0.21651 -0.27887
0.21658 0.28868 0.03667
0.05947 0.15070 0.28868
0.12220 0.28868 -0.21078
0.22152 0.22649 -0.28868
0.16239 0.17438 0.17741
0.11434 -0.16789 0.09534
0.03013 0.16921 -0.18138
0.11757 0.22894 0.11817
-0.19834 0.12889 -0.28868
-0.27376 -0.15814 0.11638
-0.19502 0.00714 0.28868
0.20259 -0.25993 -0.24056
-0.28868 -0.17011 0.24140
-0.01753 0.28868 0.25379
-0.07930 -0.21651 -0.26910
-0.28868 0.25364 -0.18366
-0.08149 0.25170 0.06726
-0.25157 0.26188 0.00822
0.03345 -0.01927 0.28868
0.24226 -0.06027 -0.20356
-0.24056 -0.21863 -0.16534
0.04240 0.25614 0.05186
-0.20592 0.12084 -0.20836
-0.06077 0.28868 -0.12233
0.05269 0.25645 0.28868
-0.27127 0.16587 -0.18394
-0.27682 0.28868 0.28269
0.20624 -0.21651 -0.24036
0.16657 0.26342 0.28868
0.10086 0.00565 -0.28868
0.20272 0.03602 -0.22687
-0.17541 -0.15000 0.28868
0.18171 -0.16208 0.10937
-0.22994 0.14771 0.19723
0.02493 0.06049 0.28868
0.16253 -0.21651 0.22119
-0.28868 0.19440 0.22611
0.23869 0.22063 0.12900
-0.10441 -0.22911 -0.24056
-0.08127 0.10648 0.21431
-0.02178 -0.04237 0.28868
0.19062 -0.21651 -0.26565
-0.03100 0.01259 -0.28868
-0.02791 -0.07912 0.28868
0.10934 0.13572 -0.28868
-0.24056 -0.24233 0.14989
0.00550 -0.17499 0.07820
-0.27741 -0.21651 0.19791
-0.09113 -0.09451 -0.28868
0.13105 0.28868 -0.15243
-0.12243 0.16684 0.28868
-0.17413 0.28868 0.14254
-0.28363 -0.08260 0.19246
0.28868 -0.19980 0.01355
-0.18299 0.28868 -0.19533
-0.01093 -0.12306 0.28868
-0.10642 -0.18317 -0.05792
0.24288 -0.12004 -0.16373
0.13475 0.27172 0.28868
-0.00373 -0.08589 -0.18994
-0.00764 0.26168 0.00976
0.14423 -0.21651 0.23979
-0.09057 -0.18749 0.02510
-0.23808 -0.12573 0.15862
-0.28868 0.05972 0.23075
0.12640 -0.21651 -0.08871
0.16178 0.25777 0.03941
-0.08683 -0.28868 0.00830
0.00691 -0.21651 0.24805
-0.06511 -0.03377 -0.28868
0.25722 0.28868 -0.28049
0.21473 -0.09652 0.18178
0.27803 0.01998 0.22476
0.01525 0.25536 -0.05773
-0.14136 -0.13161 0.28868
-0.00081 -0.28868 -0.04672
0.11950 -0.28396 -0.24056
-0.24056 -0.23085 0.11733
0.25984 0.28868 -0.18125
-0.05090 0.21810 0.13229
0.28868 0.12888 -0.25638
-0.23271 0.07311 0.28868
-0.17671 0.07021 0.28868
-0.24056 -0.25586 -0.11049
0.28518 -0.10414 -0.28868
-0.02968 0.28868 -0.03328
-0.23971 0.04560 -0.28868
-0.26771 -0.06184 -0.20291
-0.21439 0.14323 0.19909
0.04799 -0.12885 -0.28868
-0.24056 -0.23645 -0.18992
-0.07260 0.01861 -0.22458
-0.03421 -0.28868 -0.16904
0.15251 -0.12060 -0.16330
-0.22505 0.28868 -0.00801
0.11107 -0.28868 -0.19682
-0.25847 -0.04211 0.28868
-0.21966 -0.28868 -0.04849
-0.25170 0.28868 -0.06367
-0.17297 -0.18680 0.28868
-0.22902 -0.18505 0.04364
-0.28868 -0.18879 -0.18118
0.17436 -0.21651 -0.24292
0.08079 0.22985 -0.11698
0.17568 0.24940 -0.07281
0.28868 -0.21094 -0.12176
-0.08206 -0.28868 -0.20687
-0.04086 -0.28868 -0.23599
0.27026 -0.07401 -0.28868
0.15812 0.10417 -0.21527
0.05123 0.24465 -0.08427
-0.12884 0.11151 -0.21223
-0.23125 0.20444 -0.15010
-0.15672 -0.21651 -0.08219
0.13150 -0.28868 -0.21014
-0.27312 0.19518 0.16145
-0.02737 -0.28868 -0.03174
-0.07584 0.16895 -0.18157
0.28868 0.21010 -0.28232
-0.16740 0.28868 0.01572
0.07289 -0.17388 0.28868
-0.24174 -0.01318 -0.22039
-0.09631 -0.21651 0.19720
0.00631 -0.11985 0.28868
0.08789 0.08316 0.28868
-0.07434 -0.21651 0.02050
-0.05694 -0.21651 -0.10691
0.25661 -0.21651 -0.17702
-0.08011 0.28868 0.11634
0.07252 0.28868 -0.03991
0.28868 0.26970 0.03784
-0.01288 0.28868 0.09849
0.05168 0.28868 -0.19685
-0.03399 -0.28868 -0.18372
-0.11239 -0.21651 -0.10308
-0.16578 0.26091 -0.01560
0.18469 -0.18923 0.01190
-0.20312 -0.16127 -0.11133
0.10597 0.22576 0.12230
0.05535 -0.21651 0.24905
-0.28868 0.25717 -0.22459
-0.17763 -0.06102 0.20325
-0.28868 0.13023 -0.28632
0.28265 -0.18668 0.03126
0.21426 0.16042 -0.18812
-0.24056 -0.23938 0.10734
-0.11048 0.25679 0.04686
0.26924 0.28868 -0.13710
0.28868 -0.19063 0.11789
-0.20722 -0.07203 -0.19869
0.04230 -0.28868 -0.19128
-0.15572 -0.21651 0.26038
0.09423 -0.12462 -0.28868
-0.08272 -0.18835 0.01860
-0.09910 -0.28868 -0.11191
-0.22991 -0.11571 -0.16705
-0.18154 -0.24065 -0.24056
-0.10254 0.25577 0.05462
0.19324 -0.11809 -0.28868
0.26415 -0.10336 -0.28868
0.26086 0.28868 0.20651
-0.19322 0.19123 0.28868
-0.24800 -0.16190 0.10981
-0.09158 -0.21651 -0.21478
-0.04048 -0.21651 0.19614
-0.28868 -0.18238 -0.28162
-0.21231 -0.28868 -0.01902
0.12282 0.28868 0.18749
0.02668 0.19827 0.28868
0.11371 -0.21651 0.08568
-0.28868 -0.17016 -0.18728
0.28865 -0.00585 -0.28868
0.14364 -0.16653 0.09862
-0.18599 0.28868 0.11904
-0.21783 0.12764 -0.20555
-0.13215 -0.28868 -0.01121
-0.26488 -0.03255 0.21504
0.20118 0.23748 0.10157
-0.24864 0.08744 0.22012
-0.00858 0.28868 -0.08233
-0.20774 -0.28868 -0.01491
0.28709 0.26024 -0.28868
0.20610 0.20201 0.15326
-0.24056 -0.27006 -0.07631
-0.01493 0.28868 -0.17033
0.07082 0.10072 -0.21669
-0.03171 -0.17412 -0.08031
0.19811 0.08642 0.28868
0.10655 -0.09801 0.28868
-0.09065 0.25188 0.06681
-0.05877 0.09976 0.28868
0.21221 0.05246 -0.28868
0.23459 0.25064 0.06980
0.28868 -0.02807 -0.28744
0.27574 -0.06234 0.20270
-0.13478 -0.21651 0.12364
-0.05272 0.05887 0.28868
-0.25603 -0.00438 0.22155
0.11403 -0.08605 0.18981
0.27584 0.28868 -0.06573
-0.24056 -0.25585 0.07225
0.04334 0.12788 0.20545
0.08361 -0.21651 0.18594
0.27821 -0.21651 0.23927
-0.24056 -0.23231 -0.08862
0.28868 0.11339 0.27432
-0.14131 0.24932 -0.07299
0.18947 0.03692 0.22677
0.11104 -0.26222 -0.24056
0.28523 -0.09526 0.18274
-0.28523 -0.03683 -0.28868
0.26430 0.21192 -0.14035
0.18234 0.09967 0.28868
0.00178 0.16429 -0.18515
0.17033 0.22717 0.12047
0.26867 0.17314 0.28868
0.15114 0.28868 0.18741
-0.19508 0.13288 -0.20337
0.18847 0.06422 -0.22317
-0.12580 0.02013 -0.22478
0.19533 0.28868 -0.18117
0.28868 -0.18722 -0.16378
-0.02442 0.28868 -0.10120
-0.11983 -0.01055 0.22074
-0.24056 -0.26530 0.00594
-0.18516 0.09393 -0.28868
0.25347 0.20810 -0.14533
-0.23195 -0.13715 0.14374
0.08853 -0.28868 -0.20876
-0.12690 0.21732 -0.13331
-0.14510 -0.17373 -0.08125
-0.19213 0.05239 -0.22473
-0.12396 0.28868 0.09142
0.16860 -0.21651 -0.10595
-0.14285 -0.28868 -0.08119
-0.17280 0.14435 0.19862
0.28148 0.28868 0.23733
-0.07041 -0.28868 -0.22201
-0.01309 0.23436 -0.10910
0.19014 -0.21651 0.06685
0.20761 0.11628 -0.28868
0.00580 0.05009 -0.22503
0.28868 -0.19213 0.22495
0.28868 -0.02712 -0.27820
-0.07235 -0.28868 -0.18810
-0.25426 0.14643 -0.28868
-0.00179 -0.28868 -0.10141
-0.25534 0.28868 0.02741
-0.28868 -0.09294 0.22831
0.10252 -0.28868 -0.17417
-0.20069 0.18346 0.17045
0.13222 0.28868 -0.20997
-0.04131 0.28868 0.01830
-0.28868 0.16900 0.27419
-0.08058 -0.07394 0.19790
-0.26541 -0.21651 -0.13247
0.24673 -0.04984 0.28868
0.16594 -0.21651 0.24894
-0.25444 0.18663 0.16801
-0.08342 -0.21651 0.22418
-0.19121 -0.17610 0.07553
0.16097 -0.21651 -0.12040
-0.15726 -0.05136 -0.28868
-0.27205 -0.03488 -0.21408
-0.23804 0.09503 -0.21905
0.02769 0.20645 -0.28868
-0.27274 0.22255 -0.12649
-0.26944 -0.13022 0.15277
0.03927 -0.21651 0.26584
0.28158 -0.18483 0.28868
0.20183 0.14537 -0.19820
-0.00305 0.28868 -0.19964
0.20344 0.12248 0.20768
0.12500 0.28868 0.02767
-0.28868 -0.18206 0.27515
0.10371 -0.14387 -0.28868
0.28834 0.28868 -0.00549
-0.16047 -0.13271 -0.28868
-0.28868 0.28795 -0.13599
-0.28868 -0.19852 0.00471
-0.10256 0.28476 -0.28868
0.15220 0.02835 0.22586
0.25304 0.27878 -0.28868
-0.08917 -0.21651 -0.08843
0.14547 -0.17115 0.28868
0.12708 -0.21651 -0.16829
-0.28868 0.23120 0.25263
-0.11088 0.19367 -0.28868
0.28868 0.19792 -0.17061
-0.06465 -0.04950 0.20802
-0.24056 -0.24108 -0.13451
-0.12522 0.07730 -0.22145
-0.08073 -0.28133 -0.24056
-0.04479 -0.21651 0.13238
0.14424 0.28868 -0.02302
-0.01454 -0.04247 -0.21093
-0.08142 -0.21651 -0.25772
0.16059 -0.04593 -0.28868
-0.17965 0.11097 0.28868
-0.02173 0.20241 0.28868
0.06985 0.26853 0.28868
0.27792 0.28868 -0.20745
0.01839 0.26162 0.01019
0.06396 -0.21651 0.25469
0.03079 -0.18479 0.28868
0.06936 -0.28868 -0.15983
0.02260 -0.28868 -0.16767
0.10493 -0.28868 -0.16637
-0.28868 0.24067 0.23593
-0.21707 0.05970 0.28868
-0.18046 -0.18109 0.28868
0.21899 -0.05870 0.28868
-0.15029 0.23057 0.28868
-0.10094 -0.00987 0.28868
-0.18140 -0.08939 -0.18725
-0.20173 -0.21651 -0.04341
-0.14154 0.26636 -0.28868
-0.00530 0.10319 -0.21567
-0.05347 0.28868 -0.15738
0.15993 0.21573 0.28868
0.16215 -0.24439 -0.24056
-0.19938 0.15134 0.28868
0.13183 0.05672 -0.28868
-0.17169 -0.28868 -0.01551
-0.20225 -0.21651 0.06103
0.25528 -0.07748 0.19638
-0.05165 0.22001 -0.28868
-0.08833 0.21586 -0.13522
-0.02759 0.28868 -0.07105
-0.16163 0.26015 -0.28868
0.00194 0.15922 -0.28868
0.14074 -0.14748 0.28868
0.18609 -0.21651 -0.15242
0.18498 -0.07666 -0.19677
-0.01922 0.18839 0.16666
-0.03459 -0.28868 -0.06044
0.28868 -0.19698 0.27527
0.07056 -0.21651 -0.09268
-0.22168 -0.28868 -0.17726
-0.08610 -0.21651 -0.14971
-0.04533 0.28868 0.17131
-0.07428 -0.21651 0.08704
0.06420 -0.21651 -0.09810
-0.11566 0.28868 0.26783
-0.24056 -0.28688 0.12402
-0.18043 0.11666 0.21010
-0.00064 -0.12181 0.28868
0.10432 0.28868 0.18290
-0.12279 -0.03102 -0.21568
0.24886 -0.21651 -0.27927
-0.07208 0.08186 -0.28868
0.26151 -0.21651 -0.22726
-0.21919 -0.28868 -0.03245
0.28868 -0.01767 0.27783
0.14159 -0.21651 -0.06508
-0.26686 0.28868 -0.03198
0.28087 -0.06857 0.28868
-0.17556 -0.28868 0.14550
-0.09022 0.28868 -0.14466
-0.09716 0.25792 -0.03834
-0.09398 -0.18910 -0.01289
-0.15255 -0.28868 0.00278
0.19718 0.28868 -0.20813
0.21086 -0.23289 -0.24056
0.13242 -0.05402 0.20615
0.18372 0.28868 -0.09025
-0.21740 0.28868 0.08981
0.19956 0.01056 0.28868
0.23259 0.25041 -0.07037
-0.02087 0.13589 -0.28868
-0.12763 -0.15536 -0.12000
0.16441 0.04378 -0.22587
0.24695 -0.18559 0.03953
0.00420 -0.16173 0.11023
-0.13558 -0.13731 -0.28868
-0.02371 -0.09287 -0.18458
-0.06173 0.25822 0.03599
-0.06278 0.08224 0.22080
0.21377 -0.00061 0.22205
-0.26113 -0.21651 -0.02985
0.28278 0.03879 0.28868
-0.03232 -0.21651 0.07853
-0.18908 0.11815 0.28868
-0.03375 0.08745 -0.22012
-0.14385 0.08458 -0.22049
-0.19550 -0.17905 -0.06841
-0.28868 0.24932 -0.23861
-0.05268 0.28868 0.17547
0.18719 -0.27456 -0.24056
-0.05407 -0.16557 0.28868
-0.09398 -0.28868 -0.13616
0.19101 0.00512 0.28868
-0.15160 -0.01720 0.21986
-0.21188 -0.28868 0.05827
-0.19182 0.28868 -0.07149
0.22693 -0.14918 -0.12806
0.28868 0.28193 -0.09941
0.28868 0.26956 0.15531
0.28868 -0.16700 -0.26361
-0.04260 -0.08282 -0.19229
0.01090 0.28868 -0.24152
-0.26188 0.27926 -0.28868
-0.16530 0.28868 0.26823
-0.19820 -0.08785 0.18843
-0.03093 -0.28868 -0.10219
-0.12779 0.15401 0.19304
-0.28868 -0.21100 0.27189
-0.28868 -0.16660 0.21056
0.13532 -0.21651 0.10178
-0.17437 -0.28868 0.04646
0.04659 0.23719 0.10226
-0.10268 -0.17976 0.28868
-0.15456 0.28868 0.14525
-0.21894 -0.28868 -0.07696
0.13934 0.25260 0.06508
-0.08141 0.18245 -0.28868
0.12953 -0.00161 -0.22192
0.20165 0.25213 -0.28868
0.25359 0.28868 -0.20218
-0.00048 -0.15301 -0.12307
-0.13786 -0.24177 -0.24056
0.17269 0.22905 -0.11802
0.28868 0.28267 0.06608
0.00447 0.28868 0.06537
-0.28868 0.12828 0.27380
-0.23899 0.28868 -0.22078
0.28868 -0.09244 0.22367
-0.23431 0.16487 0.18471
-0.12004 0.03835 -0.22658
0.14064 0.17394 0.17775
-0.07801 0.25828 0.28868
0.19044 0.28868 0.00275
0.05220 -0.21651 -0.23494
0.19173 -0.21651 0.18951
-0.21864 0.28868 -0.06562
-0.20675 0.10411 0.21529
-0.15279 0.26395 0.28868
-0.08552 -0.28868 -0.00461
0.18997 0.28868 -0.24309
-0.09335 -0.21651 -0.11808
-0.19048 0.28868 0.09478
-0.14853 -0.21651 0.09438
0.06370 -0.21651 -0.06211
0.03802 0.28868 -0.22832
0.20566 -0.18040 0.06515
-0.18353 -0.28868 -0.06337
0.07540 0.14219 0.28868
0.28868 -0.20330 -0.10221
0.10381 0.16174 0.18711
-0.05016 -0.21651 -0.23724
0.07633 -0.21651 -0.24218
-0.16897 0.05097 0.28868
0.15110 -0.02840 0.21676
0.03594 0.25957 0.02575
-0.26393 0.27254 -0.28868
-0.02088 -0.28868 -0.15911
0.00847 -0.28868 -0.16207
0.28868 0.09186 -0.25113
0.00776 -0.20942 0.28868
0.28868 -0.10188 0.20208
-0.22932 -0.28868 -0.11061
0.17614 0.15271 -0.19404
0.03979 0.17073 -0.28868
-0.06617 -0.21651 -0.07173
0.14271 0.03414 -0.22662
-0.22739 -0.28868 0.11642
-0.18940 0.16247 0.18655
-0.18595 -0.21651 0.25770
0.28868 0.06060 0.23166
-0.15218 -0.04341 -0.28868
0.02604 -0.28868 -0.23714
-0.28868 -0.21151 -0.22299
-0.06024 -0.28868 -0.13611
0.28868 0.01357 0.26752
-0.01450 -0.00216 -0.28868
-0.23755 0.22509 -0.12319
0.03297 -0.27156 -0.24056
0.14484 -0.21651 0.19418
-0.16653 0.28868 0.17424
-0.16823 -0.21651 -0.03095
-0.13353 -0.28868 -0.09758
-0.08922 -0.16881 0.28868
-0.13533 -0.19449 -0.28868
-0.24056 -0.24960 0.21612
-0.27709 0.25704 -0.04496
-0.19274 0.28868 0.17083
-0.09526 0.01908 -0.22464
0.04335 -0.12279 -0.16162
-0.03424 -0.06464 0.28868
0.13578 0.01937 -0.28868
-0.28868 -0.21391 -0.27537
-0.28868 -0.19515 0.21367
-0.15492 -0.28868 -0.22949
-0.28868 -0.09172 -0.23226
-0.09542 -0.21651 -0.08752
-0.24056 -0.23740 0.09021
0.19551 0.13757 -0.28868
0.24157 -0.14884 0.12850
0.13910 -0.28868 -0.18171
0.18160 -0.21651 -0.26360
-0.20051 0.11273 0.28868
0.13454 0.00103 -0.28868
-0.00386 -0.26126 -0.24056
-0.17908 -0.18773 -0.02330
-0.15595 -0.21651 0.14555
-0.03454 -0.21651 -0.04663
-0.08480 -0.10499 -0.28868
-0.23558 0.25574 -0.05489
-0.10003 -0.20286 0.28868
0.18899 -0.17785 -0.07130
0.15987 0.05827 -0.22396
-0.17824 -0.21651 0.25120
-0.15853 -0.09221 0.18508
0.10391 -0.21651 -0.14883
0.23569 -0.09331 0.28868
-0.01573 0.23690 0.10298
0.03844 -0.13472 -0.28868
-0.28868 0.28155 0.16005
0.06083 0.21810 -0.13229
0.19471 0.28868 0.02563
-0.22444 -0.21651 -0.01039
-0.21437 0.18492 -0.16932
-0.08200 -0.28868 0.05611
0.17022 -0.21651 -0.02919
0.05790 -0.18059 -0.06468
0.04331 -0.09658 -0.18173
0.20971 0.28868 0.21988
-0.01342 -0.06345 0.20224
0.10870 0.28868 -0.17221
0.19039 -0.07369 0.28868
0.28868 0.28564 0.13339
0.17522 0.28868 -0.02446
0.07684 0.06225 0.22343
0.28868 -0.18863 0.23658
0.13945 -0.21651 0.05961
0.25101 -0.21651 0.14095
0.23040 0.19770 0.15888
0.15761 0.28868 0.04013
0.28868 -0.13384 -0.20618
-0.15808 -0.28868 0.01836
0.05917 0.28868 0.05758
0.01598 -0.12490 -0.28868
-0.18310 -0.21651 -0.15588
-0.15615 -0.14017 0.28868
-0.24056 -0.28244 -0.23237
0.28072 0.28868 0.08446
0.13707 0.06340 0.22328
-0.10956 -0.21651 -0.02973
0.23027 -0.18815 0.02012
-0.25815 -0.12377 0.28868
0.28012 0.28868 -0.05035
-0.28868 0.24855 -0.07982
-0.13914 0.18438 0.28868
-0.28868 -0.17492 0.26942
-0.17202 -0.13300 0.14914
-0.27600 -0.14390 -0.13494
-0.03458 0.28868 -0.01674
0.28868 0.21593 -0.20177
-0.19225 -0.24047 -0.24056
0.04352 -0.19015 -0.28868
0.11925 -0.21651 -0.25736
0.00154 -0.21651 -0.08531
-0.16745 -0.28868 -0.10443
0.19322 0.28868 0.15966
-0.04147 0.28868 0.06565
-0.17407 0.19650 -0.16044
0.23768 -0.21651 -0.00663
0.26659 0.05337 0.28868
-0.24056 -0.24045 0.08145
0.20638 -0.14716 -0.13069
0.18481 -0.21651 0.05749
0.03719 -0.15871 0.11564
0.26422 0.12217 0.20781
-0.05609 -0.21651 0.04379
0.08019 -0.28868 -0.14848
0.23327 -0.23892 -0.24056
0.28868 0.26129 -0.28000
0.09277 -0.21651 -0.27016
0.01382 -0.01934 -0.21958
0.07823 0.10998 -0.28868
-0.09292 -0.14633 -0.28868
0.15470 -0.21651 -0.06464
-0.27836 -0.18900 -0.01364
0.08195 -0.28868 -0.14040
0.19585 -0.16461 -0.10327
0.10719 0.12543 0.20646
0.08606 0.10170 0.28868
0.06347 -0.21651 0.07828
0.05785 0.28868 0.02724
-0.28868 -0.17683 0.15173
-0.11254 -0.24757 -0.24056
-0.10599 0.28868 -0.14022
0.00952 -0.20779 -0.28868
-0.11981 -0.21651 -0.27415
-0.28868 -0.19359 -0.05215
-0.12510 0.28868 -0.02971
0.03260 0.25301 0.28868
-0.14960 -0.21651 -0.22940
0.15720 -0.11070 0.28868
-0.28868 0.21506 0.27617
0.01819 0.28868 -0.09198
0.19391 0.02339 -0.28868
-0.28868 0.27011 -0.23077
0.16093 0.28868 0.07873
-0.28868 -0.18954 0.12329
0.28868 0.23325 -0.21054
0.28868 0.28683 -0.27158
-0.24056 -0.26894 0.23181
-0.02940 -0.07865 -0.19549
0.15244 -0.02915 -0.21645
0.21302 -0.18376 -0.05342
-0.05365 0.02839 -0.22587
-0.15503 0.28868 -0.19342
0.09174 -0.13685 -0.14412
-0.03046 0.28868 -0.27970
0.07513 -0.15500 0.12047
0.18473 -0.14278 0.13640
0.12261 -0.28868 -0.18038
-0.00282 -0.21094 -0.28868
-0.07286 -0.21651 0.11861
-0.15186 0.23795 -0.10045
-0.16087 0.28868 0.24083
-0.11808 0.28868 0.00721
-0.12458 -0.05217 -0.28868
0.11939 -0.21651 0.04642
-0.11946 -0.28868 -0.21978
-0.16461 -0.18479 0.04561
-0.21313 -0.21651 0.03615
0.28868 -0.02969 0.28554
-0.09239 -0.10126 -0.28868
0.07740 -0.05135 0.28868
-0.03386 0.13673 0.28868
-0.01019 -0.28868 -0.00876
0.14379 0.05677 -0.22415
0.28868 -0.20690 0.10841
-0.23998 0.11809 -0.28868
0.01472 -0.14923 0.28868
0.22339 -0.21651 -0.21181
0.03752 -0.04943 0.28868
0.16376 -0.21651 0.23599
-0.04804 0.14822 0.28868
-0.06547 -0.28868 -0.07517
-0.00482 -0.07485 -0.28868
-0.02732 0.12125 -0.20819
-0.06676 -0.13894 -0.14140
0.23462 0.28868 0.13656
-0.20588 -0.21651 -0.13892
0.08324 0.08002 -0.28868
-0.09981 -0.12442 -0.16033
0.04646 -0.03689 0.21324
-0.20097 -0.28868 -0.01290
0.25606 0.25069 0.06969
-0.24416 0.13779 -0.20134
0.04514 -0.20810 -0.28868
0.07055 0.26020 -0.02098
-0.04582 0.28868 0.10731
0.01817 -0.10467 -0.17552
-0.08662 0.19070 0.16489
0.05063 -0.28868 -0.23892
-0.19406 -0.15007 -0.28868
-0.04926 -0.21651 -0.13688
0.02197 0.22983 -0.28868
-0.21821 -0.05353 0.20635
0.21296 0.28868 -0.14905
0.28868 -0.19699 -0.10691
-0.18142 -0.21651 0.15674
0.07167 0.11518 0.28868
0.11800 0.28868 0.02142
0.09437 0.25026 -0.07072
0.00418 0.00402 0.22266
-0.28868 -0.16666 0.16496
-0.20972 -0.23954 -0.24056
-0.28868 0.22228 -0.13314
-0.07824 0.17601 -0.28868
-0.28169 -0.21651 -0.00530
0.28868 0.27973 0.20127
0.11617 0.25476 0.05985
-0.07660 -0.21651 0.25448
0.08121 -0.21651 0.16611
-0.17274 -0.14375 -0.13513
-0.21968 -0.28868 -0.15563
0.00846 -0.28868 -0.12114
0.08129 0.16919 0.28868
-0.21348 0.28868 -0.01284
-0.28625 0.28868 0.14241
-0.22939 -0.28868 -0.14877
0.10344 0.24818 -0.07573
0.17180 -0.19025 0.00416
-0.05052 0.28868 0.03136
-0.00169 0.28868 -0.10397
-0.09849 -0.21651 -0.19993
0.28868 0.08880 -0.24406
0.09014 0.10951 0.21306
-0.18441 -0.17202 -0.08537
-0.18449 0.22838 -0.28868
0.11380 0.25232 0.28868
-0.24092 0.21058 -0.28868
-0.02267 0.28868 -0.09098
-0.01607 0.24077 0.09365
0.07333 0.25993 0.02307
-0.14083 0.25073 -0.28868
-0.18360 0.28868 0.08658
0.21426 0.28868 0.06148
0.02800 -0.16998 -0.09031
-0.14334 -0.20660 -0.28868
-0.09147 0.20754 0.14605
0.02808 -0.01843 -0.21970
0.15523 -0.28868 -0.22193
-0.25798 0.17206 0.28868
-0.14846 -0.21651 0.12468
-0.19197 -0.17139 0.28868
-0.14930 -0.21651 0.18079
0.10237 -0.21651 -0.11761
0.20904 0.26187 -0.00831
0.10756 0.17707 0.17535
0.15322 -0.21847 -0.24056
-0.17118 0.28868 0.24543
-0.07852 -0.28868 -0.23223
0.04591 0.19348 -0.28868
0.09505 0.28868 -0.07513
-0.15935 -0.28868 -0.12840
-0.13616 0.01288 0.22382
-0.00982 0.22447 0.12399
-0.19284 -0.12741 -0.15643
0.28868 0.02794 -0.27101
0.02001 0.28868 0.21799
-0.04956 -0.11443 -0.16803
0.06910 -0.21651 0.09616
-0.26632 -0.09388 0.18380
-0.25718 0.28868 -0.16959
-0.08137 0.28868 0.12853
-0.05159 -0.16444 0.10368
0.07135 -0.21651 -0.07324
-0.08915 -0.28868 -0.12680
-0.16871 0.28868 0.13699
-0.13940 -0.21651 0.11129
0.02724 -0.27587 -0.24056
-0.11561 0.13067 0.20429
-0.21182 -0.16421 0.28868
-0.22157 0.20391 0.15079
-0.18612 0.15948 -0.28868
0.13986 -0.26768 -0.24056
0.03382 -0.01408 0.22027
0.11165 -0.21859 -0.24056
0.04177 0.28868 -0.18705
-0.00757 -0.28868 -0.14956
0.19167 -0.15211 0.12424
-0.24056 -0.24670 0.15716
-0.24056 -0.23500 -0.00217
0.20893 0.01295 -0.22383
-0.28868 -0.07952 -0.28068
0.11728 -0.21651 0.26634
-0.08857 0.28868 0.18488
-0.13784 -0.28868 0.00942
0.00014 -0.21651 0.08888
0.09646 0.26476 -0.28868
-0.23731 -0.08084 0.28868
-0.28868 -0.15974 0.17954
-0.04768 0.28868 -0.04023
-0.24122 -0.19353 -0.28868
0.21101 -0.02379 -0.28868
-0.07345 -0.19796 -0.28868
0.24546 -0.05787 0.28868
0.27050 -0.21651 0.21942
0.18328 0.26714 0.28868
-0.24056 -0.28826 0.21609
0.28868 0.21918 0.18787
-0.15966 0.16653 -0.18343
-0.02027 -0.21651 0.14842
-0.02492 0.26218 0.00592
0.07556 -0.09639 0.18188
-0.05574 0.28868 0.24071
0.06035 0.28868 0.27318
-0.24056 -0.22800 -0.17941
0.08033 -0.21651 0.04149
-0.15448 0.28324 0.28868
-0.10863 -0.18023 -0.06555
-0.07399 -0.09224 0.28868
0.01810 -0.01834 0.21971
0.26499 0.07996 -0.22110
0.28868 -0.06157 -0.24953
0.27964 0.08361 -0.28868
0.08575 -0.21651 0.26618
-0.03598 0.24066 0.09391
-0.13856 -0.21651 -0.08743
0.18513 0.28242 0.28868
0.25208 0.03299 0.22647
0.21037 -0.21651 0.00110
-0.22900 0.28868 0.05789
-0.24056 -0.27800 -0.13908
0.09411 0.17942 0.17354
0.00516 0.19146 0.28868
0.25007 -0.21534 -0.28868
-0.24094 0.24107 -0.28868
0.08671 0.24804 0.28868
0.07754 -0.17716 0.07296
-0.03087 0.25866 0.03270
-0.28276 0.08434 -0.28868
-0.13109 -0.21651 -0.02510
0.03532 0.22024 0.28868
-0.01772 -0.18623 -0.03464
0.28868 0.24097 -0.17746
-0.24056 -0.25598 -0.22994
0.28868 -0.19759 -0.22265
0.23173 0.28868 -0.14644
0.16207 0.06695 0.22282
-0.16401 0.28868 -0.21216
0.23062 0.15854 -0.18956
0.16177 -0.28868 -0.16399
0.14361 -0.21651 -0.10577
-0.22951 -0.21651 0.16876
0.09957 -0.06402 -0.20200
0.22354 -0.07749 0.19638
0.08062 0.13442 -0.20274
0.08068 -0.21651 -0.20323
-0.19838 0.22121 0.12824
0.17713 0.03255 0.22641
-0.24072 0.26005 0.28868
0.13620 0.03647 0.28868
0.21676 -0.06726 -0.28868
0.10864 -0.10402 0.17602
-0.20226 -0.28868 -0.18725
0.14888 -0.21651 -0.27728
-0.26756 -0.11758 0.28868
0.17164 -0.21651 -0.08774
0.28868 0.20493 0.24710
-0.28453 0.25887 -0.03110
0.14990 -0.07163 -0.19885
-0.01172 0.05978 0.28868
-0.12601 0.28868 0.05752
-0.26755 0.14665 -0.28868
-0.24056 -0.26723 -0.17794
-0.28762 -0.21651 -0.00773
0.16453 0.12463 -0.20679
-0.08776 0.28868 0.10968
-0.07316 0.28868 -0.02883
0.08705 0.10374 -0.21544
0.15980 -0.21651 0.28436
0.28868 -0.18457 -0.20747
-0.16089 -0.21651 -0.21660
0.28868 0.06099 0.26666
0.16376 -0.14822 0.28868
-0.01011 0.20340 -0.28868
-0.19046 0.12579 -0.20631
0.14909 0.01512 0.22412
0.00174 0.28868 0.03701
0.01116 0.03114 -0.28868
-0.22052 -0.28868 0.12042
-0.18884 -0.28868 0.16434
-0.05270 -0.28868 -0.04055
0.11777 0.28868 -0.07554
-0.09901 -0.10253 0.28868
-0.11568 -0.18679 0.03040
0.05135 -0.14043 0.13946
0.08906 0.28868 -0.26605
0.25190 0.00807 0.22319
0.14546 -0.21651 0.17753
-0.27661 0.28868 0.18828
-0.12626 -0.21651 -0.25018
0.08128 0.28868 0.08388
0.07019 0.25228 0.06585
-0.12579 -0.14314 -0.13593
-0.26238 0.18744 0.28868
-0.26927 -0.21651 -0.27873
0.22114 -0.21651 0.12116
0.14341 -0.21651 -0.26788
-0.00944 -0.16945 -0.09160
0.26432 0.28868 0.06824
0.18704 -0.16879 0.28868
-0.21939 -0.25911 -0.24056
0.27233 0.07435 -0.28868
-0.24056 -0.25251 0.08764
-0.21170 -0.06149 0.28868
-0.15463 -0.26437 -0.24056
0.16475 -0.18523 0.04229
0.00498 -0.21651 -0.23367
-0.07502 -0.28868 0.05589
-0.25373 -0.21651 -0.08525
-0.00454 0.26090 0.28868
0.27376 0.15506 0.28868
-0.08951 0.24579 -0.28868
-0.22253 0.28868 0.15996
-0.02838 -0.21651 -0.26470
0.13465 -0.21651 0.16985
-0.08543 -0.09116 0.28868
-0.28004 0.26267 -0.00223
0.11103 0.28868 -0.27123
0.08187 0.23756 0.28868
-0.21505 0.07978 0.22113
-0.19272 -0.17244 -0.08437
-0.03607 0.01977 0.22473
0.01214 -0.28868 -0.06345
-0.27045 -0.01518 0.22013
0.16671 0.28868 0.13404
-0.22632 0.25641 0.04977
-0.04565 -0.21651 -0.20954
0.11660 -0.28868 -0.14523
0.18249 -0.28868 -0.19195
-0.14976 0.22939 0.11757
0.04047 -0.03855 0.21256
0.27483 0.23590 0.10538
-0.12055 -0.14847 -0.28868
-0.24056 -0.26599 -0.24043
-0.10372 0.04354 0.28868
0.01203 -0.07894 0.28868
-0.27611 -0.21651 0.26180
-0.14160 0.28868 -0.03833
0.22258 -0.23848 -0.24056
-0.19418 -0.04476 -0.20998
0.11140 0.15556 -0.19185
0.22089 -0.21651 -0.01302
0.25684 -0.21651 -0.25435
0.20663 0.01206 0.22372
-0.16476 0.15224 -0.28868
0.11235 -0.11636 0.28868
-0.25124 0.20725 0.28868
-0.24056 -0.23819 -0.02446
0.12204 0.20397 -0.15070
-0.11041 -0.01703 -0.21988
0.28868 0.23318 0.23587
-0.26523 -0.04852 0.28868
-0.28868 0.01530 0.27918
-0.17028 -0.09474 0.28868
-0.01003 0.28868 0.22265
0.06326 -0.11818 0.28868
-0.27010 -0.21651 -0.18101
-0.18712 -0.10217 0.17744
-0.15596 -0.28868 -0.19998
-0.01953 0.20158 -0.28868
0.22909 -0.21651 -0.06278
0.11564 -0.18681 0.28868
-0.22104 -0.28868 0.13245
0.05482 -0.21651 -0.26297
0.01854 0.28868 -0.11909
-0.02524 -0.21666 -0.24056
-0.05711 0.15901 0.18921
0.27221 -0.21651 -0.24306
0.05004 -0.21651 0.00106
-0.01349 0.18720 0.28868
-0.26946 0.28073 -0.28868
0.04674 -0.28868 -0.22778
0.08015 0.24880 0.28868
-0.04838 0.11483 -0.21085
0.05726 -0.28868 -0.12834
-0.28218 0.28868 -0.00759
0.28405 0.11668 0.21009
0.06747 -0.18736 0.02611
-0.00585 -0.21651 0.19039
-0.24334 -0.21651 0.13922
0.23301 0.25167 -0.28868
-0.18337 0.03982 -0.22639
-0.16013 0.28868 0.17972
0.08842 -0.28868 -0.15067
-0.09678 -0.10869 0.28868
-0.03774 -0.21651 0.25925
0.14754 0.07072 -0.22232
0.23106 -0.19193 0.28868
0.11073 0.25865 -0.03278
0.12091 0.28833 0.28868
0.28116 -0.21651 -0.11167
0.23867 -0.17586 -0.07610
-0.16634 0.02832 0.22586
-0.28868 -0.20560 0.15383
-0.05482 -0.15070 0.12608
0.10605 0.12625 -0.20612
-0.22515 -0.18847 -0.01763
-0.28868 -0.15116 -0.17533
-0.13245 0.04976 0.28868
0.16525 -0.08564 0.19012
-0.28868 0.24172 -0.18497
0.07391 0.28868 0.08906
0.21984 0.17033 0.18051
-0.11764 0.04575 0.28868
-0.28430 0.14024 0.20033
0.28868 -0.14940 0.19256
-0.21757 0.01449 -0.28868
0.13674 0.12480 0.28868
-0.19768 0.28868 0.09296
-0.24056 -0.22800 0.19891
0.05226 -0.28868 -0.11634
-0.19894 -0.28868 0.10816
-0.07306 0.08107 0.28868
-0.14748 0.28758 -0.28868
0.10048 -0.18795 -0.02158
-0.19205 0.28868 -0.27568
0.06095 0.27164 -0.28868
-0.20374 0.23208 -0.11407
0.01690 -0.21651 -0.24773
0.14987 0.02922 0.28868
-0.15948 -0.21651 0.28589
-0.06480 -0.00985 0.22083
0.25462 -0.20597 -0.28868
-0.07572 -0.28868 -0.10486
0.23234 0.28868 -0.10087
-0.23527 -0.28868 0.11925
-0.10533 -0.13422 -0.28868
-0.01678 -0.21651 -0.25866
0.25607 0.21539 0.13583
0.19500 0.00838 -0.22323
0.08404 -0.21651 0.07664
-0.23278 0.02379 0.28868
0.04333 -0.28868 -0.05080
0.24202 -0.18927 -0.01160
0.28868 -0.06112 -0.23960
0.08046 -0.01295 -0.22042
-0.05199 0.03719 0.22673
-0.11698 0.05715 0.28868
0.08951 0.28868 0.10767
-0.28868 0.16609 -0.28677
0.26514 0.15053 0.28868
-0.12303 -0.16885 -0.09303
-0.17447 -0.21651 -0.12302
-0.09153 -0.15491 -0.12059
-0.28868 -0.19226 -0.22398
-0.03197 0.01643 -0.22429
-0.20177 -0.21651 -0.02266
0.17545 -0.24589 -0.24056
0.00245 -0.18309 -0.05851
-0.10863 0.09525 -0.21896
0.28819 -0.10376 0.17622
0.16221 -0.21651 -0.12926
-0.17409 -0.21651 -0.07051
-0.24056 -0.25715 -0.16216
0.20475 -0.23684 -0.24056
0.06671 -0.21651 0.18941
-0.23512 -0.28868 0.09210
0.27567 0.25883 0.03141
-0.28868 0.27676 0.17220
0.06409 0.19101 0.28868
0.23194 0.03033 -0.28868
-0.28868 0.26467 -0.10003
0.06043 -0.21651 -0.26641
-0.12676 -0.21651 -0.14936
-0.22326 0.09941 -0.28868
-0.09597 -0.21651 0.05244
0.06498 -0.15068 -0.28868
-0.04516 0.28868 -0.27523
0.26501 -0.17781 0.07140
0.10371 -0.14718 0.13066
-0.15831 -0.28868 -0.16214
-0.14127 0.14870 0.28868
-0.20267 -0.14827 0.28868
0.02976 -0.28868 -0.07442
0.11381 -0.21651 -0.16382
0.00236 -0.22058 -0.24056
0.11958 0.17757 -0.28868
-0.04961 0.28868 -0.01156
0.22763 -0.21651 -0.03297
-0.12694 -0.04249 -0.28868
0.18721 0.22027 0.12946
-0.03930 0.12573 0.20634
0.01367 -0.28868 -0.21702
0.24741 -0.09906 0.17983
-0.16348 -0.12478 -0.15985
-0.17495 -0.13756 -0.14320
0.07271 0.24846 -0.07508
0.21739 0.07766 -0.22140
-0.00099 0.20535 -0.14891
-0.17756 0.28868 0.15707
-0.07368 -0.21651 -0.08815
-0.26937 0.20223 0.28868
0.17203 -0.10225 0.28868
0.28868 0.16250 0.19780
0.21258 0.28868 0.28054
-0.22256 -0.21651 0.11063
-0.03099 -0.09625 0.18199
-0.28868 0.04026 -0.24287
-0.20369 -0.28868 0.10319
-0.18312 -0.28868 -0.08070
-0.01760 0.00113 0.28868
0.11494 0.06905 0.28868
-0.28868 -0.05271 -0.22437
0.16302 -0.14004 0.13997
0.03250 -0.28868 -0.08063
-0.05028 0.28868 0.08688
-0.00433 -0.21651 0.02845
-0.04277 -0.04426 -0.28868
0.03234 -0.08033 -0.28868
-0.07923 -0.21651 0.02395
0.28868 0.22610 0.21188
-0.00364 -0.15228 0.28868
0.18957 0.00152 -0.22233
-0.17642 -0.28868 0.12431
0.08900 -0.05128 0.28868
0.27363 0.03889 -0.28868
-0.28552 0.02137 0.22494
0.15327 -0.21651 -0.24636
-0.04133 0.25797 0.03790
0.11502 -0.28868 -0.23444
0.28379 -0.21651 0.08992
0.25792 -0.14655 -0.13148
-0.21422 -0.17463 0.28868
0.11916 -0.18726 0.02687
0.02962 -0.18884 0.01483
0.05125 0.06426 0.22317
0.02664 0.24996 0.07144
-0.11732 0.15015 0.19600
-0.23296 -0.21651 0.02904
-0.15003 0.10094 0.21661
-0.23311 -0.21651 -0.28424
-0.01976 0.28868 0.15670
0.13471 0.27078 -0.28868
-0.21574 -0.28868 0.20643
-0.21072 0.01530 -0.22414
0.21571 -0.06535 0.20146
-0.20955 0.17694 -0.17544
-0.07258 -0.21651 -0.20350
0.18691 0.22640 -0.12148
0.21246 -0.00400 0.28868
-0.24056 -0.24834 -0.22834
-0.02078 -0.17404 -0.28868
-0.06568 -0.01217 0.28868
-0.28868 0.18485 -0.23388
0.07386 0.15578 -0.28868
-0.28868 -0.12847 -0.27063
0.14369 -0.00853 0.28868
0.21811 -0.15939 0.28868
-0.17889 0.28868 -0.05372
0.15022 0.28868 -0.19810
-0.23578 0.04024 0.22633
0.07872 0.17710 0.28868
0.05611 0.14353 -0.28868
-0.05585 -0.28868 -0.10355
-0.18150 0.18552 -0.28868
0.23413 0.23961 -0.09645
0.08695 -0.28868 -0.12527
0.01925 -0.11662 0.16635
0.22725 -0.21651 -0.04664
-0.23223 0.00136 0.22231
0.15028 -0.21651 0.02989
-0.16802 -0.17409 0.08038
0.06034 -0.12839 0.28868
-0.18319 -0.28868 -0.01761
0.19565 0.07165 -0.22220
0.12540 -0.13414 0.28868
0.19484 -0.09141 0.18570
-0.17448 0.28516 -0.28868
-0.10482 -0.28868 -0.10765
-0.20284 0.01176 0.22368
0.07242 0.19879 0.15745
-0.15881 0.26179 0.00892
-0.11056 0.28868 0.07842
-0.01658 0.03992 -0.22637
-0.20165 -0.21651 -0.22400
-0.02163 -0.21651 -0.11246
-0.13470 0.00081 0.22223
-0.24986 -0.03963 -0.28868
-0.23578 0.15649 -0.19113
-0.07299 -0.28868 -0.04763
-0.06540 -0.21651 -0.25423
-0.16568 0.19439 0.16205
0.09050 -0.18773 -0.28868
0.28410 0.28868 -0.27746
-0.28300 -0.21651 -0.28146
-0.12102 -0.28868 -0.17182
-0.06832 0.28868 0.01633
-0.28532 -0.21651 -0.18992
0.18660 -0.28868 -0.22638
0.21149 -0.21651 -0.19099
-0.23803 0.25076 0.06952
0.07587 -0.06473 -0.28868
0.26764 0.12506 -0.20661
0.28868 -0.20219 0.19870
-0.27328 -0.17197 -0.08551
-0.06461 -0.21651 0.13078
0.20193 -0.21651 -0.18021
0.28868 0.25873 -0.14986
0.24083 -0.08546 0.19026
-0.12532 0.05336 -0.28868
-0.01923 0.01770 -0.28868
-0.06727 -0.08876 0.28868
-0.00501 -0.13797 -0.14267
0.10907 0.03350 0.28868
-0.08670 -0.28868 -0.01598
-0.22562 0.09041 -0.21973
-0.03263 -0.21651 0.02181
-0.06647 0.21857 0.13168
0.03783 -0.14772 0.12995
0.21553 0.28868 -0.24230
-0.28868 -0.17316 0.13155
-0.06030 -0.28868 -0.16730
0.05490 -0.20444 0.28868
0.28868 0.28528 -0.08601
-0.15149 0.07610 0.22161
0.27504 -0.19425 -0.28868
-0.24056 -0.25411 0.12640
0.05769 0.16969 0.18101
-0.24056 -0.25487 -0.02216
-0.18432 0.28868 0.15316
-0.25330 -0.21651 0.12244
-0.10637 0.12491 0.20668
-0.11457 0.23857 0.28868
0.13192 -0.12698 0.15699
0.24561 0.25493 -0.05944
0.28868 0.15091 -0.23529
0.25640 0.28868 -0.28804
-0.01257 0.09526 0.28868
-0.05232 -0.14121 0.13844
0.03760 -0.24317 -0.24056
-0.13271 0.19453 -0.16195
-0.14737 0.28868 -0.25939
-0.21065 -0.21651 -0.03805
-0.07797 -0.21651 0.24805
-0.13074 -0.21651 -0.05209
-0.09960 -0.11154 0.17025
0.20186 -0.12730 0.28868
-0.02642 -0.07033 0.19939
0.04580 -0.18168 0.06207
-0.00605 -0.11139 0.28868
-0.02347 -0.21651 0.00761
-0.28675 0.23698 -0.10278
-0.05080 0.05451 0.22445
-0.03748 0.28868 0.02894
-0.26860 0.13009 -0.28868
-0.08411 -0.21651 0.23623
-0.25296 0.22367 -0.12503
-0.28868 0.28828 -0.03309
0.14147 0.28868 0.08109
-0.15165 -0.21651 0.06057
0.11066 -0.21651 -0.00452
-0.21591 -0.21651 0.11308
0.10967 0.28868 -0.13720
0.12245 0.17604 0.17613
0.28868 -0.14944 -0.20765
0.03062 -0.28868 -0.22917
-0.03145 -0.28868 -0.08580
-0.24056 -0.26294 0.07798
-0.27314 0.28868 0.14894
-0.11985 -0.27758 -0.24056
-0.02362 -0.02679 -0.28868
0.15354 0.28868 -0.06897
-0.15365 -0.21448 -0.28868
-0.01686 0.23807 0.28868
-0.23816 -0.18545 -0.04061
-0.27744 -0.03541 -0.28868
0.22626 -0.21651 -0.18161
-0.26697 -0.21651 -0.02265
-0.10607 -0.06091 -0.28868
-0.28868 0.14481 0.26572
-0.28868 0.25596 0.20018
0.01283 -0.18912 -0.01275
-0.21163 -0.07647 0.19685
-0.11027 -0.21651 -0.18184
0.06396 -0.21651 -0.10479
0.26761 0.24392 0.08603
0.19892 0.28868 -0.24964
-0.28868 0.19884 0.28137
0.14062 -0.09229 0.18502
0.22185 0.28868 0.07536
0.19926 -0.07913 0.28868
-0.26008 0.15246 0.19423
-0.15865 -0.03752 -0.28868
-0.19109 0.09024 -0.28868
0.26162 0.06814 0.28868
0.28868 0.18157 -0.23383
0.16958 0.19808 -0.15838
-0.25008 0.28494 -0.28868
-0.28868 -0.18704 -0.03518
-0.07853 0.23584 -0.10554
-0.11534 0.11422 0.21111
0.16188 -0.02426 0.21847
0.12798 -0.17213 -0.08511
-0.04787 -0.28868 -0.20362
-0.24738 0.06800 0.22268
0.02862 -0.21651 0.18685
-0.18397 -0.28868 0.17796
-0.28868 -0.21544 -0.17731
-0.02025 0.15254 -0.19417
-0.28868 0.09239 -0.26009
-0.17001 0.16637 0.28868
-0.19004 -0.17135 0.08700
-0.19123 -0.21651 -0.13902
0.16049 0.20498 -0.14939
-0.11566 -0.03424 0.21434
0.23808 -0.02992 -0.21613
-0.08238 0.28868 -0.28383
-0.18701 0.25709 -0.04464
-0.28868 0.27117 0.20126
0.19502 0.28868 -0.07443
-0.16035 -0.12329 -0.28868
0.21175 0.28868 -0.22274
-0.20720 -0.17865 0.06937
0.08542 -0.06432 -0.20188
-0.23879 -0.18476 0.04585
0.02839 0.19145 0.28868
-0.02223 -0.27622 -0.24056
0.28868 0.26951 -0.06885
0.00585 -0.19421 -0.28868
-0.02490 0.28868 0.26567
-0.09126 -0.08404 -0.19135
0.27779 0.18196 0.17160
-0.27872 -0.21651 -0.26695
0.14525 0.28868 -0.22097
-0.11864 -0.17811 -0.07068
-0.06947 -0.21651 -0.14977
0.03939 -0.13611 0.14509
-0.28868 0.16202 -0.20649
-0.14299 0.28868 0.11154
-0.22033 -0.28868 0.19216
-0.26105 -0.18602 0.03626
0.17833 0.16339 -0.18584
-0.26076 -0.21651 0.19351
0.12757 -0.18326 -0.05722
0.05620 -0.21651 -0.24498
0.16906 -0.11531 -0.28868
0.21250 -0.21651 -0.07705
-0.04296 -0.21651 -0.08151
-0.09026 -0.14179 0.13769
0.28868 0.19524 -0.21773
0.20448 0.28868 0.10473
-0.10755 0.28868 0.16130
0.09767 0.28868 -0.05976
0.14438 -0.21651 -0.02168
0.00574 -0.21651 -0.18349
0.26386 -0.10684 -0.17386
-0.04076 -0.28868 0.01230
0.15614 -0.06191 0.20288
-0.14107 0.26147 0.01134
0.17726 -0.21651 0.13452
-0.16541 -0.02943 0.28868
0.16951 -0.21651 0.27492
0.28868 -0.19219 -0.05736
-0.06743 -0.28868 -0.09064
-0.06163 0.21681 -0.13397
-0.06380 0.13070 -0.20428
-0.22324 -0.28868 0.17611
-0.27022 -0.18052 0.06487
-0.28868 0.08977 -0.23357
0.15341 -0.21651 0.24628
0.13819 0.26229 0.00508
0.07257 -0.19015 -0.28868
-0.25643 0.13090 -0.28868
0.27013 -0.16534 -0.10150
-0.08385 0.28868 -0.13848
0.19284 -0.21651 -0.18428
0.03270 0.24763 -0.07706
-0.03137 0.03507 -0.28868
-0.01276 0.01304 -0.22384
0.09671 -0.21651 -0.01901
0.28868 -0.21473 -0.01787
-0.24056 -0.23432 0.01425
-0.18464 -0.14839 -0.28868
0.16960 0.10744 -0.21391
0.28868 0.18474 -0.27846
-0.06360 0.00889 -0.28868
-0.09817 0.28868 0.12391
-0.28385 0.22123 0.28868
0.27529 -0.17568 0.07655
-0.05014 0.08768 -0.22008
-0.12475 0.11664 -0.21010
0.25241 0.07470 -0.28868
-0.00802 -0.10488 0.28868
-0.27149 0.08406 -0.22056
-0.18519 -0.28868 -0.22765
0.06107 0.22651 0.12133
-0.19281 -0.13363 -0.14833
-0.28868 -0.19454 0.02965
0.25839 0.08144 0.22091
0.23430 -0.24646 -0.24056
0.16406 0.26073 0.01698
0.28710 -0.21651 -0.04247
-0.21158 -0.28868 -0.03768
-0.17429 0.14424 0.28868
-0.28829 -0.21651 -0.08057
0.23574 0.02422 -0.22532
-0.14054 0.25534 -0.05787
-0.24056 -0.24729 0.02693
-0.02001 0.22359 -0.12514
-0.10692 0.28868 -0.18241
-0.24228 0.25405 -0.06159
-0.08615 -0.21651 -0.10358
-0.28868 0.11573 0.22667
-0.24056 -0.24807 -0.00469
0.06113 0.14739 -0.19737
0.01208 0.11703 0.20994
-0.18372 -0.21651 0.21831
-0.09413 0.04857 -0.22523
-0.19252 -0.18562 0.03932
0.27037 -0.13323 0.28868
-0.21617 -0.12819 0.15541
-0.10162 0.28868 0.14349
0.28868 0.22009 0.22040
0.28868 -0.07078 -0.21796
-0.24056 -0.26690 -0.08823
-0.20551 -0.21651 -0.06546
0.28868 -0.03839 0.23068
-0.28868 0.25132 0.16239
0.16515 -0.17464 0.07906
-0.11778 0.18957 -0.28868
-0.03517 -0.21651 0.18044
-0.20331 -0.28868 -0.02306
0.28868 0.24026 -0.10081
-0.23194 -0.21651 -0.12717
0.24047 0.26122 0.01324
-0.20470 -0.18962 0.28868
-0.07037 -0.25973 -0.24056
0.00996 -0.18995 0.00644
-0.01325 -0.18809 -0.02057
