ply
format ascii 1.0
comment VCGLIB generated
element vertex 1903
property float x
property float y
property float z
element face 0
property list uchar int vertex_indices
end_header
0.15999 0.28248 -0.21555
-0.14500 -0.22362 0.31598
0.00091 0.30282 0.06041
-0.15390 -0.31082 -0.29401
0.16558 0.05583 0.30815
-0.16994 0.28729 -0.21221
0.15182 0.23294 -0.29318
-0.09336 0.31835 -0.17334
0.06792 0.31835 0.16092
0.15999 0.26619 0.00687
-0.11471 0.30282 0.01321
0.02023 0.31835 0.10583
0.04075 0.31835 -0.27520
-0.11850 0.23916 -0.30239
-0.17569 0.30282 0.15648
-0.15277 0.26005 0.11118
0.13452 0.19873 -0.30109
0.02575 0.30282 -0.25942
0.15999 0.26508 0.07248
0.10620 0.30311 0.33606
0.14710 -0.07344 0.29610
0.15033 0.27285 -0.03010
0.14515 0.23294 0.15091
-0.17668 0.09459 0.29986
0.16558 -0.11355 -0.31158
-0.02385 0.30282 -0.14860
-0.17668 0.25411 0.29935
-0.06341 0.30282 -0.01525
0.00803 0.30282 -0.04106
-0.09868 0.31835 -0.02156
-0.17316 0.11103 -0.32460
0.02780 0.24484 -0.03783
0.15004 0.30282 0.22852
-0.15655 -0.24559 0.32716
0.13452 -0.00248 0.30524
0.13640 0.31835 0.22800
0.16558 -0.17721 0.30377
-0.15277 0.26440 -0.09520
0.11552 0.30282 -0.09107
0.08343 0.24567 0.30923
-0.17668 0.03571 0.31388
0.00014 0.23503 -0.30239
-0.16830 0.26268 0.13437
-0.16874 0.28729 0.14301
0.16430 -0.27921 0.32716
-0.14500 -0.09539 -0.29637
-0.13890 0.31835 0.26164
-0.14672 0.31835 0.04523
0.06395 0.30282 0.21654
-0.16441 -0.17623 0.32716
0.00211 0.30282 0.00972
0.08691 0.27588 -0.30239
0.09717 0.26754 -0.30239
-0.14500 -0.13320 0.30447
-0.14500 0.03793 -0.30078
-0.09144 0.29097 0.30923
-0.16830 0.25882 0.00224
-0.15521 0.23294 0.22826
0.02684 0.30282 -0.18148
-0.14287 0.31835 -0.29832
0.16406 0.03369 -0.29401
-0.06927 0.30282 -0.04281
-0.10830 0.30282 -0.16657
0.14446 0.23700 -0.22724
-0.16108 -0.20354 0.29548
0.01305 0.30282 0.10751
-0.08213 0.31835 -0.06614
0.16558 0.29135 0.18821
0.01319 0.23294 -0.30883
-0.14500 0.09174 0.30270
-0.03782 0.31835 -0.09312
0.03782 0.30282 0.07528
-0.15308 0.23880 -0.10073
-0.17606 -0.14925 -0.29569
0.03782 0.30282 0.05312
0.14425 0.13109 -0.29401
0.14673 -0.08248 0.32716
-0.14722 0.04876 -0.32460
0.03553 0.31835 0.09077
0.16463 0.04048 -0.29401
-0.10386 0.30282 -0.23362
-0.09057 0.30282 0.23882
0.16558 -0.18275 -0.29467
-0.11177 0.25182 0.01294
0.04054 0.30282 -0.04268
0.15999 0.26068 0.11619
-0.17090 0.10592 0.32716
0.15999 0.26898 0.03249
-0.15607 -0.21594 0.32716
0.13452 0.09694 -0.30623
-0.08234 0.26306 -0.30239
0.08312 0.31835 -0.05223
-0.16446 0.23294 0.28394
0.01483 0.31835 -0.20187
-0.04046 0.30293 -0.34198
-0.00114 0.31835 0.33100
0.16558 -0.26624 -0.31963
-0.07436 0.31835 0.23908
-0.13523 0.31835 0.29868
0.15999 0.23855 -0.28900
-0.15482 0.04352 0.29548
0.15699 0.03786 -0.32716
0.00895 0.30282 -0.27508
-0.14500 0.17905 0.32226
-0.16830 0.27791 0.26338
0.15999 0.27299 -0.27814
-0.15584 -0.25506 0.32716
-0.15202 0.30282 -0.22766
-0.16830 0.28081 0.15219
-0.07838 0.23793 0.09470
0.09179 0.30282 -0.16320
0.13208 0.24383 -0.30239
-0.01723 0.31835 -0.13259
0.10394 0.30282 -0.29557
0.15197 0.27796 0.32716
0.14248 0.30282 -0.27315
0.14446 0.23955 -0.08229
-0.09620 0.31835 0.07889
-0.10673 0.28729 -0.29429
0.09617 0.30282 -0.21274
-0.01130 0.31835 -0.23629
-0.15259 0.20925 -0.29401
0.07044 0.30282 0.19514
0.16558 0.04551 -0.31068
0.13452 -0.29912 -0.32554
0.15903 -0.13812 -0.32716
-0.16830 0.24825 0.15452
-0.16867 0.28729 -0.18344
-0.16626 0.31835 0.24292
0.04004 0.31835 0.14133
-0.00428 0.27153 -0.31497
0.01282 0.30282 0.07627
-0.00378 0.30282 -0.14936
0.01091 0.31835 0.16552
-0.10901 0.30282 -0.09231
0.13452 0.22752 -0.30627
-0.04521 0.30282 0.07122
-0.14848 0.13630 -0.32460
-0.03378 0.31835 0.23572
-0.04693 0.31835 -0.29267
-0.12255 0.31835 -0.03324
-0.09142 0.25962 0.31940
0.14446 0.24571 -0.07434
-0.14500 -0.11349 -0.31117
0.04675 0.29363 0.30923
-0.16379 0.30282 -0.00214
0.15999 0.28908 -0.12991
-0.07464 0.24484 -0.05150
0.08698 0.29500 -0.33810
0.16945 0.27953 0.07030
0.16558 0.12487 0.31931
-0.16539 0.08931 -0.32460
0.16558 -0.09273 -0.32530
-0.06367 0.27064 0.30923
0.14446 0.28581 -0.25113
0.13452 0.25317 0.30111
0.14225 -0.02936 -0.29401
-0.14503 0.04457 -0.29401
0.16037 -0.25650 -0.29401
-0.15576 0.30282 0.21578
-0.05074 0.24484 -0.07143
0.13452 -0.11373 0.32232
0.16558 -0.09677 0.31426
-0.11621 0.31835 0.23265
-0.17668 -0.09442 0.30519
0.16558 0.30300 0.06852
0.12926 0.31835 -0.02824
0.10574 0.30282 0.05762
0.11685 0.31835 -0.02914
-0.05473 0.31835 -0.08269
-0.13719 0.30282 0.17423
0.14703 0.23294 0.09350
0.03826 0.31615 -0.34157
-0.13648 0.31835 0.15454
0.14446 0.26556 -0.21150
0.15842 0.23294 -0.14147
-0.17668 0.31392 -0.23355
0.15223 0.30282 -0.19389
-0.15508 -0.25720 -0.29401
-0.08082 0.26070 -0.31497
-0.15000 -0.15897 -0.32460
-0.15000 -0.21612 -0.32460
0.16558 0.09417 0.29693
-0.02454 0.31835 -0.12294
0.14630 0.23294 -0.04072
-0.07349 0.27070 0.11752
-0.02834 0.31835 0.17159
-0.08746 0.31835 -0.28735
-0.16811 0.08936 -0.29401
-0.17606 -0.26231 -0.30265
0.16062 0.05076 -0.29401
-0.02845 0.24484 0.00135
0.06115 0.28729 -0.33006
-0.07952 0.31835 -0.09291
0.11334 0.24484 -0.09400
-0.14500 -0.05798 0.30412
-0.17606 0.26345 -0.29673
-0.05337 0.30282 -0.21113
-0.16158 -0.27148 -0.32460
-0.16830 0.24352 0.23870
-0.02457 0.27088 0.31940
0.01744 0.30282 0.15041
-0.16183 -0.27755 0.29548
-0.12166 0.23793 0.09867
0.16439 0.00240 -0.29401
0.03877 0.24484 0.00119
-0.02500 0.30282 0.25594
-0.14161 0.29868 0.30923
0.03223 0.24947 -0.31497
0.14446 0.25969 -0.26830
0.13099 0.24074 0.31940
-0.17668 0.05749 0.29929
0.02402 0.30282 -0.31521
-0.17606 0.01469 -0.29521
-0.17668 -0.12113 0.31165
-0.11277 0.30282 -0.18909
0.05097 0.31835 -0.15004
-0.16830 0.27146 -0.22568
-0.11935 0.31835 0.22837
0.16558 0.09258 -0.32412
-0.08216 0.23778 -0.11158
0.14267 0.03835 -0.32716
-0.08329 0.30282 0.02003
-0.15277 0.27951 -0.17841
0.15907 0.09440 0.29610
0.15999 0.27408 -0.23324
-0.14500 0.08219 0.31093
0.06301 0.24484 -0.04562
0.16558 0.28925 0.29798
-0.16897 0.31835 -0.18644
0.16558 0.22025 -0.31048
-0.07785 0.24484 0.10691
0.16558 0.31422 -0.17097
-0.06104 0.30282 0.02528
0.15999 0.25244 0.09508
0.03772 0.30282 0.03546
0.11252 0.30282 -0.10482
0.14446 0.25619 0.26133
0.14797 0.28729 -0.11698
0.11531 0.31835 -0.30335
-0.02262 0.27537 -0.31497
-0.15277 0.23901 -0.14310
0.16213 0.31835 -0.10671
-0.17385 -0.06286 0.29548
0.16081 0.25588 0.13305
-0.15771 0.01414 -0.32460
-0.17522 0.15869 0.29548
-0.14500 -0.26608 0.30927
-0.16830 0.23364 -0.07888
-0.09426 0.31835 -0.14048
0.00355 0.30282 0.11956
-0.16848 -0.31624 0.29548
0.15440 0.27874 -0.03886
0.11509 0.24484 0.02610
-0.05490 0.29367 0.30923
0.14550 0.25007 0.32716
-0.14500 -0.20096 0.30739
0.10637 0.25721 -0.30239
-0.16983 -0.13839 -0.29401
0.15999 0.25599 0.15801
0.15999 0.25725 -0.03207
0.02332 0.30282 -0.29338
0.01885 0.24484 -0.08546
-0.01054 0.31093 0.34262
-0.03246 0.30282 0.21518
-0.00781 0.31835 -0.01129
0.16558 0.29475 -0.11046
0.04798 0.30282 -0.06092
0.00388 0.23778 -0.11208
0.05146 0.23793 0.10791
0.14222 0.30282 -0.30205
-0.10899 0.29473 0.30923
-0.17668 0.22471 0.32016
-0.01649 0.27289 -0.30239
0.01932 0.31835 0.00083
0.16558 -0.20571 0.31089
0.15999 0.25091 0.19435
-0.03106 0.30282 -0.23521
0.15405 0.10851 0.32716
0.11400 0.30282 0.21556
0.05498 0.30282 0.02676
-0.02739 0.28238 0.30923
0.16558 0.28821 -0.14906
-0.13878 0.28729 -0.31930
0.07657 0.23793 0.11146
-0.16179 0.30282 0.24609
0.13823 0.31835 0.09625
-0.05777 0.30282 -0.20650
0.15999 0.29637 -0.08683
0.16087 0.30282 0.14123
0.14024 0.31835 0.07407
-0.16318 0.05190 -0.29401
0.14355 0.09293 0.29610
0.03089 0.30282 -0.03553
-0.16915 0.31835 -0.07659
0.03206 0.27089 0.31940
-0.00881 0.30282 0.01202
-0.13160 0.31835 -0.29639
0.15999 0.23504 -0.09069
-0.02497 0.27942 -0.30239
0.15999 0.27900 0.04257
0.15824 0.19638 -0.32716
-0.16211 0.28729 -0.10356
0.15430 0.30282 0.20805
0.03851 0.30282 0.11639
-0.12259 0.31835 -0.17686
-0.00048 0.30282 -0.02529
-0.17606 -0.12502 -0.29959
0.16558 0.14794 -0.29550
0.16093 0.02411 0.32716
0.01510 0.30282 -0.20442
0.14495 0.31556 -0.33062
-0.04741 0.31835 -0.20708
-0.14500 0.11209 -0.29594
-0.16517 -0.06166 0.29548
0.14184 -0.05973 0.32716
0.11564 0.31835 0.28180
-0.14500 0.05809 -0.30320
0.15904 0.30282 -0.28304
0.16179 0.30282 0.04216
0.15999 0.28864 0.25939
-0.16909 0.25484 -0.32460
0.16170 0.31835 -0.17221
-0.16188 0.30282 0.20864
0.16558 -0.31029 -0.30196
0.06281 0.30282 -0.05591
0.16393 0.00259 0.32716
0.12064 0.24484 0.00535
-0.17668 0.30470 -0.21498
-0.13328 0.31835 0.11529
0.01229 0.30282 0.09917
0.10524 0.30282 -0.19677
0.15440 0.27578 -0.00183
0.17109 0.24866 -0.12824
-0.01123 0.30114 0.30923
-0.15172 -0.20485 0.29548
-0.08367 0.30282 -0.30137
0.15999 0.28966 -0.26040
-0.17606 -0.00361 -0.32145
-0.17588 0.22567 0.29548
0.15999 0.28473 0.04061
0.14446 0.24527 -0.05824
-0.08753 0.30282 0.22815
0.15715 -0.05185 -0.29401
0.02764 0.23778 -0.10756
0.00594 0.24484 0.04765
-0.17668 0.08462 0.29588
0.13452 0.26010 -0.31930
-0.16830 0.25016 -0.23940
0.06808 0.24484 -0.07450
0.02298 0.30282 -0.24624
-0.15277 0.25047 -0.13203
-0.11177 0.24945 0.09154
-0.11463 0.30282 -0.10298
0.12847 0.31835 -0.17681
0.16558 0.22960 -0.30203
0.14799 0.30282 0.18768
0.01805 0.30282 -0.10940
0.14390 0.30282 0.32243
-0.13598 0.31835 0.00797
-0.04250 0.29961 -0.31497
-0.02955 0.30282 0.22885
-0.07594 0.30282 -0.17710
-0.16537 0.31835 -0.17876
-0.06531 0.31835 0.25655
-0.14500 -0.31715 0.32029
-0.17668 0.18436 0.31642
-0.16738 0.31835 -0.02981
-0.02144 0.31835 0.00912
0.14486 0.15278 -0.29401
0.10050 0.29946 0.30923
-0.14580 0.00291 -0.32460
-0.11177 0.25674 -0.08956
0.15715 0.22348 0.32716
-0.09159 0.31835 0.32364
-0.11177 0.24557 -0.09870
0.00118 0.30282 -0.27181
-0.14500 -0.30291 -0.31122
0.08935 0.31835 0.16228
0.16558 0.30229 0.22709
-0.13569 0.25188 -0.30239
0.15999 0.24238 0.01243
-0.15598 0.23294 0.08985
0.15999 0.26846 0.12417
-0.07943 0.24484 0.02415
0.14446 0.24372 -0.16660
0.16278 -0.31369 -0.32716
0.15999 0.25555 -0.06892
-0.01216 0.31835 0.14274
0.16485 0.30282 -0.27606
0.15999 0.27006 0.03958
0.15999 0.26242 0.01738
0.07979 0.30282 -0.13098
-0.11177 0.26763 -0.02431
0.14662 0.27285 -0.03357
0.07177 0.26358 0.30923
0.13316 0.30282 0.29421
-0.14500 -0.10108 -0.30745
0.06953 0.31835 0.19110
0.14818 0.31835 -0.00649
0.09299 0.30282 0.06161
0.14446 0.25568 0.18151
0.16558 0.28870 0.01182
0.00143 0.24484 0.07272
0.13452 0.19086 0.29622
-0.15059 0.31835 -0.04339
0.04148 0.30282 0.25284
0.15533 0.30282 0.10058
0.01839 0.30282 0.19100
0.10560 0.26521 0.30923
0.02008 0.31835 -0.10234
-0.17633 0.18804 0.29548
-0.16533 -0.08095 -0.32460
0.05039 0.24499 -0.31497
-0.16431 0.28729 0.17104
-0.15610 0.23294 0.13481
-0.16597 0.28729 0.02876
0.05241 0.31835 -0.17280
0.13452 0.22690 0.31974
-0.17606 -0.30738 -0.30775
-0.17155 0.31835 -0.11369
-0.12448 0.25636 -0.30239
0.16558 0.17445 -0.31459
0.13452 -0.07987 -0.32506
-0.14374 0.31835 -0.23636
0.17109 0.27636 0.03749
0.04445 0.31835 -0.25650
-0.01269 0.31835 -0.07361
0.05721 0.30282 -0.14068
0.00137 0.24484 0.01356
-0.17668 0.29108 -0.05481
0.11016 0.30282 -0.15138
0.14636 0.27602 0.31163
-0.05227 0.30282 0.08847
-0.16109 -0.22878 -0.29401
0.06378 0.25907 -0.11542
0.16558 -0.10600 0.31223
-0.11458 0.30282 0.29423
0.00603 0.30282 0.06747
-0.16830 0.25950 -0.17647
-0.07097 0.24849 0.31940
0.13589 0.23027 0.32716
-0.17606 -0.17156 -0.29804
0.13452 -0.15784 0.31640
-0.08693 0.31835 0.06127
-0.16830 0.24120 0.12137
-0.13503 0.26372 -0.31497
0.15341 -0.05981 0.29610
0.10396 0.24484 -0.00246
0.03613 0.28729 -0.32086
0.11545 0.30282 -0.15186
0.14446 0.26785 -0.00058
0.07738 0.24028 0.11752
-0.04625 0.23294 0.31041
0.14254 0.30282 -0.06548
0.10033 0.26136 0.31940
0.14943 0.23294 -0.14578
0.16558 0.18333 -0.32631
0.13452 0.19087 -0.31743
0.16058 -0.29242 0.32716
0.15999 0.27427 -0.00737
0.13452 -0.23625 -0.31638
0.08831 0.28729 -0.30234
0.00435 0.30282 0.15078
0.08124 0.30282 -0.02859
-0.09074 0.30282 0.14043
-0.17606 -0.06648 -0.31100
0.10275 0.31835 -0.02324
0.14114 0.30282 -0.25003
0.07470 0.24682 -0.31497
-0.10101 0.24484 -0.02438
0.07482 0.24484 0.01590
-0.01223 0.30282 0.03329
-0.04244 0.28781 -0.34189
0.15999 0.26154 0.26748
0.04270 0.30282 0.19884
-0.15736 0.30282 -0.05965
0.10830 0.30282 0.29245
-0.08134 0.31835 -0.05400
0.06511 0.30282 0.02117
0.04288 0.30282 0.01630
-0.09303 0.31835 0.06926
-0.03988 0.28729 -0.33385
0.09215 0.28273 0.31940
-0.16690 0.31835 -0.08635
-0.17196 -0.10117 -0.32460
0.11842 0.24484 0.11479
0.15333 -0.25001 0.29610
-0.04373 0.30282 -0.24630
0.01100 0.31835 0.05861
0.02007 0.30282 -0.06189
-0.17606 -0.03549 -0.30493
0.16904 0.24070 -0.02721
-0.01996 0.28284 -0.31497
0.14637 0.27182 -0.29401
0.15999 0.28732 0.19079
-0.07553 0.31835 0.08511
0.05905 0.23294 0.31107
0.15750 0.23294 0.06260
-0.15851 0.23294 0.02901
-0.14500 0.16956 0.32588
0.08770 0.31835 -0.24141
0.02875 0.30282 0.01180
0.16306 0.15740 0.29610
0.13640 -0.13273 -0.32716
-0.16830 0.23716 -0.08817
-0.15781 -0.00035 -0.29401
0.11261 0.24484 0.08901
-0.08199 0.31835 0.22938
-0.00821 0.30282 -0.00108
-0.02225 0.31835 0.07484
0.15115 0.13064 -0.29401
-0.14310 0.31835 0.23885
0.01626 0.30024 -0.32716
-0.15990 0.30282 -0.13456
-0.02132 0.24484 0.00163
0.11778 0.25582 -0.11542
-0.17668 0.30920 0.31516
0.08236 0.31835 -0.14411
0.08158 0.30282 -0.25446
0.04439 0.31835 0.28581
-0.16830 0.27546 -0.03595
-0.03846 0.30282 0.04949
-0.17668 0.30327 0.17018
0.14639 0.23102 0.32716
-0.17668 0.29387 -0.11145
0.06340 0.31835 0.20694
-0.16574 0.31835 -0.09564
-0.15811 0.30282 -0.23530
0.06125 0.29875 -0.31497
-0.17391 -0.11046 -0.29401
-0.01770 0.31835 0.07181
-0.17111 -0.13211 -0.32460
-0.16699 0.23294 0.16635
-0.01870 0.30282 0.09164
0.00599 0.30282 -0.18739
0.16558 -0.23594 0.32512
-0.17668 0.30823 0.27425
-0.07887 0.30282 -0.26308
-0.06982 0.30282 0.00885
-0.17668 0.31308 -0.17616
0.02072 0.30282 0.33557
0.14446 0.27198 -0.17432
-0.11385 0.30282 -0.20388
0.16262 -0.13689 -0.29401
-0.11565 0.30282 -0.14557
0.16558 0.15987 0.30920
-0.14500 0.11928 -0.32309
0.16195 0.31835 -0.05345
0.14446 0.24562 0.02720
0.08183 0.29052 0.31940
0.15639 -0.24397 0.32716
0.00388 0.24484 -0.01275
-0.17219 -0.16533 0.32716
-0.05215 0.24484 0.03098
0.15392 0.30282 -0.09887
0.06026 0.30282 -0.25310
0.13452 0.05610 -0.31000
-0.02239 0.30282 0.03904
-0.17606 0.07768 -0.30628
0.15440 0.28543 -0.20171
0.03004 0.31835 0.21239
0.15999 0.24030 0.28960
-0.11036 0.24484 -0.08691
0.16558 0.24406 -0.31477
-0.11230 0.30282 -0.05148
-0.16830 0.24216 -0.17658
0.06793 0.24484 -0.01567
-0.11620 0.30282 0.05670
0.16558 -0.13313 -0.31539
0.14446 0.23809 0.27467
0.06809 0.31835 -0.10802
0.03188 0.30282 0.26438
0.16558 -0.03995 0.30991
-0.16830 0.25961 0.17221
-0.02569 0.23820 -0.31497
0.05950 0.27213 -0.31497
0.03901 0.23369 0.31940
-0.12692 0.30282 0.32209
0.14707 0.30282 -0.16755
0.11511 0.27814 -0.31497
-0.06840 0.30282 0.25312
-0.14486 0.30282 -0.05735
0.00736 0.24484 -0.07692
-0.17066 -0.19430 0.32716
0.15999 0.26618 -0.10698
0.09893 0.31835 0.24977
-0.14552 0.31835 0.00888
0.15999 0.27398 0.00918
0.16558 0.10049 -0.30127
-0.15073 0.31835 -0.12189
0.13129 0.28316 0.31940
-0.00051 0.26681 0.11752
0.15999 0.28135 -0.16570
-0.02869 0.31835 -0.25241
-0.17580 0.28729 0.02186
0.14446 0.24845 0.08193
-0.17606 0.03763 -0.30726
-0.17606 -0.02652 -0.29885
0.07590 0.30282 -0.27729
0.14446 0.24417 0.22140
0.13837 0.23963 0.11752
0.13452 0.27412 0.32466
0.02028 0.30282 0.33050
0.08899 0.24484 0.02285
-0.06134 0.24484 0.11719
0.01766 0.31835 -0.29901
-0.14500 -0.23888 -0.32095
0.15627 0.23294 0.27665
0.05439 0.30282 -0.05593
-0.14500 0.01834 -0.31711
0.16212 0.31835 -0.29426
0.16558 -0.25021 -0.31155
0.07177 0.31835 -0.15582
0.13452 -0.26744 -0.32106
0.14034 0.24484 -0.08817
0.14432 0.31835 -0.28692
0.06314 0.30282 -0.19635
-0.01314 0.30282 -0.03757
-0.15277 0.25827 0.05907
0.00725 0.30282 0.08354
-0.16410 0.11983 -0.29401
0.16558 0.31667 -0.07374
0.13995 0.11938 -0.32716
-0.10876 0.30282 -0.15854
0.13442 0.27865 0.30923
-0.04018 0.30897 0.34199
-0.11823 0.23504 -0.31497
0.13452 -0.14427 0.30479
0.04400 0.31835 0.22734
-0.16830 0.27986 -0.28387
-0.03956 0.30282 -0.08647
0.16558 -0.01930 0.30989
-0.15326 0.09174 0.32716
-0.16830 0.23400 0.07377
0.16353 -0.31835 0.30252
0.04018 0.24484 0.11496
0.15278 0.26895 0.32716
0.16486 0.31835 0.23522
0.12934 0.30282 0.19077
-0.10655 0.31835 -0.10802
-0.16706 0.28729 -0.19881
0.16440 0.28729 0.08585
0.16558 0.30232 0.30221
0.01771 0.30282 0.00256
0.14438 0.30282 0.10045
0.03939 0.24484 -0.05351
-0.09817 0.30282 0.27567
-0.09763 0.26082 0.30923
0.16226 -0.08299 0.32716
-0.17668 -0.29410 0.32562
-0.17606 0.12594 -0.29975
-0.17668 0.31032 0.30122
0.14446 0.26684 -0.01144
-0.00423 0.30282 -0.09493
-0.16830 0.24283 0.04974
0.12246 0.31835 -0.13398
0.16558 -0.17923 0.32336
0.03525 0.24484 -0.01549
-0.17668 0.28986 0.24343
-0.14500 0.07409 -0.30178
0.06123 0.24484 0.06122
0.06598 0.24577 -0.11542
-0.16474 0.28729 0.02386
0.16094 0.28729 -0.24208
-0.17310 0.28729 -0.11364
-0.11177 0.24588 -0.00903
-0.13504 0.30282 -0.29569
-0.17668 0.28960 -0.23040
-0.17300 0.31835 -0.28384
-0.02033 0.26760 -0.11542
0.11231 0.30282 0.24445
-0.16830 0.26830 0.23648
-0.15625 0.23294 -0.01380
-0.02459 0.24484 0.01293
-0.14500 -0.27070 -0.30976
0.15450 0.22317 0.29610
-0.15862 0.23294 -0.28864
-0.17668 0.29062 0.17631
0.08760 0.24621 0.11752
-0.14500 0.28775 -0.30848
0.13452 -0.21564 -0.31420
-0.06703 0.30282 -0.19639
0.13403 0.30282 -0.10445
-0.14500 0.22124 -0.30659
-0.06390 0.24484 -0.06171
0.15999 0.29455 -0.14256
-0.00168 0.30282 0.07864
0.04311 0.28729 -0.31872
-0.15307 0.13791 -0.29401
0.02295 0.24266 0.11752
-0.10207 0.27739 -0.30239
-0.16655 -0.06398 -0.29401
0.16078 0.04557 0.29610
-0.14500 0.06745 -0.30066
-0.03544 0.30539 -0.32716
0.15533 0.31835 0.25343
0.05662 0.29492 0.31940
-0.03085 0.30282 -0.16494
-0.06291 0.30282 -0.07111
0.14147 0.30282 -0.20582
-0.03760 0.31835 0.09862
-0.00772 0.31835 0.22624
-0.15277 0.24212 -0.13307
0.15563 0.28729 -0.11630
0.03019 0.31069 -0.32716
-0.14744 0.14905 -0.29401
-0.17228 0.31835 0.09353
0.14446 0.26463 0.00756
0.12038 0.24484 0.09478
-0.00680 0.23294 -0.30332
-0.15998 0.31835 0.18581
-0.14562 -0.29113 -0.32460
0.08276 0.23725 0.30923
-0.17225 -0.27669 -0.29401
0.11412 0.29352 -0.29401
-0.13272 0.30282 -0.21366
0.13452 -0.22254 0.31498
-0.01145 0.30282 -0.29677
0.13452 0.02727 0.29899
0.15858 0.28729 -0.04458
-0.13829 0.31835 -0.09226
0.13452 0.09987 0.32624
-0.07757 0.31835 0.17995
0.15440 0.28161 -0.08651
0.14446 0.27118 -0.10228
0.13452 -0.08784 0.31555
-0.17606 0.21654 -0.32189
-0.15114 0.31835 0.08978
-0.13591 0.28759 -0.29401
-0.05317 0.24484 -0.09445
0.00428 0.30282 -0.16572
0.15429 0.23294 -0.00388
-0.11458 0.31835 0.16428
0.13452 -0.29667 -0.31621
0.00712 0.30726 -0.32716
-0.11077 0.31835 -0.07494
-0.03851 0.28604 0.30923
0.15999 0.29142 0.18687
0.04666 0.31835 0.00235
-0.17668 0.30177 -0.24065
-0.00527 0.31835 0.08741
-0.15116 -0.04938 0.32716
-0.11177 0.25036 0.06448
0.15999 0.24323 -0.27239
-0.03667 0.24137 -0.31497
0.15440 0.28421 0.26227
-0.11515 0.25907 0.31940
-0.15015 0.31835 -0.10631
0.11768 0.24484 -0.04105
0.16558 0.30112 -0.28976
-0.16444 0.30282 0.10525
-0.08591 0.30282 0.06192
-0.13326 0.30282 0.00985
-0.14500 -0.15904 0.30893
0.06762 0.31835 0.04313
0.07274 0.30282 -0.01280
-0.15710 0.30282 0.10807
0.14865 -0.07958 -0.32716
0.16558 -0.06435 0.31381
0.14391 0.31554 0.32716
0.00808 0.24484 0.05408
0.15457 -0.06031 0.32716
0.15999 0.28418 0.10686
0.03674 0.31835 -0.05424
0.16558 0.29988 0.09732
0.13803 -0.28459 -0.29401
0.15440 0.27672 0.22277
-0.17292 0.28729 0.04214
0.01685 0.30282 -0.09010
-0.15732 0.30282 0.18418
-0.00544 0.30282 -0.17715
-0.17078 -0.11671 -0.32460
-0.02125 0.30282 0.34204
0.17109 0.26415 0.10964
-0.07075 0.23793 0.10141
0.11710 0.30910 0.33466
0.04447 0.30282 0.24193
0.12130 0.27275 -0.31497
0.16558 0.30973 -0.30716
-0.15371 0.17914 0.29548
0.03330 0.30282 -0.16326
0.16558 0.28772 0.17091
-0.04380 0.31835 -0.23646
0.15999 0.23913 -0.11606
-0.16830 0.23713 -0.19148
-0.15998 0.28729 -0.30758
-0.03327 0.24484 -0.03131
-0.16961 -0.13575 0.29548
-0.00654 0.30282 -0.21285
-0.02200 0.30282 0.27955
-0.03205 0.31835 0.32074
0.00691 0.28810 0.31940
0.15440 0.28468 -0.22861
-0.15747 0.31835 0.06150
-0.17668 0.29770 -0.30991
0.08478 0.31835 0.23544
-0.16830 0.25367 0.21964
0.11302 0.31835 0.30172
0.09564 0.30282 -0.22643
0.16375 0.06468 -0.29401
0.14507 0.31835 0.23684
0.16558 0.30122 -0.11476
-0.16957 0.31835 0.16952
0.16047 0.30282 0.28839
-0.16830 0.26378 -0.00226
0.16558 -0.04697 -0.30896
0.16558 0.28813 -0.02752
-0.14521 0.23739 -0.29401
0.15999 0.26456 0.13470
0.01576 0.24484 -0.01531
-0.15277 0.26668 -0.20649
0.05317 0.24484 -0.08411
0.04706 0.31835 0.32973
-0.08018 0.30168 -0.33965
-0.14500 -0.11051 -0.30527
-0.00887 0.31835 -0.12253
-0.00780 0.30282 -0.14090
-0.10626 0.31835 -0.33158
-0.02356 0.31835 -0.18060
0.14446 0.26148 -0.15298
0.01249 0.30282 0.27265
-0.03967 0.31835 0.26955
-0.15069 0.31835 -0.31333
0.10267 0.27289 -0.30239
0.13032 0.31835 0.12901
0.07377 0.31835 0.20277
-0.16830 0.26714 0.02362
-0.16830 0.27697 0.21788
0.14446 0.26315 0.08374
-0.15277 0.23670 -0.29295
0.13452 0.15770 0.31785
0.15820 0.31756 -0.32716
-0.02164 0.31835 0.18984
0.15999 0.25857 0.08703
-0.14500 -0.01337 -0.29569
0.02509 0.31835 0.09707
0.07768 0.30282 0.22572
-0.15277 0.28353 0.11516
0.00246 0.30173 0.30923
0.13452 -0.13184 -0.32036
-0.17668 0.11797 0.32497
0.14639 -0.31835 0.31562
-0.11006 0.30282 0.30779
-0.04770 0.26938 0.30923
0.09742 0.30282 -0.12631
-0.16994 -0.18075 0.29548
-0.15381 -0.09635 -0.32460
0.16019 0.31835 0.17851
0.13752 -0.28511 0.32716
0.15999 0.27058 0.08318
0.16558 -0.31007 -0.31826
0.15999 0.27995 -0.23788
-0.08546 0.24484 0.06586
-0.11177 0.26930 0.04685
-0.16518 -0.22207 0.32716
0.16074 0.25239 -0.32716
-0.17668 -0.06658 0.32465
-0.00068 0.31293 -0.32716
0.16558 -0.06041 0.31021
-0.14500 -0.02078 -0.30592
0.16558 0.31033 0.29642
0.04289 0.30282 0.02242
0.14907 -0.03352 -0.29401
-0.15277 0.23771 -0.02889
-0.15701 0.23391 0.29548
-0.15123 -0.15821 -0.29401
0.02989 0.31835 0.31605
-0.16692 0.14048 -0.32460
-0.07100 0.31835 0.32271
-0.02130 0.31835 -0.23766
0.05292 0.31835 0.31107
0.09473 0.28891 -0.32716
-0.08164 0.30282 0.20147
0.10237 0.30282 0.09125
0.08699 0.30282 -0.16849
0.12189 0.31835 0.12471
-0.12163 0.24410 0.31940
-0.17668 0.31027 0.13324
0.00888 0.30282 -0.12097
0.15510 0.23294 0.08404
0.13452 -0.07731 -0.29754
-0.17668 -0.12402 0.30079
0.13452 -0.13364 0.31269
-0.15277 0.26127 -0.08447
-0.04761 0.31835 -0.05741
-0.11090 0.30282 0.07617
0.00956 0.30282 0.26102
-0.09345 0.24484 0.06761
-0.16056 0.07919 0.29548
-0.16830 0.27402 -0.23870
0.05428 0.28708 0.31940
0.14937 0.30282 -0.23692
0.14661 0.31835 -0.13327
0.16558 0.26403 -0.30174
0.10063 0.30282 -0.08123
0.00236 0.26232 0.30923
0.11201 0.23793 0.11513
-0.06233 0.23505 -0.31497
-0.15277 0.27614 0.04992
-0.08331 0.28729 -0.31736
-0.15583 0.30282 -0.03772
0.13733 0.30282 -0.01005
-0.15657 0.30282 0.24889
0.16558 -0.21634 0.31128
0.11250 0.24484 -0.06675
0.11449 0.30282 0.24968
-0.02574 0.23793 0.09772
0.16138 0.27953 -0.07118
0.01425 0.24484 0.01032
-0.15277 0.24373 0.15380
-0.11344 0.31835 -0.19761
-0.15437 -0.06452 -0.32460
0.16366 -0.27036 -0.32716
0.14446 0.26183 -0.29154
0.16558 0.29153 0.02287
-0.14500 -0.08135 0.30324
-0.05950 0.26751 0.31940
0.15440 0.27591 0.24052
0.16558 -0.13059 -0.32386
0.06862 0.31835 0.30291
0.16093 0.30282 -0.20674
0.15999 0.23822 -0.05109
-0.00024 0.25825 -0.11542
0.02272 0.31835 0.27396
0.02077 0.30282 -0.19119
0.02893 0.28729 -0.29633
-0.16830 0.27011 -0.11994
-0.15277 0.25297 0.21652
0.07636 0.30282 0.00118
-0.12717 0.31835 0.07392
-0.15277 0.27917 0.08004
-0.08947 0.30282 -0.01972
-0.15028 0.26396 -0.32460
0.07512 0.23778 -0.10710
-0.08544 0.31835 -0.02152
0.07368 0.30282 -0.31767
-0.09366 0.24624 -0.11542
0.12778 0.30282 0.09096
-0.17562 0.20081 -0.32460
-0.16830 0.24031 0.26641
0.05339 0.24484 0.09100
-0.16830 0.28087 0.25863
-0.05284 0.30282 0.13494
0.14756 0.28729 -0.27622
-0.07551 0.30282 -0.01838
-0.09218 0.29569 -0.32716
-0.17663 -0.29422 0.29548
-0.04470 0.24484 0.08848
0.16558 0.11459 0.30097
-0.16515 0.23294 0.20189
-0.12886 0.30224 -0.32716
-0.15277 0.28257 -0.16593
0.02453 0.24094 -0.31497
0.13452 -0.25651 -0.31100
-0.09607 0.31835 0.00992
0.07107 0.24484 -0.02837
0.10330 0.29868 -0.31497
-0.16745 0.30282 -0.07467
0.08805 0.28671 0.30923
0.02311 0.31835 -0.11976
-0.09395 0.30282 0.30152
0.14446 0.25198 -0.18618
0.14177 0.15729 -0.32716
-0.15277 0.25795 -0.03206
0.13452 0.20178 0.29739
0.15999 0.27494 -0.11143
0.14775 0.23294 0.07624
-0.14500 -0.02831 -0.30406
-0.16830 0.28348 0.15974
0.02210 0.31835 -0.24965
0.15999 0.25921 -0.04762
0.09069 0.31835 0.02869
-0.14500 -0.01143 -0.31695
-0.02573 0.31835 0.03686
0.10154 0.31835 0.04958
0.05266 0.24484 0.00349
0.16558 0.16478 0.30554
0.15096 0.27285 0.11361
0.13452 -0.06964 -0.31949
0.09697 0.29700 -0.32716
0.07242 0.30282 0.26836
-0.14500 0.14195 -0.32227
0.15221 0.09556 -0.29401
0.00693 0.31835 0.31783
0.15183 0.27285 0.00513
0.15999 0.29806 -0.20338
-0.12205 0.24576 -0.30239
0.02831 0.31835 0.02252
-0.05702 0.31835 0.15068
0.13891 -0.03908 0.32716
0.13636 0.30282 -0.21358
-0.16830 0.26986 -0.24914
0.14628 -0.19086 0.29610
0.14499 0.30282 -0.25756
0.13452 0.03435 -0.30098
0.13452 -0.17114 0.29786
0.16558 -0.21192 -0.31596
-0.15277 0.24747 0.00194
-0.05291 0.30245 -0.29401
-0.16849 0.16799 0.32716
-0.15277 0.25773 0.05098
-0.16457 0.30282 0.22209
0.01358 0.31835 -0.14108
0.14546 0.31835 0.10827
-0.14500 0.13135 0.32399
-0.02094 0.24249 0.09352
-0.07110 0.31835 0.28932
0.13899 0.02607 0.29610
0.10311 0.30282 -0.28736
0.15999 0.30093 0.05173
-0.04204 0.31835 -0.27573
0.02435 0.31835 -0.07875
0.15999 0.29694 -0.11048
0.03930 0.29008 -0.29401
0.16558 -0.29154 0.29655
-0.11923 0.30282 0.21210
0.16558 -0.18101 -0.31920
0.05112 0.30282 -0.14506
0.14584 0.30282 0.28732
0.16558 -0.17365 0.29996
-0.17668 0.30966 -0.30165
-0.14493 0.31835 -0.13802
0.16558 0.31517 -0.04935
-0.17668 0.01053 0.30024
0.11596 0.30282 -0.01466
0.13644 0.31835 0.05651
-0.14536 0.08015 0.29548
0.15999 0.23453 -0.18846
0.00465 0.23564 0.31940
-0.12701 0.27776 -0.31497
0.02085 0.31835 0.16389
-0.09608 0.23907 0.30923
-0.14500 0.13170 -0.30037
0.02937 0.24484 0.00075
0.16070 0.31835 0.05733
-0.14951 0.31835 -0.02883
0.13452 -0.28795 0.31775
0.04576 0.24484 -0.03120
0.15999 0.24051 -0.08911
-0.03698 0.24484 0.07657
0.00015 0.31835 -0.21883
0.07814 0.31835 -0.25168
-0.17606 -0.24294 -0.32291
0.03475 0.31835 -0.00798
0.15999 0.26074 -0.28427
0.12203 0.30282 -0.22087
0.16201 0.30282 0.03415
0.11782 0.31835 0.04173
-0.15024 0.30282 0.15380
-0.15971 0.22780 -0.29401
0.08362 0.31835 0.30243
-0.14580 -0.18546 0.32716
0.15999 0.24890 -0.28858
0.15130 0.27285 0.09333
0.15999 0.28070 0.05752
0.10892 0.30282 0.25710
0.08491 0.31405 -0.33832
-0.16945 0.17050 -0.29401
-0.16010 0.03338 0.32716
-0.05692 0.31625 0.34123
0.11161 0.25518 0.11752
0.10036 0.24484 0.00882
-0.14826 0.09617 0.32716
0.09658 0.31835 0.21420
0.09398 0.30282 0.28228
-0.07269 0.23778 -0.10129
0.13920 0.31835 0.24895
0.15999 0.27880 -0.23023
-0.14500 0.28242 -0.30569
-0.15277 0.24982 0.27850
-0.16830 0.23612 -0.05263
0.16083 -0.29889 0.29610
0.13897 0.04931 -0.32716
-0.14500 -0.31760 0.30895
-0.05592 0.30835 -0.34128
0.16558 0.29039 -0.18247
-0.15915 -0.31835 -0.31104
0.02929 0.24484 0.04100
0.13452 -0.30413 -0.29787
-0.16830 0.28379 0.07754
0.15999 0.25528 0.21170
0.13024 0.31835 -0.00448
0.16558 -0.01861 -0.32393
0.13452 0.24277 0.30616
0.13801 0.31835 0.02658
-0.01816 0.30282 -0.30273
-0.04740 0.31835 0.33474
-0.11379 0.31835 0.05736
-0.17013 0.31835 0.21801
-0.16830 0.28559 0.17862
0.04877 0.31835 -0.10523
0.14497 0.12913 -0.32716
-0.14500 -0.01730 0.32262
0.12735 0.30282 0.10774
-0.16830 0.28472 -0.03201
0.15127 -0.15254 0.32716
-0.02438 0.30282 0.01543
0.16558 0.29297 0.09360
0.14446 0.23928 -0.27358
0.12499 0.23294 0.31102
0.15440 0.28723 0.08363
0.06941 0.31835 0.01308
0.15824 -0.00092 0.32716
0.00191 0.27532 -0.31497
0.15999 0.25324 0.01095
-0.14500 0.08937 -0.32022
0.16558 0.18106 -0.31107
-0.05792 0.30282 0.15780
0.14446 0.25444 -0.22107
0.07922 0.30282 0.17531
-0.16830 0.26161 0.28182
-0.17668 0.29806 0.23226
0.14728 0.28729 -0.19321
0.17109 0.27113 -0.10915
-0.00068 0.25960 0.11752
-0.17148 0.31835 -0.00383
-0.08873 0.24749 0.11752
0.13534 0.12244 0.29610
-0.11966 0.31835 -0.22424
-0.14500 -0.10211 0.31789
0.13452 0.05287 -0.32617
-0.13724 0.30282 0.05878
-0.14493 0.31835 0.10195
0.05492 0.30282 0.27657
-0.02442 0.30282 -0.01728
-0.15420 0.02549 0.32716
-0.13986 0.23294 -0.31027
-0.05314 0.31835 0.05673
-0.14500 -0.30073 0.32702
-0.05963 0.30282 0.20937
-0.13540 0.31835 -0.03757
0.13452 -0.16158 -0.31044
-0.11144 0.31835 0.11640
-0.05147 0.28729 -0.29696
0.15030 0.23294 0.22230
0.06159 0.31835 -0.19946
0.03469 0.31835 0.14701
-0.05826 0.29725 -0.31497
0.02332 0.31835 0.25005
0.04234 0.31835 0.10824
0.03050 0.30282 0.32344
0.15999 0.23722 -0.23379
0.16558 0.24388 -0.32649
0.16563 0.24070 -0.11717
0.16558 -0.01006 0.30360
-0.15277 0.26983 -0.22970
-0.11337 0.31835 0.10908
0.15485 0.01104 0.32716
0.04914 0.31835 -0.00744
-0.16408 0.28756 -0.32460
0.01208 0.23793 0.11237
0.08849 0.25924 -0.31497
-0.17660 0.30282 0.23713
-0.15277 0.24129 0.00172
-0.15277 0.24659 -0.25215
0.16558 0.29213 -0.23147
0.13452 -0.18027 0.31782
0.14467 0.30549 0.32716
0.15999 0.29381 0.01133
0.07429 0.24484 -0.01541
-0.16836 0.28997 0.32716
-0.07956 0.24484 -0.02631
0.14446 0.28306 0.30019
-0.08170 0.31835 0.00478
-0.12034 0.25712 0.30923
0.13452 -0.02097 -0.32401
-0.15201 0.24484 0.11035
0.03174 0.27840 0.30923
-0.14584 0.05408 0.29548
0.01069 0.31835 0.30698
-0.15601 0.28729 -0.13865
0.09583 0.29619 -0.31497
-0.17668 0.20830 0.30383
-0.16822 0.31835 -0.04035
-0.04662 0.31835 -0.24692
0.06728 0.30282 0.24483
0.16473 0.24070 0.13290
0.15029 0.27285 0.07292
-0.16503 0.23294 -0.00865
-0.12939 0.23793 0.09871
0.03932 0.24484 0.04846
-0.06000 0.31835 -0.32822
-0.13665 0.30282 0.19002
0.14677 -0.31835 -0.31013
0.13452 -0.08271 0.31634
-0.16830 0.27194 0.03925
-0.00335 0.29060 0.31940
-0.12876 0.30282 0.27972
-0.06230 0.30282 -0.04187
-0.03553 0.30282 0.29745
0.15999 0.24692 0.08267
0.00709 0.23294 -0.31282
-0.07952 0.30282 -0.25328
-0.01605 0.31835 0.15603
-0.07479 0.30282 0.11102
0.15440 0.27325 -0.25786
-0.07697 0.30282 0.00034
0.13452 -0.15987 0.30267
-0.05178 0.31835 0.22592
0.10548 0.26352 -0.11542
-0.06028 0.30269 -0.31497
-0.05569 0.30282 -0.18673
0.07394 0.25870 0.30923
-0.00543 0.28729 -0.29832
-0.16727 0.22434 -0.32460
-0.15283 -0.23617 -0.29401
0.15179 0.24131 -0.10440
0.08052 0.31835 -0.28650
-0.11177 0.26901 0.10228
-0.15277 0.25094 -0.01283
0.16235 0.29546 0.29610
-0.14500 -0.19816 -0.31045
-0.10518 0.23793 0.09898
-0.17668 -0.31346 0.30196
0.10134 0.30282 -0.31155
0.15589 0.28729 0.07462
0.17109 0.27159 -0.00534
0.03071 0.31835 -0.12078
0.14288 -0.04892 -0.32716
0.13387 0.30282 0.12819
0.11456 0.29169 -0.31497
0.09310 0.31835 0.13561
0.16558 0.08316 0.30921
-0.02041 0.26271 -0.31497
-0.15277 0.26350 -0.13731
0.15999 0.25440 0.22800
0.02243 0.30282 0.27108
0.15999 0.24371 0.17776
0.08587 0.31835 0.29256
-0.16830 0.27012 0.04413
-0.10111 0.31835 0.23816
0.14446 0.25823 0.06659
-0.15176 0.31835 -0.09847
-0.03721 0.31835 -0.18700
-0.16420 -0.20059 0.32716
0.16425 0.28800 -0.32738
-0.05004 0.29472 -0.31497
0.00711 0.31835 -0.21508
0.14603 0.31835 -0.20183
-0.17668 0.30362 -0.29709
-0.15481 0.28729 0.04384
-0.12644 0.31835 0.10467
-0.15561 0.30282 0.13679
-0.07359 0.30282 0.17077
-0.14500 0.11552 0.32585
-0.11948 0.30282 -0.13913
0.13452 -0.13034 0.32552
-0.12226 0.31835 -0.12118
0.15486 0.30282 0.11196
0.06897 0.31835 -0.31095
-0.17592 0.30282 0.04654
-0.15542 -0.12960 0.29548
0.13169 0.29557 -0.29401
0.14472 -0.04844 0.29610
-0.16298 0.23294 -0.22163
0.13823 0.28277 0.32716
0.06081 0.30282 0.28082
-0.17571 0.29302 -0.32733
0.14446 0.25629 -0.04550
-0.14411 0.24484 -0.11184
0.15435 0.30282 -0.25879
-0.16738 0.30949 -0.32716
0.00213 0.31835 0.10804
0.06478 0.31835 -0.27842
-0.17606 0.10908 -0.30227
-0.16742 0.23294 0.02448
0.08835 0.31835 0.13822
0.03414 0.30282 0.30500
0.14515 -0.26485 0.29610
-0.06084 0.30282 0.12517
0.07732 0.27887 -0.30239
0.16558 0.31629 0.26509
-0.01862 0.31835 -0.12001
0.15348 0.30282 -0.04866
-0.01308 0.25923 -0.31497
0.03236 0.31835 0.01656
0.14446 0.26553 -0.28652
-0.09993 0.31835 -0.00968
-0.15238 -0.03188 0.32716
0.07163 0.30282 -0.17773
0.03848 0.28926 0.30923
0.17109 0.24469 -0.00052
-0.07028 0.27854 -0.30239
0.10322 0.30282 -0.30339
0.13452 -0.28502 0.30567
-0.14500 -0.22517 0.32617
-0.07577 0.31835 -0.05935
0.13680 0.30282 0.23224
0.09049 0.31835 -0.03072
0.17109 0.24343 -0.05000
-0.15277 0.25708 0.07878
-0.13455 0.27067 0.30923
-0.15748 0.31835 0.00326
-0.17555 -0.21803 0.32716
-0.08327 0.31835 -0.25712
0.15879 0.14811 0.29610
0.15999 0.30020 -0.19714
0.14587 0.02145 -0.29401
-0.16959 0.19238 -0.29401
-0.02933 0.31835 0.29180
0.15984 0.23294 -0.13567
0.09867 0.25133 0.31940
0.01830 0.24349 -0.31497
0.16558 0.03491 0.31615
-0.08884 0.30282 0.08152
-0.08028 0.31835 -0.33503
0.15605 0.28729 0.24346
-0.16830 0.26767 0.20399
-0.17668 0.20101 0.31297
0.15440 0.27668 0.02898
-0.17275 0.31835 -0.02973
0.12453 0.28587 -0.30239
0.16558 -0.11205 0.32647
0.16558 0.29164 -0.24324
0.08939 0.30282 -0.11089
-0.16830 0.26265 -0.27215
-0.17260 0.25380 0.29548
0.15999 0.28807 0.02484
-0.14985 -0.31835 -0.32123
0.13452 0.21745 0.32609
-0.06221 0.24588 0.30923
-0.15956 0.29415 -0.29401
-0.17478 -0.17420 0.29548
-0.14500 0.20270 -0.30355
0.15301 0.23294 -0.15082
0.16301 0.28729 0.06321
0.15440 0.28256 0.24051
-0.04045 0.31835 -0.25715
0.05990 0.30282 -0.28638
-0.15156 -0.31835 0.30015
-0.12720 0.27203 0.30923
-0.14635 -0.25722 0.29548
-0.06541 0.30282 0.23187
0.13620 -0.10769 -0.32716
0.04886 0.31835 -0.26558
0.02255 0.31835 -0.06201
-0.03276 0.30282 -0.05315
-0.17606 -0.06290 -0.29642
0.15999 0.29635 -0.09734
-0.16401 0.23294 0.23576
0.16035 -0.31238 -0.29401
-0.07444 0.30282 -0.14782
0.03217 0.24484 -0.02505
-0.17047 -0.10502 -0.29401
-0.08292 0.30282 0.11188
-0.15277 0.23890 -0.08420
-0.14361 0.28967 -0.31497
0.07349 0.31835 -0.33357
0.13452 0.11741 -0.32552
0.13951 0.15876 0.29610
0.03599 0.31835 0.29769
-0.02346 0.31835 -0.22590
0.16558 -0.28708 -0.31370
0.13687 0.31835 -0.15087
0.05777 0.30282 -0.27034
-0.02281 0.31835 0.16545
0.16558 0.30667 -0.14715
0.16558 -0.17438 -0.30372
-0.01267 0.31835 -0.01477
0.08199 0.24484 -0.00312
-0.17606 0.28273 -0.30703
-0.17606 0.24044 -0.30146
0.11947 0.24343 -0.30239
-0.17668 0.31622 0.26649
-0.03374 0.30282 0.11834
-0.15457 0.31835 -0.29769
0.05114 0.27442 0.31940
0.15487 -0.29540 -0.29401
-0.16641 -0.28485 0.29548
0.06495 0.30282 0.00155
-0.02330 0.23294 0.31172
0.13342 0.24484 -0.09010
-0.07267 0.31816 -0.32716
-0.11876 0.31835 0.03358
0.16528 0.30282 -0.23232
-0.12267 0.30093 -0.29401
0.16558 -0.16093 -0.31400
-0.05883 0.31835 0.08045
0.16558 0.31470 -0.08669
0.15999 0.27598 -0.01788
-0.08225 0.31835 0.14813
0.14446 0.26433 0.07337
-0.17528 -0.00402 0.32716
-0.17606 -0.29892 -0.32444
-0.15788 -0.12484 0.32716
-0.16830 0.27694 -0.17256
0.15999 0.24917 0.10469
-0.15392 -0.10616 -0.29401
0.13452 -0.20411 0.30544
-0.14500 -0.22587 -0.31959
-0.14574 0.18767 0.29548
-0.16483 0.16129 0.29548
0.15184 0.31835 0.24606
-0.10238 0.31835 -0.09438
0.13165 0.30282 -0.01837
-0.17668 -0.26167 0.32642
0.08350 0.23294 -0.30522
-0.13685 0.31621 0.33348
-0.09563 0.30282 -0.13210
-0.14413 0.31835 0.28250
0.16416 0.12549 0.32716
-0.17146 0.28729 0.25087
0.14446 0.27325 -0.21810
-0.14641 0.30282 0.07622
0.07951 0.30282 -0.14927
-0.03692 0.31835 -0.30602
0.09031 0.31835 0.15254
0.16558 0.31431 -0.24908
0.16234 -0.03520 0.29610
0.01342 0.28729 -0.34145
-0.14563 0.26399 -0.29401
-0.16704 -0.21322 -0.32460
-0.07454 0.31835 -0.28271
-0.16810 0.28729 -0.09086
0.16349 -0.12540 -0.29401
0.16558 0.27327 0.32056
-0.01050 0.31835 -0.06068
0.15999 0.28562 0.09272
0.03845 0.26534 -0.30239
-0.01243 0.31835 -0.14140
-0.05704 0.30282 -0.01341
0.06629 0.31835 0.28224
0.15876 0.02972 0.29610
0.14465 0.30282 0.18360
0.17109 0.25055 -0.02671
0.12012 0.28187 0.30923
-0.04912 0.31835 -0.10830
0.12706 0.28858 0.31940
0.05982 0.26782 0.30923
-0.16391 -0.31835 0.32643
-0.16443 0.30282 -0.31524
-0.15277 0.25093 -0.14475
-0.14500 -0.13881 0.31584
-0.16830 0.23732 0.19120
0.08455 0.30282 -0.02369
-0.00558 0.31835 0.19661
-0.15277 0.26708 -0.14858
0.13452 0.23785 -0.29552
0.09327 0.31835 -0.31471
-0.09443 0.28729 -0.31680
0.07273 0.25152 -0.30239
0.15999 0.25262 -0.11420
0.13452 0.05288 0.32476
0.02390 0.24484 0.00042
-0.13929 0.23783 -0.09601
-0.15032 -0.08855 -0.29401
-0.14882 -0.05739 0.32716
0.16558 -0.03301 -0.30120
0.14446 0.26162 0.20514
-0.15815 0.30282 0.04167
-0.13490 0.30282 -0.28457
-0.16985 -0.17157 -0.32460
-0.17521 0.06392 -0.32460
-0.07801 0.24484 0.11613
0.00264 0.27515 0.31940
0.15999 0.29382 -0.27625
-0.14704 0.31835 -0.31962
0.15999 0.26001 -0.14569
-0.03282 0.25086 -0.11542
0.16112 0.31253 -0.32716
-0.04951 0.30282 0.30313
-0.14500 0.10963 -0.31534
0.02571 0.30282 0.08450
0.16558 -0.11417 0.31146
-0.06531 0.30282 0.04475
-0.11177 0.26183 0.03749
0.13897 0.25446 0.32716
0.16558 0.31240 -0.27928
0.16430 0.27953 -0.02931
0.04405 0.31835 0.13237
0.14362 0.30282 0.22134
-0.17668 0.10403 0.32700
-0.14500 -0.24279 -0.30287
0.14072 0.31212 -0.33132
-0.16005 0.29674 0.29548
-0.01460 0.31835 0.18280
0.14446 0.26159 0.24018
-0.14500 0.27568 0.31679
0.05959 0.30282 0.18577
-0.17668 -0.24077 0.32147
0.10581 0.31835 -0.27420
-0.17208 0.31835 0.00441
0.04811 0.23957 0.31940
-0.15705 0.31835 -0.04666
-0.16417 0.11984 0.29548
0.09100 0.24484 0.00040
0.10744 0.31835 -0.12316
0.15999 0.24981 -0.24283
0.14446 0.24454 0.27806
0.13452 0.03185 0.30652
-0.10013 0.28560 -0.31497
0.16558 -0.01896 -0.29707
-0.17668 0.29508 -0.27185
-0.06269 0.25205 0.11752
0.00615 0.24484 0.06946
0.15312 -0.15428 -0.32716
-0.14721 0.31835 0.18391
-0.15677 0.28729 -0.06812
-0.14500 0.15066 0.31650
-0.15277 0.25254 -0.07510
-0.11787 0.30282 -0.02712
-0.14500 0.08601 0.30157
-0.16830 0.23465 0.21085
0.14446 0.26325 0.11461
0.15226 -0.11974 -0.32716
0.15224 0.30282 -0.21579
-0.03898 0.30282 -0.20024
0.12974 0.30282 -0.23467
-0.00702 0.30282 -0.07551
0.13452 -0.03484 -0.32509
0.13452 0.26526 0.30609
-0.17494 0.26018 -0.32460
-0.14230 0.30282 0.14964
-0.05415 0.24949 -0.30239
-0.05620 0.30282 0.28201
-0.17668 0.29153 -0.17491
0.02351 0.30282 -0.12527
-0.14500 -0.00365 -0.29793
0.06760 0.24484 0.06684
-0.14500 0.29470 -0.31570
0.15999 0.27850 0.06489
-0.04339 0.30282 0.05733
0.16896 0.25652 -0.13095
-0.06446 0.30282 -0.32350
0.01099 0.31835 0.08957
0.05660 0.31835 0.19530
-0.08510 0.30282 -0.23502
0.16308 0.28729 -0.09072
0.13452 -0.30652 0.30492
0.05491 0.31835 0.11134
0.08612 0.24056 -0.31497
-0.16351 0.21724 -0.32460
-0.04529 0.30282 -0.15160
-0.17668 0.11824 0.31024
-0.17606 -0.01857 -0.30386
0.03311 0.31835 -0.14438
-0.11272 0.30282 0.33457
-0.03000 0.31759 -0.34232
-0.14500 0.18117 0.30260
0.14536 -0.15844 0.32716
0.13968 -0.14547 0.29610
-0.15335 0.24223 0.29626
-0.15071 0.25080 -0.32460
-0.17442 0.28729 0.09289
-0.05844 0.30282 0.06943
-0.12579 0.29173 -0.33499
0.15999 0.25740 -0.06254
-0.16923 0.30282 0.24979
-0.14500 0.05771 0.29911
0.12241 0.30282 0.21192
0.14446 0.26323 -0.07888
0.13028 0.30282 -0.20615
0.13731 0.07994 0.29610
0.11735 0.30800 -0.33462
0.15552 0.28729 -0.27329
-0.03022 0.24484 -0.04189
-0.00651 0.24484 -0.02639
-0.17668 0.31322 -0.10885
0.02326 0.30681 -0.34225
-0.15277 0.24652 -0.07352
-0.03050 0.31835 0.12292
-0.02059 0.27272 0.30923
0.14446 0.24646 0.17969
0.05624 0.30282 0.04489
0.16558 -0.08170 0.30429
-0.06355 0.31835 -0.02993
-0.14500 -0.04765 0.30387
-0.14500 -0.07453 0.31335
-0.15277 0.25405 -0.15832
0.04795 0.26896 0.31940
0.05967 0.30510 -0.32716
0.14446 0.26383 -0.01860
-0.15771 0.05687 0.32716
-0.09713 0.31835 0.02066
-0.02169 0.26553 0.30923
-0.14500 0.18520 -0.30755
0.15999 0.25148 0.27838
-0.17003 0.28729 -0.14567
-0.03357 0.30282 0.08227
0.05512 0.31835 0.32527
0.08976 0.30282 0.12417
-0.15738 0.31835 0.20779
-0.14554 -0.05922 -0.29401
0.13870 -0.28925 0.29610
-0.04449 0.30282 -0.30951
-0.16259 -0.10930 -0.29401
0.12991 0.27193 0.11752
0.01416 0.29440 0.30923
-0.15634 0.23294 -0.18168
-0.16849 0.30282 -0.18898
0.17109 0.26372 -0.12248
-0.15277 0.25125 0.07836
0.15884 0.15485 -0.29401
-0.16830 0.27320 -0.12518
-0.17606 0.05632 -0.30983
0.13452 0.18728 0.30913
-0.09195 0.30282 -0.11589
0.16558 -0.06129 -0.29729
-0.15158 -0.19223 0.32716
-0.17668 0.29716 -0.13551
0.13452 0.17011 0.31865
-0.15277 0.26820 0.11187
0.14446 0.26112 0.09881
0.16288 0.28729 0.25153
-0.14500 0.11749 0.30494
-0.15277 0.27158 -0.07797
-0.16354 0.23294 0.01403
0.14210 0.30282 0.04101
-0.06957 0.30282 0.13089
0.10060 0.28356 0.31940
-0.11177 0.25145 -0.11079
0.03677 0.31835 0.02773
-0.09934 0.31835 -0.22623
-0.17606 -0.04024 -0.31976
-0.09795 0.30282 -0.11598
-0.17606 0.29049 -0.29669
-0.15662 0.31835 0.29704
-0.01417 0.30282 0.02724
-0.14785 0.18742 -0.29401
0.15761 0.27404 -0.32716
-0.13015 0.30282 -0.17580
-0.15277 0.26278 0.07304
0.12051 0.31835 -0.08040
0.05671 0.28592 0.30923
0.14992 0.31835 0.07441
0.07675 0.31835 0.15854
-0.07531 0.30282 -0.30697
0.16558 0.29090 0.30659
-0.15434 0.22070 -0.29401
-0.16486 0.23294 -0.27317
0.15154 -0.20872 0.29610
0.12907 0.25389 -0.30239
0.15524 0.16523 -0.32716
0.13801 0.11864 -0.29401
0.14446 0.27376 -0.22504
-0.16552 0.31835 -0.14946
-0.14910 0.30282 -0.16362
0.16558 -0.12058 0.29776
-0.02082 0.30282 -0.09727
-0.17668 0.29132 0.14844
-0.01548 0.23294 0.31146
0.16558 0.09689 0.32458
-0.11754 0.31835 0.24100
0.15586 0.00352 -0.32716
-0.06437 0.31835 0.20659
-0.01602 0.30282 0.30144
0.15587 0.31835 -0.23520
0.07521 0.30282 -0.21688
-0.08394 0.23793 0.10789
0.16343 -0.06448 -0.29401
-0.14251 0.30282 -0.26922
0.16558 -0.24527 0.31165
0.13899 0.09234 -0.32716
0.16558 0.30439 -0.12065
-0.11177 0.25320 0.10015
-0.17668 0.29377 0.01838
0.10063 0.31835 0.09613
0.16246 -0.19260 0.29610
0.16558 0.31378 0.00409
0.13235 0.23778 -0.09770
-0.17668 -0.24495 0.29562
-0.07341 0.30282 0.29282
-0.04366 0.30282 0.02061
-0.16830 0.23669 -0.11700
0.00472 0.31835 0.06044
-0.04834 0.24117 0.09352
0.03801 0.30368 -0.32716
0.00898 0.31835 0.13013
0.14636 0.30282 -0.12271
-0.05865 0.30282 0.31513
-0.11616 0.30282 0.30807
-0.10035 0.31835 0.15663
0.14630 0.31835 -0.30412
0.10954 0.28729 -0.33001
0.16558 -0.02929 -0.30501
-0.17668 0.30791 -0.25889
0.07494 0.31835 -0.28672
-0.07099 0.30282 -0.06506
0.05941 0.23631 0.31940
-0.09193 0.30282 -0.22590
-0.01319 0.24484 0.07574
-0.16053 0.11576 0.32716
0.12783 0.30282 0.27118
0.09977 0.31835 -0.32291
0.10126 0.23778 -0.09603
0.13764 0.31835 0.18452
-0.17668 0.31706 0.01272
0.13452 -0.16941 -0.31670
0.13452 -0.14588 0.31773
0.16338 0.11747 0.32716
-0.16830 0.23355 -0.10566
-0.13859 0.23294 0.31840
0.11910 0.31835 0.15857
-0.15277 0.28180 0.22242
0.06199 0.31835 -0.22321
0.14106 0.24597 0.29610
-0.17606 0.26865 -0.30359
0.04699 0.31835 0.14868
-0.04283 0.24606 0.11752
-0.07360 0.30282 -0.07735
-0.16067 0.28729 -0.28193
-0.11140 0.30282 -0.12504
-0.14500 0.28198 -0.29885
0.14446 0.25198 -0.10667
-0.04718 0.30233 -0.29401
0.15269 -0.12449 -0.29401
0.09588 0.24484 0.05104
0.12728 0.30748 -0.33327
0.14498 0.23294 0.15676
0.15318 0.12376 -0.29401
-0.15837 0.06976 -0.29401
0.14446 0.27007 -0.19856
0.13359 0.28887 -0.32716
0.02434 0.31835 -0.15908
0.17109 0.25994 0.09258
0.02082 0.31835 -0.11373
0.15440 0.27317 -0.29267
0.15440 0.27643 -0.02226
-0.16830 0.28475 0.28949
-0.11465 0.31835 -0.05912
-0.01359 0.24484 -0.00730
-0.16830 0.27767 -0.10761
-0.03995 0.23778 -0.11075
-0.15295 0.30282 -0.05364
-0.16318 -0.11890 -0.29401
-0.09089 0.30282 0.12038
-0.12014 0.30282 0.07191
0.15199 0.23294 -0.03055
0.15946 0.06444 0.32716
0.13096 0.31835 -0.04860
0.14298 0.31835 -0.05555
0.12108 0.30282 0.33302
0.14913 0.27285 0.08549
0.07208 0.24484 0.11687
-0.17606 0.04282 -0.31595
-0.14763 -0.14709 0.32716
0.01502 0.30175 0.31940
0.14642 0.28729 -0.12584
-0.00446 0.31835 0.23945
-0.16933 -0.30134 -0.32460
0.13926 0.21797 -0.29401
0.05804 0.30282 0.14764
0.15999 0.24219 -0.08075
0.05564 0.24484 0.02537
-0.16830 0.23683 0.27053
-0.12234 0.24453 0.30923
-0.07333 0.30282 0.03316
0.13396 0.31835 -0.33048
0.13067 0.31835 0.08895
0.05927 0.31835 0.28540
0.15503 0.23294 -0.12395
-0.17668 0.30831 0.28022
0.13794 0.31835 0.14815
0.15649 -0.31835 -0.30166
-0.08884 0.30282 0.17131
0.01352 0.31835 0.00442
-0.17668 -0.03169 0.31994
0.16520 0.31693 -0.32716
-0.16830 0.24770 0.24191
0.15999 0.26970 0.18063
-0.14500 0.06272 -0.32425
0.15494 -0.20485 0.32716
-0.13059 0.30282 0.03811
-0.16830 0.25462 -0.17919
-0.07083 0.27166 0.31940
-0.14500 0.21335 0.31441
-0.17668 0.25122 0.31596
0.01816 0.26347 -0.11542
-0.15320 0.25955 0.32716
-0.17668 0.30288 -0.00450
0.16558 0.25407 0.31603
0.11230 0.31835 0.24741
0.01789 0.30282 -0.31634
-0.17668 -0.00041 0.30309
0.13452 -0.16655 -0.30384
-0.07825 0.31835 0.32113
0.00897 0.26420 -0.31497
0.07410 0.30262 -0.29401
0.15911 -0.18860 0.29610
0.10402 0.30282 -0.07369
-0.05768 0.25843 -0.11542
-0.15879 0.06905 0.29548
-0.15970 0.28729 0.02836
-0.15277 0.26021 -0.17672
0.03786 0.30282 -0.19417
0.14446 0.25531 -0.03349
0.14553 0.06780 -0.29401
0.03746 0.30282 -0.01514
-0.06174 0.24484 0.05811
0.14446 0.25028 0.21562
-0.16597 -0.20835 0.32716
-0.15437 -0.01533 -0.29401
-0.05086 0.31835 -0.03109
0.13641 0.20925 0.32716
-0.09409 0.30282 -0.09532
-0.05823 0.30282 -0.00125
0.15014 0.30282 -0.01951
0.13452 0.12431 -0.31000
0.13489 0.31835 -0.22653
0.13452 0.26311 0.30127
-0.05492 0.28783 0.31940
0.05916 0.31835 0.08729
0.04945 0.31835 -0.28212
0.15975 -0.12067 0.32716
-0.15277 0.12068 0.29548
0.15999 0.26374 -0.03063
-0.11253 0.29962 -0.33657
-0.14500 -0.18434 -0.32058
-0.04869 0.24484 0.08353
-0.09943 0.31835 -0.20282
-0.17668 0.29381 0.07655
-0.11045 0.31835 0.29668
0.15999 0.23486 0.19748
0.13452 0.29653 0.32473
0.11525 0.31835 -0.14289
0.15999 0.26753 -0.21791
0.13729 0.31835 0.12508
0.09972 0.30282 0.33125
-0.16642 0.29237 0.29548
0.05734 0.25473 0.11752
0.16558 0.30245 0.28610
0.16558 0.09742 -0.32606
-0.17668 0.30107 -0.18398
0.04795 0.30282 -0.27149
-0.07236 0.30282 -0.13312
0.02505 0.31835 0.04110
-0.01028 0.31835 -0.21040
0.15999 0.24983 -0.23087
-0.15940 0.28729 0.16971
0.16385 0.16706 -0.32716
-0.15277 0.24872 0.18248
0.14256 -0.11051 0.32716
-0.05865 0.30282 0.00957
0.15486 0.31835 -0.25490
-0.06203 0.30282 0.03060
-0.05371 0.30282 -0.05799
-0.16189 0.24941 0.32716
0.14371 -0.00092 0.29610
-0.14311 0.25925 0.31940
0.15999 0.23981 0.11207
-0.14746 -0.09022 0.32716
-0.11177 0.24966 0.11475
-0.05634 0.27570 0.31940
0.09415 0.30282 0.20927
-0.17433 -0.20821 0.32716
0.00358 0.24484 0.05943
-0.15685 0.28729 -0.15861
0.11441 0.23294 -0.31436
-0.08308 0.30282 -0.15092
0.15999 0.27009 -0.25376
-0.01634 0.24484 0.00529
0.10203 0.31835 -0.15188
0.05467 0.30282 -0.23297
0.15706 0.07344 0.29610
0.04160 0.31835 -0.31648
-0.11929 0.31835 0.32810
0.14446 0.26617 0.25023
0.04450 0.24484 -0.01464
-0.15703 0.23294 0.10023
0.15999 0.23548 0.16051
-0.09435 0.25306 0.11752
0.08448 0.31835 -0.04679
0.15693 0.30282 0.21572
-0.16830 0.27341 0.10270
0.03781 0.24484 -0.11542
-0.17275 0.09812 0.29548
0.14811 0.02004 -0.32716
-0.13828 0.30282 0.32479
-0.16830 0.24766 -0.02726
-0.04440 0.30282 0.21983
0.11921 0.30282 -0.17644
-0.02383 0.24484 0.02501
-0.00273 0.31835 0.18325
0.08956 0.30282 0.24962
0.14954 -0.11573 0.32716
-0.11933 0.30282 0.17221
0.00536 0.31835 0.18410
0.14446 0.23714 0.01493
-0.03047 0.30282 0.32500
0.15440 0.28247 0.30927
-0.14260 0.25050 -0.31497
0.15440 0.27426 0.26799
-0.00768 0.30282 0.06078
0.12183 0.31835 -0.25978
0.08566 0.23294 0.31909
-0.00000 0.24484 -0.07181
-0.12890 0.30282 0.13157
-0.04121 0.24484 0.10174
-0.05281 0.30282 0.00192
0.03641 0.31835 0.15550
0.14446 0.25063 -0.14282
-0.14617 -0.20747 -0.32460
-0.13556 0.30282 0.23476
0.13452 -0.18730 -0.32131
0.09761 0.31835 -0.15730
-0.15277 0.26647 0.13470
-0.15277 0.25960 0.02210
0.15999 0.29957 0.18351
0.02237 0.28729 -0.32947
-0.05081 0.31835 0.04223
0.15967 0.20783 -0.32716
-0.06584 0.30282 0.05411
