ply
format ascii 1.0
comment VCGLIB generated
element vertex 1907
property float x
property float y
property float z
element face 0
property list uchar int vertex_indices
end_header
-0.15617 0.11971 0.12148
-0.01664 0.09137 -0.29036
0.09437 0.09492 -0.41560
0.03768 0.09137 -0.01353
-0.16113 0.11971 0.36793
0.15563 -0.05312 -0.33926
-0.04813 0.11971 -0.26990
0.16939 0.09137 0.10129
0.14619 0.09137 -0.24490
-0.24018 0.09194 -0.06890
-0.14595 0.11971 -0.36346
0.14880 0.11971 -0.22038
0.05364 0.09137 0.25687
-0.17079 -0.06906 -0.35458
-0.20869 0.09137 0.22568
-0.05903 0.09137 0.08607
0.13259 0.11971 0.28332
-0.13100 0.11971 -0.41021
-0.21895 0.11971 -0.07434
-0.21516 0.11971 0.02322
0.23545 0.11896 0.13642
-0.04402 0.11971 -0.03443
0.20540 0.10570 -0.40031
0.17862 0.06860 0.35924
-0.18810 0.11971 -0.17042
-0.03778 0.11971 -0.05191
0.20389 0.11971 -0.18705
0.14881 0.11971 -0.03547
-0.07886 0.11971 -0.09940
-0.09672 0.11971 0.03038
0.05592 0.11971 0.29437
-0.05002 0.11971 -0.24198
-0.19319 0.09137 0.10387
0.07639 0.09137 0.11473
0.22812 0.09137 0.03062
0.15297 0.09137 -0.04693
-0.00339 0.09137 0.40558
0.06683 0.11971 -0.28581
-0.19496 0.09943 0.29061
0.17862 -0.00973 0.35952
-0.19431 0.11969 -0.27084
0.07023 0.11971 0.02617
-0.01908 0.11971 -0.40409
0.18962 0.11971 0.10365
-0.10063 0.11971 0.05711
0.07394 0.09137 -0.08895
0.21812 0.09518 -0.20603
0.15158 -0.00359 -0.35547
-0.12127 0.09137 -0.18677
0.06715 0.09137 -0.39230
-0.06346 0.09137 -0.37901
0.07596 0.11971 -0.27073
-0.15401 0.09137 -0.10570
0.05079 0.11971 0.30927
0.14778 0.09137 -0.01468
0.15835 0.11971 -0.32730
-0.16786 0.11971 -0.15360
0.17603 -0.04100 -0.33216
-0.17286 0.09137 0.18818
0.15258 0.09137 0.28000
0.06835 0.09137 0.22954
0.23616 0.11971 -0.04290
-0.07507 0.11971 0.30268
-0.17267 0.11971 -0.40203
0.00285 0.09137 0.31519
-0.15062 0.11971 0.12474
0.13912 0.09137 -0.24919
0.07893 0.09137 -0.21384
0.04657 0.11971 -0.24634
0.02481 0.09137 0.31749
0.17608 0.01720 0.34380
0.07648 0.09137 0.16435
0.07031 0.09137 -0.20684
0.12240 0.09137 0.41367
-0.17447 -0.01514 -0.34481
-0.08150 0.11971 0.32535
0.04479 0.09137 -0.41226
0.13112 0.11971 -0.05280
-0.18455 0.09137 0.01381
0.13280 0.11971 0.18633
0.19237 0.11040 0.31577
-0.16368 0.11971 -0.19887
-0.12670 0.11971 0.06714
0.07251 0.11971 -0.40156
0.04268 0.09137 0.39533
-0.09842 0.09137 -0.26632
0.20372 0.09405 0.25667
0.08916 0.11971 -0.12350
-0.18865 0.09137 -0.05911
0.23350 0.09137 0.00814
-0.13553 0.11971 0.26630
-0.16468 0.11971 0.34911
0.04764 0.09137 -0.14743
-0.23203 0.11971 -0.07106
0.16779 0.09137 -0.11496
0.20170 0.09137 0.16767
-0.00570 0.09137 0.30506
-0.15561 0.11971 -0.02193
0.17031 -0.00245 0.35952
0.20328 0.11971 -0.39444
-0.19437 0.09943 -0.27786
0.04039 0.09137 0.00926
-0.15095 -0.07510 0.34323
-0.18676 0.09137 0.21473
-0.04470 0.11157 0.41659
0.14152 0.09137 0.14986
-0.07323 0.09137 0.29311
0.04764 0.09137 0.06248
-0.03445 0.11971 -0.17101
0.19000 0.11971 0.24406
0.06480 0.11971 -0.04629
0.17456 0.09137 -0.12927
0.13107 0.11971 0.05885
-0.12105 0.09137 0.37362
0.05216 0.11971 0.32656
0.22981 0.11350 0.18157
-0.17221 -0.02896 -0.35413
0.16497 0.09137 -0.31966
-0.03086 0.11971 0.33267
0.22608 0.11971 -0.06563
0.17331 0.11971 -0.13378
-0.16963 0.09137 -0.35987
0.04782 0.11971 0.23822
0.14232 0.11971 0.02749
0.10331 0.09137 0.12748
0.17379 0.09137 0.27582
0.08179 0.09137 0.16185
-0.15307 0.11971 -0.21286
-0.00608 0.09137 -0.31558
0.00675 0.11971 0.20916
0.01984 0.09137 0.02058
0.10077 0.11971 0.35177
-0.16298 0.11971 0.24020
-0.17143 0.02206 0.33756
-0.19216 0.09137 -0.07911
0.16282 0.00445 0.32354
0.14272 0.11971 -0.35927
0.15948 0.09137 -0.31039
0.03806 0.09137 -0.00645
0.00814 0.11971 0.39148
-0.19392 0.09787 -0.28620
0.07068 0.09137 0.18915
0.23580 0.10222 0.11431
0.06498 0.09137 0.28198
0.15129 0.09137 0.07923
0.07929 0.09137 -0.07240
0.01844 0.09137 -0.27380
0.14393 0.09137 -0.28794
-0.10110 0.11971 -0.23150
-0.02693 0.09137 0.03334
0.13296 0.11971 0.35751
0.09148 0.11971 -0.31176
0.17817 0.11971 -0.24693
0.15900 -0.02214 0.32431
-0.00122 0.11971 -0.00376
0.04718 0.11971 -0.25962
0.17718 0.11971 -0.40722
0.23003 0.09137 0.00436
-0.19240 0.09137 0.26791
-0.17572 0.09137 -0.16880
0.13875 0.09361 -0.41522
-0.11029 0.09137 -0.04731
-0.19479 0.11514 -0.32012
-0.17122 0.09114 0.33493
-0.10853 0.09137 -0.23449
-0.09277 0.11971 0.25282
-0.12371 0.11971 0.22865
-0.13895 0.11971 -0.19374
-0.18495 0.09137 -0.05243
-0.14702 -0.01799 -0.35971
0.03045 0.09137 0.34257
-0.16009 0.09137 -0.10368
-0.13573 0.09137 0.35095
-0.14536 -0.10954 0.34711
0.20086 0.11736 0.27266
0.17345 0.11971 0.16529
-0.14794 0.09137 0.22410
-0.19222 0.11971 -0.38314
0.03597 0.09137 -0.07612
0.19889 0.09137 0.16130
-0.04510 0.09137 0.02506
-0.17443 -0.01564 -0.33598
-0.11932 0.09137 0.32491
0.14091 0.11971 0.16783
0.02696 0.09137 -0.38075
0.17188 0.11971 -0.15305
0.20258 0.11971 0.06139
-0.03634 0.11971 0.09354
-0.07873 0.11971 0.35864
0.08743 0.11971 0.04272
-0.17304 0.09137 0.34171
0.15431 0.08356 0.34598
-0.07828 0.11971 -0.02665
-0.13363 0.11971 0.37690
-0.19824 0.09370 0.38277
-0.23218 0.11971 0.09200
-0.09805 0.09137 0.31457
-0.03259 0.09137 0.23942
0.23811 0.11971 -0.07614
-0.13112 0.11971 -0.05492
-0.15918 0.11971 -0.24331
-0.05956 0.09467 -0.41555
-0.09824 0.09137 0.11624
0.07802 0.09912 0.41517
0.05373 0.09137 0.12284
0.09863 0.11971 -0.21703
0.16825 0.09137 0.08172
0.18741 0.11971 -0.27279
0.11453 0.11971 0.10904
0.17464 0.09137 -0.06141
0.08509 0.09137 0.15432
0.07493 0.11971 0.34843
0.06672 0.11971 0.36238
0.01038 0.11971 0.15153
0.20135 0.09455 -0.24857
0.19506 0.11971 -0.05843
-0.10476 0.11971 -0.19109
-0.01545 0.11971 0.14555
0.12219 0.09137 0.30955
-0.16800 0.09137 0.36936
-0.16500 -0.05720 -0.33143
-0.06745 0.11971 -0.05847
0.20416 0.09137 -0.12659
0.22023 0.11971 0.02943
-0.14943 -0.11682 0.34937
-0.07234 0.09137 0.01149
0.11447 0.09137 -0.04756
-0.06849 0.11971 -0.26669
0.05569 0.09137 0.11543
-0.08277 0.09137 -0.33602
0.14863 0.11971 -0.23526
-0.11246 0.09137 -0.25104
0.03959 0.11971 -0.39588
0.13235 0.09137 -0.10123
-0.02383 0.09137 0.38108
0.12452 0.09137 -0.11718
0.04625 0.11971 -0.17006
0.16181 0.09137 -0.06060
-0.15544 -0.09123 -0.36382
0.04027 0.09137 0.35460
0.13725 0.11971 -0.29844
0.13994 0.11971 -0.15797
-0.19908 0.09137 -0.21329
0.18808 0.11971 -0.41315
-0.11313 0.11971 0.20330
-0.21817 0.09221 -0.20205
0.22193 0.11971 -0.11705
-0.02375 0.09137 0.04681
0.04035 0.11971 0.02781
0.23493 0.10735 0.11468
-0.17144 -0.07816 0.36281
-0.15230 0.11971 0.15222
-0.04812 0.11971 -0.37836
-0.21651 0.09137 0.04109
0.09497 0.09137 0.09655
0.19691 0.11971 0.21905
-0.16126 0.00594 0.36671
-0.17191 -0.00960 0.36737
-0.04212 0.11437 -0.41767
-0.08653 0.09137 0.28524
-0.16652 -0.04035 0.36334
0.15431 -0.06546 0.33916
-0.18708 0.09137 0.07663
-0.19295 0.09571 -0.29909
-0.13201 0.09137 -0.36860
0.08827 0.09137 -0.05198
0.18706 0.09137 -0.29157
0.16434 0.09137 -0.13781
-0.11341 0.11971 0.34302
0.01892 0.11971 -0.14553
0.23466 0.11121 -0.13014
0.05529 0.09137 -0.11872
0.11787 0.11971 0.12957
-0.14835 0.00748 -0.32826
0.09716 0.11971 -0.09774
-0.24424 0.09507 -0.03030
-0.01702 0.11971 0.03911
-0.00602 0.11971 -0.27476
0.18957 0.10210 -0.31150
-0.17886 0.11971 0.34491
0.12912 0.09137 -0.30291
-0.16688 0.11971 -0.02841
-0.16858 0.07043 0.33189
-0.02304 0.09137 0.23438
-0.12014 0.11971 0.08597
-0.15038 0.04441 -0.34835
-0.11627 0.09137 0.27072
-0.15181 0.02560 -0.33143
-0.01150 0.09137 0.40022
0.06968 0.10816 -0.41243
-0.02293 0.09137 -0.02675
-0.07101 0.11971 -0.17889
0.03994 0.11971 0.23366
0.17603 -0.05771 -0.34707
0.15111 0.06506 -0.35219
0.19912 0.09137 -0.06576
-0.14067 0.09137 0.09390
-0.22456 0.09137 -0.13382
-0.13274 0.09137 0.34593
0.09905 0.09137 0.05332
0.11457 0.09137 -0.16806
0.23890 0.11485 -0.11174
0.15141 -0.11353 -0.32497
-0.00490 0.11971 -0.33251
0.02415 0.11971 0.34020
-0.03114 0.09137 -0.35112
0.11255 0.09137 0.24593
0.13036 0.09137 0.06959
0.13048 0.09137 0.25340
0.02009 0.09137 -0.31676
-0.16139 -0.01150 -0.32749
-0.07840 0.11971 0.00143
-0.14858 0.09137 0.26459
-0.09484 0.11971 -0.27903
0.06153 0.10197 -0.41307
0.10536 0.09137 -0.19451
0.11292 0.11971 0.06640
0.05648 0.09137 0.13470
0.23737 0.10240 0.09760
0.02691 0.11971 0.27254
0.17603 0.07897 -0.33777
-0.12624 0.09137 0.00309
-0.17633 0.09137 -0.06307
0.15431 0.08921 0.33500
-0.15040 0.11971 0.38577
-0.06980 0.09137 -0.20186
0.19997 0.11017 -0.25033
-0.13805 0.11971 0.30625
0.18201 0.11971 0.04313
0.15889 0.05558 0.35549
0.01021 0.11971 -0.31698
0.16694 0.11971 0.06269
0.10408 0.09137 0.36516
0.01996 0.09137 -0.18691
-0.06193 0.09137 -0.22623
-0.16165 0.04633 0.36334
-0.14887 0.09137 0.09963
0.16858 -0.01263 0.32322
-0.08615 0.09137 -0.26854
-0.00316 0.09137 -0.00002
0.10201 0.09137 0.03618
0.07825 0.11971 0.15534
0.13431 0.11971 0.01725
0.18494 0.09137 -0.17195
0.10179 0.11971 -0.12496
-0.16740 -0.09658 0.33095
0.02617 0.11971 0.39878
0.03032 0.11971 0.07230
0.18046 -0.10720 0.33698
0.14981 0.11971 -0.16731
-0.15912 0.11971 0.07082
-0.19699 0.11971 0.00454
0.19824 0.10707 0.41201
0.12588 0.11971 -0.20119
0.15662 0.09137 -0.09909
0.16991 0.09137 0.38521
-0.23685 0.11971 -0.00471
0.13475 0.11971 0.39594
-0.23844 0.09137 -0.05270
0.20339 0.09137 -0.04496
0.08446 0.09137 0.24993
-0.17522 -0.01265 0.36486
0.18615 0.11971 0.36860
0.03605 0.11971 -0.02138
-0.14175 0.11971 0.05972
0.13018 0.11971 0.08916
-0.19395 0.10858 -0.35848
0.08765 0.11971 0.18454
0.09616 0.09137 0.33290
-0.03412 0.11971 -0.21300
-0.17928 0.09137 0.38072
-0.10563 0.11971 0.30743
-0.10307 0.09137 0.04844
-0.17079 0.02583 -0.35067
0.19494 0.09482 -0.27799
0.00983 0.11971 -0.09070
-0.05557 0.11971 0.16209
-0.04189 0.11971 0.40717
-0.08126 0.09137 0.11114
-0.12601 0.11971 0.13998
-0.17559 0.11971 -0.07246
-0.04884 0.11971 0.20976
-0.05447 0.10508 0.41184
-0.02423 0.11049 0.41530
0.05492 0.09137 0.19941
-0.17477 -0.01758 0.35453
-0.19952 0.09137 0.10403
-0.09878 0.09137 -0.07158
-0.11931 0.11971 -0.28005
-0.04191 0.09640 -0.41574
0.09836 0.09137 0.29261
0.00892 0.09137 -0.00037
0.07779 0.09137 0.20335
0.05380 0.09137 -0.25437
-0.19062 0.11971 0.08972
-0.04900 0.09137 0.05689
-0.22168 0.09137 -0.09517
0.10664 0.11486 0.41771
0.14130 0.11971 0.04686
0.10974 0.09137 0.03661
-0.14681 0.09137 0.19885
-0.02916 0.11971 -0.28534
-0.16317 0.09137 0.15023
-0.20777 0.11971 -0.15367
-0.02624 0.09137 -0.23240
0.20019 0.09338 0.26788
0.15563 0.04626 -0.33159
-0.17136 -0.06316 0.35298
0.03544 0.11971 0.05620
0.12041 0.09137 0.28654
-0.11929 0.09137 0.34869
-0.07524 0.09137 -0.14814
-0.16507 0.09137 0.11421
-0.14427 0.11971 0.37398
0.11178 0.09137 0.02106
0.17852 -0.01346 0.33563
0.00626 0.09137 -0.10839
0.09172 0.09137 0.04577
0.19565 0.09137 -0.02632
0.17606 0.11546 0.41764
0.11785 0.11971 0.17942
0.10239 0.09137 0.00969
0.15367 0.11971 0.34193
0.06574 0.09137 0.21876
0.12279 0.11971 -0.11307
0.10023 0.11971 0.41114
-0.03190 0.11971 -0.07962
-0.11338 0.11249 -0.41717
0.13051 0.09137 0.18729
0.09844 0.09137 -0.21167
-0.08164 0.11971 0.31496
-0.13940 0.09137 -0.10857
0.11284 0.11971 -0.10590
0.18230 0.11971 0.37454
-0.20416 0.11352 0.41755
-0.13894 0.11971 0.34821
0.09055 0.11971 0.26555
0.15431 -0.07380 0.33055
-0.15909 0.11971 0.19629
0.01604 0.09137 0.36189
-0.10283 0.11971 -0.11671
-0.18320 0.11971 0.11684
0.05394 0.09137 -0.07071
0.14747 0.11971 0.16263
-0.02498 0.09137 -0.24865
-0.22047 0.11971 0.04807
0.14152 0.11971 -0.32439
-0.14699 0.10777 -0.41225
0.16303 0.01399 0.32501
0.07539 0.11971 -0.06105
-0.20690 0.09762 -0.39308
0.08769 0.09137 -0.39528
-0.06874 0.09137 0.25185
0.17404 -0.00356 -0.32503
0.07113 0.11971 -0.30177
-0.23813 0.10048 -0.09043
-0.08543 0.11971 -0.20364
0.16224 -0.08288 0.32492
-0.15735 0.09137 0.06348
0.10939 0.09137 -0.17149
-0.00938 0.11971 0.03331
-0.14738 -0.11458 0.33456
0.17176 0.09137 -0.06795
-0.17079 0.05337 -0.35106
0.18642 0.11971 -0.16665
0.09568 0.09137 0.37585
0.00304 0.11971 0.06343
-0.23493 0.09994 -0.11748
-0.03554 0.10080 0.41414
0.03003 0.09137 -0.32569
-0.23622 0.10100 -0.10289
-0.01687 0.09137 0.32575
0.03924 0.09137 0.06994
-0.07369 0.09137 0.30406
0.10185 0.11971 -0.14460
-0.16033 0.11053 -0.41536
0.15124 0.09137 -0.03972
0.15031 0.11971 0.13040
0.15998 -0.08222 0.35737
0.02122 0.09137 -0.30639
-0.16203 0.02472 -0.35985
-0.17020 0.09137 0.29372
-0.20051 0.11470 -0.26073
0.18607 0.11971 -0.11626
0.02213 0.11971 0.16682
0.11321 0.09137 0.40052
-0.02412 0.11971 -0.40451
0.21200 0.11971 -0.10144
-0.14425 0.09137 0.06486
0.24578 0.11307 0.05218
-0.04658 0.09137 0.00065
-0.11507 0.11971 -0.24362
-0.15225 -0.06220 0.33493
0.17822 0.09137 -0.03190
-0.17234 -0.08020 0.34621
-0.16706 0.11971 -0.23182
0.10866 0.09137 -0.15514
0.05730 0.09137 0.39933
-0.17079 -0.04269 -0.33352
-0.19506 0.10501 -0.36823
-0.12886 0.11971 0.36245
0.05235 0.11971 0.30238
-0.02236 0.09137 0.10471
-0.16659 -0.11824 -0.33197
-0.20692 0.11971 -0.11310
0.15573 0.11971 0.37652
-0.05115 0.09137 -0.11179
0.03400 0.11971 0.08124
-0.04870 0.09137 0.40424
0.18994 0.11971 0.31711
0.15165 -0.10038 -0.35049
-0.05380 0.09137 -0.21263
0.17483 0.05658 0.34265
-0.01856 0.09137 0.40103
-0.19454 0.11971 -0.15772
0.03620 0.09137 0.01599
0.12085 0.11971 0.20464
-0.18850 0.11971 -0.04233
0.17952 0.09137 -0.38154
-0.04623 0.11971 -0.35700
0.13857 0.09137 0.33224
0.20257 0.11971 0.07421
-0.11450 0.09137 -0.40573
0.07697 0.11971 0.04122
0.11510 0.11971 -0.34865
-0.11277 0.09137 -0.29466
0.17837 0.11971 0.01984
-0.14954 0.05767 0.35845
0.00704 0.11971 0.31768
0.22321 0.09670 -0.18597
0.04536 0.11971 -0.39020
-0.00072 0.09137 -0.24914
-0.03394 0.11971 -0.05845
0.11105 0.09137 -0.00596
-0.01006 0.11971 -0.37493
0.03898 0.11971 -0.30303
0.05016 0.09137 -0.04459
0.02554 0.11971 0.14264
0.06103 0.09137 -0.11082
0.15221 0.11750 0.41691
-0.05791 0.09137 -0.18341
0.02788 0.09137 0.13672
0.13898 0.11826 -0.41634
-0.11352 0.09137 -0.02300
-0.03812 0.09137 -0.05491
-0.17752 0.11971 0.31163
0.07627 0.09137 0.07172
0.17219 0.09058 0.35549
-0.13872 0.11971 0.19277
-0.22072 0.09600 0.21373
-0.03293 0.09137 -0.14236
0.01273 0.11971 0.20429
0.13792 0.11971 0.26093
-0.11650 0.11971 0.29759
-0.10975 0.11971 0.37734
-0.15926 0.09137 0.25778
0.23436 0.10037 0.13625
0.11121 0.11971 0.26295
0.03288 0.11971 -0.01733
0.04642 0.09137 -0.10911
-0.16239 -0.01913 0.36656
0.08589 0.11971 0.14708
-0.15038 -0.06595 -0.35191
0.10704 0.09137 0.02290
-0.01981 0.09137 0.17692
-0.20425 0.09137 -0.13422
-0.09454 0.11971 -0.06358
-0.03928 0.09137 0.27029
-0.15073 0.11971 -0.41170
0.09521 0.09137 0.30679
-0.17079 0.03762 -0.34318
-0.15482 -0.07691 0.36334
-0.11740 0.09137 -0.35470
-0.00476 0.09270 -0.41477
-0.00043 0.11971 -0.18400
-0.20581 0.09137 0.16710
-0.21276 0.10137 0.22931
-0.15587 0.04829 0.36334
-0.03244 0.09137 0.12338
0.19467 0.09137 0.39612
0.08362 0.09137 -0.06864
0.16125 -0.04110 0.35549
0.22621 0.09137 0.05675
0.16897 -0.05303 0.32708
0.15057 -0.01434 0.34261
0.15270 -0.02121 -0.35275
-0.00403 0.11971 0.17178
-0.13964 0.09137 -0.29001
0.08920 0.11971 0.34331
-0.17294 0.09137 0.32893
-0.14731 0.11971 -0.30402
-0.01442 0.11971 -0.23164
0.20374 0.10211 0.41297
0.02368 0.09137 0.36122
-0.13593 0.09137 -0.34648
0.03870 0.11971 -0.36442
-0.07283 0.11971 0.25495
-0.04950 0.11971 0.39109
0.01014 0.09137 0.14273
0.20424 0.10772 -0.22890
0.16230 0.11971 0.33267
-0.04692 0.11971 0.18510
0.20733 0.11971 0.23951
0.05125 0.09137 -0.08069
0.16046 -0.09200 0.35947
0.15196 0.11971 0.07312
-0.10982 0.09137 0.00251
-0.10551 0.09137 -0.14938
0.04243 0.11971 0.01798
-0.05140 0.09137 -0.22070
0.21288 0.09137 -0.20625
0.16352 -0.11971 -0.34437
0.20825 0.09137 -0.13325
0.15563 0.05523 -0.34257
0.17978 -0.10378 0.32578
0.17897 0.05962 -0.35192
-0.01769 0.11971 -0.38888
-0.12520 0.09137 -0.26183
-0.11805 0.11971 0.15635
-0.17136 -0.05158 0.35351
0.18155 0.09137 0.30878
-0.12288 0.11971 -0.22120
-0.19418 0.09137 -0.14286
0.18473 0.09137 -0.09051
0.05867 0.09137 -0.26429
-0.08451 0.11971 -0.19120
0.12033 0.09137 0.11265
-0.15439 0.11971 0.22182
-0.24277 0.10137 0.02268
-0.07327 0.11971 0.00789
-0.00361 0.11971 -0.06151
-0.03842 0.11971 0.16560
-0.02107 0.11971 -0.01247
0.18156 0.11971 -0.30610
-0.15038 -0.04708 -0.34674
-0.01537 0.09137 0.20732
0.19443 0.09137 -0.21150
-0.21124 0.11971 -0.07049
-0.12675 0.09137 0.28514
-0.17383 0.11971 -0.16033
-0.16455 0.11971 0.07039
0.13164 0.09137 -0.33835
0.00437 0.09137 -0.08555
0.04611 0.11971 -0.34686
-0.20198 0.11971 -0.19952
-0.07116 0.11971 -0.24993
-0.17431 0.11971 -0.34008
0.09389 0.09137 0.21281
0.09180 0.11971 -0.15679
0.01865 0.09137 -0.39572
0.17732 0.09137 -0.02583
0.18323 0.11971 0.08147
0.08092 0.11971 0.16993
0.05104 0.11971 0.39112
0.17065 0.09137 -0.00852
-0.15524 0.11971 -0.30478
-0.15948 -0.04975 -0.33143
-0.04354 0.09137 0.29574
0.22026 0.11971 -0.00422
-0.18752 0.11971 -0.07749
-0.24164 0.10151 0.05293
-0.03880 0.11971 -0.28347
0.09755 0.09137 -0.25675
-0.02724 0.11971 -0.10963
0.13236 0.09137 0.28041
-0.15275 0.09137 0.09221
-0.17206 0.09137 -0.15990
-0.16418 0.01899 0.36425
-0.15757 0.11971 -0.38944
-0.17176 0.09137 0.25465
-0.07987 0.09137 -0.10993
0.13919 0.11971 0.40318
0.07394 0.11971 -0.23465
-0.16499 0.11971 -0.04144
0.12351 0.11971 0.02832
0.07794 0.11971 -0.00482
0.15563 -0.07386 -0.33306
0.16632 0.04682 -0.32908
-0.17411 0.11971 0.12453
0.19249 0.11885 0.32707
0.10658 0.11971 0.06836
0.13498 0.11971 -0.04116
0.15369 0.11971 0.18399
0.08533 0.09137 -0.01259
0.19105 0.09137 0.04059
-0.03385 0.09137 0.08581
0.19458 0.11971 0.15170
0.08739 0.09137 0.17318
-0.02932 0.09137 -0.39699
-0.15095 0.08999 0.35547
-0.00099 0.11971 -0.32238
-0.03978 0.09137 0.10968
0.09672 0.09137 0.40099
-0.01150 0.09137 -0.35983
-0.21782 0.11971 -0.00119
-0.10714 0.11016 0.41470
0.11989 0.11971 0.05545
0.23569 0.09137 -0.04389
0.02840 0.11971 0.00012
0.12953 0.11971 0.27856
-0.04984 0.11971 -0.14380
0.13786 0.11971 -0.04666
0.16343 0.09137 0.14493
-0.18394 0.11971 -0.02990
-0.15473 0.09137 -0.22748
-0.13551 0.09137 -0.17634
-0.18846 0.11971 0.35420
0.04371 0.09137 0.38363
-0.05645 0.11971 0.09069
-0.11555 0.11971 0.40263
-0.20384 0.11030 -0.38688
-0.19845 0.09137 0.16006
-0.03632 0.09137 0.16805
-0.04613 0.09137 0.39981
-0.15038 0.08355 -0.33844
-0.16816 0.01348 0.33275
-0.01141 0.09137 0.30472
0.23660 0.11576 0.14378
0.23159 0.11112 0.16392
0.20403 0.11971 0.05473
-0.21441 0.09137 -0.01016
-0.24066 0.11557 0.11571
0.12262 0.11971 0.22391
0.20389 0.09137 -0.01292
0.11633 0.11971 -0.18691
0.20821 0.09137 -0.07305
-0.04033 0.09137 0.00048
0.15512 0.11971 -0.30661
-0.09741 0.09137 0.40613
0.24088 0.10717 0.03267
0.09278 0.09137 -0.19280
0.05865 0.09137 -0.19437
-0.01404 0.09137 -0.23531
-0.01429 0.11971 0.40140
-0.03608 0.09137 -0.12093
-0.16638 -0.11318 0.33049
0.06307 0.11971 -0.19864
-0.14636 0.11971 0.36308
0.18049 0.11971 0.11916
-0.09975 0.09137 0.12834
0.14117 0.11971 0.31547
0.02876 0.09137 0.05028
-0.17668 0.11971 0.24555
-0.07076 0.09137 0.18572
-0.07899 0.11971 0.03195
0.22792 0.10074 0.17256
-0.16994 -0.09902 -0.36382
0.18014 -0.00621 -0.32622
0.08095 0.09137 0.31727
-0.05105 0.09137 -0.27864
0.21866 0.11971 0.06526
0.18029 0.11971 -0.04024
0.11336 0.09137 -0.29149
0.15003 0.11971 0.33814
-0.22623 0.11971 -0.11210
0.19588 0.09137 -0.18899
-0.10010 0.09137 -0.38363
0.20186 0.09185 -0.24176
0.14076 0.11971 -0.08576
0.15842 0.09137 -0.32199
0.17964 0.06931 -0.32695
-0.02366 0.09137 -0.29772
-0.08395 0.11971 -0.17011
0.16284 0.11971 0.15654
0.23859 0.10428 0.07623
-0.04834 0.11971 -0.41093
0.15134 0.11971 -0.15298
-0.20729 0.11971 0.23928
0.13999 0.09137 -0.39207
-0.12737 0.09137 0.18099
-0.12323 0.09137 -0.14795
0.21947 0.11971 -0.12560
0.15379 0.00793 -0.32596
0.10605 0.11971 0.23384
-0.05498 0.09137 -0.37813
-0.10352 0.09137 0.16190
0.16343 -0.11971 0.33316
0.19915 0.10543 0.39957
-0.20670 0.09775 0.24913
-0.11102 0.11971 0.00728
0.15213 -0.11444 0.35915
-0.17878 0.11971 -0.02163
-0.04121 0.09137 -0.19040
0.04568 0.11971 0.08188
-0.06243 0.11971 -0.10461
-0.01157 0.11595 -0.41759
-0.20674 0.09137 -0.03090
-0.14848 -0.09235 0.36732
0.11948 0.11971 0.26663
0.11661 0.09137 0.04120
0.20677 0.09137 -0.06590
-0.21228 0.09137 -0.00362
-0.06507 0.11644 -0.41742
-0.16413 0.11971 0.12415
0.07113 0.11971 0.17505
0.00534 0.09137 -0.39542
0.16917 -0.11084 0.36081
0.10801 0.09137 -0.40417
-0.18361 0.11971 0.05100
-0.08156 0.09137 0.06554
0.22573 0.11006 -0.16851
0.11889 0.09137 -0.33900
0.11976 0.09137 -0.14477
0.17471 -0.04727 0.33831
0.15071 0.11971 0.12208
-0.02209 0.11971 0.27705
0.21123 0.11971 -0.05124
0.04915 0.09137 -0.32614
0.14946 0.09137 0.17330
-0.11543 0.09137 -0.10778
-0.00896 0.09137 -0.07732
-0.16445 0.09137 -0.35904
-0.15095 0.07472 0.35644
0.17603 0.05131 -0.33133
-0.08264 0.09137 0.13599
0.03445 0.09137 -0.15451
0.01456 0.11971 -0.11733
0.17633 0.09137 0.34710
-0.19285 0.09137 -0.04165
-0.11650 0.11971 -0.33753
-0.12601 0.11971 -0.05060
-0.14651 0.09137 0.32456
0.17066 -0.05819 -0.35749
-0.06201 0.11971 -0.23564
0.14011 0.09137 -0.27992
0.15630 0.11971 0.19662
0.17688 -0.03122 -0.33539
-0.11974 0.11971 0.09377
-0.18262 0.09137 0.28711
-0.02298 0.09137 0.09606
-0.07907 0.09137 -0.15965
-0.05168 0.11971 0.13629
0.08635 0.09137 0.16806
-0.15592 -0.11971 -0.34239
0.17988 0.00088 -0.33970
-0.21430 0.09137 -0.10716
0.18048 0.06422 -0.34908
-0.12845 0.11971 -0.10640
-0.01356 0.11971 0.19251
-0.01485 0.09137 0.37726
0.15309 -0.02353 -0.34066
-0.20013 0.11749 0.27534
0.04943 0.09137 0.20616
-0.01204 0.11971 0.10954
-0.01911 0.11971 0.38438
-0.16777 0.08759 -0.33143
-0.14698 -0.09572 0.34784
-0.11249 0.09137 0.22323
-0.15552 0.09394 -0.41534
-0.17303 -0.02523 -0.33705
0.20761 0.11710 -0.23453
-0.15473 0.11971 0.10908
0.12313 0.11971 -0.02396
-0.07573 0.11971 0.29234
-0.01689 0.11971 0.29609
-0.04223 0.09137 0.16725
-0.23177 0.09137 -0.00928
0.07144 0.11971 -0.12718
-0.10211 0.11971 -0.06797
0.18047 0.09137 -0.29765
0.21928 0.11971 -0.04811
-0.03051 0.09137 -0.34031
0.19442 0.09137 0.21872
-0.11081 0.09137 -0.06477
0.17063 0.09137 -0.03621
0.07231 0.11971 -0.03295
0.12955 0.09137 0.24390
0.11996 0.11971 -0.09432
-0.13314 0.09137 -0.33561
0.19087 0.09137 0.11535
0.09075 0.09467 0.41555
-0.12799 0.09137 -0.01064
-0.11048 0.11971 -0.21213
0.20918 0.11971 0.16363
0.09072 0.11971 -0.14929
-0.16711 0.04075 -0.33143
-0.13788 0.09137 0.39241
0.20872 0.11971 -0.14911
0.05201 0.09137 -0.27270
-0.04251 0.09137 0.38480
-0.07883 0.09137 0.23476
-0.11499 0.11971 -0.30500
-0.13340 0.11971 -0.08983
-0.02546 0.09137 0.05880
-0.00062 0.11971 0.26414
-0.15499 0.11971 0.27389
0.08509 0.09137 -0.07696
-0.01955 0.11971 0.09846
0.24036 0.11971 -0.04634
0.19425 0.11769 0.34670
-0.15893 0.09137 -0.20818
-0.19436 0.11971 -0.13055
0.17603 -0.03527 -0.34407
0.16370 0.11971 -0.19560
-0.19564 0.11971 0.01979
0.02056 0.11971 -0.25123
-0.21431 0.09137 -0.09847
0.15805 0.11971 0.35751
0.04000 0.09137 0.05907
0.02525 0.11971 0.19639
0.02180 0.11971 0.09382
-0.04185 0.11971 -0.17706
-0.01412 0.11188 0.41679
-0.12520 0.11971 0.19451
0.20036 0.11971 -0.05829
-0.17991 0.09137 0.20275
-0.08596 0.11971 0.21850
-0.11369 0.09137 -0.39114
0.00481 0.09137 -0.22875
-0.07568 0.09137 0.39529
-0.02762 0.09137 0.25727
0.19735 0.11971 0.24517
0.03171 0.11971 0.38578
0.12804 0.11971 0.16597
0.13207 0.09137 -0.01484
-0.15095 0.04418 0.36101
0.02813 0.11923 -0.41507
-0.02465 0.11971 0.22458
-0.20632 0.11661 -0.23850
-0.13573 0.09137 0.33681
-0.15787 0.09137 -0.32684
0.11631 0.09137 0.19341
-0.02805 0.11971 -0.33836
-0.19601 0.11971 0.39445
-0.21746 0.11971 0.11395
0.10395 0.11971 -0.03791
-0.19479 0.09137 -0.03507
-0.15884 -0.11971 0.34499
0.17471 -0.06940 0.34117
0.07744 0.11971 0.36400
-0.06667 0.09137 -0.17950
0.14683 0.11971 0.25383
-0.21183 0.11971 -0.03878
0.24499 0.09643 0.02185
-0.16263 0.09137 0.12170
0.10619 0.09137 -0.21656
-0.12049 0.11971 -0.14644
-0.16095 0.09137 0.34048
-0.06087 0.11207 0.41691
0.06276 0.09137 0.04140
0.14715 0.09137 -0.05405
-0.19900 0.10221 -0.37812
0.15819 0.03616 0.32708
-0.13677 0.11971 0.32804
-0.05980 0.10470 0.41187
0.07179 0.09137 0.13512
0.05404 0.11971 0.20212
-0.24002 0.09137 0.01346
-0.12829 0.11971 0.05044
0.21990 0.11971 0.12342
0.15363 -0.07951 0.33537
0.07544 0.09137 -0.35236
-0.00459 0.11971 -0.30319
0.19476 0.11927 -0.27472
-0.12758 0.09137 -0.28746
0.15021 -0.10163 0.34504
-0.15409 0.11971 -0.17011
0.06106 0.11971 -0.04143
0.05173 0.11971 -0.22958
-0.05915 0.11971 -0.04120
0.03571 0.11971 0.10026
0.20234 0.11847 0.26424
-0.15588 0.09137 -0.18320
0.01760 0.09137 -0.01044
-0.07378 0.09137 -0.01900
0.10792 0.11971 -0.34915
0.12749 0.11971 0.04986
0.22887 0.11971 0.00462
0.12893 0.11971 -0.25081
-0.13059 0.11971 -0.25620
0.06513 0.09137 0.01464
-0.01091 0.11971 -0.35339
0.23010 0.11971 0.01110
0.08246 0.11971 -0.13879
-0.07415 0.09137 0.17900
-0.06348 0.11971 -0.03102
-0.07033 0.11971 -0.09593
-0.16714 0.09137 0.08417
-0.16062 0.11971 0.25025
0.16579 -0.03611 0.35549
-0.05359 0.11971 -0.26245
-0.14872 0.11971 -0.33302
-0.01534 0.11971 0.07779
-0.12115 0.11971 -0.35451
-0.09943 0.11971 0.32316
-0.17520 0.11971 0.13159
-0.01127 0.11971 -0.03353
0.02982 0.09137 -0.41086
-0.18028 0.09420 0.41542
0.13780 0.09137 -0.18746
-0.09767 0.09137 -0.12045
-0.07527 0.09137 0.09282
0.07617 0.09137 -0.07783
-0.07630 0.11971 0.26679
0.15187 0.01210 0.33146
-0.13680 0.09137 0.10590
0.09442 0.11971 -0.33436
-0.14641 -0.08851 -0.35565
0.13616 0.11971 -0.26262
-0.04141 0.09137 0.35200
-0.18470 0.09137 -0.24917
-0.17647 0.11971 0.19201
-0.17591 -0.10254 0.34600
0.00787 0.09137 0.14874
0.17471 -0.05273 0.34575
-0.13951 0.09137 -0.40580
-0.10160 0.11971 0.09569
0.05939 0.09137 -0.14577
0.21728 0.09137 0.06522
0.04453 0.11971 0.26480
-0.14556 0.09137 -0.37269
-0.03685 0.11971 0.38095
-0.17399 -0.02294 0.33303
0.12931 0.11971 0.39161
0.02014 0.09137 -0.15737
0.17521 0.02479 -0.32908
0.19159 0.11971 -0.02831
-0.20624 0.09744 -0.41565
0.13652 0.09137 0.29171
-0.16060 -0.11885 -0.35803
-0.09324 0.09137 -0.30190
0.15153 0.09137 -0.13726
0.19575 0.11379 0.30583
0.02150 0.11971 -0.31985
-0.04268 0.09137 0.24873
0.13470 0.09137 -0.35022
0.02398 0.09137 0.30237
-0.04402 0.11971 0.32744
0.06906 0.09137 0.04252
0.13310 0.11971 -0.40555
-0.01663 0.11971 -0.14170
-0.02267 0.09137 0.01824
-0.13278 0.09137 0.28292
0.15033 -0.10121 0.32843
0.15917 0.09137 -0.09007
0.18713 0.09137 -0.15155
-0.02088 0.11971 0.05796
-0.14481 0.09137 -0.41177
-0.05601 0.11971 -0.16475
-0.18014 0.11971 -0.22155
0.00570 0.11971 -0.11294
-0.11014 0.11971 0.03140
-0.13346 0.10388 -0.41205
0.10238 0.09137 -0.22036
-0.07539 0.11971 0.19592
0.15767 0.09137 -0.17336
-0.13563 0.09137 -0.25929
-0.21465 0.11971 -0.08877
0.11894 0.09137 0.32203
0.17733 0.01754 -0.33915
-0.00491 0.11971 -0.21251
-0.11924 0.11971 -0.38427
0.20853 0.10855 -0.21899
0.15814 0.09137 0.15106
0.17058 0.03774 -0.32908
-0.00096 0.10868 -0.41273
-0.15933 0.09137 0.23177
-0.20692 0.11971 -0.10069
-0.17136 0.04801 0.33620
-0.04228 0.09137 -0.10410
-0.04359 0.11971 -0.10028
0.07942 0.09137 -0.01694
-0.20204 0.09137 0.12770
-0.22326 0.11758 0.20798
-0.14842 0.09137 0.13115
0.09829 0.09137 0.07913
-0.11259 0.11971 -0.34680
-0.20287 0.10820 -0.23316
-0.14453 0.09137 -0.36730
0.08841 0.09137 0.39029
-0.01816 0.09137 -0.22076
0.20062 0.09137 -0.23085
-0.00113 0.11971 0.35779
-0.22272 0.09933 0.20187
0.23831 0.11453 0.13246
-0.04894 0.11971 -0.09222
-0.15757 0.11971 -0.02968
0.15431 -0.05202 0.34813
-0.20177 0.09137 -0.39653
-0.16889 0.02609 0.36334
0.08798 0.11971 -0.09641
-0.16076 0.11971 0.29947
-0.16694 0.09137 -0.07817
-0.18083 0.09137 -0.21538
0.20104 0.10368 -0.23704
-0.15270 0.11971 -0.26494
-0.11665 0.11971 0.07028
0.03370 0.09137 0.32614
0.04294 0.09137 -0.16411
0.07341 0.11971 0.29670
0.11452 0.09137 -0.11692
-0.17842 0.11971 -0.11000
-0.05451 0.09137 -0.29652
0.05874 0.11971 -0.31827
-0.24059 0.09678 0.09676
-0.17476 -0.09747 -0.32929
-0.07525 0.09137 -0.39278
-0.19445 0.10158 0.28483
0.02393 0.11971 -0.10138
0.16550 -0.00646 -0.36159
0.12874 0.11971 0.10285
0.23566 0.09137 -0.07932
-0.21227 0.11971 -0.14034
0.15033 -0.11392 0.32972
0.17927 0.11971 0.08522
-0.13970 0.11971 0.36759
0.09008 0.09137 0.35738
-0.20046 0.11971 -0.23356
0.07389 0.11971 -0.29666
-0.14447 0.09137 0.04032
-0.19880 0.10860 -0.37823
0.09981 0.11971 -0.25007
0.19548 0.09137 -0.36917
0.07817 0.11971 0.41241
-0.22465 0.09137 -0.10732
-0.02423 0.11971 -0.20532
0.14960 0.09137 0.24986
-0.13022 0.11971 -0.33513
0.11067 0.09137 0.14055
-0.19195 0.09356 0.33126
-0.00828 0.11971 -0.22486
-0.23048 0.11971 0.10733
-0.17045 0.07994 -0.35985
0.14833 0.09137 0.11551
0.11500 0.09137 0.10225
0.14676 0.11971 0.06354
-0.23148 0.10761 0.13947
-0.08920 0.09137 0.18295
-0.05310 0.09137 -0.39749
0.08923 0.11971 -0.02216
0.21189 0.11971 0.14196
-0.12706 0.11971 -0.21360
0.05809 0.11971 0.16319
0.14210 0.11971 0.28197
-0.00762 0.09137 -0.29747
-0.00025 0.11971 0.12828
0.21626 0.10715 -0.19901
0.07347 0.11971 0.39883
-0.16086 0.11971 0.18791
0.05390 0.09137 0.09300
0.12831 0.10337 0.41224
-0.18913 0.11971 -0.25240
-0.00660 0.09137 -0.18312
0.04625 0.09137 0.01213
0.00047 0.09137 -0.00460
-0.06707 0.09137 -0.32938
0.04700 0.09137 0.22434
-0.16326 0.11971 -0.06653
-0.10851 0.11971 0.26661
0.09852 0.11971 0.17546
-0.07019 0.11971 -0.33162
0.17471 0.02916 0.33620
0.14022 0.11971 0.36013
-0.14062 0.09137 0.36433
-0.16093 0.09137 -0.02289
-0.03175 0.09137 0.14758
0.03852 0.09137 0.20940
0.15563 0.07875 -0.35030
-0.12274 0.09137 -0.07858
0.21688 0.11971 -0.01634
-0.02436 0.09137 0.31082
-0.11731 0.09137 -0.24035
-0.18213 0.09137 -0.38870
-0.10845 0.11971 -0.10232
-0.10824 0.11971 -0.12960
-0.04122 0.09137 0.20129
-0.18576 0.11971 -0.41117
-0.19539 0.09137 0.39700
0.17786 -0.02710 -0.35090
-0.18143 0.09137 0.31116
-0.12759 0.09137 0.00924
0.22898 0.09607 -0.15878
0.23653 0.09137 0.11358
0.11686 0.09137 -0.30658
-0.01587 0.09137 -0.36750
-0.08370 0.09137 -0.28267
0.07252 0.09137 -0.22418
0.17995 -0.01185 -0.34268
-0.16173 -0.07781 0.33493
-0.15209 0.09137 -0.09287
0.04044 0.09137 -0.12765
-0.02060 0.11971 0.15135
-0.16301 -0.05807 0.36334
-0.16784 0.09137 -0.10727
-0.21629 0.11971 0.19692
0.01877 0.09137 0.00850
-0.14126 0.09137 0.26537
0.19609 0.09862 0.37177
-0.08966 0.09137 -0.28205
0.16454 0.01673 -0.35896
0.09991 0.11971 0.30622
-0.19335 0.10981 -0.27485
0.08637 0.11971 -0.13356
-0.02178 0.09137 -0.04189
0.18290 0.09137 0.13031
-0.13212 0.11971 0.32566
-0.04143 0.11971 0.26413
-0.08751 0.11971 -0.33257
-0.18468 0.11971 0.11172
-0.23405 0.11829 0.15174
-0.14678 0.00395 -0.34045
0.13550 0.11971 -0.20449
-0.01953 0.09137 -0.14370
-0.09527 0.09137 -0.08149
-0.02224 0.09137 0.32743
-0.20708 0.09137 0.11872
0.17869 -0.09017 0.33762
-0.15966 0.11971 0.39213
0.10157 0.11459 0.41769
0.19174 0.11971 0.08818
0.14901 0.11971 0.40370
0.21879 0.11971 -0.02535
-0.18577 0.11971 0.22035
-0.02216 0.09137 -0.23774
-0.10089 0.11971 -0.36504
0.20699 0.11971 -0.22127
-0.20109 0.10931 0.40101
-0.00447 0.11971 0.03705
-0.02886 0.11971 -0.06059
0.15824 0.09137 0.00070
-0.19758 0.11971 0.18800
0.17471 0.08323 0.34796
-0.18591 0.09137 0.08199
-0.13148 0.11971 0.13784
0.17950 0.11971 0.26841
0.13492 0.11971 -0.07508
0.14528 0.11971 0.18956
0.02341 0.11971 0.26850
0.13244 0.11971 0.31432
0.16603 0.09137 0.06152
-0.03827 0.11971 -0.00200
0.09101 0.09137 0.33057
0.07443 0.11971 -0.16792
-0.07850 0.09137 -0.03541
-0.17180 -0.08246 -0.36182
0.22405 0.11971 0.13313
0.23944 0.11000 0.09226
0.15872 0.10804 0.41237
-0.18992 0.09137 -0.03728
-0.04213 0.09137 0.15590
0.17564 0.09137 0.32092
-0.12351 0.11971 0.14952
0.03689 0.11971 0.14952
0.15033 -0.08867 0.34053
-0.08262 0.09137 0.07273
-0.13713 0.11374 0.41760
0.05676 0.11971 0.28730
-0.02169 0.09137 -0.27595
-0.14903 0.01726 -0.34976
-0.07819 0.09137 0.12272
0.05311 0.11971 0.15230
-0.04294 0.11971 -0.14099
0.13601 0.11971 -0.17069
0.19822 0.09137 -0.08500
0.20765 0.11070 0.24680
-0.19644 0.09137 0.19957
0.18521 0.09137 0.23564
-0.06520 0.09137 -0.27138
0.17849 0.01201 -0.34937
-0.14698 -0.09923 0.33492
0.10461 0.09137 -0.16450
-0.20316 0.09137 0.22482
0.02770 0.09137 -0.39183
0.18868 0.11971 -0.19528
0.15685 -0.03072 -0.35848
-0.15710 0.09137 -0.01535
-0.12287 0.11971 -0.24467
0.05498 0.11971 -0.40911
0.02111 0.11971 -0.01213
-0.18950 0.11971 0.37909
-0.08008 0.09137 -0.21405
-0.15820 -0.00649 -0.32734
-0.14491 -0.11010 -0.33743
0.16902 0.11971 -0.28042
0.13571 0.09137 0.34810
-0.01944 0.11971 0.06875
0.02144 0.10442 -0.41193
0.02972 0.09137 -0.12066
-0.13689 0.09137 0.22389
-0.08952 0.11971 -0.28982
0.17369 0.11971 -0.07427
-0.16665 0.09137 -0.19398
0.12465 0.11971 0.12093
-0.23795 0.11824 0.12526
0.10252 0.11971 0.16844
-0.19010 0.09137 0.19959
-0.03569 0.09137 -0.36988
-0.21371 0.09137 0.08766
-0.02101 0.09137 0.06709
-0.20035 0.11880 0.26984
-0.12259 0.09137 0.19391
0.16704 0.11971 -0.05194
0.17102 0.11971 -0.14300
-0.03545 0.11971 -0.07003
-0.23689 0.11971 -0.01153
0.17779 0.06539 -0.36199
-0.11174 0.09137 -0.20101
-0.05818 0.09137 0.38029
-0.19970 0.10428 -0.38406
-0.10054 0.11971 0.12279
-0.15692 0.06312 0.36765
-0.22730 0.11894 -0.16683
0.18181 0.09137 0.30159
-0.05433 0.11971 0.40916
0.12248 0.11971 -0.22275
0.20267 0.09137 0.06673
0.11425 0.09137 0.06384
0.12298 0.09137 0.23883
0.03282 0.09137 -0.35834
-0.14953 -0.11242 0.33018
0.13299 0.11971 -0.33497
0.22168 0.09137 0.07279
-0.14698 -0.09878 0.34140
-0.07024 0.09137 0.01626
0.11345 0.11971 -0.20467
0.19302 0.09137 0.09181
-0.18854 0.09137 0.35686
0.03539 0.09137 -0.27720
0.14841 0.11971 -0.35764
0.01465 0.09137 -0.22649
0.11872 0.11971 0.30394
0.01895 0.11971 -0.19770
0.05731 0.11971 -0.15742
0.19751 0.09805 -0.26397
0.17863 -0.00006 0.34191
-0.14758 0.09137 0.38964
0.17603 0.05345 -0.34121
-0.04204 0.09137 -0.16221
-0.02819 0.11971 -0.07060
0.19347 0.11971 -0.15300
-0.19264 0.09488 0.32042
-0.08011 0.11971 -0.32140
0.23995 0.10992 -0.06788
-0.12969 0.09137 0.07230
-0.16569 0.11838 0.41622
0.02366 0.09137 -0.37649
0.12711 0.11971 -0.37640
-0.03775 0.11971 -0.16105
0.16863 0.11971 -0.37799
-0.09483 0.09137 0.24528
-0.12070 0.09137 0.35703
-0.11292 0.11971 0.23524
0.15242 -0.01032 -0.32507
0.03577 0.09137 -0.29294
-0.07829 0.09137 -0.17451
-0.13800 0.11971 -0.04231
0.17641 0.09137 -0.24083
0.07947 0.11971 -0.32871
0.08829 0.11971 0.36555
-0.17344 0.01083 -0.33753
-0.21826 0.09137 0.02941
0.03312 0.09137 -0.04136
0.03822 0.11971 -0.01264
-0.15077 0.07301 -0.33054
-0.18228 0.11971 -0.23098
0.06341 0.09137 0.16095
0.05528 0.09137 -0.17940
-0.01611 0.09137 -0.13421
-0.14571 0.11132 -0.41634
0.15173 0.11971 -0.27692
0.22953 0.09137 -0.03802
-0.07508 0.09137 -0.15369
0.15762 0.05369 -0.32908
-0.15230 0.11971 -0.13870
0.03400 0.09137 -0.19871
-0.00053 0.09137 0.05713
-0.05351 0.11971 0.30134
0.17718 0.07134 0.35223
0.02951 0.11971 0.21916
0.08056 0.11971 0.05186
0.15428 0.11971 -0.26659
0.07857 0.11971 -0.40302
-0.22506 0.09137 0.01905
-0.16204 -0.07468 -0.35985
0.16904 -0.03724 -0.35749
0.06887 0.09137 -0.15475
-0.19661 0.11747 0.36571
-0.09561 0.11971 -0.16407
-0.17370 0.01173 0.36584
0.18010 -0.00805 -0.36072
0.19201 0.10204 0.36192
0.15950 0.11971 0.27946
-0.16970 0.11971 -0.11663
0.10564 0.10261 -0.41263
0.17705 0.10016 -0.41461
-0.06071 0.11971 0.13395
0.05432 0.11971 -0.10680
-0.09630 0.09137 -0.14558
0.24512 0.11111 0.03531
0.18691 0.09137 -0.07194
-0.17461 0.09137 0.07516
-0.09005 0.09137 -0.18867
-0.17079 -0.07600 -0.33624
0.11456 0.11971 0.21030
0.18567 0.09137 0.33039
-0.10913 0.09137 0.13267
-0.14625 0.06239 -0.34212
0.05841 0.09137 -0.40992
-0.22512 0.10081 0.18701
-0.02957 0.11971 -0.29038
-0.01135 0.09137 0.18402
-0.00447 0.09137 -0.22731
0.15431 0.04915 0.35495
-0.20949 0.09137 0.21027
-0.15511 0.11971 -0.04803
-0.18448 0.11971 -0.32996
0.13666 0.11971 0.03467
0.13778 0.11971 -0.11325
-0.02473 0.09137 -0.06931
-0.20492 0.11971 -0.04495
-0.14995 0.09137 -0.13284
-0.04663 0.11971 -0.36419
-0.10588 0.09137 0.14774
0.15447 0.11971 0.04271
-0.03735 0.11971 -0.36676
-0.24060 0.10545 -0.01781
-0.10922 0.09137 0.36880
-0.03708 0.09137 -0.00613
-0.06553 0.09137 -0.02280
0.15754 0.11337 0.41750
-0.01243 0.11971 0.38235
0.21822 0.09137 0.20146
0.17522 -0.08222 -0.35936
0.06423 0.09137 -0.40332
0.16165 0.09137 -0.30011
-0.05214 0.09137 0.06974
-0.04409 0.11971 0.11247
0.20025 0.09137 0.22732
-0.08417 0.11971 -0.09307
-0.11528 0.11971 -0.17701
-0.10223 0.09137 -0.24941
0.16114 0.09137 -0.23752
0.03812 0.09137 -0.10089
-0.16004 0.11971 0.04561
-0.08294 0.09137 0.28984
0.01222 0.11971 -0.07129
0.01397 0.09137 0.27359
-0.21747 0.09137 -0.03572
-0.24407 0.09358 0.03942
-0.00087 0.11971 -0.11819
0.16403 0.11971 -0.20446
0.17654 0.11971 -0.20490
-0.05548 0.11971 -0.02938
0.23971 0.10263 -0.05238
0.18001 -0.08927 -0.35481
-0.01457 0.09137 -0.00989
0.06484 0.11971 0.20644
-0.10612 0.09137 0.11915
-0.00746 0.11971 0.28576
0.01395 0.09137 0.17966
-0.00624 0.11971 -0.00493
0.11833 0.11971 0.21879
-0.13118 0.11971 0.14793
0.13868 0.11090 0.41591
0.16402 0.11971 -0.38319
0.08213 0.09137 -0.30646
-0.02998 0.11971 -0.17578
-0.15672 0.05063 -0.35985
0.17903 0.09137 -0.16982
-0.15095 -0.03914 0.34955
0.15431 -0.03723 0.34679
-0.02479 0.11971 -0.12360
0.24704 0.11574 0.01779
0.16411 0.11971 0.03157
0.06972 0.09137 -0.16391
0.18232 0.11964 0.41400
-0.10297 0.11971 0.40730
0.07553 0.09137 -0.24881
-0.21966 0.11944 -0.19635
0.07786 0.09137 -0.19206
0.08889 0.11971 0.33398
-0.07908 0.09137 0.37313
0.16324 -0.04813 0.32708
-0.19745 0.11971 -0.01060
0.14298 0.11971 -0.39363
-0.09860 0.11971 0.19023
-0.05276 0.09137 0.36074
0.12072 0.11971 0.24372
-0.03441 0.09137 0.03798
-0.17644 0.09137 -0.33865
-0.15479 -0.09418 -0.32746
0.14579 0.09137 -0.12556
-0.10906 0.09137 0.32023
0.16704 0.11971 0.07266
-0.15033 0.11971 0.29100
-0.20539 0.11971 0.10472
0.07018 0.11971 0.40564
-0.19407 0.10793 0.28081
-0.11827 0.09137 -0.20537
0.09503 0.11971 -0.36080
0.02952 0.11971 0.20235
-0.18388 0.11971 0.14603
0.14973 0.11971 -0.25143
0.11263 0.09137 0.20857
-0.11452 0.11971 0.07588
-0.11636 0.09137 -0.37308
0.10006 0.09137 0.24150
0.12079 0.09137 0.13835
0.15948 0.01852 0.32604
0.23911 0.09223 0.09829
-0.00962 0.09137 -0.35053
0.07845 0.09137 -0.04455
-0.21236 0.09137 0.05512
-0.16616 -0.11012 0.36881
-0.12504 0.11971 -0.34227
-0.14180 0.11971 0.14645
-0.15502 0.11971 0.18913
0.22839 0.09137 -0.10353
-0.04132 0.11971 0.22823
0.05266 0.09137 0.07678
0.17844 -0.08343 -0.33468
0.19993 0.09137 0.17627
-0.15488 0.11971 -0.12875
0.10206 0.11971 0.24160
0.03488 0.11971 -0.14912
0.15890 -0.03976 -0.32908
0.19287 0.09137 -0.36476
-0.17136 -0.03738 0.35150
-0.15340 0.11971 0.27884
0.09579 0.11971 -0.13402
0.12487 0.11971 -0.21333
0.23426 0.09137 -0.10315
0.05616 0.11971 -0.32346
0.19719 0.11589 -0.34785
0.15232 -0.01843 -0.33545
-0.21963 0.09137 -0.09989
0.16714 0.09137 -0.07342
-0.01055 0.11971 0.09788
-0.11054 0.09137 0.17158
-0.17508 0.00250 0.36489
-0.17487 0.11971 0.20311
0.03131 0.11971 0.09505
0.01089 0.09137 0.37792
-0.17424 0.07068 0.33346
0.02206 0.09137 0.15278
0.23073 0.10994 -0.13944
-0.13726 0.11971 -0.38971
0.22253 0.11971 -0.09351
-0.01763 0.11971 0.28455
0.12412 0.11971 -0.38822
-0.08667 0.09137 -0.00289
0.11591 0.09137 0.40904
0.13049 0.09137 -0.14789
0.12677 0.11971 0.15376
0.17934 -0.01843 -0.33698
-0.11819 0.09137 0.21557
0.01254 0.11971 -0.33883
-0.14393 0.09137 0.20305
-0.20974 0.09137 0.14178
-0.14819 -0.11622 -0.32989
0.21032 0.11971 0.20518
0.12224 0.11754 0.41689
0.23962 0.09449 -0.08724
-0.00335 0.09137 -0.27686
0.13642 0.09137 0.11131
0.09510 0.11971 0.39474
0.07403 0.09137 0.03691
0.01855 0.09137 0.17614
-0.22905 0.11971 -0.09240
-0.10159 0.09137 0.25738
0.03945 0.11971 -0.03109
0.13806 0.09137 -0.38466
-0.17136 0.04423 0.34821
-0.02191 0.11971 0.37160
-0.17477 0.09137 -0.32823
-0.22412 0.11801 -0.18609
0.21519 0.10899 -0.20568
0.01325 0.09137 0.25594
0.17466 0.11971 -0.32336
0.12746 0.11971 0.40778
0.02918 0.11971 0.00927
0.23634 0.09137 0.03110
-0.09234 0.11971 0.37754
0.02767 0.09137 0.00904
-0.01121 0.09137 0.28745
-0.19146 0.11003 -0.29857
0.15205 0.00420 -0.33676
0.04659 0.11971 -0.23340
0.22857 0.11971 0.09349
-0.10687 0.09137 0.11158
0.10254 0.11971 0.07289
-0.20676 0.11971 -0.41036
-0.16310 0.09137 -0.24564
-0.10061 0.11971 -0.26306
0.19568 0.10324 -0.25602
0.16792 0.09137 -0.34236
-0.05123 0.11971 0.23478
0.18400 0.11971 -0.15779
-0.07524 0.09137 -0.00709
0.08836 0.09137 0.29602
-0.09984 0.11971 0.08837
0.04188 0.11971 0.22520
0.17774 0.11971 0.07283
-0.19636 0.09137 0.15468
0.15812 0.11971 0.13707
-0.03450 0.11971 -0.40276
0.14835 0.09137 0.39073
-0.02506 0.11971 0.16386
-0.04405 0.11971 -0.22926
0.01153 0.09137 -0.34298
0.16961 0.11971 0.18993
0.06068 0.09137 0.39115
0.12444 0.11971 -0.27967
-0.10687 0.09137 -0.19004
-0.18824 0.11971 -0.31196
-0.10721 0.09137 -0.32754
0.10632 0.11971 -0.14919
-0.21103 0.11440 0.24384
-0.05678 0.09137 -0.31231
0.22162 0.11971 -0.00955
-0.18452 0.09137 0.25992
0.01114 0.09137 -0.13602
-0.05135 0.09137 -0.41064
0.16922 0.09137 -0.28115
-0.07658 0.09137 0.08287
-0.17533 -0.09787 0.35134
0.06056 0.11971 0.38109
0.06021 0.11971 -0.24568
0.16075 -0.01417 0.32333
-0.11178 0.09137 -0.36818
0.05288 0.11971 -0.38828
0.18846 0.11971 0.27340
-0.19464 0.11938 0.29116
0.18927 0.09137 0.39135
-0.17045 0.03159 -0.33143
0.17848 0.11971 -0.33871
0.15086 0.09137 0.37319
0.13928 0.11971 -0.37518
-0.18279 0.09137 -0.38137
-0.09750 0.09137 0.20677
-0.01913 0.11971 0.16281
0.05746 0.11971 0.37618
-0.08695 0.09137 0.31329
0.23464 0.09137 -0.07060
0.21644 0.11971 -0.19884
-0.17322 0.09137 0.12607
0.18740 0.11971 -0.21135
-0.12607 0.09137 0.11722
-0.16456 -0.11695 -0.36121
-0.20009 0.11971 -0.15603
0.17940 -0.01792 -0.33035
-0.24286 0.11013 -0.03494
0.15161 0.09137 -0.39448
-0.16491 0.09137 0.25656
0.13109 0.09137 -0.14139
-0.18974 0.10817 -0.33129
0.20398 0.11890 0.25666
0.21949 0.09137 0.10296
0.08629 0.09137 -0.18786
-0.23236 0.11066 -0.13983
0.18014 -0.11030 0.35455
-0.17539 0.11971 -0.04591
-0.19014 0.11971 -0.18038
-0.23054 0.10721 0.14484
0.19445 0.09137 -0.17869
0.13955 0.09137 -0.03238
0.01268 0.11971 -0.28743
0.07003 0.11971 -0.09248
-0.03091 0.11971 0.11831
0.17869 -0.08774 0.35283
0.02974 0.09137 -0.29091
-0.16652 0.09137 0.15422
0.09442 0.09137 0.08389
0.16152 0.11971 0.09027
-0.19501 0.11971 -0.41376
0.04464 0.09137 0.40455
0.14490 0.11971 -0.37840
0.05651 0.11971 -0.13506
-0.06839 0.09137 -0.21115
-0.16221 0.11971 0.26028
-0.12290 0.09137 -0.31594
0.18711 0.09137 0.35243
-0.22793 0.11971 0.02911
-0.10164 0.09137 -0.11639
0.06445 0.11971 -0.40427
0.19484 0.09523 -0.34545
0.05764 0.09137 -0.38749
-0.12843 0.09137 -0.39083
0.16478 -0.00845 0.32303
0.15207 -0.11460 -0.33916
-0.12798 0.11971 -0.29854
0.09522 0.09137 -0.14816
0.15587 0.00118 0.35932
0.17411 0.09137 0.02084
-0.15940 0.09137 -0.03947
-0.01325 0.11971 -0.28418
0.18222 0.11971 0.40567
0.15478 0.09137 -0.22105
0.13241 0.11767 -0.41681
0.00807 0.11971 0.10794
-0.16616 0.09137 -0.15747
0.19458 0.11330 0.33723
-0.09100 0.09137 -0.31321
0.15000 0.09137 -0.29514
-0.12103 0.09137 -0.33482
-0.23826 0.09384 -0.09836
0.18198 0.09137 0.27484
0.15152 0.06792 -0.33654
-0.07175 0.09137 0.08488
-0.18789 0.11971 0.10697
-0.19781 0.11049 -0.36359
0.16920 0.03907 0.35549
0.22006 0.09137 -0.02191
0.15560 0.09137 0.30156
0.17461 0.11971 0.03700
0.17471 0.07937 0.33192
-0.15213 0.00891 -0.36283
-0.04299 0.11971 -0.30873
0.18824 0.10456 0.41190
-0.05422 0.11971 0.06634
0.15413 -0.02860 -0.34012
0.15639 0.06159 0.32319
-0.11280 0.09137 -0.18285
0.17846 -0.01422 0.35101
0.11695 0.09137 -0.24212
0.23757 0.11971 -0.01759
0.00816 0.11971 0.30818
-0.15038 0.02284 -0.34945
0.02125 0.11971 0.21756
0.04848 0.11971 0.20274
-0.13414 0.11971 -0.23265
0.10614 0.09137 0.22546
-0.18708 0.09137 0.14560
0.14264 0.09137 0.05091
-0.19650 0.09137 -0.06034
-0.10592 0.09137 0.06763
-0.16853 -0.07664 0.33493
-0.17877 0.09603 -0.41573
-0.15319 0.07277 0.36454
-0.03207 0.09137 -0.23343
-0.10915 0.09137 -0.32070
0.07280 0.11971 -0.11445
0.02113 0.09137 -0.25760
0.16909 -0.06925 0.35549
-0.16744 0.06181 0.33094
-0.14746 0.11971 0.05634
0.08963 0.11971 0.16932
0.07800 0.11971 0.32365
-0.20981 0.11971 0.08733
0.10549 0.09137 0.20710
0.07953 0.09137 0.29662
0.08221 0.09137 -0.05180
0.05020 0.09137 -0.18467
-0.03918 0.09137 -0.30879
0.17274 0.11971 -0.29246
0.15578 0.11971 0.24877
-0.08189 0.11971 0.19707
-0.12245 0.09137 -0.21759
-0.03741 0.11971 0.03512
-0.07098 0.09137 -0.06400
0.22307 0.11971 -0.08550
-0.08906 0.09137 0.12746
-0.21646 0.11971 -0.02602
-0.21304 0.11971 0.12691
-0.19156 0.09137 0.18923
0.03513 0.09137 0.33116
-0.20623 0.11971 0.21057
-0.20811 0.09137 0.23875
0.12477 0.09137 -0.01329
0.24046 0.10832 -0.03863
0.09126 0.09137 -0.31319
0.19748 0.09137 0.26165
0.00934 0.11971 0.09594
-0.05543 0.09137 -0.11646
-0.06683 0.11971 -0.26181
-0.05486 0.09137 0.18998
0.04156 0.09137 0.05127
0.08406 0.09137 -0.22779
-0.08422 0.11971 -0.06534
0.04482 0.09137 -0.29553
-0.11609 0.09137 0.03489
-0.07782 0.09137 -0.04718
0.10240 0.09137 -0.26238
-0.05279 0.11971 0.17510
0.01249 0.11971 -0.32563
0.06406 0.11971 -0.11344
-0.08848 0.09137 0.13440
-0.04057 0.11971 0.11842
-0.02237 0.09137 0.13682
0.18047 0.09137 -0.18061
0.14887 0.09137 -0.31091
-0.00091 0.09137 -0.13285
-0.16460 0.09137 -0.05678
-0.08935 0.11971 -0.38473
-0.09737 0.11971 -0.11707
-0.09862 0.11009 -0.41447
0.15431 0.03858 0.33896
-0.21639 0.09137 0.13510
0.03795 0.09137 0.41295
0.09002 0.11971 0.14316
-0.01163 0.09137 -0.11235
-0.05492 0.09137 -0.08693
0.18374 0.09137 -0.33526
0.14048 0.11971 -0.07691
0.06156 0.11971 0.30745
-0.24251 0.11077 -0.06064
0.07518 0.11971 0.19336
-0.06772 0.11971 0.36706
-0.00660 0.09137 0.39087
0.19223 0.11971 0.41168
-0.19965 0.11971 -0.03428
-0.14092 0.11971 -0.36825
-0.07901 0.09137 -0.32043
-0.24138 0.11971 0.04316
0.08240 0.09137 0.18332
0.12886 0.11971 0.26276
0.17324 0.09137 0.32749
-0.04982 0.11971 0.33206
0.16943 -0.04853 -0.35749
-0.18971 0.11971 -0.29898
-0.08045 0.09137 0.00879
0.18732 0.09137 -0.17842
-0.19087 0.10293 -0.28421
-0.20066 0.09137 0.11439
0.16108 0.09137 0.30801
-0.01592 0.11971 -0.24316
0.08525 0.09137 0.20147
-0.00225 0.09137 0.22335
-0.14253 0.09137 -0.34722
0.08446 0.09137 0.39663
0.03824 0.11971 -0.17605
0.07007 0.09137 -0.01374
0.19564 0.11016 -0.41470
-0.22520 0.09855 0.19250
0.14368 0.09137 0.23345
0.17889 0.00964 -0.34458
-0.06397 0.09137 0.15599
-0.04583 0.11971 0.20023
0.21490 0.09137 -0.14022
0.09265 0.11971 -0.18664
0.12035 0.09137 0.03522
0.15179 -0.01298 -0.35622
-0.19884 0.09137 -0.09143
-0.17414 -0.08430 0.33364
0.15412 -0.02590 0.35759
0.03042 0.11971 -0.38832
0.20383 0.11971 0.03610
-0.04637 0.09137 -0.13732
0.07660 0.11971 0.18560
0.05869 0.11971 0.04510
-0.21146 0.10007 -0.40718
-0.10680 0.09137 -0.17350
0.16892 -0.03099 0.35641
-0.24432 0.09545 0.04692
0.12134 0.09137 0.40796
-0.15320 0.03511 -0.33143
0.21486 0.09137 0.12410
-0.01997 0.09137 0.11933
0.12857 0.11971 -0.15082
-0.04324 0.11971 -0.34488
0.19534 0.11971 0.22635
0.16372 -0.04042 0.32708
0.19601 0.09727 -0.35282
-0.01501 0.11971 0.11413
-0.09773 0.09137 0.30214
0.11365 0.11971 0.31450
0.15563 -0.05183 -0.33209
0.08592 0.11971 -0.36204
0.03095 0.09137 0.15789
0.04453 0.09137 0.23015
-0.04844 0.09496 -0.41561
0.06136 0.11971 0.25104
0.15789 0.09137 0.22999
0.05933 0.09137 -0.37622
-0.13329 0.09137 -0.00234
0.17462 0.09137 0.36593
0.02847 0.09137 -0.15550
0.03455 0.11964 -0.41400
0.20950 0.09137 -0.01501
0.09926 0.11971 -0.34485
-0.23639 0.11971 -0.07596
-0.14933 -0.03047 -0.33450
-0.03617 0.09137 0.04831
0.10862 0.09137 0.35356
-0.09078 0.09137 -0.40299
-0.21648 0.11971 0.13536
-0.03438 0.09137 -0.10464
-0.14836 0.09137 0.34767
0.00772 0.11971 0.41066
0.03207 0.11971 -0.34872
-0.07194 0.09137 0.00064
-0.03005 0.11971 0.35601
-0.23445 0.11060 -0.12614
0.06631 0.11971 0.10214
-0.00386 0.09137 -0.05005
-0.01583 0.09137 -0.10217
-0.23080 0.09137 -0.13769
-0.11184 0.09137 -0.24235
-0.17327 0.09902 -0.41521
-0.17397 0.11971 -0.05962
0.00576 0.11971 -0.09612
0.17437 0.11971 0.36588
0.19391 0.09137 0.01608
0.17873 -0.11216 -0.32422
0.18596 0.09137 -0.24840
-0.14364 0.09137 0.37630
0.04222 0.09137 -0.21144
0.07411 0.11971 -0.10632
0.23413 0.11971 0.12324
-0.16140 -0.02182 0.33210
-0.17015 0.11971 -0.19275
-0.15173 0.09137 -0.35397
-0.19479 0.11971 0.14913
0.11935 0.11971 -0.36477
0.03464 0.11971 0.17792
-0.05364 0.09137 -0.18003
-0.18474 0.09137 -0.31461
