ply
format ascii 1.0
comment VCGLIB generated
element vertex 1877
property float x
property float y
property float z
element face 0
property list uchar int vertex_indices
end_header
0.20504 -0.06770 -0.34399
-0.12434 -0.14445 0.29604
0.21221 0.14445 0.03101
0.14822 0.14445 0.31904
0.18842 -0.06573 0.42038
0.20334 0.12982 0.29446
-0.12314 0.14887 -0.18477
-0.19240 0.14445 0.18786
-0.09083 -0.08991 -0.17946
0.19679 -0.07271 -0.22002
-0.19110 0.14887 -0.24766
-0.21434 -0.08713 0.41684
-0.11507 -0.06759 -0.36847
-0.07272 -0.07210 -0.17960
0.17451 0.14445 0.27993
0.18665 -0.07662 -0.17547
0.11765 0.14887 -0.16136
-0.13839 0.14887 -0.30788
0.20128 0.14887 -0.38246
0.04066 0.14887 -0.40705
0.00662 0.00871 0.42038
-0.10789 -0.12219 0.42038
-0.03459 -0.07262 -0.23918
-0.04201 -0.06742 -0.40358
-0.13007 0.14887 0.36520
0.14354 0.14194 0.29446
0.15722 -0.00852 -0.42481
-0.12077 -0.07201 -0.36911
-0.21766 -0.08873 0.35762
0.07712 0.14445 -0.42475
-0.08787 0.14887 -0.39292
0.03227 -0.06742 -0.40389
-0.02610 0.14445 -0.10841
0.03141 -0.09155 0.40650
-0.13874 0.14445 0.00623
0.00426 -0.06773 0.42038
0.04899 0.14445 0.00808
0.19700 0.11194 -0.42481
0.11476 -0.06815 -0.24867
-0.14435 -0.11768 -0.42481
-0.04799 0.14445 -0.28087
0.09100 0.14445 0.33938
0.14400 0.03784 0.29446
0.05439 0.05245 -0.17960
-0.00247 0.14445 0.08842
0.08713 0.14445 0.16547
-0.21055 0.06617 0.42378
-0.19046 -0.07239 -0.28856
0.02969 0.14887 0.16313
0.00642 -0.08713 0.37693
-0.16017 -0.06826 -0.22517
0.04924 0.13787 -0.42481
-0.05577 0.09436 -0.17960
-0.08852 0.14445 -0.37865
-0.15129 0.14445 -0.14547
-0.16086 0.14887 -0.18121
0.16188 0.09854 -0.42119
-0.19236 0.14887 0.12935
-0.09171 -0.07218 -0.33370
0.01594 0.12767 -0.42068
0.16612 0.05903 -0.17960
-0.07245 -0.08628 -0.17792
0.21282 -0.01569 0.42038
-0.05381 0.14445 -0.00978
-0.05730 0.14445 0.04248
0.03287 0.13432 -0.17518
0.13311 -0.03689 0.42038
0.09266 -0.06786 -0.31067
-0.14592 0.14887 0.05255
0.01865 0.14887 -0.17195
-0.15210 -0.07214 -0.34066
0.06019 0.14887 0.14840
-0.15382 0.14887 0.12685
0.20051 -0.09155 0.37778
-0.08528 0.14887 0.39668
-0.02582 0.14887 0.15561
-0.09893 -0.06831 -0.21577
-0.19422 0.04542 -0.17960
-0.08046 0.09492 0.42038
0.16242 0.14887 -0.20011
-0.13934 0.04823 -0.17518
-0.15691 -0.08713 0.36813
-0.21498 0.00133 0.29446
-0.18849 0.14445 -0.14469
-0.09902 -0.03775 -0.17518
0.01470 0.14887 0.04419
-0.08185 -0.07211 -0.34723
-0.06120 0.14887 0.09277
0.10119 0.14887 0.17227
0.13241 0.06323 0.42038
0.05071 0.14445 -0.23046
0.02792 -0.09155 0.35361
-0.09961 -0.07581 -0.42481
-0.18972 0.02181 0.29446
-0.12927 0.14445 0.14191
-0.10769 0.03478 -0.42481
-0.17982 0.12190 -0.17518
-0.11527 0.14887 0.14286
0.13742 -0.08713 0.31660
0.07312 0.14445 0.30916
0.08859 0.14887 -0.09562
0.01427 0.14445 -0.27168
0.15250 -0.09155 0.30382
-0.03400 0.14445 0.36540
0.18573 -0.14498 0.42038
-0.16677 0.14887 0.00066
-0.00328 0.14887 -0.07291
-0.07407 -0.01344 0.29446
0.06235 0.03175 -0.42481
-0.20385 0.14887 -0.39446
0.16190 -0.06757 -0.37291
-0.14363 -0.08898 0.30068
-0.03226 0.13672 -0.42481
-0.09732 0.14445 -0.00073
0.09252 -0.09155 0.39611
-0.17933 -0.01729 -0.42322
-0.18266 0.14445 -0.35306
-0.14513 0.02214 -0.42481
0.04090 0.11478 -0.42090
-0.00428 0.14445 0.10947
-0.02372 0.14887 0.28670
0.13907 0.14445 0.14396
0.08063 0.01081 0.42038
-0.06100 0.14445 -0.42020
-0.00569 0.14445 0.07938
0.12382 -0.09155 0.30710
0.16523 0.14445 -0.16534
0.03305 -0.09155 0.33316
-0.14353 -0.07190 -0.39175
0.10574 -0.05701 -0.42392
0.00482 0.14445 0.41794
-0.20211 0.14887 0.17184
0.07075 0.14887 -0.08041
-0.08687 -0.10800 -0.42481
0.01429 0.14445 -0.29841
0.02930 -0.07211 -0.34769
0.07136 0.08590 -0.17960
0.04071 -0.03771 0.42038
-0.03677 0.13870 0.42038
-0.05390 0.06313 -0.42181
0.02342 0.11264 0.29446
0.12982 0.14887 -0.42469
-0.05187 -0.09897 -0.17938
-0.14161 -0.06795 -0.29096
0.00013 0.14445 0.12889
0.12592 0.02679 -0.42481
-0.03812 0.14887 -0.28399
0.09672 0.07403 -0.42162
-0.09059 0.07106 -0.17960
-0.08365 0.14445 -0.14964
-0.18027 0.14887 -0.25076
-0.04836 -0.06737 -0.41532
-0.00756 0.14887 0.15855
-0.04082 0.07666 0.29446
0.15751 0.14445 0.31925
-0.16291 0.14887 -0.28056
0.05565 0.14342 0.42038
0.03699 -0.08769 -0.17689
-0.06371 -0.08966 0.30068
0.17013 0.14445 0.31046
-0.18993 0.00349 -0.17960
0.00179 0.14887 0.30514
0.09017 -0.07437 0.29446
0.05448 -0.01660 -0.42321
-0.03045 -0.13852 -0.42481
-0.21055 -0.10463 0.42270
-0.05085 0.01410 -0.17518
0.08302 -0.09684 -0.17940
0.01172 -0.06744 -0.39891
0.16033 -0.04994 -0.42379
-0.05124 0.13647 0.42038
0.19099 -0.06747 -0.39366
-0.14976 0.14887 0.23231
-0.18441 -0.06773 -0.33732
-0.13071 0.14887 -0.31138
0.13506 0.11121 -0.42481
0.04009 0.02234 -0.17522
0.16633 0.14887 0.37649
-0.17336 0.14887 0.15736
-0.03658 0.01707 -0.17518
0.07977 0.14887 0.21477
-0.00398 0.14887 0.40469
0.10784 0.08836 0.29446
0.01550 0.01923 0.42038
0.04514 -0.09155 0.37115
-0.08689 0.14887 -0.15236
0.19015 0.14445 -0.05148
-0.06860 0.05069 -0.17518
-0.02125 0.14887 0.22941
-0.07691 -0.04236 -0.42366
-0.12525 0.05677 -0.17518
0.00421 -0.07247 -0.27195
-0.12958 0.14445 -0.12677
-0.00950 -0.06745 -0.39672
-0.18136 -0.10494 0.42038
-0.08385 0.14445 -0.01417
0.07747 -0.12379 0.29446
0.04738 0.06175 0.29446
0.01522 0.14887 -0.01552
0.01656 -0.02182 -0.42330
0.04329 -0.02907 -0.42343
0.18615 0.14445 -0.22141
0.06508 0.13371 -0.17518
-0.14770 0.01706 -0.17960
-0.00184 -0.07238 -0.28985
0.09207 -0.07273 -0.21684
0.16508 0.14887 0.27512
0.11245 0.14887 -0.31418
0.10061 0.05292 -0.42481
-0.01988 0.09010 -0.42481
-0.10581 -0.08713 0.34808
0.10868 -0.04685 -0.42374
0.15752 0.09472 -0.42481
0.04616 0.14445 -0.10199
0.18211 0.10174 0.29446
0.11975 0.14887 -0.41536
-0.06642 -0.07533 -0.17958
-0.12453 0.14887 0.38759
0.02146 0.00036 -0.42291
-0.02204 -0.06840 -0.19568
0.16198 0.01880 -0.42259
0.21426 0.06234 -0.42448
0.10794 0.14887 0.06162
0.05756 -0.08713 0.37761
-0.19448 0.14887 -0.15614
0.02654 -0.05803 -0.42481
0.13424 0.14887 -0.32363
-0.20416 0.14887 0.30411
0.14976 0.14887 0.28165
-0.18315 0.11160 -0.17518
-0.11161 0.14887 -0.08298
-0.09980 0.06007 -0.42481
0.13143 0.14445 0.38062
-0.13194 0.09579 -0.17960
-0.04715 0.11887 -0.42083
0.20473 0.08671 -0.17530
-0.04977 -0.06783 -0.31645
0.17083 -0.06833 -0.21004
0.08446 0.14887 0.23520
0.02641 0.14887 0.13158
-0.19149 0.14887 -0.22382
0.17364 0.14445 -0.16198
-0.00025 -0.08713 0.34592
-0.01860 -0.13796 -0.17742
0.01927 0.10841 -0.17960
-0.04534 -0.09876 0.29446
0.05275 -0.08713 0.36211
0.02098 -0.14526 0.42038
-0.19847 0.14887 -0.11985
0.12620 0.14445 0.20043
0.10293 0.14445 -0.25680
0.09055 -0.07244 -0.27652
0.07507 -0.08713 0.39132
-0.10209 -0.05952 0.29446
0.06947 -0.06743 -0.40209
0.11596 0.01292 0.42038
-0.05643 0.02942 0.42038
0.00366 0.14887 -0.00595
-0.03618 -0.06792 -0.29697
0.07474 -0.06782 -0.31800
0.14706 0.14887 -0.36322
-0.01770 0.14887 0.24284
-0.04921 -0.09155 0.32059
-0.15482 0.13479 -0.17518
0.03343 0.13565 0.29446
-0.03188 0.14887 -0.14964
0.04332 0.14445 -0.26645
-0.15401 -0.07951 0.42038
0.10500 -0.07241 -0.28388
0.10494 0.14445 0.27171
-0.14725 0.14445 -0.11305
-0.07053 -0.08713 0.38773
0.02609 -0.06843 -0.19010
-0.05994 -0.03489 -0.17518
-0.07710 0.14445 -0.23770
0.12068 -0.06744 -0.39887
0.03400 0.14445 0.40897
0.05371 -0.09188 -0.42481
0.16093 -0.06745 -0.39854
-0.04154 0.14887 -0.35273
0.09884 0.09414 0.42038
0.15214 0.14445 0.01010
0.05264 -0.07214 -0.34221
0.16064 0.14445 0.26913
0.16800 -0.06841 -0.19462
0.21079 0.14445 0.07285
0.00848 -0.04473 -0.42481
-0.17906 0.14445 0.23280
-0.17240 -0.09129 -0.42435
0.08936 0.14445 -0.30666
0.20792 -0.06809 -0.26060
0.06077 0.14887 0.42479
0.11829 -0.03522 -0.17960
0.00159 0.14887 -0.21131
-0.12675 0.09161 -0.42131
0.18551 0.14445 -0.33333
-0.17109 -0.02662 -0.17960
-0.06231 0.14445 0.34545
0.19509 -0.07229 -0.30844
-0.19408 0.14445 0.08504
-0.05766 0.01223 -0.42481
0.01584 -0.00823 0.29446
0.12402 -0.06718 0.42038
0.06982 0.14445 -0.05926
-0.09154 0.14445 0.21233
-0.01397 -0.06792 -0.29667
-0.11790 0.13134 -0.42481
0.14562 0.14445 0.01295
0.12067 -0.08713 0.35260
0.06620 0.14445 -0.08721
0.06344 -0.10082 -0.17936
0.05280 0.14445 -0.10724
-0.02414 0.14445 0.25920
0.11867 0.14445 0.36906
0.09872 0.06840 -0.17960
-0.17168 0.02394 -0.17960
-0.17594 0.05006 -0.42481
0.20005 0.08569 0.42038
0.13446 0.14887 -0.06254
0.07663 0.14887 -0.03800
0.06213 0.14445 0.24805
0.07053 0.14887 0.33203
-0.14556 -0.10077 0.29446
0.06280 0.04679 -0.17960
-0.02271 0.14887 -0.37475
-0.09273 0.14887 -0.05980
-0.01725 0.14887 -0.41048
-0.07605 0.10754 -0.42103
0.08851 0.14445 0.27230
-0.17827 -0.09155 0.39138
-0.05734 0.06652 -0.17960
0.08285 0.14887 -0.00546
-0.13173 0.14887 0.33687
-0.12646 0.14887 -0.05857
0.20114 0.10794 -0.17534
0.06172 -0.14351 -0.17899
-0.14501 -0.10240 0.42038
0.10862 0.14887 -0.18055
0.14316 -0.09155 0.33044
-0.18315 -0.07001 -0.17518
-0.17540 0.14887 -0.22626
0.11500 -0.14237 0.42038
0.14062 0.14887 0.27849
-0.03047 -0.03566 -0.42354
-0.02875 0.10708 -0.17960
-0.20365 0.14887 -0.24685
0.08964 -0.13615 -0.42474
0.09506 0.14445 -0.00846
0.14070 0.07304 -0.17960
-0.14532 0.14887 -0.21380
0.13764 -0.00090 0.29446
0.18449 0.04501 -0.17549
-0.05703 -0.07218 -0.33286
0.11038 0.14445 -0.27448
-0.19976 -0.05526 -0.17960
0.12076 0.14887 -0.07162
-0.12266 -0.09155 0.35635
-0.07652 0.14445 0.37861
-0.18989 0.14887 0.12298
0.11202 -0.07213 -0.34386
0.11548 0.14445 0.19163
0.00079 0.02285 -0.17960
-0.17566 -0.07176 -0.42222
-0.19657 0.14887 -0.10131
-0.14180 -0.09390 -0.42481
0.03499 -0.09177 -0.42481
0.19750 0.01869 0.29446
0.08845 0.14445 -0.26350
0.07270 -0.09783 -0.42481
-0.14367 -0.06770 -0.34346
0.06631 0.14445 -0.03760
-0.13282 -0.12188 -0.42481
0.19598 -0.12544 -0.42481
0.21255 0.07819 -0.42155
0.16198 0.00086 0.42038
0.18014 0.11007 -0.42099
-0.02582 0.14887 -0.29188
0.20917 0.12350 -0.42075
0.03184 0.14445 -0.00740
0.05332 0.14445 0.04720
-0.13829 -0.06934 -0.42413
-0.13580 0.14887 0.06075
0.10681 -0.09044 0.30068
0.00378 0.00491 -0.17960
-0.01250 -0.07364 0.29446
-0.07306 -0.11060 -0.42481
-0.11045 0.14887 -0.33788
0.18208 0.06987 0.29446
-0.14075 0.14445 0.02260
0.03062 0.04898 0.29446
0.08422 -0.11961 0.29446
-0.21709 -0.01243 0.29712
-0.15319 0.13806 0.42038
0.20791 0.14445 0.34819
0.16807 0.14887 -0.14007
0.04229 -0.10235 -0.42444
0.14419 -0.01853 0.42038
-0.13995 -0.09820 -0.17938
-0.06383 -0.07228 -0.31254
-0.00248 0.14887 0.18931
0.21426 -0.14180 0.42281
0.16157 0.14445 -0.35839
0.09157 -0.09155 0.33566
0.02237 0.12775 0.29446
-0.21028 0.14445 0.09463
-0.05771 -0.07255 -0.25398
0.04980 -0.06760 -0.36531
0.11242 -0.13037 -0.42469
-0.09202 0.14445 -0.07175
-0.05214 0.10108 0.42038
-0.06788 -0.09400 0.42038
-0.02420 0.14445 -0.28634
-0.02581 0.14445 0.13729
-0.08489 0.14445 0.15014
-0.01871 0.03016 -0.17518
-0.07897 0.14738 0.42481
0.06758 -0.08713 0.32827
0.12048 -0.10464 -0.42446
0.02414 0.14445 0.09814
-0.20541 -0.08713 0.35098
-0.07709 0.14445 -0.11073
0.15479 0.13185 -0.17960
0.18223 0.14887 -0.24939
-0.06743 0.14887 0.17517
0.21426 0.14788 -0.14294
-0.03499 -0.04821 -0.42481
0.14150 0.03232 0.29446
-0.13903 0.14445 0.39089
0.03661 0.14445 -0.23180
-0.01524 0.14887 -0.39407
0.20453 -0.10921 -0.42450
0.11125 0.14445 0.16429
0.12072 0.14887 -0.31175
0.17755 -0.04546 -0.17556
0.07260 0.02201 0.42038
0.16596 -0.08021 -0.42425
-0.01551 -0.01912 0.42038
0.13773 0.10342 0.29446
-0.20622 0.11710 -0.42086
-0.13493 0.01292 -0.42481
0.01548 0.14887 -0.06031
0.04890 -0.07238 -0.29116
0.14193 0.04484 0.42038
0.04076 -0.06757 -0.37302
0.20022 0.06533 -0.42177
-0.05554 0.14887 -0.01910
0.09559 0.12219 -0.42077
0.09232 0.14887 -0.08650
-0.07076 0.14887 -0.12091
0.14289 0.14445 0.35188
-0.15853 0.14887 0.20083
0.00671 -0.06767 -0.35119
-0.18981 -0.07192 -0.38775
0.14314 0.14445 -0.37673
-0.00654 0.14134 0.29446
0.08058 0.14445 -0.17302
-0.21055 0.14450 -0.00687
0.17339 0.14445 0.22886
0.13684 0.09580 -0.42481
0.16805 0.14887 0.19275
-0.06421 -0.04356 0.42038
0.14487 -0.05730 -0.17587
0.05568 -0.00543 0.29446
0.09777 0.13714 -0.42051
-0.03678 0.13927 -0.17960
0.14973 0.14887 -0.23377
-0.14184 -0.07242 -0.28144
-0.20888 0.14445 -0.10461
0.07773 0.05142 -0.17518
-0.07000 0.14887 -0.21018
-0.16825 0.14445 0.41832
-0.13805 0.14887 0.04885
0.15909 0.12341 -0.17518
0.02693 -0.06504 0.29446
-0.01030 -0.14445 0.29482
0.20097 0.14887 -0.03548
-0.05713 -0.11042 0.42038
0.02430 0.14445 -0.14049
-0.03525 0.14390 0.29446
0.14452 0.14445 -0.05520
0.11534 0.14887 -0.13107
-0.15537 -0.07201 -0.36960
0.11624 -0.08713 0.40028
0.09202 0.14445 0.23469
0.21426 -0.08993 0.42427
-0.20572 -0.13066 -0.17960
0.11061 0.08410 -0.42144
0.04226 0.14887 -0.06896
-0.16614 -0.06638 -0.42481
0.07396 0.07261 -0.42481
-0.05533 0.14445 -0.14422
0.02211 -0.06770 -0.34358
0.05251 0.14887 -0.19090
-0.16939 0.14887 0.41046
-0.12207 -0.07260 -0.24319
0.09577 -0.06743 -0.42410
0.20077 0.14887 -0.42468
0.19262 0.14445 0.18305
-0.19262 0.02165 -0.17960
0.01640 -0.06829 -0.21818
0.18621 0.09860 -0.42119
-0.03315 -0.07199 -0.37320
-0.15844 0.13092 -0.42481
0.21320 0.04761 -0.17522
-0.08540 0.09845 -0.42119
-0.02605 0.14887 -0.41069
0.01973 0.06346 -0.17960
-0.05737 0.14887 -0.20921
0.06426 -0.00185 0.29446
0.12217 -0.10733 0.42038
-0.02429 0.14887 0.29574
-0.18031 0.14887 0.14800
-0.05630 0.14445 0.35831
0.02701 -0.13764 0.29446
-0.06428 -0.07203 -0.36490
-0.04956 0.14887 0.22938
0.08974 0.14887 0.09332
-0.00521 -0.09155 0.38086
0.14142 0.14887 -0.07723
-0.12990 -0.10662 -0.17931
0.05394 -0.07222 -0.32403
0.07430 -0.13732 0.42038
-0.10971 0.14445 -0.37149
-0.13571 0.08994 -0.17960
-0.01917 0.00467 0.42038
0.05735 -0.05639 -0.17670
0.13408 -0.03556 -0.17597
0.03098 0.02670 0.29446
-0.15316 0.14887 0.26545
-0.04195 -0.07269 -0.22455
0.04268 0.14887 0.37029
-0.06778 0.14887 0.16158
-0.13894 -0.07263 -0.23772
-0.16890 0.08396 0.42038
0.09200 0.14445 -0.40198
-0.11458 0.14445 0.36979
0.21081 0.14887 0.41879
-0.19863 0.09000 -0.17960
-0.20944 0.14887 -0.20098
0.07036 0.01119 -0.42272
-0.14243 -0.02189 0.29446
-0.14411 -0.06823 -0.23133
-0.14252 0.12986 -0.17518
-0.12849 -0.08059 0.42038
0.06894 0.04696 -0.17960
-0.11974 0.14445 0.17783
0.17372 -0.07199 -0.37300
0.10138 -0.08713 0.33277
-0.02427 0.14887 0.39311
-0.13045 0.11723 -0.42481
-0.04865 0.14887 0.16263
-0.08770 0.02840 -0.17518
-0.14820 0.14445 -0.27900
-0.13090 -0.07438 -0.42481
-0.15216 -0.04663 0.42038
-0.01972 -0.10460 -0.42481
0.21076 0.01970 -0.42481
0.08804 0.10651 0.42038
0.05744 0.14887 0.26060
-0.03573 0.14887 -0.07970
-0.03013 0.14445 0.38076
-0.04890 0.12052 0.42038
0.20002 0.14445 -0.14931
-0.08326 -0.06743 -0.40092
-0.12402 0.14887 -0.15560
0.07928 -0.07277 -0.20711
-0.18227 0.14445 0.41041
0.21031 -0.08799 0.31576
-0.11976 -0.13658 -0.17837
0.13265 0.14887 0.12551
0.18008 -0.06264 0.29446
-0.05537 0.14445 -0.29811
-0.09149 -0.02734 -0.17960
0.06693 -0.08713 0.31540
0.16250 0.14445 0.11965
-0.18969 0.14445 -0.13536
-0.04788 0.14887 0.13324
-0.01827 -0.09155 0.40976
-0.02909 0.14445 0.08518
-0.16617 0.14887 -0.22135
0.03030 -0.08713 0.33881
-0.19289 0.14887 0.38303
0.04729 -0.08713 0.41067
-0.02401 0.14445 -0.00136
0.13879 0.14887 0.23002
0.13243 -0.12541 -0.42464
0.09090 0.14445 -0.00417
-0.06325 0.04475 0.29446
0.21352 0.12401 -0.17522
0.01875 0.14445 0.40824
0.05636 -0.13409 0.29446
-0.01128 0.05408 -0.17518
0.18733 0.14445 -0.10677
0.03346 0.14445 0.04356
-0.14484 0.14445 -0.01759
0.04575 -0.07829 -0.17956
0.03960 0.14445 0.30608
0.11738 0.14445 0.33159
0.01428 -0.09112 -0.17711
0.21389 0.14887 -0.09212
0.17235 0.14445 -0.06170
0.13817 0.00044 -0.42291
-0.04110 0.00701 -0.17518
0.01921 -0.07230 -0.30741
-0.14374 0.14887 0.13401
-0.15020 -0.08713 0.31653
-0.16406 0.14445 -0.38166
0.16179 0.02543 -0.42481
-0.16168 -0.06772 -0.34045
-0.18612 0.14445 -0.03887
0.01089 -0.14259 0.42038
0.05631 -0.01712 0.29446
0.03095 -0.01629 0.29446
-0.20131 0.13147 -0.17960
-0.01809 0.02448 0.42038
0.18232 0.14887 -0.36139
0.15390 0.14887 0.03325
-0.10278 0.14887 -0.23401
-0.02147 0.14445 -0.35224
-0.10785 -0.08713 0.31659
-0.12542 0.14887 -0.39274
0.05832 0.14445 0.23933
0.10274 -0.07210 -0.35043
-0.02231 -0.07567 -0.42481
-0.18921 0.14887 -0.36160
0.10005 -0.07248 -0.26859
-0.17188 -0.06753 -0.38064
-0.19813 -0.08713 0.38700
0.21163 0.14887 -0.22368
-0.14204 -0.03111 -0.42346
0.04129 -0.07243 -0.28021
-0.06154 0.14887 0.20265
0.19992 -0.07279 -0.20370
0.07154 0.14887 -0.29370
-0.16598 0.14445 0.02316
-0.03645 0.14887 -0.13732
-0.02894 0.14445 -0.34094
-0.09392 0.05261 -0.17960
0.15079 0.14887 0.30723
-0.09103 -0.06835 -0.20597
-0.09383 -0.09155 0.40790
0.07140 0.14445 0.03888
0.17863 -0.13096 0.42038
-0.16469 0.06573 0.42038
-0.16322 0.12473 -0.42073
-0.16639 -0.06710 0.29446
-0.14128 -0.04387 -0.42369
-0.01768 -0.07222 -0.32380
-0.18823 0.14887 -0.04684
0.13049 0.14887 -0.17930
-0.12956 0.06886 0.29446
0.10078 0.14445 -0.28741
-0.06410 0.14445 0.31121
0.08290 -0.08713 0.35887
-0.19061 0.07692 -0.42481
-0.18285 0.12780 -0.42068
-0.04810 -0.12764 -0.42466
-0.04441 0.14887 0.10006
0.09705 0.14445 0.01596
0.03705 0.14445 -0.30717
-0.10482 0.14887 0.34690
0.05805 0.14887 0.17378
0.18600 -0.00859 -0.42481
-0.15612 0.04904 -0.42206
-0.02274 0.08374 0.29446
-0.09260 0.02739 -0.42481
-0.02107 0.14445 0.34041
-0.11621 0.00340 0.42038
0.17772 0.14887 -0.15340
0.05339 0.09634 0.42038
-0.15370 -0.08713 0.35459
-0.02713 0.05706 -0.17960
0.20661 -0.13220 -0.17909
-0.18493 0.00792 0.29446
-0.04445 -0.07251 -0.26178
0.11300 0.04167 -0.42219
-0.07590 -0.06146 -0.17960
0.15330 0.14445 -0.09053
0.09680 0.14887 -0.41430
0.14535 0.14445 0.23324
-0.15395 0.14887 0.10077
0.17968 0.14887 0.40329
-0.04686 -0.12560 -0.17768
-0.05015 -0.09155 0.34893
-0.03945 0.14887 -0.27484
0.19370 -0.13203 0.42038
0.01105 0.14445 0.15181
0.01513 -0.06806 -0.26842
-0.12357 -0.09155 0.37295
-0.14624 -0.09155 0.31494
0.13973 0.14887 -0.26297
0.07682 0.09816 0.42038
0.15824 0.00564 -0.42282
0.02981 -0.13653 -0.17696
0.09441 0.06150 -0.42481
0.03915 0.14445 0.08760
0.09631 0.14887 -0.12498
-0.16618 -0.07272 -0.21708
-0.11944 -0.04984 -0.17518
-0.03928 -0.08713 0.41444
0.07612 -0.08713 0.36547
-0.17726 -0.04937 -0.17518
-0.09672 0.14887 -0.30728
0.04435 -0.06734 -0.42048
-0.01329 0.14887 0.25568
-0.06446 0.14887 -0.26901
-0.19459 0.08156 0.42038
0.17005 0.12697 -0.17960
0.13234 0.11021 0.42038
0.09488 0.14887 0.22236
0.04406 0.04928 0.42038
-0.05360 -0.00671 -0.42481
-0.05018 0.14887 -0.11210
-0.19473 -0.06922 -0.26526
0.10429 0.14209 -0.17518
-0.08568 0.06918 -0.42170
-0.00847 0.14445 -0.35149
-0.12717 0.08451 -0.17960
-0.10293 0.00241 0.29446
0.18060 -0.05777 -0.17553
0.15650 0.14887 -0.37956
-0.20531 -0.09155 0.39188
0.06209 -0.07204 -0.36304
-0.13492 0.14445 0.30253
-0.17933 0.14445 -0.13840
0.07064 0.14887 -0.23206
0.05961 -0.06841 -0.19308
0.08379 0.06768 -0.17960
0.03743 -0.02703 -0.42481
-0.06964 -0.06811 -0.25814
-0.13507 0.14887 0.15130
0.14200 0.14445 -0.23653
-0.19691 0.11263 0.29446
0.07332 -0.07200 -0.37007
-0.17885 0.14334 -0.42040
0.14680 0.14445 -0.25409
-0.10229 0.14445 -0.25841
-0.16696 -0.07286 -0.18906
0.04722 -0.07703 -0.42422
-0.00121 0.14887 -0.03970
-0.09271 0.06369 -0.42180
0.00680 0.13778 0.42038
-0.13393 0.12890 -0.17518
-0.12523 -0.09155 0.41628
-0.13824 0.14887 0.01819
-0.20228 0.14445 0.27126
-0.14489 -0.12348 -0.42481
0.18580 0.01477 -0.42481
0.08796 -0.06782 -0.31965
0.17417 -0.10705 -0.17931
-0.07012 0.14445 -0.02531
-0.12194 -0.09155 0.36410
-0.01171 -0.04735 -0.17735
0.20258 -0.09753 -0.17939
0.01209 -0.13940 -0.17713
-0.05514 -0.08713 0.39993
-0.16789 0.14887 0.24331
-0.16906 -0.07191 -0.39020
-0.19301 0.14887 -0.37703
0.06220 0.12509 -0.17960
0.17049 0.14445 0.41868
0.07034 0.14887 0.09105
0.00148 0.14445 0.21270
0.08327 -0.05344 -0.42481
0.07923 0.14445 0.01162
0.17355 -0.09155 0.33613
0.00392 0.14445 0.38901
-0.11047 0.14445 0.25549
-0.10685 0.14887 -0.14766
0.01041 -0.06834 -0.20956
-0.15213 -0.08747 0.42142
0.08363 0.10285 0.42038
0.04150 0.04622 0.29446
-0.09519 0.14445 -0.04189
0.17586 0.14445 0.33088
0.09196 0.02721 0.29446
0.19663 0.14887 0.13316
0.15166 0.07295 -0.17960
0.21368 0.14887 -0.37871
0.19163 0.11673 -0.17543
0.14493 0.05961 -0.42187
0.12270 0.07466 0.42038
0.07481 0.14445 -0.27781
0.11286 0.14887 -0.32007
0.17842 -0.10689 -0.42448
-0.07398 0.08099 -0.42150
0.02430 -0.02379 0.29446
0.11341 -0.06181 -0.42400
0.06000 0.14445 -0.37331
-0.15044 0.03630 -0.17518
-0.11413 -0.06775 -0.33416
0.16790 0.14887 0.05074
-0.01734 0.14445 -0.02629
-0.10764 0.14445 -0.29491
-0.00488 -0.07273 -0.21685
-0.00352 0.03602 -0.17518
0.10458 -0.07205 -0.36038
-0.11498 0.14887 -0.04566
-0.16877 0.02792 -0.42243
0.08571 0.10256 -0.42481
-0.02708 -0.01161 -0.17960
-0.02062 -0.05658 -0.42481
-0.15197 0.06875 -0.17518
-0.19566 0.14887 0.24857
-0.04674 0.14445 0.05115
-0.16482 0.04838 0.42038
-0.20260 0.10520 -0.17518
-0.19093 0.12965 -0.42064
0.00915 -0.12899 -0.17912
0.20722 0.14445 -0.34729
0.12626 0.14445 -0.19332
-0.07640 -0.05657 -0.17518
-0.11275 0.14445 0.19171
0.07582 0.14445 0.35143
-0.09344 0.14887 0.03830
-0.14140 0.14445 0.27982
0.08318 -0.07283 -0.19550
0.04439 0.14887 -0.36740
-0.00561 0.14445 0.24495
-0.02970 0.14887 -0.03238
0.03226 -0.03910 -0.17960
0.03910 -0.05038 0.42038
-0.11035 0.14887 -0.01604
0.06721 0.04539 0.29446
0.01105 -0.01256 -0.17713
0.10778 0.14887 -0.26877
-0.00495 0.14445 -0.29965
0.05151 -0.06751 -0.38527
0.19606 0.14445 -0.05015
-0.07562 0.00850 -0.42277
-0.12239 0.14887 0.34643
-0.06274 0.13330 -0.17518
-0.09657 -0.04145 -0.42364
0.13549 0.14887 0.29555
-0.10333 0.14445 -0.08491
0.11621 -0.00673 -0.42303
0.10893 0.14445 -0.39459
-0.00145 -0.10308 -0.17934
0.20375 -0.07368 -0.17960
-0.10481 -0.08713 0.32765
0.00748 -0.06790 -0.30263
-0.18737 0.14887 -0.15104
-0.02633 -0.07185 -0.40331
0.04051 -0.03579 0.29446
-0.05428 0.13880 0.29446
0.21161 -0.07630 -0.17958
-0.15919 0.14253 -0.42481
-0.07319 0.14445 0.13458
0.17684 0.14445 -0.02397
0.04227 -0.08713 0.31862
-0.06505 0.14445 -0.23772
0.09823 0.09349 -0.42128
-0.11643 0.14445 0.08830
0.06962 -0.05499 -0.42481
0.00325 -0.07413 -0.42481
-0.07770 0.14887 -0.03110
-0.09138 0.14476 0.42481
-0.17609 0.14445 0.35393
-0.15947 0.14887 -0.22033
-0.05173 -0.12822 0.42038
-0.06324 0.14445 -0.16019
-0.07843 0.14887 0.19702
0.00694 0.14445 0.37689
-0.01643 -0.07191 -0.38986
0.17090 0.05246 -0.42200
0.07097 -0.07227 -0.31413
-0.10348 0.03734 -0.17960
0.18394 0.14887 -0.18891
-0.10476 -0.06144 0.42038
0.05275 0.12973 -0.42481
-0.15444 0.14445 -0.27604
-0.20961 -0.07936 0.42038
-0.12294 -0.09096 0.29446
-0.06693 0.14887 -0.38644
0.15557 0.14445 -0.22248
-0.20578 0.14445 0.17370
-0.02212 -0.10627 -0.17932
-0.02435 0.14445 0.37489
-0.19127 -0.10996 -0.42451
-0.10619 -0.10059 -0.17824
0.06657 0.12802 -0.17518
0.08104 0.04086 -0.17960
-0.14335 -0.00690 -0.42481
-0.20564 -0.09931 0.29446
-0.12326 0.03280 -0.17960
-0.03569 0.14445 0.16097
0.11925 0.14602 -0.42481
-0.08792 0.00653 -0.42481
0.17713 0.14887 -0.22826
-0.06516 0.09889 -0.17518
-0.11413 0.09753 0.29446
-0.17787 -0.02797 -0.42481
0.11804 0.14887 -0.15055
0.04244 0.09135 -0.42131
-0.05785 -0.11633 -0.17779
0.03094 0.14445 0.33603
0.18943 0.02544 -0.42481
-0.18490 0.14887 -0.31258
-0.02573 -0.07197 -0.37717
0.00110 0.14445 -0.33658
0.12676 0.09476 0.29446
0.02826 -0.06803 -0.27392
0.18496 0.01471 0.42038
0.08609 -0.04120 -0.42481
-0.17230 -0.07219 -0.33097
0.08075 -0.06786 -0.31008
-0.14846 -0.08931 0.29446
0.16759 -0.00828 0.42038
-0.04416 0.14445 0.41152
0.03517 0.14887 0.06344
-0.16412 0.11995 0.29446
0.00713 0.01791 0.29446
-0.20620 -0.03556 -0.17960
0.17760 -0.03997 -0.42481
0.16510 0.02598 0.42038
-0.15775 0.04737 -0.17518
0.10107 0.14445 -0.31218
0.10098 0.14887 0.01781
0.10871 0.07717 0.29446
0.20319 0.14887 -0.28284
0.20380 0.02448 -0.17960
0.08731 0.14887 0.20616
-0.13316 0.04319 -0.42481
-0.11556 -0.12562 -0.17915
-0.01659 0.12643 0.29446
0.18457 0.14445 0.04448
0.21426 -0.07206 -0.21748
0.18565 0.14445 0.41718
-0.08224 -0.06429 -0.17602
-0.18375 -0.12079 0.29446
-0.08500 0.11393 -0.42092
0.01629 0.14887 0.05258
-0.20012 -0.06824 -0.30546
0.19347 0.09029 0.42038
0.01468 0.14887 -0.28834
0.20704 -0.00973 0.42038
-0.16462 -0.08713 0.33275
0.10810 0.02224 0.29446
-0.15487 -0.06829 -0.22014
0.20961 -0.09155 0.41009
0.14104 -0.09450 -0.42438
-0.14344 0.14445 -0.34362
-0.09327 -0.07208 -0.35291
0.19451 0.14445 -0.40926
-0.04677 -0.06824 -0.22974
0.16273 0.14887 -0.38715
-0.08788 0.14887 -0.09332
0.07824 0.01920 -0.42258
0.08814 0.14887 -0.03185
-0.05967 -0.09126 0.29446
0.20993 0.14445 0.11884
-0.00849 -0.08863 -0.17732
-0.06901 -0.05379 -0.42386
-0.02900 -0.08513 0.29446
-0.10006 0.14445 0.09927
0.19001 0.14887 0.13161
0.07171 -0.07219 -0.33041
0.20798 -0.05640 -0.17960
0.16373 0.03283 -0.42481
0.03377 0.14445 -0.04042
0.15768 -0.02208 0.29446
-0.14304 -0.07096 -0.17960
-0.09674 0.10044 -0.17960
0.05736 0.14887 -0.40112
-0.07194 -0.02196 -0.42330
0.20743 0.04864 -0.17960
0.16299 0.03893 -0.17570
-0.02693 0.14887 -0.17058
-0.02105 -0.06771 -0.34144
0.02556 0.14445 -0.28830
-0.09237 -0.07212 -0.34577
0.07364 -0.09155 0.32012
-0.16555 -0.00634 -0.42303
0.12419 0.14258 -0.17960
0.05319 -0.07232 -0.30336
-0.18718 0.14887 -0.13874
0.09318 0.14445 -0.05083
0.07445 -0.13867 0.29446
0.11631 0.14887 0.01003
0.10670 -0.01161 -0.42481
-0.18876 -0.06030 -0.42481
-0.15413 -0.04243 0.29446
-0.03921 0.14887 -0.16765
-0.10272 -0.14132 -0.17821
0.11437 0.14887 0.14295
0.20502 -0.07209 0.42038
-0.10432 -0.13333 -0.17823
-0.14686 0.14887 -0.05427
-0.16537 -0.04246 -0.42481
-0.20781 0.14445 0.39026
0.17924 0.14445 0.08010
-0.02152 0.14445 0.00773
0.19477 -0.09155 0.40937
0.17914 0.14445 0.09055
-0.09697 0.14445 -0.02934
0.02179 0.14887 -0.30262
-0.14738 -0.04965 0.29446
-0.13405 -0.01839 0.42038
0.01360 -0.03289 -0.42349
-0.03366 0.14445 -0.37130
0.12292 0.03245 -0.42481
-0.01038 -0.08713 0.31442
-0.03960 0.14887 -0.04210
-0.03655 -0.06795 -0.29147
0.09345 0.14887 0.34743
-0.11653 -0.00461 0.42038
0.15801 -0.06781 -0.32006
0.07701 0.14445 0.03890
0.01841 0.14887 -0.26217
0.05687 0.09270 -0.42481
-0.08966 -0.09549 0.29446
0.12157 0.14887 -0.08902
-0.05664 -0.04449 -0.17547
-0.10373 -0.07190 -0.39127
-0.17499 0.07568 0.29446
-0.11086 -0.07261 -0.24105
0.01838 0.10734 0.42038
-0.17124 -0.07533 -0.17958
-0.11512 0.02527 -0.42247
0.12363 0.14887 -0.29102
0.18854 -0.07209 -0.35202
-0.11003 0.14887 0.18030
-0.16889 0.14887 -0.09192
0.19177 -0.07178 -0.41775
0.16662 -0.13796 -0.17904
0.00242 -0.09155 0.39966
0.21426 0.14501 -0.32628
-0.17167 -0.04049 0.42038
0.07968 -0.07220 -0.32805
-0.20823 0.14445 0.06390
-0.19267 -0.02657 0.29446
-0.20501 0.14445 0.21421
-0.10785 0.12243 -0.17518
-0.12863 0.14445 0.04910
0.12182 -0.13574 -0.17609
-0.01117 0.14445 -0.14092
0.11798 -0.07195 -0.38240
-0.09520 0.06993 -0.42481
0.10025 0.11443 -0.42091
0.11952 0.14445 0.30573
-0.01921 -0.06776 -0.33256
-0.00892 -0.07183 -0.40729
-0.16789 0.12074 -0.17518
-0.05838 -0.08721 0.42038
0.02438 0.14887 -0.02488
-0.12986 -0.08713 0.33291
-0.11585 -0.01160 -0.17960
0.04313 0.14321 0.29446
0.11674 -0.07263 -0.23817
0.19723 0.14445 0.02555
0.19934 -0.07244 -0.27710
-0.05167 -0.10556 -0.42447
-0.05496 0.14887 0.33683
0.11719 -0.06781 -0.32165
0.00280 -0.09155 0.31254
-0.08445 0.14170 -0.42043
-0.00324 0.14445 -0.39548
0.13212 0.04869 -0.17599
0.02102 0.14445 0.03988
-0.02912 0.14445 0.21100
0.15043 -0.00890 0.42038
0.09569 0.14887 0.13651
-0.01891 -0.03901 -0.17960
-0.07733 0.14887 -0.28659
0.12076 -0.03769 -0.42358
-0.05968 0.14445 0.21672
-0.20369 0.14887 0.42365
0.04610 -0.13941 -0.17903
0.01868 -0.06910 0.42038
0.01245 -0.08713 0.37116
0.16817 0.14887 0.17835
-0.04236 0.08795 -0.42137
-0.17658 0.14445 -0.03431
0.00017 -0.14226 0.29446
0.01979 0.14445 -0.20988
0.16160 -0.09155 0.40308
-0.20715 0.08245 -0.17654
0.00726 -0.06840 -0.19567
-0.10693 -0.01714 -0.17518
0.14116 0.14887 0.16428
-0.20991 -0.02696 0.29446
-0.07871 0.14445 -0.22487
0.03336 -0.07280 -0.20179
-0.05028 0.14887 0.36227
0.05568 0.14445 0.21472
-0.13852 0.14445 0.34532
0.01145 -0.05380 0.29446
-0.20466 0.14445 0.03339
-0.08310 -0.13683 0.29446
-0.12500 -0.07129 -0.17960
-0.02716 0.05448 -0.42196
0.04801 -0.09155 0.41614
-0.10576 -0.08713 0.36660
-0.19465 0.14445 -0.36914
0.13297 0.14887 -0.03500
0.10111 0.04084 0.42038
-0.10144 0.04888 0.42038
-0.02795 -0.01428 0.42038
0.10730 0.14445 -0.37111
0.09378 0.00383 -0.42285
-0.15618 -0.02202 0.42038
-0.18412 0.08600 -0.17518
0.06183 0.14445 -0.10060
0.09880 -0.07203 -0.36416
0.15660 0.14445 -0.24424
-0.08025 0.14445 -0.21250
-0.02831 -0.08713 0.40589
0.10659 -0.02169 0.29446
0.10655 0.00258 0.42038
0.04897 -0.10321 -0.42481
0.12808 -0.07187 -0.39777
0.02530 -0.06783 -0.31780
-0.16082 0.14887 0.05784
0.09965 0.14887 0.36471
-0.00464 -0.14129 -0.17901
-0.15047 0.14887 0.29163
-0.02112 0.14445 -0.23177
-0.08042 -0.03289 -0.17518
0.04761 0.14887 0.07009
0.09764 0.02385 -0.42481
0.05337 -0.06745 -0.39728
-0.03642 -0.00155 -0.42294
-0.03875 0.14445 -0.18424
-0.07412 -0.06759 -0.36683
0.15814 -0.05517 0.29446
-0.01255 0.14887 -0.03697
-0.20802 -0.09155 0.41808
-0.11536 -0.11067 -0.17833
0.18554 0.14887 0.28386
0.03757 -0.03591 -0.17960
0.16143 -0.07211 -0.34806
0.05514 0.14887 -0.02637
0.18790 -0.07176 0.42038
0.07877 0.14887 -0.41652
0.11808 0.00330 -0.42286
-0.08197 -0.07248 -0.26945
0.10190 0.14887 0.22418
0.06208 0.14445 -0.42385
0.18632 0.14445 0.03513
0.21766 0.09264 -0.17617
-0.20547 0.14074 -0.42481
0.06237 -0.06740 -0.40840
-0.20040 -0.06742 -0.40391
-0.20077 -0.08885 -0.42481
0.19210 0.14445 -0.32774
0.12584 0.04099 0.42038
0.07184 0.14887 0.30602
0.04116 -0.14081 0.42038
0.04811 0.14887 0.17399
-0.20417 -0.08713 0.36926
-0.07222 0.14887 -0.00163
0.12290 -0.09273 -0.42436
-0.04106 -0.13331 -0.17763
-0.15494 0.14887 -0.05160
-0.01711 0.14445 0.14427
0.05474 0.14445 -0.00113
0.11709 0.12687 0.42038
-0.16243 -0.09670 -0.17518
0.03097 -0.12195 -0.17695
0.08516 -0.02294 -0.42481
0.09204 -0.07179 -0.41604
0.08538 0.14445 -0.12274
0.07011 0.14445 -0.21293
-0.00422 -0.07200 -0.37033
0.06544 -0.13032 0.42038
0.16776 -0.09561 -0.17565
-0.01448 0.07020 -0.42481
-0.17136 0.14887 0.02990
0.06219 0.14445 -0.22915
0.19478 -0.08713 0.33577
0.14619 -0.09155 0.36216
0.21115 0.03340 -0.42481
0.07067 0.04023 -0.17960
-0.01500 0.14887 -0.26520
0.14264 -0.01343 0.29446
-0.15125 0.09912 0.42038
-0.02325 0.14445 0.25147
-0.01647 -0.12200 -0.17740
0.17546 0.14887 -0.32548
0.12043 0.14887 -0.26546
-0.04169 -0.08713 0.39548
-0.08632 -0.06767 -0.35112
0.07689 0.14887 -0.32721
-0.19820 -0.08713 0.31136
-0.20909 0.14887 0.41526
0.17432 -0.08722 -0.42431
-0.08583 0.14445 0.32684
0.01813 0.04615 -0.42211
-0.17763 0.02328 -0.17960
0.04969 0.14445 -0.11199
0.01130 0.14887 -0.32195
-0.07290 0.11765 0.29446
-0.01239 -0.03077 -0.42346
0.06681 -0.07563 -0.42421
-0.05140 0.14445 -0.23499
0.02817 -0.07580 0.42038
0.08129 -0.07251 -0.26231
0.09408 0.08486 -0.42143
-0.16774 0.14445 -0.08255
-0.02803 0.14887 -0.37057
-0.07208 0.14887 -0.24192
-0.12130 0.14887 0.05809
0.11978 -0.11143 0.29446
-0.16552 0.03931 -0.17960
-0.18713 0.14887 0.22788
-0.06807 0.06449 0.29446
-0.12632 0.14887 0.15547
0.09253 -0.10781 -0.42449
-0.19844 0.14445 0.35363
0.00296 -0.14710 0.42038
-0.04483 0.02906 -0.42481
0.00603 0.02560 -0.17960
-0.01251 0.02480 -0.17518
0.15244 -0.03725 0.29446
-0.06472 0.14445 -0.28717
0.13197 0.14887 -0.23575
0.06175 0.06728 -0.42174
0.02902 0.14887 0.41668
0.09536 0.11559 -0.17518
0.11292 0.14209 0.29446
-0.11559 -0.13191 -0.42481
0.14494 0.01617 -0.42481
-0.16068 0.14887 0.18677
-0.03317 -0.06753 -0.38028
-0.03964 -0.11896 0.29446
0.06923 0.14887 -0.10081
0.07475 0.14445 -0.17009
-0.11486 0.06666 -0.42175
-0.01383 0.14887 0.23681
-0.13859 -0.06738 -0.41142
-0.04369 -0.00635 0.42038
-0.05422 -0.12961 -0.17911
0.02264 0.09700 -0.17518
0.18865 -0.06795 -0.29039
0.01167 0.14887 0.24722
0.09544 0.03456 -0.17634
0.04706 0.06177 -0.17960
-0.11390 0.14445 0.20276
-0.11779 -0.04452 0.42038
-0.06205 -0.07271 -0.21957
-0.20724 -0.06904 -0.35855
0.15127 -0.06735 -0.41797
-0.18543 0.14445 -0.07897
0.09450 -0.07255 -0.25409
0.20772 -0.13338 0.29689
-0.10650 0.14887 -0.20349
-0.05717 0.01688 0.42038
0.10266 -0.06840 -0.19529
0.09197 0.13900 -0.17960
0.11930 -0.04744 -0.17960
0.21094 -0.11312 -0.42481
0.15384 0.14887 -0.04674
-0.16094 0.14445 0.17897
0.02664 0.14887 0.26194
0.21058 0.14887 0.37911
0.01579 -0.08713 0.34682
0.15161 -0.07221 -0.32658
0.00524 0.08086 0.29446
0.05724 -0.04228 -0.42366
0.07015 0.14887 -0.25422
-0.01609 0.14887 0.04917
0.11325 0.13229 -0.42060
-0.12089 0.14445 0.16650
0.16601 0.14445 -0.26397
-0.19961 -0.08713 0.42066
0.09520 0.10279 -0.17960
0.15932 0.14887 -0.15500
0.09969 -0.05631 -0.17630
-0.08144 0.14445 0.09378
0.11677 0.14445 -0.15574
-0.10542 0.14887 -0.11780
0.02049 0.14887 0.29673
-0.19775 -0.04221 -0.17960
-0.17050 -0.10791 -0.42449
0.06868 0.14887 -0.06269
0.03364 0.14445 0.03700
-0.12842 -0.04767 -0.17518
-0.19815 -0.09109 -0.17518
0.04307 -0.12880 -0.17912
0.10413 -0.06822 -0.23469
-0.03257 -0.12902 -0.17755
-0.17692 0.01365 -0.42268
0.12369 0.14445 -0.04829
0.13082 0.03242 -0.17600
-0.18264 0.14445 0.18552
-0.00048 0.13288 -0.42059
-0.18451 -0.06739 -0.40959
0.09303 0.14887 0.07181
0.05140 -0.00196 -0.42481
-0.06066 0.09267 0.42038
-0.02400 0.06535 -0.17960
0.13877 0.14445 0.09577
-0.09381 -0.09717 0.42038
-0.02898 -0.09155 0.30934
0.03549 -0.08188 0.29446
0.16912 0.10703 -0.42481
-0.12647 0.14887 -0.37726
0.06023 0.02241 0.29446
0.06260 0.14445 -0.38246
0.18278 -0.09155 0.33418
0.12004 0.14887 0.21603
0.17712 0.14887 0.22259
0.03577 0.12871 -0.17518
-0.20992 0.14445 0.18116
0.14153 0.01388 0.29446
-0.17885 -0.09088 0.29446
-0.11635 0.14445 -0.05908
0.20466 -0.06800 0.29446
-0.07047 0.14445 -0.14850
-0.00260 0.14887 -0.34976
-0.05388 0.14445 0.23930
-0.08846 0.00663 0.42038
-0.01389 -0.08713 0.40801
0.16115 0.12609 -0.42071
0.14836 -0.06909 0.29446
0.19511 0.07547 -0.17960
-0.10137 0.04665 -0.17960
-0.04417 0.14887 0.10950
-0.06644 0.13607 -0.42053
0.12638 -0.07223 -0.32218
-0.03782 0.06949 0.29446
0.05517 0.14887 -0.06942
-0.17273 0.14445 0.28269
0.14964 0.14887 -0.08723
-0.10012 -0.03471 0.42038
-0.13424 0.01724 -0.17960
0.12638 -0.04659 -0.17960
0.20864 -0.08222 -0.17952
-0.03936 -0.09155 0.38955
0.16283 0.14445 -0.34440
0.08067 -0.13778 0.29446
0.06511 0.14445 0.16630
0.05374 0.14445 -0.05768
0.16570 -0.11020 -0.17928
-0.19887 -0.05502 0.42038
-0.09665 0.14887 -0.16949
-0.20947 0.14445 -0.16263
0.10363 0.14887 0.03099
0.11627 -0.07249 -0.26772
0.00764 0.13706 -0.17960
0.19493 -0.06816 -0.24757
0.18797 -0.06780 -0.32337
0.04683 0.14445 -0.27211
0.20234 -0.08636 0.29446
-0.02236 -0.09155 0.41394
-0.16831 0.07489 -0.17960
-0.08209 -0.14024 -0.17902
0.00674 0.14445 -0.37382
0.20605 0.14887 0.11386
0.01083 -0.12054 -0.17714
0.21426 0.14719 0.13397
0.20255 0.14887 0.26482
0.17594 0.14887 -0.42241
-0.16531 0.14445 0.02991
-0.11862 0.14887 -0.34760
-0.13864 0.04887 -0.42481
0.07191 -0.06765 -0.35414
-0.07233 0.14445 -0.12591
-0.12795 0.14887 0.35050
-0.08964 0.14445 0.41790
0.04153 0.14887 -0.18201
-0.02379 -0.07273 -0.21698
-0.02216 -0.06846 -0.18347
0.00919 0.00232 0.29446
0.20213 0.14445 -0.33504
0.02065 -0.05546 0.42038
-0.06377 -0.12627 -0.42481
0.12923 0.14445 0.00687
-0.16502 0.09343 -0.17518
-0.04143 0.14887 -0.12360
0.10583 -0.02968 0.29446
-0.01954 0.06493 -0.42481
-0.14607 -0.06761 -0.36275
-0.13545 -0.09155 0.33415
-0.09235 -0.13127 0.42038
-0.03084 0.06448 -0.17518
0.06429 0.14445 0.10327
-0.18740 -0.01573 -0.17518
0.06912 -0.02264 0.29446
-0.06263 0.08286 0.42038
0.11509 0.07570 -0.17518
0.06432 -0.06845 -0.18585
-0.01491 0.14445 0.19849
0.09387 0.14887 0.31372
0.01959 0.14445 -0.13286
-0.00994 0.14445 -0.33620
-0.19365 0.14445 -0.28072
0.09970 -0.06831 -0.21474
0.19100 -0.08713 0.32901
0.11258 0.14887 -0.06906
0.10385 -0.07409 -0.42420
0.17599 -0.06823 -0.23129
-0.03447 -0.09359 -0.17943
0.08880 0.14887 0.19412
-0.12842 0.14445 -0.05265
-0.08815 0.14445 0.37121
-0.14661 0.14887 -0.02233
0.01520 -0.08824 0.29446
0.04833 0.14445 0.30378
-0.02582 -0.06308 -0.42481
0.00281 -0.07231 -0.30442
0.12922 -0.04239 -0.17602
-0.18334 0.14887 -0.02492
-0.03602 0.14887 -0.40810
-0.16802 0.14887 -0.10853
-0.15532 -0.00752 -0.42481
-0.01123 0.14887 0.00092
-0.07504 -0.07227 -0.31284
-0.13759 0.14445 0.35136
-0.01121 0.14445 0.09027
0.03655 -0.07177 -0.42077
0.01469 0.14445 0.33173
0.17610 -0.06828 -0.22101
-0.13163 -0.02490 0.29446
0.07070 0.14887 -0.29950
-0.16482 -0.06838 -0.20065
-0.20510 0.14445 0.24974
0.06782 -0.07269 -0.22403
0.19521 0.14445 -0.13571
-0.19488 -0.11740 0.42038
0.10585 -0.07284 -0.19337
-0.13296 0.14445 0.29423
-0.09465 -0.06814 -0.25080
0.07620 -0.07223 -0.32107
0.11191 0.14887 -0.21154
0.15429 0.14887 0.02588
-0.12816 -0.03370 -0.17518
0.02212 0.14445 -0.23164
-0.02665 -0.07283 -0.19384
-0.02932 -0.01350 0.29446
0.19561 0.14445 0.06010
-0.11172 0.14887 -0.10946
-0.17109 0.12772 -0.17518
-0.11610 0.14445 0.41094
0.08759 -0.07182 -0.40887
-0.14757 -0.07275 -0.21232
-0.02537 0.14887 -0.09067
-0.01060 0.06359 -0.42481
0.09443 0.09820 -0.17518
-0.19692 -0.02208 -0.42481
0.12199 -0.09155 0.40687
-0.20078 0.14887 -0.32310
-0.04254 0.13089 -0.42481
0.13893 -0.10814 -0.42449
-0.20334 0.07725 -0.17518
0.10557 -0.03871 -0.17960
0.03355 0.03146 -0.17518
-0.19171 0.14445 -0.38861
0.16356 -0.07189 -0.39467
0.11158 0.10576 -0.42106
0.06066 0.09710 -0.17518
-0.15770 0.08446 -0.42144
-0.06678 0.14445 0.21756
-0.13545 -0.08853 -0.17518
0.21081 0.14445 -0.37345
0.00302 -0.13666 -0.42474
0.19655 0.14887 0.04331
0.09257 0.14887 -0.04393
0.20480 0.14445 -0.03395
-0.12979 0.01438 -0.42267
-0.15679 0.02113 0.42038
-0.09335 0.14887 0.04835
0.20532 -0.07235 -0.29637
0.00959 -0.04023 0.29446
0.18662 0.14887 -0.26626
0.11133 -0.08715 0.42038
-0.05389 -0.08475 -0.42481
0.19041 0.14445 -0.31038
0.07677 0.14445 -0.04927
-0.05494 0.13870 -0.17960
-0.18548 -0.09155 0.38045
-0.06728 0.14445 -0.32893
-0.04948 -0.09155 0.41346
-0.19747 0.04055 -0.42221
-0.12684 -0.07258 -0.24782
0.14864 -0.06674 0.42038
-0.14270 0.14887 0.26208
0.06797 0.07170 -0.42166
-0.11056 0.14445 -0.10166
0.09650 0.14177 0.29446
-0.00334 -0.07218 -0.33352
0.08030 0.06477 0.29446
-0.02175 0.06962 -0.42170
0.14691 0.05419 0.42038
-0.06733 -0.11178 0.42038
0.01802 -0.03012 -0.17960
-0.01914 0.14887 0.19531
-0.18328 0.14445 -0.16551
0.10879 0.10305 0.42038
-0.01572 0.06833 -0.17960
0.04008 0.14887 0.07264
-0.10057 0.14445 -0.37160
-0.16317 0.14887 0.14747
0.02449 0.12435 -0.17960
0.06835 -0.07208 -0.35371
-0.09417 0.14887 -0.16061
0.12191 0.14445 0.22889
0.21752 -0.00017 -0.17960
-0.06679 0.14887 0.04883
0.05265 0.03049 0.29446
0.10553 0.14887 0.19634
0.15639 -0.02420 -0.17576
0.09501 -0.09155 0.32579
0.05973 0.14445 0.12772
-0.05543 0.14445 0.16844
0.00409 0.06966 0.42038
0.10971 -0.08474 -0.17620
0.16503 -0.08713 0.33609
0.10944 -0.09378 0.42038
0.18098 0.14887 0.27464
0.17499 0.14445 -0.08668
0.18796 0.14445 0.20153
-0.07992 0.10741 -0.17960
-0.07570 0.14887 0.31765
-0.07709 -0.05615 0.29446
-0.19193 0.09696 -0.17518
0.03132 0.14887 0.15780
-0.18263 -0.05568 -0.17518
-0.06076 0.14887 0.01424
0.12294 0.14445 -0.13922
0.00473 0.14445 -0.01364
0.14026 0.14445 -0.00539
0.15008 0.14887 -0.13515
-0.12280 -0.06741 -0.40659
-0.20858 0.14445 -0.02471
-0.13389 0.14445 -0.38975
0.03203 0.14445 -0.11295
0.11270 0.14887 -0.24324
-0.15686 0.14887 0.24891
-0.13925 0.14887 -0.00968
0.20772 -0.04022 0.42038
-0.17513 0.14445 -0.06730
0.21426 0.14885 0.20737
-0.01007 0.14887 -0.34577
0.17229 0.14887 -0.01628
-0.16493 -0.06789 -0.30408
0.08861 -0.09155 0.31713
-0.07540 0.14445 0.32489
0.19095 0.14445 0.08399
-0.08801 -0.07224 -0.32091
0.13252 -0.05130 0.29446
-0.18092 0.14887 0.09164
-0.21022 -0.09155 0.33581
0.11346 0.14887 0.30625
-0.02202 0.08117 -0.42481
-0.12056 0.06378 -0.17960
-0.14875 0.14887 0.22150
0.03911 -0.08713 0.37550
0.09297 0.14887 0.42422
0.14785 0.14445 -0.03099
-0.18289 0.14887 -0.32853
0.08812 0.14445 -0.29909
0.00478 0.14887 0.28425
-0.17734 0.04200 0.42038
-0.05846 0.14887 -0.18760
0.02982 -0.09155 0.41428
0.02105 -0.06755 -0.37525
0.21426 -0.06990 -0.29438
0.14021 0.14887 0.04459
0.18920 0.14445 0.30099
-0.12966 0.00550 0.29446
-0.02563 0.14445 -0.20728
0.20644 -0.07258 -0.24832
0.14379 0.14887 -0.01235
-0.01665 0.14887 0.40565
-0.13346 -0.14260 0.42038
-0.18898 -0.07232 -0.17518
0.18722 0.06230 0.42038
0.15549 0.14445 0.41672
0.03316 -0.08713 0.35709
0.00834 0.14887 0.15761
-0.09941 0.14887 0.03929
0.00842 0.14887 0.42226
0.01061 -0.02508 0.29446
0.17501 -0.08713 0.37231
0.19752 0.12891 0.29446
-0.10875 -0.10906 -0.42450
-0.03169 0.14887 -0.41992
0.14145 0.14887 0.12392
-0.09407 0.14445 0.39060
0.00282 0.14887 0.26846
-0.05916 0.14887 0.23427
-0.12448 0.14887 0.41327
-0.18488 0.14887 0.32202
0.01924 0.14445 -0.05194
0.05431 0.14445 0.28430
-0.05709 0.02331 -0.17518
-0.12843 -0.03162 0.29446
-0.08556 0.14887 0.35936
-0.17252 0.12740 -0.42068
0.06439 -0.12162 0.42038
0.12866 -0.07162 -0.42418
0.12021 0.14887 0.19497
-0.15661 0.14445 -0.35595
-0.10444 -0.09155 0.40434
0.14378 0.12185 0.42038
0.03669 0.06444 -0.17518
-0.11019 -0.07195 -0.38194
-0.08590 -0.08713 0.33897
0.01103 -0.08713 0.40932
-0.03696 -0.07212 -0.34569
-0.01694 0.14887 0.22120
0.02387 -0.01350 0.42038
-0.01372 0.14445 -0.05263
0.16255 -0.02821 -0.17570
0.05054 0.14887 0.25421
0.04765 0.14887 0.38316
-0.10163 0.14445 -0.35581
-0.13938 0.14887 0.01028
-0.04369 -0.03105 -0.17960
-0.16619 0.14445 -0.14184
-0.13995 0.14887 0.21843
0.15151 0.14445 0.04845
-0.17172 0.14887 0.14633
-0.17782 0.14445 0.32163
-0.09998 0.14445 0.17200
0.00561 -0.06825 -0.22868
0.04091 -0.02120 -0.42481
-0.07103 -0.07311 0.29446
0.02134 -0.01642 0.29446
0.07168 -0.08713 0.41579
0.09930 0.14887 0.30211
-0.19251 -0.08228 -0.42481
-0.01076 -0.00092 -0.42481
0.11335 -0.05333 0.29446
-0.11836 0.14887 0.36246
-0.10483 0.14445 -0.19051
-0.17327 -0.07239 -0.28803
0.10405 -0.09003 0.42038
-0.05498 0.00693 -0.17960
-0.15520 -0.08036 -0.42425
-0.04749 0.14445 0.13991
0.16874 0.14445 0.15835
0.01777 -0.06820 -0.23804
0.02989 0.14445 -0.14880
0.08119 -0.00714 -0.42304
-0.09356 0.08531 -0.17960
0.03316 0.14445 -0.28944
0.15051 -0.04817 0.29446
-0.03789 0.14445 0.17965
0.04343 0.14445 0.19521
-0.11204 0.14887 -0.14004
0.01553 0.03232 -0.42481
-0.13512 -0.08093 -0.17518
-0.18550 0.14445 -0.28432
-0.03905 -0.06814 -0.25111
0.16469 0.14887 0.03593
0.02326 -0.02735 0.42038
0.10983 0.14445 -0.20618
0.02868 0.14444 -0.42481
0.07833 -0.06736 -0.41632
0.00971 0.14887 0.39106
0.03958 -0.09155 0.31435
0.06143 0.03073 0.42038
-0.09277 -0.06829 -0.21983
0.12904 0.14887 0.37373
-0.17940 -0.09101 -0.17518
-0.15945 -0.09372 -0.42481
-0.05126 0.14887 0.42425
-0.17727 0.11637 -0.17518
-0.12477 0.14445 -0.04561
-0.18831 0.14445 -0.06125
0.16233 -0.09222 -0.17570
0.06019 0.11464 -0.17960
0.14007 -0.07188 -0.39587
0.03304 0.01190 -0.17960
0.09200 0.14445 0.36574
-0.04014 -0.10620 0.29446
-0.04176 -0.07208 -0.35391
-0.06723 0.12801 -0.42481
0.13415 0.14887 -0.34373
-0.06408 0.04686 -0.42481
0.18327 0.14887 0.10131
0.05128 0.14445 -0.38492
0.20852 0.13890 -0.42048
-0.20497 -0.12430 -0.42481
0.04430 0.04392 -0.42481
0.06739 0.10018 -0.17960
0.16444 0.12476 0.29446
-0.12693 -0.06827 -0.22326
-0.04584 -0.05823 -0.42394
-0.21055 -0.09691 0.42053
-0.20715 -0.13651 -0.17581
-0.13461 -0.14887 0.42143
-0.00849 0.14887 0.26187
-0.09371 0.14445 -0.39945
0.09909 -0.13436 -0.42481
0.21222 -0.07268 -0.22674
0.06497 0.14887 -0.23921
-0.01774 0.14887 -0.16327
0.09315 0.14445 0.06312
0.11797 0.14887 0.23453
0.05999 0.08558 0.29446
0.14868 0.14445 -0.15753
-0.20083 -0.12724 -0.17634
-0.05273 0.11418 0.29446
-0.16369 0.14445 -0.36032
-0.15900 0.14887 -0.41701
-0.20428 0.12168 -0.17960
-0.16708 -0.04068 -0.17960
-0.02352 0.14445 -0.29987
-0.03552 -0.07349 -0.17758
-0.08564 -0.01311 -0.42481
-0.18720 0.14887 0.29665
0.00507 0.09283 -0.42481
0.02595 -0.04963 -0.42379
-0.14904 0.10863 -0.42481
0.16843 -0.09155 0.37260
0.09069 -0.08713 0.38324
-0.13777 0.14445 0.09123
-0.17084 0.14445 0.02598
-0.13995 0.14445 -0.28390
-0.04323 0.14445 0.20123
0.13653 0.14445 0.34536
-0.05320 0.14887 -0.16224
-0.02576 -0.03932 -0.42481
0.21403 -0.07281 -0.20000
0.14985 0.14445 -0.19892
0.05735 -0.06785 -0.31277
0.20810 0.05294 -0.17527
0.20271 0.14887 0.28634
-0.20002 -0.07221 -0.32623
-0.16347 0.10484 -0.42108
-0.19880 0.14887 -0.12677
0.11949 0.14445 -0.19309
-0.18652 0.14887 -0.27762
0.10164 0.14887 -0.11041
-0.08211 -0.12280 0.42038
0.07954 0.14887 0.28942
0.03229 0.03855 0.29446
0.01869 0.13930 -0.42481
0.10378 0.00449 0.29446
-0.20088 -0.07205 -0.35956
0.11152 -0.03898 -0.17618
-0.18276 -0.08430 0.42038
-0.10436 -0.08713 0.32129
-0.05647 0.13123 -0.42481
0.16521 0.14887 0.02588
-0.03173 -0.07214 -0.34034
-0.13354 0.14887 -0.20708
-0.20028 0.00708 -0.17518
0.01248 0.10937 0.29446
0.03720 -0.09155 0.37950
-0.10088 0.02240 -0.17518
0.14347 -0.08713 0.39148
0.15008 -0.00935 -0.17582
-0.00819 0.08785 -0.42481
0.15069 0.09688 -0.42122
-0.03160 0.14887 0.23856
-0.11148 0.14887 0.01517
0.10419 0.04114 -0.42481
0.15726 0.14445 0.14280
-0.00033 -0.05788 0.29446
0.15146 0.14887 -0.34265
-0.04062 0.14887 -0.37890
0.11973 0.14445 0.41376
-0.00870 0.14445 -0.00142
0.03709 0.14445 0.29970
0.00235 -0.06794 -0.29270
-0.15885 0.14887 0.27852
-0.19606 -0.06195 -0.17518
-0.03070 0.14887 0.17355
-0.09349 0.14887 -0.36267
0.09812 -0.01215 -0.17960
0.14826 -0.07290 -0.18050
-0.15741 0.14445 -0.05484
0.05557 -0.14116 -0.42478
0.01103 0.00949 -0.42275
0.15279 0.14887 -0.05489
-0.11172 0.08290 0.42038
-0.02203 0.14445 0.27870
-0.12519 0.14445 0.12717
-0.20022 0.03569 -0.42481
0.14418 -0.12770 -0.17588
-0.17270 -0.14017 -0.17902
-0.13008 0.11829 -0.17960
-0.20394 0.14887 -0.25820
-0.15088 -0.10844 -0.17930
-0.08517 0.13699 -0.17960
-0.20749 -0.06866 0.29446
0.17367 0.14887 0.01165
-0.13995 0.14887 -0.11438
-0.02749 0.02859 0.29446
-0.06471 0.14887 0.16872
-0.15663 0.11317 0.42038
-0.02352 -0.14278 -0.17746
-0.06661 0.14445 -0.18608
-0.17578 0.14887 0.05619
0.09783 0.14445 0.04175
0.02629 -0.09155 0.34519
-0.18333 0.14445 -0.25999
-0.02131 -0.06759 -0.36726
-0.08713 -0.10230 -0.17935
0.17942 0.14887 0.15086
0.04586 -0.09155 0.39917
0.02306 0.14887 -0.10954
-0.05154 0.02257 -0.17518
-0.16568 0.14445 -0.03502
0.18045 0.14445 -0.27874
0.17789 -0.12480 -0.17556
0.08628 -0.14887 0.42229
0.06006 0.14445 -0.17532
-0.20358 0.14887 -0.10288
0.19166 -0.02425 -0.17543
-0.01041 0.14445 0.34266
-0.03690 0.12302 -0.42481
-0.16282 -0.06777 -0.32898
0.13616 0.14445 -0.01533
0.21349 -0.06010 0.42038
-0.06208 0.07034 -0.17960
0.06591 -0.03702 -0.17662
0.20675 0.14887 0.29378
0.18198 -0.07256 -0.25221
0.15729 0.03865 -0.17960
-0.01754 -0.09108 0.42142
-0.00149 0.14887 0.01825
0.05461 0.14887 0.41862
0.04564 0.14887 0.28737
-0.08035 -0.04961 -0.17960
0.17119 0.14445 -0.14995
-0.21311 0.05792 0.29446
-0.09563 0.14887 0.06886
-0.01754 0.14887 0.07053
-0.04336 0.14887 -0.39737
-0.18718 0.14887 -0.17465
-0.20894 0.14445 0.03799
-0.17877 0.14445 0.16821
0.13162 -0.01679 -0.17960
-0.07521 0.10390 0.29446
-0.09681 0.02904 0.42038
0.15085 0.14445 -0.31907
-0.10592 0.14887 0.16493
0.06663 -0.03940 0.42038
0.03441 -0.06737 -0.41523
0.00613 0.14887 -0.34429
0.01731 -0.07249 -0.42481
0.00914 0.14887 -0.02299
-0.03386 0.14887 -0.05700
-0.14584 0.02330 0.29446
0.08082 0.14445 -0.38453
-0.07679 0.03454 0.42038
-0.08616 0.05655 0.42038
0.18391 -0.07253 -0.25860
-0.18896 -0.00783 -0.42481
0.01370 0.03017 0.29446
-0.15462 -0.07275 -0.21196
0.17450 0.07339 0.42038
0.04745 -0.06747 -0.39239
0.00667 0.14887 -0.18103
0.12290 0.00709 0.29446
-0.07770 0.14887 0.28837
-0.20303 0.14887 0.08262
0.19819 -0.08047 -0.42425
0.17791 0.14887 -0.35289
-0.01120 -0.13334 -0.17908
0.03333 -0.08074 0.42038
-0.16493 -0.09155 0.40291
-0.06393 0.14445 0.24759
-0.14943 -0.06840 -0.19488
-0.07294 -0.13953 -0.42481
-0.03508 0.14445 0.34523
-0.11708 -0.07276 -0.21033
0.00173 0.14887 0.03198
0.15136 0.14445 -0.35445
-0.06270 0.14445 -0.05301
0.01131 0.08980 -0.42481
-0.15656 -0.07042 -0.17959
-0.15398 0.05651 -0.42193
-0.17674 -0.09155 0.34801
-0.09795 -0.11021 0.42038
0.11585 -0.06791 -0.29907
0.17758 -0.08713 0.41546
0.15391 -0.06822 -0.23306
-0.13150 -0.06787 -0.30768
-0.11075 -0.08713 0.34564
0.06971 -0.06986 -0.42417
0.08583 -0.01059 -0.17643
