ply
format ascii 1.0
comment VCGLIB generated
element vertex 1906
property float x
property float y
property float z
element face 0
property list uchar int vertex_indices
end_header
0.22960 0.17565 -0.04801
-0.05935 0.21486 -0.24424
0.25083 -0.08747 0.35860
0.16849 0.21486 -0.34921
-0.03654 0.21486 0.13209
-0.05121 0.22166 0.31513
0.08441 0.21486 -0.06438
-0.12080 0.22166 0.09354
0.07251 0.21486 -0.01344
-0.06175 0.21486 -0.21847
-0.22960 0.20668 0.14116
0.08224 0.21486 -0.30337
0.10286 0.22166 0.07424
-0.22960 0.21186 -0.22856
-0.17494 0.21486 -0.34402
0.22960 0.17768 -0.08636
0.24246 0.22166 0.12155
0.22790 0.12061 0.33567
0.09691 0.22166 -0.23045
-0.14932 0.21486 -0.26533
-0.17325 0.22166 0.17956
0.16473 0.22166 -0.19489
0.10054 0.22166 -0.12636
-0.24004 -0.00642 0.35903
0.22238 0.01879 -0.33657
0.17354 0.21486 -0.10586
-0.22960 0.19315 -0.26219
-0.21472 0.21486 0.09999
0.05847 0.21486 0.30771
0.22960 0.20240 -0.09717
-0.24651 -0.03288 0.36550
-0.22557 -0.07246 -0.33338
-0.04962 0.22166 -0.11797
0.09884 0.21486 0.30482
-0.23598 0.21486 0.10544
0.17034 0.21486 -0.33921
-0.13792 0.21636 0.36849
-0.16415 0.21486 0.33325
0.12968 0.21486 -0.05671
0.24453 0.22166 0.21085
-0.24030 0.11842 -0.34806
-0.05010 0.22166 -0.30277
0.23262 0.21486 0.01364
-0.24509 0.21486 0.04569
0.12365 0.21486 0.04542
-0.02025 0.21486 0.23355
0.19920 0.22166 0.33146
0.15764 0.21486 -0.06697
-0.10561 0.21486 -0.31670
-0.22100 0.08186 -0.33796
0.03096 0.21486 -0.24072
0.12725 0.21486 0.07130
0.11543 0.21486 0.32734
-0.03227 0.22166 -0.13123
-0.23866 -0.08673 0.35766
-0.22960 0.21141 -0.31250
0.21029 0.22166 -0.19443
-0.08571 0.17517 -0.35020
0.07289 0.21486 0.18449
0.02351 0.21486 -0.31578
-0.00352 0.21486 0.31573
-0.23810 0.20509 -0.01017
-0.23810 0.21017 -0.20752
0.01100 0.21486 0.17756
0.22303 -0.07494 -0.34202
0.12067 0.22166 -0.06096
0.16875 0.18591 -0.34298
-0.04676 0.21486 0.04178
-0.23810 0.17976 0.15966
0.24759 -0.09027 -0.36658
0.09521 0.17749 -0.34298
0.22998 0.17517 0.21142
-0.09319 0.22166 0.25211
0.08231 0.21486 -0.33706
0.23810 0.19944 0.19305
0.16743 0.22166 0.10423
0.11156 0.21486 -0.17117
0.05364 0.22166 0.18200
-0.23810 0.21142 -0.11658
-0.19035 0.21486 -0.03008
-0.03724 0.22166 -0.04621
0.24318 0.21486 -0.15119
0.23235 0.21486 0.19926
-0.23810 0.18967 -0.32075
-0.07321 0.21486 0.27575
0.15281 0.21486 0.16417
0.22784 0.02774 -0.33560
0.23399 0.17517 0.13022
-0.09399 0.22166 -0.04670
0.19936 0.21486 0.24521
0.07862 0.22166 -0.29275
-0.14154 0.22166 -0.28896
0.22960 0.18347 0.09320
-0.01263 0.18462 -0.34298
0.21464 0.22166 0.10477
-0.03676 0.22166 0.20612
0.02046 0.22166 0.10593
0.06187 0.21486 -0.24555
-0.22372 0.22166 0.32640
-0.13276 0.22166 0.24591
0.23810 0.19021 -0.06487
-0.25511 0.21655 0.09835
-0.15361 0.21486 0.35475
0.23023 0.21486 0.32764
-0.21014 0.21486 -0.24868
0.03120 0.21486 0.31886
0.24954 0.21486 -0.24708
0.13742 0.22166 -0.01437
-0.22960 0.20235 0.12055
-0.20000 0.22166 -0.13609
0.25140 0.22166 0.26231
-0.08188 0.21486 0.00468
-0.23859 0.22166 0.13973
0.23544 0.21486 0.00664
0.02098 0.21486 0.06840
-0.19781 0.21486 -0.16820
0.16141 0.21486 -0.29356
0.11597 0.18011 -0.35148
-0.23733 0.21486 0.04442
0.17356 0.22166 0.23303
-0.00529 0.22166 -0.12990
-0.23637 -0.22166 0.34804
-0.00264 0.22166 -0.21326
0.05550 0.21486 -0.22881
-0.23810 0.19014 0.30098
-0.22226 0.19084 -0.35148
0.11727 0.22166 0.29747
-0.23764 0.22166 -0.07030
-0.23096 0.21486 0.16002
0.14833 0.22166 0.06780
0.23810 0.20195 0.25804
0.10299 0.21486 0.16673
-0.23576 0.22166 0.26785
0.14335 0.22166 -0.16529
0.04557 0.21486 -0.30034
0.17375 0.21486 -0.14764
0.24471 0.04996 0.36371
0.02426 0.22166 -0.02749
-0.12444 0.22166 -0.11192
-0.09383 0.22166 0.16664
0.09231 0.22166 -0.10605
0.22799 -0.05967 -0.34698
0.16196 0.21486 -0.20422
-0.01780 0.21486 0.34605
0.11947 0.22166 0.06150
0.03284 0.20053 -0.34298
-0.13561 0.21486 -0.19835
0.06101 0.21486 -0.22304
-0.16932 0.21486 -0.33972
-0.00800 0.21486 0.03926
-0.24291 0.11258 -0.36190
-0.01133 0.22166 -0.34591
-0.23092 0.21486 0.08077
0.23056 0.19257 0.34955
0.16963 0.21486 0.19158
0.07390 0.22166 0.18195
0.00526 0.21486 -0.28424
-0.10166 0.21486 -0.24679
0.22374 -0.09954 0.33521
-0.05719 0.17808 -0.35148
0.23536 0.21486 -0.06018
0.15145 0.22166 0.36097
-0.09243 0.21486 0.11962
0.22960 0.19279 -0.28783
0.24361 0.06373 0.36261
-0.01532 0.22166 0.08258
0.17225 0.20090 -0.35148
-0.07659 0.21486 -0.05536
0.20788 0.21486 0.13623
-0.18828 0.22166 0.30269
-0.25414 0.21486 -0.13604
-0.23023 0.22166 0.30537
0.12108 0.21486 -0.03193
0.01477 0.21486 -0.08062
-0.22837 0.06459 0.34736
-0.15529 0.22166 -0.27860
0.22960 0.17774 -0.15846
-0.22960 0.20234 0.29850
-0.24118 0.10739 0.34895
-0.21491 0.21486 -0.34104
0.03652 0.22166 -0.30809
-0.23708 0.21817 -0.36849
-0.23033 -0.21289 0.34932
0.23810 0.20950 0.04791
0.12562 0.22166 0.06957
-0.22960 0.19764 0.02918
-0.22960 0.17544 0.28982
0.24019 -0.15418 -0.34796
-0.01983 0.21486 -0.16319
-0.24134 0.21486 0.34542
0.22960 0.19525 0.04261
0.08716 0.21486 -0.04373
-0.22960 0.19081 0.17136
0.16677 0.21486 -0.05462
-0.09431 0.22166 0.33493
0.11080 0.22166 0.20068
0.22853 0.21486 0.35565
-0.24403 -0.21279 0.36303
0.05864 0.21486 0.13509
-0.15374 0.22166 0.30768
0.18715 0.22166 -0.06648
0.02497 0.22166 0.16594
-0.15940 0.21486 0.14523
-0.23368 -0.11983 0.35267
-0.17260 0.22166 -0.26486
0.20950 0.20772 -0.34298
-0.22882 0.21486 -0.04585
-0.24691 -0.20689 -0.36590
-0.03599 0.22166 0.29813
0.00727 0.18932 0.34298
-0.23089 -0.06995 -0.34988
0.23595 0.17517 0.13855
0.18765 0.22166 0.16004
-0.23332 0.00785 0.35231
-0.24671 0.05545 0.36571
-0.03560 0.21486 0.15736
0.22591 0.22166 -0.21356
-0.10913 0.22166 -0.25201
-0.25511 0.21956 -0.15420
0.02609 0.21486 -0.08654
-0.02674 0.22166 0.35839
0.10114 0.21486 -0.06513
0.11266 0.22166 -0.23425
-0.04501 0.22166 0.12169
-0.01598 0.22166 0.20735
0.04883 0.22166 0.18552
0.02644 0.22166 -0.05366
0.19580 0.21486 -0.07681
-0.10736 0.22166 -0.32278
0.22530 0.00701 0.34429
0.24618 0.20435 -0.35395
-0.23422 -0.14132 0.34199
0.23810 0.18831 0.17224
-0.23700 -0.05508 -0.34477
0.21249 0.22166 -0.06267
0.08591 0.22166 -0.12884
-0.16092 0.22166 0.13390
-0.02366 0.21486 -0.03757
-0.22960 0.19305 0.07125
-0.23374 0.22166 0.32308
0.20819 0.22166 0.08846
-0.22673 0.20957 -0.35148
0.22083 0.16652 -0.33812
0.19119 0.22166 0.10617
-0.07204 0.21486 0.24391
0.01020 0.21486 0.13932
0.01593 0.22166 0.19850
-0.05628 0.21486 0.24464
0.08226 0.22166 0.33407
0.25017 -0.17884 -0.36782
0.22685 0.09817 -0.33462
-0.21168 0.22166 0.06705
0.03014 0.22166 0.23942
-0.05665 0.22166 0.16792
-0.09236 0.21486 -0.19873
-0.09907 0.22166 -0.31435
-0.24403 0.22166 0.11612
0.14896 0.22166 -0.12177
-0.06301 0.22166 -0.25091
0.10977 0.22166 -0.30160
-0.01493 0.21412 0.35148
-0.19481 0.22166 -0.13981
0.24155 0.21486 0.11837
-0.18664 0.19420 -0.34298
0.14563 0.21486 -0.04324
0.06655 0.20664 0.35148
0.23228 0.21486 0.34298
-0.01302 0.22166 0.29239
-0.18123 0.22166 -0.11846
-0.23810 0.19892 0.28099
-0.14516 0.22166 0.00813
-0.23332 -0.15935 0.35231
0.22058 0.21486 0.17421
0.14977 0.22166 -0.05180
-0.01059 0.22166 -0.04966
0.04636 0.21256 0.34298
-0.04834 0.21517 -0.36849
-0.23810 0.17564 -0.12171
-0.19569 0.21486 0.22180
-0.23810 0.21215 -0.01474
-0.23810 0.20811 -0.14306
-0.07099 0.22166 0.07374
0.20511 0.21486 -0.07892
-0.23959 0.17286 0.34736
0.11228 0.21486 0.18299
-0.09868 0.21486 -0.17700
-0.11756 0.21486 0.22570
-0.23120 -0.08431 0.33897
0.24064 -0.10387 0.34841
0.18462 0.21486 -0.09435
0.09219 0.21486 0.28738
0.20905 0.19394 0.34298
0.22663 -0.19509 0.34563
0.02176 0.21486 -0.29453
0.22662 0.08186 0.34561
-0.07991 0.21486 -0.36001
0.23810 0.20795 -0.05035
-0.00617 0.21258 -0.34298
-0.23790 0.19072 0.34567
0.22785 -0.11522 0.34685
0.15160 0.21486 -0.18308
0.23035 -0.07846 0.34935
-0.23810 0.18047 0.14820
-0.14842 0.21486 0.23423
-0.22640 0.12178 0.33416
-0.23211 0.21486 -0.24561
-0.17089 0.21486 0.33571
0.22960 0.21111 0.06999
-0.23190 0.16290 -0.35090
0.19583 0.21486 0.15641
0.01077 0.22166 -0.25224
-0.14021 0.21486 0.04712
-0.17992 0.22166 -0.06688
0.22894 -0.01237 0.33671
0.06283 0.21486 -0.34569
-0.00297 0.21486 -0.08176
0.01508 0.22166 0.20758
-0.23226 0.21486 -0.17113
0.01200 0.22166 -0.09585
-0.25511 0.21809 0.13943
0.24829 0.22166 -0.21804
-0.22031 0.21486 -0.01251
0.25477 0.22166 0.27957
-0.14704 0.21486 0.31417
0.17784 0.21486 -0.24538
-0.18259 0.18136 -0.34298
0.12916 0.21486 0.25360
0.24629 -0.19488 0.35406
-0.09569 0.22166 -0.13219
0.23810 0.20595 0.25202
-0.25384 0.22166 -0.18062
-0.24112 -0.17962 0.34889
0.07761 0.21445 0.35148
-0.09905 0.21486 -0.25529
-0.23810 0.19269 -0.20741
0.18995 0.21486 -0.02221
0.24689 -0.11031 0.35466
0.19315 0.21486 -0.26746
-0.24091 0.21486 0.36414
0.25375 0.22166 0.21595
0.12801 0.21486 0.16961
-0.03165 0.21486 -0.33597
-0.24222 0.22166 0.22876
-0.24850 0.01626 0.36750
-0.07468 0.22166 -0.19672
-0.23943 0.22166 0.04643
0.07748 0.22166 0.31514
0.16604 0.21486 0.18463
0.24897 -0.12857 0.36796
0.22937 0.03178 0.34837
0.19779 0.22166 -0.10160
-0.22714 -0.13671 0.33491
0.05933 0.21486 0.24815
-0.11107 0.22166 -0.15944
-0.15262 0.21486 0.22049
-0.02392 0.21486 -0.34127
-0.23810 0.18765 -0.33485
-0.20878 0.21486 -0.20674
0.23107 0.22166 -0.22487
-0.22846 0.00192 -0.33623
-0.03731 0.21486 0.03546
0.17134 0.21486 -0.20544
-0.13570 0.21486 0.12909
0.01024 0.21486 0.20603
0.22706 -0.01216 -0.34605
-0.00206 0.22166 0.06317
-0.10755 0.22166 0.04856
-0.03410 0.21486 -0.19537
0.03310 0.21486 0.35210
-0.01889 0.18729 -0.34298
0.07123 0.22166 0.11732
-0.18068 0.22166 0.36694
-0.22960 0.19219 0.18716
-0.24808 0.22166 0.31371
-0.22960 0.19793 -0.14217
0.12039 0.22166 -0.09148
0.00413 0.22166 -0.04913
0.22085 0.18011 0.34298
0.21090 0.21486 0.02960
-0.24595 -0.01140 -0.35372
-0.00512 0.22166 -0.01016
0.12862 0.22166 0.08284
-0.11557 0.21486 -0.18370
0.12499 0.21486 -0.05588
0.16672 0.19677 -0.35148
-0.11461 0.21486 -0.23982
-0.05452 0.22166 0.36387
-0.15882 0.22166 0.29959
-0.22051 0.14505 0.33951
0.16199 0.19822 0.35148
-0.16022 0.22166 -0.10866
-0.22984 -0.02417 -0.34883
-0.25262 0.09423 -0.36039
-0.20670 0.22166 -0.27953
0.23571 0.21486 -0.21728
-0.04649 0.22166 -0.29874
0.08543 0.22166 0.04025
0.24636 0.22166 -0.29422
0.22178 -0.22166 0.34062
0.06789 0.21486 -0.14822
-0.22850 0.08609 -0.33626
-0.19802 0.22166 -0.19521
-0.00550 0.21486 -0.07059
0.00007 0.22166 -0.06434
-0.19592 0.22166 -0.06792
0.14079 0.22166 -0.30223
-0.04622 0.21486 -0.23686
0.03576 0.21486 0.22808
0.24168 0.21486 0.07176
-0.21663 0.21486 -0.21145
0.19666 0.21486 0.26926
-0.05237 0.17553 0.35148
-0.10736 0.22166 0.32055
-0.21450 0.19424 -0.34298
0.22794 0.22166 -0.29232
0.07518 0.21486 -0.04966
0.04683 0.22166 -0.14549
-0.04723 0.21280 -0.35148
-0.23176 0.21486 -0.00605
0.22960 0.20465 -0.28587
-0.17318 0.21486 0.03554
-0.23810 0.18812 -0.31211
-0.05134 0.22166 -0.14796
-0.25399 0.21486 0.29460
0.23703 0.00406 0.34480
-0.10648 0.21486 -0.03634
-0.23050 0.22166 -0.05208
-0.01492 0.22166 -0.36667
0.12414 0.20252 -0.34298
-0.17220 0.21486 -0.01226
-0.01815 0.22166 -0.19601
0.23779 0.17517 0.17418
-0.11835 0.18278 0.34298
0.19002 0.21486 -0.14453
-0.22680 -0.00446 -0.34579
0.07381 0.21486 0.32406
-0.20913 0.21486 -0.36675
0.09630 0.22166 -0.04460
0.22037 -0.11046 0.33936
0.01988 0.22166 -0.09268
0.17544 0.21486 -0.00657
-0.16458 0.22166 -0.25310
-0.23098 0.22166 0.28557
0.19281 0.21486 0.04797
0.02545 0.17517 -0.34859
-0.12079 0.22166 -0.01309
-0.01422 0.21486 0.14041
0.23216 -0.19075 -0.35115
0.15501 0.21486 -0.09783
-0.24974 0.22166 0.08946
0.16114 0.22166 -0.22263
0.03096 0.22166 -0.24739
-0.21977 0.21486 0.11258
-0.09464 0.21486 -0.35368
0.22621 0.20985 0.34298
0.16213 0.21486 0.33868
-0.00971 0.22166 0.33396
-0.01684 0.21486 0.27317
-0.01152 0.22166 0.32679
0.09969 0.22166 -0.25661
-0.11507 0.21486 -0.12030
0.24050 0.06831 0.34827
0.22822 0.21486 -0.22898
0.22960 0.18474 -0.02934
0.05671 0.22166 0.29768
-0.12252 0.22166 -0.20277
0.25314 0.05058 0.36091
0.04105 0.21486 0.21854
-0.23861 0.02969 -0.34637
0.19604 0.22166 -0.32105
-0.23810 0.20835 0.16670
-0.16573 0.21486 -0.20917
0.25264 0.09935 -0.36041
-0.17201 0.21486 -0.23231
-0.25041 0.21486 0.15892
0.07129 0.21486 -0.24757
0.22960 0.18121 -0.10130
-0.20904 0.21486 0.15065
-0.22422 0.11805 -0.33474
0.22960 0.17909 -0.23954
-0.25511 0.21706 -0.03379
0.24448 0.22166 -0.06116
0.10102 0.22166 0.11291
-0.11830 0.22166 -0.24342
0.01252 0.22166 0.24027
0.05367 0.22166 -0.04186
0.09399 0.21486 0.09418
-0.23801 0.21322 -0.34578
0.24204 -0.17356 0.34981
0.05236 0.19188 -0.34298
0.14932 0.17733 -0.34298
-0.22960 0.20505 0.24824
0.23330 -0.07797 0.34107
0.21527 0.21486 0.04793
-0.22960 0.21136 -0.08738
0.13170 0.21486 0.31044
-0.19028 0.17771 0.34298
-0.08655 0.21486 -0.21742
0.25511 0.21990 0.17751
-0.13564 0.22166 0.01896
0.25195 0.22166 0.19842
0.11641 0.21486 0.04216
-0.23563 0.21486 -0.12450
-0.23810 0.19797 0.28557
-0.22672 0.21486 0.12794
-0.11591 0.21486 0.29394
-0.23810 0.18818 -0.11535
-0.19863 0.21486 -0.28936
0.22960 0.18071 0.13545
0.10505 0.21486 -0.22276
0.19004 0.21486 0.03744
0.15359 0.22166 -0.10245
0.19216 0.18627 0.35148
0.12505 0.21486 -0.16456
-0.15689 0.21486 -0.21359
0.06313 0.21486 0.24123
0.15448 0.22166 -0.17081
-0.17479 0.19484 -0.35148
-0.03565 0.18640 -0.35148
0.13574 0.22166 -0.00497
0.13814 0.21486 0.05342
0.23810 0.19262 -0.14485
0.14236 0.22166 0.01005
-0.23810 0.19780 -0.15963
-0.06037 0.22166 0.01516
-0.24495 0.21486 -0.03650
-0.13069 0.21486 0.16971
-0.18235 0.21486 0.05356
-0.24171 0.21486 0.13458
-0.01189 0.21486 -0.24983
-0.02616 0.22166 0.10183
0.15863 0.22166 0.33340
-0.10447 0.22166 -0.24371
0.22259 0.21486 -0.10318
-0.24550 -0.13076 -0.35327
-0.01956 0.22030 -0.36849
-0.04320 0.21486 -0.31645
-0.08691 0.22166 -0.14133
0.23810 0.19538 0.34336
0.05377 0.21486 -0.18119
0.23212 0.21486 0.15449
0.23810 0.21074 -0.01367
0.22260 -0.12889 -0.33635
-0.09408 0.21486 0.22623
0.25221 0.18275 0.36578
0.22123 -0.11592 -0.33772
-0.21418 0.21486 0.24818
-0.19600 0.22166 0.12576
-0.05295 0.21486 0.25571
-0.19916 0.21486 -0.35024
-0.23177 0.06362 -0.33954
-0.25363 0.21486 -0.33579
0.16975 0.22166 0.11327
-0.07941 0.21486 -0.15635
-0.22269 0.22166 0.24127
0.16874 0.22166 -0.02302
-0.19702 0.21486 -0.10941
0.22828 -0.02885 -0.34728
0.08612 0.21486 -0.25050
0.02771 0.22166 0.30267
0.22944 0.22166 -0.12517
0.10691 0.22166 -0.00298
-0.22241 -0.12128 0.33654
-0.02248 0.21486 0.32549
-0.15687 0.22166 0.24359
-0.05526 0.21486 -0.02769
-0.17668 0.22166 -0.28861
-0.06914 0.21486 -0.05919
0.23810 0.19931 -0.16018
-0.10370 0.21486 0.05749
-0.25165 -0.04476 -0.36633
0.13254 0.21486 -0.00061
-0.23810 0.20122 0.05922
0.23755 0.21486 -0.15380
0.15164 0.18983 -0.35148
0.23740 0.17517 -0.05244
-0.11714 0.21486 0.02275
0.00835 0.21276 0.35148
0.14492 0.21486 0.33559
0.10119 0.21486 0.09368
0.14806 0.22166 -0.22794
-0.23810 0.19628 -0.27509
-0.20370 0.22166 -0.33165
-0.00427 0.22166 0.27228
-0.08961 0.18164 0.34298
0.23580 0.22166 0.22899
-0.24804 0.21486 0.26908
0.15827 0.19299 -0.34298
-0.10575 0.22166 -0.34929
0.22960 0.21469 0.27804
0.23832 0.21486 -0.28144
0.24335 0.22166 0.06236
0.14085 0.21486 0.01211
0.20064 0.18488 -0.35148
-0.23810 0.18520 -0.25591
0.17526 0.22166 0.12954
0.01292 0.21486 0.26121
-0.01775 0.21486 -0.03419
-0.23810 0.19539 0.09741
-0.22960 0.20091 -0.05547
0.00333 0.22166 0.28965
-0.00303 0.22166 -0.18725
-0.01189 0.21486 -0.32995
0.22137 0.21486 0.31849
-0.23810 0.21049 -0.00419
-0.04470 0.21486 0.09794
0.07378 0.22166 -0.17301
0.01389 0.21486 -0.02998
-0.23090 -0.03023 -0.34990
0.25306 0.12433 -0.36083
0.03683 0.21486 -0.32516
-0.05530 0.21486 -0.22933
0.13388 0.21486 -0.17277
0.13549 0.21486 -0.34370
-0.21161 0.22166 0.36318
-0.13314 0.22166 -0.06160
-0.23810 0.22166 -0.26898
-0.10127 0.22166 0.34780
0.01648 0.22166 0.26600
-0.22282 0.22166 -0.30134
0.23810 0.19526 0.06945
-0.05446 0.21486 -0.10303
0.25080 -0.17329 0.35857
-0.17000 0.22166 -0.36356
0.24570 -0.04731 0.35347
0.07890 0.22166 -0.15521
0.17640 0.21486 -0.03679
-0.14099 0.21486 0.20562
0.07471 0.21486 -0.30707
-0.22043 -0.20785 0.33853
-0.17699 0.22166 -0.20778
0.04331 0.20126 -0.34298
-0.17933 0.22166 -0.15465
0.21252 0.21486 0.00995
0.07217 0.21486 0.21865
0.18037 0.21486 -0.32117
-0.25198 0.04435 -0.35975
-0.17248 0.22166 -0.14972
0.18953 0.22166 0.05305
0.12432 0.22166 0.22353
0.03836 0.22166 -0.08945
-0.00594 0.21486 0.21025
-0.16395 0.21486 -0.32860
0.25205 0.21486 -0.31483
0.24824 -0.09351 0.36724
0.20385 0.22166 -0.27497
-0.22507 0.19935 0.34406
0.06956 0.21486 0.08745
-0.06527 0.18273 0.34298
0.22960 0.17875 0.09129
-0.06678 0.22166 -0.05487
-0.12840 0.21486 -0.07769
-0.07122 0.22166 0.30017
0.03017 0.22166 -0.14232
0.08317 0.21486 0.19553
-0.19119 0.22166 -0.35727
-0.17149 0.20706 0.34298
0.12324 0.18008 0.34298
-0.00088 0.22166 -0.30333
0.25363 0.21486 0.02613
0.24865 0.21486 0.25459
0.16148 0.21486 -0.25151
0.03544 0.22166 0.01020
0.08963 0.21486 0.35482
0.06521 0.22166 0.05523
0.22048 0.21486 -0.14917
-0.15801 0.22166 0.10939
-0.07910 0.21486 0.01275
0.16111 0.21486 -0.05276
-0.11730 0.22166 -0.06479
0.17687 0.21486 -0.36186
-0.00299 0.21486 -0.00232
0.23810 0.20737 0.11346
0.23211 0.02233 0.33988
0.23164 0.10873 -0.33941
-0.09487 0.21486 -0.22939
0.18318 0.21486 -0.14034
-0.23359 0.11070 0.35258
-0.06295 0.21486 -0.14722
0.23810 0.18813 -0.05947
-0.22792 0.21486 0.34944
-0.05532 0.21486 0.18227
0.17979 0.22166 -0.01889
-0.12191 0.21486 0.08819
0.02835 0.22166 -0.19355
-0.18138 0.22166 0.19088
0.22123 -0.20700 -0.33772
0.22960 0.21154 0.09701
-0.22138 0.04898 0.33758
-0.22960 0.19528 -0.08917
-0.25511 0.22084 -0.13378
-0.13166 0.21486 0.34165
-0.17909 0.22166 -0.26379
-0.23810 0.17793 -0.03482
0.22960 0.20908 0.16932
-0.22960 0.17677 -0.01911
-0.07336 0.21486 -0.27489
0.22960 0.20523 -0.00623
-0.22458 0.14857 -0.33438
-0.04199 0.21486 -0.27389
0.20430 0.18987 -0.34298
-0.01385 0.22166 -0.30051
0.24826 0.21486 -0.36278
-0.23399 0.17517 0.04948
-0.23350 -0.16535 -0.35249
-0.23413 0.21486 0.26725
0.22960 0.20983 -0.08526
0.24715 -0.17010 -0.36614
-0.04599 0.22166 -0.11222
-0.21456 0.21486 -0.19889
0.23824 0.21486 0.22352
-0.23666 0.17517 0.05798
-0.19541 0.22166 0.11507
0.10696 0.18706 0.34298
0.11234 0.21649 -0.36849
-0.22960 0.21010 0.29800
0.25511 0.21895 0.24073
0.22960 0.19042 0.33340
0.24013 0.21486 -0.07351
-0.21235 0.22166 -0.36375
-0.09800 0.22166 -0.28483
0.21499 0.22166 0.08749
0.18112 0.21486 0.16015
-0.10420 0.21486 0.03648
-0.07728 0.22166 -0.01190
-0.19884 0.21486 0.11088
0.23810 0.18470 0.10581
0.13904 0.22166 0.04123
-0.19997 0.22166 0.14359
0.24096 0.04619 -0.35996
0.12030 0.21311 -0.35148
-0.25135 0.16003 0.35912
-0.23761 -0.18010 -0.35660
0.18968 0.21486 0.13057
0.18226 0.22166 0.27024
-0.24411 -0.12369 -0.35188
0.23519 0.21486 0.23551
-0.21149 0.22166 -0.09826
0.23226 0.22166 0.11039
-0.15315 0.21486 0.28851
0.09669 0.19615 0.35148
-0.07626 0.22166 0.11911
0.00830 0.18062 0.34298
-0.01275 0.22166 -0.20134
-0.23252 0.12620 -0.35151
-0.22960 0.18595 0.31098
0.23058 0.21486 0.02770
0.21157 0.21486 0.28687
0.23810 0.20590 0.02180
0.24288 0.22166 0.01339
0.22755 -0.08929 -0.33532
0.13835 0.21486 0.11317
-0.23198 0.21486 0.00540
-0.06881 0.21486 -0.11616
-0.00996 0.22166 0.15959
-0.08058 0.22166 -0.29522
0.17247 0.18276 0.35148
0.16068 0.19789 -0.34298
0.24744 -0.12447 0.35521
0.04821 0.21486 -0.28831
-0.17633 0.21486 0.20627
-0.23810 0.19556 0.04474
0.12150 0.21486 0.13713
-0.06880 0.22166 0.12806
-0.18142 0.21486 0.09596
0.24511 -0.03492 0.36410
-0.08658 0.21486 0.36546
-0.17121 0.21486 0.17768
0.23441 0.06466 0.34218
-0.09567 0.22166 -0.24708
-0.25192 0.22166 0.13735
-0.06748 0.21486 -0.36526
-0.05834 0.21486 0.20751
0.23283 0.17517 -0.16712
-0.02325 0.20641 0.35148
-0.22960 0.19899 0.04134
0.04865 0.22166 0.24645
0.23414 0.22166 0.18649
-0.24552 0.08347 -0.35329
-0.07384 0.21486 0.34385
0.23810 0.18907 -0.27685
0.24133 0.19636 -0.34910
-0.21343 0.21486 0.01183
0.14640 0.22166 0.18664
0.18846 0.21358 0.35148
0.03534 0.22166 -0.01953
-0.23810 0.18984 -0.29406
-0.18131 0.21486 -0.29712
0.22960 0.19808 0.07482
-0.00512 0.21486 -0.05057
0.12612 0.22166 -0.13472
0.23896 0.18536 -0.34673
-0.12016 0.19853 0.35148
-0.16040 0.17517 0.35060
0.23215 0.22166 -0.24530
0.04410 0.22166 -0.29717
0.23810 0.21191 -0.20970
-0.02159 0.21486 0.13266
0.22117 0.15633 -0.34016
-0.23679 0.19106 0.35578
-0.18205 0.22166 0.30221
-0.24525 0.22166 -0.35280
-0.24227 0.19742 0.36126
0.25511 0.21974 -0.12191
-0.01385 0.22166 -0.12934
0.23880 0.12402 -0.34657
0.22881 0.21486 -0.07794
0.23653 0.22166 -0.21419
-0.00851 0.20006 0.35148
-0.25109 -0.05605 0.36690
0.22960 0.20263 0.33338
-0.19735 0.21486 -0.17855
-0.12662 0.20033 0.34298
-0.10082 0.22166 0.30601
0.23842 0.18893 0.35741
-0.25146 -0.06970 -0.36653
0.24935 0.21486 0.23739
0.23810 0.18215 -0.31001
0.17713 0.21486 -0.01920
0.05917 0.21486 -0.23206
-0.06011 0.21486 0.24857
0.10779 0.22166 -0.32369
-0.22960 0.18421 0.29673
-0.21186 0.18667 -0.34298
-0.03697 0.22166 0.18376
-0.22760 -0.19176 0.33537
-0.18877 0.21486 0.05630
0.20121 0.21486 0.33556
0.12995 0.21486 0.28122
-0.13473 0.22166 0.05463
0.08232 0.22166 -0.32236
-0.04461 0.22166 0.19953
0.05826 0.21486 0.01712
0.25085 -0.12785 -0.35862
0.24567 -0.02818 0.35344
-0.24436 0.22166 -0.10897
0.16258 0.21486 -0.30606
0.23739 0.21486 -0.12954
0.23996 0.02316 0.35895
-0.19577 0.21486 0.31294
-0.23647 0.22166 -0.34831
0.07501 0.22166 0.24596
0.22976 -0.05167 -0.34876
-0.08143 0.22166 -0.08401
-0.08770 0.21486 0.08916
0.25511 0.21817 0.25224
-0.10717 0.22166 -0.10421
-0.02238 0.22166 0.11919
-0.08420 0.22166 0.35545
0.03481 0.21486 0.14775
-0.22960 0.20519 -0.23781
0.23623 -0.13213 0.35523
0.03285 0.21822 -0.36849
-0.24343 -0.08317 0.36242
0.04743 0.21486 -0.13698
0.04890 0.17517 -0.34889
-0.24975 0.01907 -0.35752
-0.08465 0.22166 -0.02999
0.22960 0.19718 0.26229
0.23810 0.19108 0.00390
-0.09904 0.22166 0.19170
-0.23810 0.19668 -0.04915
0.22960 0.17638 0.27372
0.23103 0.04413 0.33880
-0.24280 0.15490 -0.36179
0.07127 0.22166 0.07078
0.19877 0.22166 0.26592
0.20367 0.22166 0.00585
-0.23810 0.20609 -0.09489
-0.01639 0.22166 0.16087
-0.08434 0.22166 0.11208
-0.19647 0.19001 0.35148
-0.05072 0.22166 -0.09432
0.12055 0.21486 0.32847
-0.13030 0.22166 -0.22014
-0.02388 0.22166 0.16090
0.09930 0.22166 -0.34631
-0.15224 0.21486 -0.12930
0.18080 0.22166 -0.12849
0.07666 0.21486 -0.33041
-0.11150 0.21486 0.14482
-0.17523 0.22166 0.36777
0.01356 0.21486 -0.10667
-0.06453 0.22166 0.00397
0.22960 0.20783 -0.17316
-0.13917 0.21486 -0.02969
0.22960 0.18139 -0.03672
-0.00702 0.21486 -0.24622
-0.14354 0.21486 -0.03652
-0.22335 -0.03022 -0.33560
0.02031 0.21486 -0.34571
0.09379 0.21486 0.18697
0.22960 0.18264 0.34003
0.22679 0.19996 0.34578
0.25511 0.21670 -0.14846
-0.06601 0.22166 -0.31387
-0.23147 -0.04591 -0.35047
-0.23810 0.20116 -0.02722
-0.23808 0.21486 0.09642
-0.25510 -0.11235 -0.36289
-0.20886 0.22166 0.07289
0.23933 0.21486 -0.27161
-0.16245 0.21486 0.00071
-0.06664 0.21486 0.22512
-0.23128 0.17517 -0.06202
-0.15665 0.21486 -0.33911
-0.25262 0.20079 -0.36537
0.21541 0.22166 -0.12109
-0.21855 0.18135 0.34298
0.23403 -0.15174 0.34180
0.25035 -0.01998 0.36764
0.06272 0.22166 0.03315
-0.16072 0.21486 -0.26585
-0.09449 0.21486 -0.04602
0.18205 0.22166 0.28797
0.02888 0.21486 0.08389
0.25487 0.21486 0.00553
0.12365 0.20460 0.34298
-0.12552 0.20762 0.34298
0.22960 0.18411 0.28369
-0.18603 0.22166 0.21636
0.23096 0.21486 0.05989
-0.21421 0.22166 -0.35926
0.23422 0.07864 0.35322
0.25332 -0.14790 0.36467
0.25327 -0.04660 0.36472
0.17844 0.22166 0.14004
-0.24791 -0.14037 0.35568
-0.16440 0.21411 -0.35148
0.08056 0.21210 -0.35148
-0.10791 0.22166 -0.22945
-0.15618 0.17969 0.35148
-0.10879 0.21486 -0.04700
0.04817 0.21486 0.32624
0.22960 0.18940 -0.31360
0.01305 0.18379 -0.34298
0.22960 0.21364 0.24978
0.03979 0.21486 0.21343
-0.21313 0.19756 0.35148
0.20836 0.22166 -0.23945
0.13620 0.22166 -0.36034
0.23810 0.20398 -0.11519
0.05658 0.21486 -0.31852
0.09311 0.22166 0.13166
0.16590 0.21486 -0.16879
-0.18526 0.21486 0.35765
-0.04510 0.22166 0.27529
0.18633 0.22166 0.16733
-0.22960 0.18615 -0.14827
0.22702 0.16504 -0.33479
-0.18542 0.22166 0.33000
0.12524 0.21486 -0.24414
-0.02547 0.21486 -0.06742
0.23810 0.20242 0.19807
-0.18619 0.22166 0.01710
-0.00796 0.21486 0.14338
-0.07683 0.18556 -0.35148
0.12991 0.22166 -0.09603
-0.20732 0.22166 0.03912
0.24094 0.05360 -0.35994
0.04540 0.21486 -0.34995
0.06270 0.21486 -0.33991
-0.11537 0.21486 0.23684
0.23810 0.17692 -0.06153
0.00061 0.22166 -0.18388
0.11869 0.21486 -0.16961
-0.02790 0.21486 0.06007
0.17560 0.21486 0.02267
0.22960 0.18179 0.22873
0.07782 0.21486 0.10771
0.22194 -0.16417 0.33701
-0.00956 0.19292 0.34298
-0.14571 0.21486 -0.35814
0.17606 0.21486 0.16372
0.21578 0.21486 0.14797
0.18933 0.21486 0.36753
0.22249 0.22166 -0.00372
0.01924 0.17839 -0.34298
0.22666 0.21486 0.16627
-0.04073 0.21486 0.18759
-0.24774 0.21486 -0.02348
-0.24310 0.21486 -0.34533
-0.16075 0.21486 0.22840
-0.05015 0.21486 -0.30614
-0.14687 0.22166 0.02814
-0.05400 0.22166 -0.30883
0.21383 0.18033 0.34298
-0.23562 -0.14577 0.35461
-0.23483 0.22166 -0.24008
-0.00343 0.22166 0.27745
-0.11213 0.22166 -0.17643
0.23810 0.17603 0.27485
0.22170 0.19024 0.34069
-0.22500 0.11279 0.33396
-0.09759 0.17897 -0.34298
-0.09392 0.21486 0.34849
-0.01910 0.22166 -0.05776
0.08399 0.22166 -0.10831
0.16555 0.22166 -0.30041
-0.07361 0.22166 0.15537
-0.23810 0.18221 0.06897
0.22224 0.21486 -0.31922
-0.11736 0.21486 -0.01300
0.12666 0.21486 0.28791
0.23810 0.19446 -0.11918
0.07336 0.22166 0.17232
-0.23710 -0.16475 -0.34487
-0.21479 0.21486 0.28823
-0.02635 0.22166 -0.17815
-0.22439 0.21486 -0.08159
-0.23136 0.17517 -0.16686
-0.22660 0.22166 -0.28734
0.05080 0.21486 0.18841
-0.25295 -0.18788 0.36504
-0.11229 0.22166 0.22830
-0.04385 0.21205 -0.34298
-0.05080 0.22166 0.12243
-0.23041 0.21486 -0.07548
0.18316 0.22166 0.36524
-0.07124 0.22166 -0.30380
0.13372 0.17757 -0.34298
0.22976 0.21486 -0.18248
-0.19291 0.22166 0.35749
-0.17781 0.21486 0.36090
-0.12532 0.22166 0.08719
0.06252 0.21486 0.35887
0.18113 0.22166 0.00077
-0.22960 0.19468 0.07997
0.12224 0.19301 0.35148
0.23810 0.19354 0.05240
0.23487 0.22166 0.26850
0.12380 0.22166 -0.13954
-0.25481 0.21486 -0.11748
0.20011 0.21486 -0.17141
0.24418 0.22166 0.28512
-0.06982 0.21486 -0.03284
0.17145 0.21486 0.00254
0.02169 0.22166 -0.30046
-0.10149 0.17804 0.35148
0.09764 0.22166 0.28599
0.06012 0.22166 -0.06250
0.25294 -0.13467 -0.36505
0.23810 0.18931 0.08512
0.06126 0.17880 0.34298
-0.03272 0.21486 0.34613
-0.00449 0.17517 -0.34999
-0.00866 0.21486 0.02652
-0.12387 0.21486 0.29328
0.10583 0.22166 0.10810
-0.05685 0.22166 -0.19773
-0.22318 0.21256 0.33577
0.05937 0.21486 -0.21282
0.21735 0.22166 -0.13006
-0.23790 -0.05542 -0.35690
-0.16010 0.22166 -0.15479
0.22960 0.17989 -0.30727
-0.24086 0.21486 -0.02905
0.23627 0.22166 -0.25084
0.01591 0.20368 -0.35148
-0.23162 0.19382 0.33939
0.20145 0.22166 -0.02427
-0.23134 0.21486 0.18065
0.24084 0.00687 -0.35983
0.17450 0.22166 0.06208
0.21402 0.22166 -0.27713
0.23200 0.17517 -0.28242
-0.22236 0.11414 0.34135
-0.02060 0.18711 0.34298
0.02057 0.18707 -0.35148
-0.03167 0.22166 0.16437
0.12710 0.22166 0.00356
0.23600 0.07530 -0.34377
0.21376 0.21486 0.23892
0.03250 0.22166 -0.27638
0.18353 0.21486 0.29688
0.23828 0.03671 0.35727
-0.05528 0.20542 0.35148
-0.17460 0.18127 -0.35148
0.22407 0.22166 0.06313
0.23360 -0.08051 -0.34137
0.20386 0.21486 -0.05066
-0.23723 -0.19906 0.34500
-0.07315 0.19697 -0.35148
-0.12404 0.22166 0.31028
-0.10104 0.22166 -0.11823
0.06751 0.21486 0.27748
0.17962 0.21486 -0.25960
-0.22960 0.18638 0.02256
-0.02411 0.21486 -0.11851
-0.23601 0.20383 0.35501
-0.10572 0.22166 0.25414
0.24867 0.14068 -0.35644
-0.22960 0.20490 0.32626
-0.23810 0.19307 -0.17639
0.23810 0.20831 0.09399
0.20025 0.22166 -0.23508
0.21924 0.22166 -0.22097
-0.18332 0.22166 0.34764
-0.11735 0.22166 -0.03828
0.25296 -0.00401 -0.36073
-0.24459 -0.09455 0.36359
-0.08071 0.21486 -0.04802
0.04323 0.22166 0.20435
-0.03210 0.22166 0.12109
-0.23810 0.20146 0.09763
0.01523 0.22166 0.08159
-0.22625 0.21486 -0.06518
-0.24526 -0.01629 0.35302
-0.15946 0.22166 -0.25292
0.16113 0.21486 0.17556
0.23716 0.21486 0.05481
-0.22960 0.18220 0.05247
-0.23810 0.19452 -0.28014
-0.19868 0.21486 -0.02990
0.08863 0.17583 -0.35148
-0.21750 0.21486 0.26544
0.02315 0.22166 -0.03359
-0.23798 0.21486 0.15493
-0.11466 0.22166 -0.35127
-0.24553 0.21486 -0.35263
0.13222 0.21486 -0.11653
-0.00752 0.21486 0.34788
0.25511 0.22089 0.26999
0.22755 -0.05498 0.33532
0.23493 -0.14080 0.35392
0.19678 0.21486 -0.07033
0.24806 0.22166 0.08056
-0.22412 0.21486 0.20741
0.11282 0.21486 -0.04856
0.25511 0.22114 0.19379
0.22960 0.18793 0.22220
-0.16657 0.22166 -0.09356
0.22315 -0.01458 0.33581
-0.22216 0.22166 -0.05776
0.25288 -0.09373 -0.36065
-0.10293 0.22166 -0.23411
0.03678 0.21486 -0.28951
-0.09539 0.21486 0.26122
-0.23240 -0.11252 -0.35139
-0.21509 0.22166 -0.28681
0.03007 0.22166 0.11844
-0.23163 0.17517 0.07260
0.23609 0.22166 0.25189
0.00318 0.21486 -0.27836
-0.14776 0.22166 0.25270
0.22819 -0.14950 0.34718
0.14497 0.22166 0.02328
0.23263 0.02868 0.34040
0.24447 -0.16652 -0.36346
0.16786 0.20571 -0.35148
0.15572 0.22166 0.18867
-0.21396 0.22166 -0.19977
0.14764 0.22166 0.35485
-0.10328 0.21486 -0.24096
-0.04199 0.22166 -0.24114
-0.10587 0.22166 0.27801
0.02555 0.22166 -0.22091
0.23810 0.19411 0.16640
0.04430 0.22166 0.30635
-0.25085 0.06762 0.36713
-0.22960 0.19243 -0.33518
-0.23015 0.13827 0.34914
0.13659 0.21486 0.35785
0.23810 0.20845 -0.13124
0.16400 0.21486 0.04126
0.09487 0.21486 -0.35562
0.17820 0.22166 -0.03269
0.09209 0.22166 0.09736
-0.07311 0.21486 -0.15386
-0.18915 0.21486 -0.11784
-0.16484 0.21486 -0.24662
-0.18626 0.22166 0.19185
-0.20059 0.21486 0.27239
0.09316 0.21486 0.00297
-0.25499 -0.03332 0.36276
-0.17496 0.20822 0.35148
-0.18194 0.19309 -0.34298
0.11218 0.21127 0.35148
0.06952 0.22166 0.00520
-0.04510 0.21486 -0.18865
0.23489 0.08249 0.34266
-0.08778 0.19085 -0.34298
0.22960 0.19438 -0.04764
-0.14301 0.21486 -0.27711
0.18093 0.22166 -0.24869
-0.07530 0.18585 0.35148
0.23142 0.17517 0.09474
0.08355 0.21486 -0.02805
-0.22583 0.15638 0.33360
0.16018 0.21486 0.03003
-0.11748 0.21486 0.03005
0.22952 0.22166 0.05817
-0.04760 0.22166 0.16354
0.11043 0.20612 -0.35148
0.00184 0.21486 0.13214
0.23364 0.21486 -0.24521
0.25257 0.21486 -0.35474
-0.23564 0.21486 -0.26400
0.19456 0.21486 0.34833
0.22960 0.20045 0.03991
-0.00256 0.22166 0.20966
0.02760 0.22166 -0.15395
-0.10777 0.21486 -0.18175
-0.24152 -0.02391 -0.36051
0.24856 -0.01969 0.35633
0.23296 0.17517 -0.30443
0.22536 0.22166 0.35233
0.22960 0.19999 0.15758
-0.12535 0.21486 0.14385
0.09610 0.21486 0.21180
-0.14716 0.22166 0.08153
-0.02164 0.22166 -0.32804
0.23810 0.20074 -0.18690
0.10803 0.21486 0.14239
-0.23810 0.18490 0.19152
0.02263 0.22166 -0.14564
0.06472 0.19451 0.35148
-0.00646 0.21486 -0.22123
0.22156 0.22166 0.31856
0.18221 0.21486 0.19238
-0.01477 0.22166 -0.23663
-0.25341 -0.06303 -0.36118
0.10820 0.21486 -0.22645
-0.20509 0.21486 -0.15332
-0.00653 0.22166 -0.25282
-0.04704 0.22166 0.10681
-0.09693 0.21486 -0.29883
0.19608 0.22166 -0.06064
-0.23109 -0.01079 -0.33886
0.22960 0.20539 -0.23103
-0.07752 0.21486 0.02671
0.10278 0.21486 0.31707
-0.17606 0.22166 0.15226
0.07555 0.17912 0.34298
0.23526 0.02481 -0.35425
0.24189 0.22166 -0.05714
-0.03048 0.22166 -0.18693
-0.19266 0.22166 0.09376
0.24676 -0.17506 0.36575
0.13277 0.21486 0.29140
-0.22960 0.19167 -0.14748
-0.25161 -0.01628 -0.36637
0.20017 0.22166 -0.18329
0.11642 0.22166 -0.31071
0.22231 -0.19474 -0.34130
-0.20358 0.22166 -0.06461
-0.16307 0.21486 0.23812
0.17030 0.22166 0.27514
0.08240 0.21486 0.09678
-0.03904 0.22166 0.22215
0.20603 0.21486 0.23657
0.22960 0.20145 0.12186
0.06750 0.22166 -0.01659
-0.01002 0.21311 0.35148
0.11704 0.22166 0.19414
0.16995 0.18266 -0.35148
0.22274 0.13377 -0.34173
-0.02176 0.21486 0.27204
0.15091 0.21486 0.03947
-0.23835 0.22166 0.15504
0.00165 0.21486 -0.12904
-0.20650 0.21486 -0.16677
-0.12888 0.21486 -0.24617
0.24091 -0.13631 -0.35990
-0.04092 0.22166 -0.32424
-0.23890 0.13786 0.35790
-0.23200 0.22166 0.15492
0.23614 0.16723 0.34391
0.23394 0.22166 0.00662
-0.24163 0.13545 0.34940
-0.23810 0.20243 0.25398
0.06391 0.21486 -0.05537
-0.01641 0.21486 0.03325
0.25193 -0.06651 -0.36606
-0.11759 0.21486 0.13145
0.24659 0.04773 -0.36558
-0.23761 0.02972 0.34538
-0.13682 0.21486 -0.01261
-0.05265 0.22166 0.05851
0.10651 0.21486 -0.35411
-0.03973 0.21486 -0.08590
-0.02225 0.21486 0.25627
0.09073 0.20802 0.34298
0.10115 0.22166 0.30477
-0.23521 0.21486 0.17365
0.22960 0.18754 -0.10705
-0.03189 0.22166 0.33519
-0.24953 -0.13282 0.35730
0.11249 0.21486 0.08732
-0.25448 0.10478 0.36351
-0.14117 0.22166 -0.36768
-0.19829 0.21486 -0.22570
-0.09748 0.22166 0.09619
-0.22610 0.21486 0.06491
0.16433 0.22166 -0.05241
-0.23891 0.21486 -0.31991
-0.07529 0.22166 0.11186
-0.11699 0.22166 -0.29628
0.22960 0.19922 -0.18947
-0.25314 0.21486 -0.11203
-0.04246 0.21486 -0.09117
-0.20634 0.21486 0.23043
0.14050 0.22166 0.17686
-0.15255 0.21486 0.02296
-0.15471 0.21486 0.10380
-0.24184 0.22166 0.25354
-0.09426 0.22166 -0.09120
0.25024 0.19517 -0.35802
-0.13340 0.22166 -0.36167
0.08884 0.22166 0.11907
0.07537 0.22166 0.21387
-0.23810 0.19317 0.03479
0.22770 -0.00834 -0.33547
-0.22729 -0.06224 0.34628
-0.23552 0.17517 -0.32489
-0.15530 0.21486 0.09465
-0.24841 0.03153 -0.35618
-0.20798 0.21486 0.00825
-0.04336 0.22166 0.22561
0.25216 0.22166 -0.13155
0.14729 0.18301 0.35148
0.16175 0.21486 0.13774
0.22372 0.07916 -0.34271
0.17635 0.22166 -0.01558
-0.23928 0.02049 0.34705
0.23082 0.07069 -0.34981
0.19081 0.21486 0.01442
-0.09565 0.22166 -0.07376
-0.23173 0.21486 -0.16416
0.07572 0.17517 -0.34836
-0.08090 0.22166 -0.10165
-0.15477 0.21486 -0.27606
0.22997 0.21486 0.12104
0.23215 0.21202 -0.35115
-0.00678 0.22166 -0.29675
-0.22194 -0.01190 0.34093
-0.24296 -0.12513 -0.36196
0.22056 0.18637 0.34298
0.23355 0.22166 0.19903
0.07443 0.22166 0.33197
-0.01513 0.21486 -0.31171
-0.22772 -0.21015 -0.34671
0.07171 0.21486 0.19837
0.02744 0.22166 -0.19955
0.23146 0.05219 -0.35046
-0.20153 0.20771 -0.34298
-0.05971 0.21486 -0.36577
-0.14747 0.22166 0.31486
-0.16162 0.22166 -0.13681
-0.05180 0.21486 -0.34196
0.11714 0.21486 -0.33759
-0.02321 0.22166 -0.15622
0.00501 0.22166 -0.23998
-0.19080 0.22166 -0.21364
-0.13968 0.19113 -0.35148
-0.00984 0.21486 -0.31729
-0.01203 0.22166 0.35687
-0.07910 0.21486 0.24119
0.04219 0.22166 0.10710
0.24983 0.22166 -0.34417
0.10365 0.22166 -0.13429
-0.00175 0.21486 0.23965
0.05224 0.22166 -0.04691
0.04259 0.22166 -0.25723
0.25127 0.21486 -0.02011
0.15835 0.22166 0.05240
-0.05411 0.22166 -0.13365
-0.23810 0.19062 -0.03345
-0.13934 0.21486 0.16281
-0.25034 0.17190 0.35811
-0.24507 0.21486 -0.08384
-0.05203 0.21486 -0.20356
-0.23628 0.21486 -0.27128
0.23810 0.19312 0.04523
-0.22960 0.20539 -0.06141
0.07253 0.22166 -0.32953
0.22717 -0.12578 0.34617
0.25010 0.21486 0.21810
0.19437 0.21486 0.21241
0.06005 0.22166 0.13507
-0.24373 0.21486 0.01811
0.02314 0.21486 -0.26725
0.05048 0.21486 0.17503
-0.06376 0.21486 -0.26538
-0.16303 0.19648 -0.35148
-0.24970 0.21083 0.36829
0.15153 0.21486 -0.36080
0.25452 -0.14271 0.36229
0.05004 0.22166 0.17364
0.23569 -0.10583 0.35469
0.21491 0.21486 -0.21160
-0.10597 0.22166 -0.13521
-0.04645 0.21486 -0.12517
0.25085 0.21486 0.17243
-0.22960 0.17606 -0.12132
0.04311 0.22166 0.36025
-0.22967 0.02538 -0.33744
0.13506 0.21486 0.08769
-0.06761 0.21486 0.30360
-0.16666 0.21486 0.31334
0.21901 0.21486 0.03042
0.14912 0.22166 0.30175
-0.02260 0.21486 -0.08832
-0.08918 0.22166 -0.21475
0.10030 0.21486 -0.05391
0.12097 0.18824 -0.34298
-0.04920 0.22166 -0.36026
0.25467 0.19550 -0.36244
-0.18285 0.17517 0.35048
-0.14299 0.21486 -0.06389
-0.23266 0.22166 -0.23291
0.14921 0.22166 0.07778
-0.19542 0.20721 0.34298
0.14163 0.17736 -0.35148
-0.23810 0.17753 -0.21723
-0.12556 0.21486 -0.16341
0.14093 0.20251 -0.34298
0.23183 0.21486 -0.08218
-0.20983 0.21486 -0.09898
0.15527 0.22166 0.12917
-0.19345 0.22166 0.00135
0.22066 0.07288 0.33966
0.15883 0.22166 -0.33934
0.05584 0.21486 -0.34119
-0.05251 0.22166 0.07873
-0.16145 0.21486 0.20420
-0.23511 0.22166 -0.22665
-0.09531 0.22166 0.35455
-0.24548 0.05087 -0.36447
0.02669 0.21486 0.00750
0.23810 0.19803 -0.27095
0.22960 0.20805 -0.19320
-0.23810 0.18199 -0.07718
0.19609 0.21486 0.00820
-0.22960 0.19840 0.32146
0.13561 0.22166 0.13231
0.22960 0.19432 0.08225
0.08266 0.21486 0.07629
0.16945 0.22166 0.03009
0.08101 0.22166 0.00163
0.24200 0.08802 -0.36099
-0.23810 0.21065 -0.16425
-0.23810 0.18910 -0.14821
0.11882 0.22166 0.09564
0.12322 0.20837 -0.34298
-0.19249 0.21486 -0.26681
0.05534 0.21486 -0.29838
0.21573 0.21486 0.22913
-0.07503 0.22166 -0.06552
-0.13547 0.22166 -0.18313
-0.20921 0.22166 0.11050
-0.15714 0.21486 0.03264
-0.00623 0.17717 0.35148
-0.06056 0.21486 0.32820
-0.10682 0.22166 -0.35677
-0.19977 0.22166 0.29353
-0.21477 0.22166 0.01227
0.14648 0.22166 0.27950
0.20703 0.21486 -0.25572
-0.03050 0.21486 -0.02505
-0.23810 0.20604 0.04257
0.23810 0.18720 0.26950
-0.05544 0.21486 -0.27685
0.12219 0.22166 0.21350
0.12609 0.21486 0.35174
0.24221 0.22166 0.30694
-0.13195 0.22166 0.25741
-0.21115 0.21486 0.18132
0.23810 0.19093 -0.28127
0.24028 -0.00711 -0.34805
-0.23140 0.17517 0.23345
-0.21868 0.21486 0.18719
0.09979 0.22166 -0.27055
0.00990 0.17737 -0.34298
0.23922 -0.12984 0.35821
-0.23565 -0.10520 -0.34342
0.21411 0.22166 0.07019
-0.01346 0.22166 0.27463
0.23810 0.17950 -0.20790
-0.25479 -0.12434 0.36319
-0.00575 0.21705 0.36849
0.19048 0.22166 0.09330
0.08417 0.19120 0.34298
-0.08611 0.21486 0.16692
0.23150 0.20710 -0.33927
-0.16792 0.21486 0.09190
0.09396 0.22166 -0.00554
-0.24303 0.19297 0.35080
0.00373 0.22166 0.15393
-0.17699 0.21486 -0.11701
0.22396 0.22166 -0.07810
-0.17417 0.22166 0.27078
-0.10183 0.22166 0.09792
0.25511 0.21746 -0.30127
0.17166 0.22166 0.33499
-0.05074 0.20390 -0.34298
0.09605 0.18800 0.34298
0.24718 0.19670 0.36618
0.23810 0.20090 0.35055
-0.00510 0.22166 -0.16770
0.17653 0.21486 0.03238
0.17120 0.22166 -0.17100
0.07050 0.21486 -0.05235
-0.00557 0.21486 -0.17840
0.09008 0.22166 0.27949
0.16846 0.22166 0.21742
0.01221 0.22166 0.12124
0.03620 0.22166 0.29103
-0.01681 0.22166 -0.28797
0.13787 0.22166 0.23639
0.25335 -0.06711 0.36112
-0.03371 0.22166 -0.16883
-0.21658 0.22166 -0.06624
-0.16219 0.22166 0.16330
0.24902 0.21486 -0.02917
0.03620 0.21486 -0.14005
-0.06041 0.22166 0.20613
0.03193 0.18046 0.34298
0.02911 0.20509 -0.34298
0.20888 0.22166 -0.26383
-0.10700 0.21486 0.15643
-0.02400 0.22166 -0.08382
0.24645 0.21486 -0.22259
0.15422 0.22166 0.14309
-0.19033 0.21486 0.02058
-0.09897 0.21486 0.01629
-0.14050 0.21486 0.01580
0.24783 0.07340 -0.36683
-0.20998 0.22166 -0.01557
-0.19040 0.21486 -0.31963
-0.21711 0.22166 0.30872
0.07969 0.21486 -0.19906
0.23898 -0.15165 0.35797
-0.22960 0.17703 -0.04452
-0.06911 0.21486 -0.20415
0.25511 0.21664 0.22629
-0.09076 0.22166 0.11071
0.13504 0.22166 0.18597
-0.04742 0.22166 0.29571
0.17513 0.22166 -0.27416
0.14623 0.21486 -0.11364
0.17048 0.22166 0.07870
0.25233 0.22166 0.13252
-0.01526 0.21486 -0.00156
-0.01456 0.22166 -0.19160
0.03830 0.22166 -0.00483
-0.01736 0.21486 -0.36015
-0.00223 0.21486 0.34980
0.17453 0.21486 0.10907
-0.22960 0.18008 -0.27814
-0.10355 0.21486 0.32121
0.24870 -0.11401 -0.36770
-0.05741 0.22166 -0.07950
-0.00961 0.21486 0.08148
-0.19976 0.22166 0.23240
0.18784 0.22166 0.30615
0.18974 0.21486 0.08308
-0.01135 0.19414 -0.34298
-0.21450 0.21486 0.17104
0.22377 0.21486 0.25376
-0.06506 0.21486 0.12010
0.24511 0.22166 -0.17366
0.23810 0.19057 -0.32105
0.09149 0.22166 -0.21054
-0.13059 0.21486 -0.15332
0.05060 0.22166 -0.33336
-0.11769 0.17894 0.35148
-0.22960 0.18054 -0.15168
0.03027 0.21486 -0.26956
0.16101 0.22166 -0.08763
-0.09041 0.22166 0.08667
-0.04426 0.21486 0.30851
-0.23291 0.16057 0.35191
0.24124 -0.08012 -0.34901
-0.21125 0.21486 0.33899
-0.21676 0.19656 0.34298
-0.09760 0.21486 0.20271
-0.23820 0.21486 0.02852
0.23810 0.20703 0.26128
-0.02029 0.21486 0.36156
0.23810 0.19535 0.06218
-0.23820 -0.02580 -0.35719
-0.23810 0.20865 0.30064
-0.13126 0.22166 0.35789
0.23810 0.21032 0.03097
-0.24229 0.22166 0.06465
-0.21832 0.21486 0.22978
0.11394 0.22166 0.14372
-0.22960 0.20987 -0.13907
0.22960 0.20059 0.05065
-0.06840 0.21486 -0.14355
0.13340 0.21868 0.36849
-0.17084 0.21486 0.11911
-0.04606 0.22166 -0.10623
0.08078 0.21486 0.17233
-0.24047 -0.03742 0.34824
-0.18730 0.21486 -0.12373
0.00569 0.21486 -0.23638
-0.23810 0.19765 0.24003
-0.22380 0.22166 0.29611
0.08630 0.21486 0.33203
0.22960 0.19190 0.05315
-0.12634 0.21988 0.36849
0.04378 0.21486 -0.07034
0.22960 0.18620 0.17904
-0.04174 0.22166 -0.31323
-0.15972 0.22166 0.33622
0.01798 0.22166 -0.29443
-0.02566 0.22166 0.06105
-0.03328 0.21486 0.12844
0.22537 0.22166 0.23509
-0.01147 0.21486 -0.35143
0.19675 0.21486 0.33147
0.23348 -0.13653 -0.34125
0.02372 0.21486 0.21425
0.08897 0.22166 0.26430
0.23165 0.22166 -0.13191
-0.25189 0.22166 -0.08378
0.14893 0.21486 0.18690
0.07576 0.21486 -0.21993
0.15287 0.21486 0.18371
0.25364 0.22166 0.10852
-0.05562 0.22166 0.24983
0.05130 0.22166 -0.25019
-0.22331 -0.00943 -0.33565
0.22450 0.16013 -0.33446
-0.08872 0.22166 0.12464
0.11448 0.22166 -0.26343
-0.06731 0.22166 -0.09805
-0.21996 0.22166 -0.09579
-0.00772 0.22166 -0.10669
-0.22960 0.17599 -0.18429
-0.01405 0.22166 -0.11165
-0.23007 0.17517 -0.32655
-0.00971 0.22166 0.26921
-0.25326 0.21486 -0.01570
-0.22960 0.19845 -0.13422
0.07521 0.21486 -0.35981
-0.22415 0.12895 -0.34315
0.22960 0.21398 -0.28543
0.25125 -0.00089 0.35902
-0.04032 0.22166 -0.20036
-0.19028 0.21486 -0.09157
-0.23810 0.20366 -0.04172
0.11740 0.21486 -0.00095
-0.18642 0.22166 0.05928
-0.24820 0.21486 0.31725
0.17229 0.21486 0.35604
0.24287 0.22166 -0.28555
0.03910 0.22166 -0.15043
0.15827 0.22166 0.26972
-0.10781 0.21486 0.35188
-0.25123 -0.03075 -0.36675
0.12861 0.22166 -0.08093
0.23508 -0.16034 -0.34285
0.22062 0.15405 0.33962
0.06903 0.21486 0.00135
0.03602 0.18029 0.35148
-0.03701 0.21486 -0.00575
-0.22960 0.18423 0.19348
-0.21016 0.21456 -0.35148
-0.20653 0.22166 -0.11433
0.01874 0.21486 0.16105
-0.19629 0.22166 -0.07863
-0.16370 0.22166 0.16990
0.02024 0.21486 -0.13415
0.07268 0.22166 0.35801
-0.07372 0.22166 0.21848
0.12390 0.22166 0.17059
-0.22830 -0.10435 0.34729
0.07528 0.22166 -0.12112
-0.22960 0.19966 0.31352
-0.22960 0.19971 -0.11121
-0.04509 0.22166 0.33167
0.18591 0.22166 -0.29567
-0.23810 0.20024 0.00697
0.17519 0.21486 -0.24028
0.10926 0.22166 0.07861
-0.07761 0.22166 0.05600
-0.10780 0.22166 -0.08727
-0.21553 0.21486 -0.28078
-0.03959 0.21486 -0.30986
-0.22566 0.21486 -0.13352
-0.22960 0.19199 0.22801
-0.20637 0.22166 -0.34175
-0.16006 0.21486 -0.34636
0.02594 0.19396 0.35148
-0.22960 0.20521 0.19127
0.05878 0.21486 -0.10790
-0.15937 0.22166 -0.30939
0.24827 0.22166 0.14337
-0.01544 0.22166 0.06577
0.22160 0.18565 -0.33736
-0.19431 0.22166 -0.17594
-0.10674 0.20511 -0.35148
0.23437 -0.22062 0.35336
0.16711 0.21486 0.26430
0.23264 0.01394 0.34040
-0.12906 0.17517 -0.34672
-0.23406 0.21486 -0.28691
0.10980 0.19147 -0.35148
0.23098 0.22166 0.32212
-0.17212 0.22166 -0.01104
0.04330 0.22166 -0.30949
0.00896 0.17567 0.35148
0.02546 0.22166 -0.27042
0.15973 0.22166 -0.15073
-0.03998 0.22166 -0.13676
0.03679 0.19421 0.35148
0.03247 0.21486 -0.02886
0.24675 -0.20518 0.36574
-0.24905 0.10323 -0.36804
0.14775 0.21486 0.30168
0.00577 0.19153 -0.34298
-0.22960 0.19007 -0.31813
-0.24418 0.16583 0.35195
0.16424 0.22166 -0.15477
0.04656 0.21486 0.12870
0.23810 0.20028 -0.15505
-0.07317 0.22166 0.20204
-0.24101 0.21486 -0.35607
0.10891 0.21486 -0.30514
-0.01294 0.22166 -0.22066
-0.25044 -0.21804 -0.35821
-0.06689 0.22166 0.17348
-0.22960 0.18429 0.28869
0.12057 0.22166 -0.19720
0.02050 0.21486 0.26452
0.23260 0.17517 -0.01276
0.23529 0.17517 -0.00006
0.23703 0.05098 0.34480
0.04189 0.21486 0.05426
-0.06535 0.22166 -0.35016
0.20890 0.21486 -0.23996
-0.17602 0.21486 -0.10322
-0.03819 0.20973 -0.34298
0.20597 0.21486 0.02545
0.14699 0.21486 0.27611
0.07856 0.21486 0.28982
0.11972 0.21486 -0.08531
0.00626 0.22166 0.07422
-0.22439 -0.18129 -0.33457
-0.23021 0.21486 0.21953
-0.07717 0.19641 0.35148
-0.16139 0.22166 -0.26097
-0.24832 0.21486 -0.34191
0.17418 0.22166 0.01406
-0.16949 0.22166 0.05197
-0.24137 0.20194 0.36036
0.12236 0.21486 0.15570
-0.10521 0.22166 0.00383
-0.05068 0.21486 -0.05317
-0.15301 0.22166 0.10089
0.07652 0.22166 -0.01425
-0.22019 0.21486 0.01573
0.07005 0.21017 -0.35148
0.14627 0.18668 -0.34298
-0.14057 0.21486 0.15798
-0.06601 0.22166 -0.16615
0.19864 0.21486 0.17971
0.21018 0.21486 0.34838
-0.14881 0.22166 -0.18866
0.10617 0.21486 0.09025
0.24411 0.21486 -0.11808
0.19274 0.21486 0.24247
0.23810 0.20884 0.15603
-0.08574 0.19153 0.34298
-0.23844 0.18680 -0.35744
-0.22967 -0.10745 0.33744
-0.05108 0.21486 0.19128
0.22583 0.17575 -0.33359
-0.13834 0.22166 -0.31842
-0.18825 0.21486 0.09817
-0.25376 0.02686 0.36153
0.22960 0.21160 -0.10558
0.22715 0.21486 -0.21222
-0.16605 0.22166 -0.29959
0.23322 0.17517 0.26715
-0.00314 0.22166 0.10317
-0.00983 0.22166 0.15394
-0.23013 -0.14923 -0.33790
0.21762 0.22166 0.16652
-0.14620 0.22166 0.20770
-0.11762 0.21486 -0.14644
-0.01973 0.21486 0.21045
-0.14883 0.22166 -0.00897
-0.22175 -0.03427 0.33721
-0.19230 0.22166 0.27464
0.20127 0.21486 -0.34838
0.10647 0.21486 -0.34757
0.03853 0.21486 -0.14740
-0.21020 0.22166 0.32583
0.04280 0.22166 0.17356
0.23765 0.21486 -0.08553
0.10657 0.22166 0.21532
0.06973 0.22166 -0.21473
0.22960 0.18597 0.13988
-0.01282 0.22166 -0.11952
-0.25056 0.17455 -0.35833
0.22653 0.14358 0.33430
0.18950 0.21486 0.26418
0.02817 0.22166 0.15039
0.22201 0.21486 0.34717
0.10199 0.22166 -0.32126
-0.06362 0.21486 -0.12530
-0.21703 0.22166 -0.01987
0.06078 0.22166 -0.17030
-0.01440 0.21486 0.21578
-0.25150 0.22166 -0.10567
0.23810 0.18976 -0.17311
0.07107 0.22166 0.28437
0.22543 0.06556 0.34443
0.21251 0.18845 0.34298
-0.13706 0.22166 0.17866
0.22960 0.18824 -0.30380
0.23810 0.19381 0.17314
-0.24414 -0.03979 -0.35191
-0.18352 0.21486 -0.16487
0.22734 -0.04468 -0.34634
-0.12564 0.21486 0.25612
0.23481 0.21486 0.04559
0.00555 0.21486 -0.26430
-0.08086 0.21486 0.35889
-0.07835 0.21486 0.12005
0.08847 0.21486 -0.22004
-0.03795 0.21486 -0.34975
0.16187 0.19743 -0.35148
0.24763 -0.18075 -0.35539
-0.24779 0.21486 -0.06693
-0.23950 -0.16359 -0.35850
0.13148 0.22166 -0.13040
0.23810 0.19316 -0.08448
0.15591 0.21486 -0.11199
-0.20596 0.22166 0.27020
-0.00171 0.18784 0.34298
0.03775 0.22166 -0.15943
0.05393 0.21486 0.03531
0.14653 0.22166 -0.04687
-0.23806 0.21486 0.24617
-0.01229 0.22166 0.28085
0.08371 0.22166 0.04929
-0.24236 0.21486 0.26962
0.23396 0.21486 -0.04418
-0.25015 0.22166 0.25772
0.23939 0.06364 0.34716
-0.24726 0.22166 0.11091
-0.13012 0.22166 -0.08616
0.07444 0.19812 -0.35148
-0.18711 0.22166 0.02416
-0.15814 0.21486 -0.03377
0.18702 0.22166 0.21465
0.02643 0.21486 -0.11834
0.20246 0.21486 0.16110
0.00352 0.21486 0.28608
0.19442 0.21486 -0.22278
-0.24447 0.12979 -0.36347
-0.22960 0.19060 -0.10476
-0.22960 0.20124 -0.18857
0.15953 0.22166 0.24981
-0.22050 0.22166 -0.12495
-0.24265 -0.07444 -0.35042
-0.25451 0.16708 -0.36347
-0.02081 0.22166 0.10635
0.08071 0.22166 0.33888
0.25433 0.22166 0.03524
0.23427 0.10655 0.34204
-0.19039 0.21486 -0.01937
-0.11630 0.22166 0.20036
-0.24341 0.22166 -0.26334
0.06248 0.21486 0.35057
-0.24128 0.12965 0.34905
0.21516 0.22166 0.06012
0.05249 0.22166 0.32410
-0.22960 0.20291 0.20610
-0.10866 0.21486 -0.24537
0.10387 0.21486 0.13988
-0.14814 0.22166 -0.34945
-0.09098 0.22166 -0.26853
0.24833 -0.18804 -0.35610
-0.11420 0.22166 0.07221
0.05473 0.21486 -0.09332
0.25120 0.22166 -0.29009
0.09134 0.21486 -0.18896
-0.02600 0.21486 -0.36352
0.05540 0.22166 0.13734
0.08918 0.22166 -0.22641
-0.17002 0.22166 -0.27126
-0.12508 0.21486 -0.13520
0.08785 0.21993 -0.36849
-0.10103 0.22166 -0.10190
-0.23810 0.21429 -0.03304
-0.22960 0.19212 -0.23011
-0.00211 0.22166 -0.25591
-0.18010 0.22166 0.10551
0.25160 -0.12821 -0.36639
-0.02290 0.22166 0.16843
0.13064 0.21486 -0.02627
0.18305 0.21486 -0.08607
-0.11442 0.21486 -0.02233
-0.24251 -0.00992 -0.36150
0.17124 0.21486 0.13295
0.02272 0.21486 -0.05110
-0.13011 0.22166 -0.01076
0.22842 0.21486 -0.15360
0.09986 0.22166 -0.20089
0.18652 0.21486 0.17986
