ply
format ascii 1.0
comment VCGLIB generated
element vertex 1882
property float x
property float y
property float z
element face 0
property list uchar int vertex_indices
end_header
0.04095 -0.09337 0.05290
-0.18937 0.03374 0.32877
0.07220 0.10671 0.27979
-0.09894 -0.09337 -0.13641
0.17498 0.09337 -0.00789
-0.14640 0.09337 0.20343
0.25341 -0.10671 -0.16206
-0.15487 0.08607 0.38469
-0.24164 -0.07267 0.26564
0.16325 -0.09337 -0.29851
0.21629 -0.02031 0.30491
0.27100 0.09337 0.24143
-0.08991 0.10671 0.03535
-0.08249 -0.09337 0.10686
0.02274 0.06069 0.34898
0.21184 0.09337 0.12311
0.24931 -0.09337 -0.13318
-0.00945 0.09337 0.12807
0.23756 0.10671 0.35061
-0.05991 -0.09337 0.12953
0.11184 0.10671 0.13088
-0.07990 -0.10671 0.03619
-0.10753 0.10671 0.03935
0.09596 -0.10671 -0.29540
-0.04051 0.10671 0.11690
-0.11930 -0.10671 -0.16829
0.02611 0.01393 0.33059
0.17093 -0.10671 0.03520
0.27550 0.09337 0.33073
-0.11784 0.09337 -0.03181
0.26068 -0.09337 -0.15409
-0.24168 0.10671 0.06009
0.23895 0.09337 0.08694
0.02552 -0.10671 0.02345
-0.15718 -0.09337 0.17050
-0.22638 -0.00863 0.31367
0.12240 0.10671 0.25704
-0.14801 0.10671 0.20634
-0.21698 -0.09337 -0.08013
0.16584 0.09337 0.21737
-0.04124 0.10671 0.13203
-0.25435 0.10671 -0.03896
-0.22504 -0.10671 -0.19697
0.17000 -0.10671 -0.11868
0.09836 -0.09337 0.00170
-0.16440 0.10225 0.39683
-0.20720 -0.09337 -0.03629
-0.25915 -0.09337 -0.32142
-0.27476 0.02963 0.32569
-0.10406 0.09337 0.24122
0.05831 -0.10671 -0.08434
-0.06105 -0.10671 0.16699
-0.19645 0.10671 0.39549
-0.26777 0.10671 -0.00162
-0.14692 0.10671 -0.07732
0.07838 0.07411 0.37572
-0.18472 0.09337 0.05697
-0.19591 0.08859 0.36991
0.20211 0.09337 -0.05061
0.27955 -0.09337 0.06350
-0.19481 -0.10671 -0.16098
-0.26777 -0.09337 -0.09567
-0.00571 -0.10671 -0.09123
-0.07919 0.09337 0.00197
-0.15154 0.09337 0.01323
0.07387 0.08142 0.36453
-0.10340 0.10671 -0.08075
-0.21522 0.10671 0.38481
-0.16723 0.10671 -0.08601
-0.27193 -0.10671 -0.23981
0.12317 0.10671 0.17250
0.05840 -0.10671 -0.24049
0.08203 0.09337 -0.05758
-0.03910 -0.09337 0.00614
0.27156 0.10671 0.07134
0.16355 0.06878 0.37173
0.07166 -0.10671 -0.02962
-0.00360 -0.09337 0.04611
0.18509 0.09497 -0.16888
0.10271 -0.09337 0.21251
0.15618 -0.10671 0.23714
0.27296 0.09337 0.32550
0.08141 0.09337 0.20364
0.23300 -0.10671 -0.35523
0.16225 -0.02319 0.30275
-0.16664 -0.10671 -0.22922
-0.12317 -0.09337 0.12477
-0.02119 0.10671 0.18827
0.06874 -0.09337 -0.24859
0.01105 -0.09337 -0.18302
0.07559 0.00706 0.32543
0.02996 -0.06963 0.26792
0.14745 0.06041 0.36545
0.01062 -0.10671 -0.27491
0.16226 0.09337 0.22505
-0.12440 0.10671 -0.06654
0.13107 0.10671 0.24255
-0.21615 0.09337 -0.13153
0.23368 -0.09337 -0.27612
-0.13466 0.09406 -0.16956
0.00395 0.00430 0.30670
-0.05830 -0.10671 0.05762
0.10485 -0.09337 -0.18698
-0.15201 0.09337 0.34309
0.20670 -0.06144 0.27406
0.13967 0.01153 0.32879
0.19893 -0.09337 -0.36975
-0.20008 0.10671 0.27294
0.03818 0.09337 0.35015
-0.01205 -0.03212 0.29605
-0.21366 0.09337 -0.05625
-0.17689 0.10671 0.32349
0.09900 -0.09337 -0.27679
-0.25246 -0.10671 0.03505
-0.25196 0.10671 0.18637
-0.16868 0.09337 0.21845
0.22875 -0.10671 -0.12583
0.13426 0.10671 0.05305
0.10505 -0.09337 -0.34503
-0.12744 0.10671 0.21443
-0.04332 0.10671 0.36382
-0.16372 -0.05674 0.26092
0.07003 0.09337 0.15410
-0.13488 -0.09337 -0.33508
0.06199 -0.09337 -0.13163
0.27941 -0.09337 -0.06686
0.23046 -0.10671 0.18699
0.02654 0.09337 0.14295
0.27193 -0.00470 0.29994
0.00301 0.09337 0.27178
0.25861 -0.09337 -0.25854
-0.04444 0.06367 0.35122
0.23584 -0.09337 0.17648
0.09419 -0.01527 0.30869
-0.19240 -0.09337 -0.30690
0.13639 -0.09337 -0.09208
0.17208 -0.10671 0.00862
-0.15088 -0.10671 -0.16832
-0.01009 0.10671 0.02729
-0.24966 0.10671 0.33899
0.01635 0.07356 0.37532
-0.08548 0.09337 0.21424
0.05366 0.09337 -0.06716
-0.22144 -0.09337 0.03554
0.14030 0.09480 0.39124
-0.17231 0.00830 0.32637
-0.01436 0.10671 0.20880
0.09888 -0.10671 0.05231
0.13343 0.10671 -0.00246
0.17628 -0.09337 0.02524
0.10014 -0.01940 0.30559
0.05991 0.07072 0.37318
-0.18413 0.10671 0.21560
0.02279 0.09337 0.18096
-0.03330 -0.10671 0.14183
0.23254 -0.09337 0.04121
-0.16506 -0.10671 -0.20458
0.25168 0.10671 -0.03779
-0.10045 -0.09337 0.01581
-0.09586 -0.03050 0.29727
0.21878 0.09337 -0.04811
0.08303 0.09337 0.12009
-0.09056 0.10671 -0.04522
-0.18237 -0.09337 -0.11402
-0.22413 0.10671 0.13227
-0.16524 0.09337 0.14016
0.08747 0.10671 0.23407
0.04168 0.10671 0.30206
0.10550 -0.10671 -0.24747
0.16803 -0.03328 0.27851
0.09028 -0.10671 -0.28906
0.11772 0.09337 -0.10627
0.11639 0.09337 0.12455
-0.18521 -0.09337 0.04457
-0.28013 0.09436 -0.16207
0.19071 -0.10671 -0.08613
-0.13592 -0.10671 0.11172
0.12113 -0.09236 0.23420
0.23793 -0.10671 -0.14053
-0.06504 0.09337 -0.11318
0.18787 -0.10671 -0.37905
0.21595 0.06186 0.36653
-0.13796 -0.09337 0.18828
0.22693 -0.10671 0.21259
0.16173 0.09337 0.35282
-0.15519 -0.10671 0.22086
-0.20304 0.09337 -0.09711
0.14442 -0.09337 -0.29700
-0.27706 -0.01409 0.29290
0.21904 -0.09337 0.01458
0.27409 0.09337 0.09972
-0.06656 -0.09337 -0.24464
-0.03934 0.07419 0.37579
-0.09522 0.09337 0.31435
0.15643 -0.10671 -0.04624
-0.22109 -0.10671 -0.37476
-0.19041 0.02485 0.33878
-0.17783 -0.01744 0.29039
0.24570 -0.10671 0.16321
-0.19899 -0.09337 0.22402
0.11807 0.10671 0.01659
-0.17642 -0.10671 -0.02949
0.17444 0.09337 -0.16629
-0.15723 0.05640 0.36244
0.28013 0.09684 0.00152
-0.19977 -0.05934 0.25896
0.02929 0.09337 0.14782
-0.25238 -0.10671 0.09107
-0.24255 -0.10671 -0.38076
-0.20827 -0.09337 0.20745
0.21148 0.10671 0.35222
0.23285 -0.09337 0.20207
-0.22995 0.10564 0.39937
0.09673 0.10671 -0.12664
-0.28013 -0.09951 -0.31199
0.19673 0.09337 0.31166
-0.08393 -0.10671 0.12984
-0.17730 -0.09337 0.10353
-0.15595 -0.10671 -0.37768
-0.10649 0.09337 0.14837
0.07088 -0.09337 -0.22252
-0.15971 0.10671 0.33962
-0.09040 0.10671 0.13328
0.08826 -0.09337 -0.12490
-0.01552 0.06722 0.35388
0.16944 0.09170 0.38892
0.21547 0.10671 0.15994
0.01438 0.07185 0.35735
-0.11014 0.02517 0.32234
0.25037 0.09337 0.26228
0.21800 0.10671 0.02713
-0.08398 0.09337 0.10339
-0.16029 0.10671 -0.14094
-0.28013 -0.10432 0.24117
0.15950 0.09337 0.33434
0.25191 -0.04778 0.26763
-0.01360 0.09337 0.07548
0.25133 -0.10671 -0.24602
-0.10403 0.09337 -0.10937
0.24873 -0.09337 -0.02171
-0.17119 0.09337 -0.10829
-0.24180 -0.10671 -0.00423
-0.04205 0.09337 -0.06585
-0.24583 -0.10671 -0.16174
-0.05502 0.09337 -0.13632
-0.22540 0.09337 0.13541
0.00756 -0.10671 0.21899
-0.20039 0.10671 -0.05257
0.11282 0.10671 -0.09978
-0.20201 -0.07993 0.24352
-0.18876 0.10671 0.21296
-0.13027 -0.09337 -0.13125
-0.27814 0.09337 -0.01078
-0.27955 -0.10671 0.07890
-0.20273 0.07558 0.37683
-0.25598 0.09337 0.19919
0.08117 0.09337 0.18532
0.10780 -0.00223 0.30180
0.00253 -0.10671 -0.32686
-0.08952 0.09337 0.08416
-0.13551 -0.09337 -0.00529
0.13599 0.09337 0.04055
-0.20039 0.10671 0.09773
-0.28013 0.09843 0.32040
-0.16600 -0.10671 0.03780
-0.12041 -0.00130 0.30249
0.04466 -0.10671 -0.31063
-0.19569 -0.10671 0.08620
-0.13541 -0.10671 -0.23388
-0.26806 -0.10671 -0.05029
0.24240 -0.10671 -0.16544
-0.20436 0.10671 -0.15069
0.16788 0.03940 0.34969
0.01324 0.09337 0.20054
-0.22864 0.08297 0.38237
-0.16943 -0.10671 0.08694
0.09095 -0.09337 0.02175
0.18729 -0.09337 -0.31404
0.11130 -0.09337 0.00942
-0.11306 -0.09337 -0.37641
-0.23648 0.09337 -0.15113
0.19905 -0.09337 0.19254
-0.00766 -0.09337 -0.16274
-0.10973 -0.10671 -0.12654
-0.27462 -0.09337 -0.19268
-0.10007 -0.03002 0.29763
0.20626 0.09337 0.17277
-0.14672 0.09337 -0.07704
-0.04113 -0.01031 0.31241
-0.18022 -0.09337 -0.28508
-0.09982 0.00272 0.30551
-0.19540 0.10671 0.26709
-0.11859 -0.09337 -0.34275
-0.15982 0.09337 0.16247
-0.09722 0.09337 0.11323
-0.21677 0.09337 0.21186
-0.25813 0.09337 0.22937
-0.27978 0.10671 -0.02797
-0.05754 -0.03295 0.29543
-0.27410 -0.10671 -0.10054
0.15675 0.10671 -0.11530
-0.03667 -0.10671 0.16376
0.05478 0.09337 0.29406
0.03640 0.10671 0.33930
0.26952 -0.10671 -0.22556
-0.02209 0.10671 0.36472
-0.02972 0.10671 0.29440
-0.24829 0.09337 -0.15234
0.17611 -0.10671 -0.29966
-0.15870 0.09337 -0.01406
0.05068 -0.10671 0.09974
-0.16771 -0.09337 0.14019
-0.20816 -0.09337 -0.36545
0.09028 -0.09337 0.20271
0.06733 0.10671 -0.09560
-0.16629 -0.10671 0.13536
0.28013 0.09933 0.07928
-0.25412 -0.10671 -0.34420
0.04444 -0.08482 0.23985
-0.03760 0.09337 -0.11519
-0.17143 0.09337 0.13320
0.01866 0.09337 0.23903
0.12462 -0.09337 0.14494
0.27160 0.10671 -0.01695
0.07625 0.10354 0.39780
-0.10543 -0.10671 -0.02106
-0.08039 0.10671 0.30638
0.00017 0.10671 0.23663
-0.08799 -0.09337 0.21435
0.07411 -0.09337 0.05735
0.12115 -0.10671 0.21269
0.21839 0.10671 0.03414
0.12842 0.10671 -0.14641
0.12556 -0.10671 0.01519
-0.19158 0.09337 0.18379
-0.25862 -0.02243 0.30332
0.25463 0.10671 0.08175
-0.16734 -0.09337 0.15135
-0.04817 0.02087 0.31912
0.09849 -0.01686 0.29082
-0.18249 -0.10671 -0.07517
0.13256 0.10671 0.17854
-0.13688 -0.01856 0.30622
0.12674 0.03254 0.32787
-0.04311 0.09337 0.29668
0.24767 0.10671 0.17876
-0.13314 -0.09337 0.06538
0.03745 -0.09337 0.09915
0.24131 -0.09337 -0.07638
0.05169 0.09337 0.34089
0.22361 0.07841 0.36228
0.07139 0.07166 0.37389
0.04927 -0.09337 -0.04377
-0.08042 -0.10671 -0.30534
-0.17303 0.10671 -0.00503
0.12462 0.09337 -0.03027
-0.09897 -0.09337 -0.29635
0.08549 -0.10671 0.07223
0.03058 0.03151 0.32710
0.25960 0.09337 -0.03454
-0.02661 0.09958 -0.16542
0.05374 -0.09337 0.18634
-0.25395 0.09337 -0.11560
-0.11270 -0.09337 0.16693
0.20491 -0.10671 -0.13913
0.20317 -0.08238 0.24168
0.11894 0.10671 -0.09882
0.27018 0.09337 0.25707
-0.12419 0.10671 -0.03073
-0.14725 -0.09337 0.02546
0.13061 -0.10671 0.09085
0.27564 -0.10671 -0.25612
-0.06778 0.09337 -0.03745
-0.02935 0.05548 0.36175
0.05012 -0.10671 -0.15850
0.06908 -0.10671 -0.33575
0.05102 -0.09337 0.06646
-0.18091 0.09337 -0.02266
0.20864 0.09382 0.39050
0.14628 0.10671 0.35102
0.03993 0.10671 -0.11467
-0.16789 -0.09869 0.24612
-0.12701 0.09337 -0.11121
0.25693 -0.10671 -0.24119
0.01022 -0.10671 -0.37351
-0.19148 0.10671 0.01657
0.20749 0.09337 0.28251
-0.26433 -0.09337 -0.23766
0.15330 -0.09337 0.00986
0.28013 0.01136 0.31937
0.24206 -0.09402 -0.39066
0.22825 -0.10671 0.17733
-0.18200 0.10671 -0.07962
0.17970 -0.10671 0.00622
0.25416 -0.10671 0.14377
-0.18915 0.02358 0.32115
-0.12999 -0.05793 0.26002
0.04911 -0.09337 -0.18776
0.16246 0.02973 0.34244
-0.28013 -0.01884 0.29337
0.27276 0.10671 0.13323
0.08465 -0.10671 0.15705
-0.14276 -0.04020 0.28999
0.23566 -0.09337 -0.03091
0.03318 -0.09337 0.21668
-0.20478 -0.10671 -0.05563
0.25156 -0.09337 0.11155
-0.05994 0.10671 0.12557
-0.01590 -0.10671 -0.33606
-0.20816 0.06331 0.35095
0.12867 0.10671 0.22748
0.09065 -0.09337 -0.31378
0.00638 0.09337 0.22571
-0.19093 0.10671 0.19509
0.28013 -0.09695 0.05273
-0.07223 -0.09337 -0.08494
0.09064 -0.09337 -0.20545
-0.18081 0.05799 0.34696
-0.06975 -0.09337 -0.30176
-0.27881 -0.09596 0.24817
-0.04339 -0.05274 0.28059
0.05325 0.09337 0.33479
0.05659 0.09337 0.01311
-0.11872 -0.07210 0.26607
-0.28013 -0.09396 -0.01142
-0.10072 0.09337 -0.13424
0.11685 -0.10671 -0.12298
-0.14258 -0.10671 -0.36818
0.15333 -0.10671 -0.17281
0.28013 -0.10032 0.06749
0.14212 -0.09337 -0.36613
-0.28013 -0.05144 0.27832
0.11211 0.07198 0.35745
-0.28013 -0.10310 -0.12521
0.08052 -0.09337 -0.25095
-0.19799 -0.09337 -0.25817
-0.05050 -0.09337 -0.31879
0.00020 0.10671 0.26809
-0.05607 -0.10671 -0.26776
-0.00947 0.10671 -0.13129
-0.22770 -0.09337 -0.38543
-0.06703 -0.09337 -0.01705
0.26655 0.08109 0.36429
-0.17931 0.09337 0.30773
0.01855 -0.10671 -0.39078
-0.02605 -0.09337 -0.00567
-0.18010 0.10671 0.05274
0.14896 -0.10671 0.08560
0.14586 -0.09337 -0.37039
-0.13020 -0.10671 0.12055
0.03841 -0.09367 0.24989
0.06512 0.09337 -0.06375
0.21605 -0.09965 0.24540
0.01769 -0.10671 0.08063
-0.00867 -0.08630 0.23874
0.10837 -0.10671 -0.08314
-0.18785 -0.09337 0.22063
0.24735 -0.09337 -0.38077
0.20716 -0.10671 -0.30514
-0.21513 -0.09894 0.24594
0.10294 0.10671 0.30300
-0.14606 0.09337 -0.04774
-0.09371 0.10671 0.28391
0.15089 0.10671 -0.02365
-0.21883 0.09337 0.01869
0.07194 0.10671 -0.02240
0.03811 -0.05355 0.27998
0.14885 -0.10671 0.22042
-0.25636 0.09337 0.23919
-0.14527 -0.09337 -0.03944
0.16228 0.01885 0.33428
-0.15152 -0.10671 -0.18155
-0.20084 -0.08466 0.23997
0.15568 0.09337 0.37222
0.14544 0.10671 0.19839
0.21425 0.09337 -0.02998
-0.11731 0.09337 0.18535
-0.14286 0.09337 0.28762
-0.24059 -0.10671 -0.06759
0.11669 0.09337 0.14339
-0.26488 0.10671 0.17276
0.11869 -0.10671 -0.32680
0.21199 -0.10671 0.20800
-0.21499 -0.03358 0.27828
0.07086 0.09337 0.10995
0.17101 -0.07400 0.26465
-0.14996 0.09337 -0.09830
-0.05249 0.05676 0.36271
0.11853 -0.09337 -0.12454
0.26575 0.09337 0.31874
0.16160 -0.10671 0.21833
0.27175 0.10671 0.08986
-0.16697 0.10671 0.34371
0.11696 -0.10671 0.00610
-0.18891 -0.09337 0.02925
0.06615 0.09797 0.39362
0.11089 -0.10671 -0.04796
-0.18059 -0.09337 -0.04621
-0.06172 -0.09337 0.05240
-0.26957 0.03046 0.32631
0.14114 -0.09337 -0.01021
0.23177 -0.10671 -0.14360
0.03660 -0.10671 0.08017
0.19026 -0.10671 0.02471
0.18686 0.10671 -0.09247
0.15736 0.10671 0.29083
-0.10938 -0.09337 -0.21202
0.17497 -0.09337 -0.00245
-0.18795 0.09337 0.12506
0.27137 -0.07571 0.24668
-0.17289 -0.10671 0.03471
-0.27032 -0.10671 -0.16281
0.00960 0.10671 -0.10006
0.07672 0.10671 0.35847
-0.20241 -0.10671 -0.39780
0.04118 0.10671 0.25972
-0.17156 -0.08247 0.24161
-0.26434 -0.09337 -0.18295
0.18151 -0.02325 0.28603
0.12464 -0.00007 0.30341
0.04574 -0.10671 -0.36679
-0.17435 -0.09337 -0.19798
-0.09431 0.10671 -0.06943
-0.18447 0.10671 0.35663
0.15222 -0.10671 0.00112
0.18516 -0.09337 -0.01946
0.08268 0.10671 0.37674
-0.09944 -0.02191 0.30371
0.25471 -0.09337 -0.30490
-0.08144 0.09337 0.11038
0.14322 0.10671 -0.09423
-0.10142 -0.10671 -0.05417
0.07577 0.09337 -0.14137
-0.23268 -0.09337 -0.23730
-0.05414 -0.10671 0.06565
-0.10705 -0.09337 -0.13370
-0.01938 0.09337 0.16517
-0.00002 -0.10671 -0.35791
-0.18588 -0.09065 0.25216
0.27137 0.10671 -0.01106
-0.21563 -0.09337 -0.03451
0.04529 -0.10671 0.19860
-0.21934 -0.10671 0.00122
0.02667 -0.09763 -0.39337
0.24273 -0.09337 -0.11700
-0.14567 0.09237 0.38942
0.27131 -0.10537 0.24112
0.00290 0.05374 0.34378
0.12590 -0.10671 -0.21121
0.03656 0.09337 0.09399
-0.22520 0.10671 0.03323
0.12701 0.10671 -0.13093
0.08683 -0.10671 -0.13055
-0.20639 -0.09337 -0.16919
0.10154 0.09337 0.15321
-0.15218 0.09337 0.19044
-0.18234 -0.10671 -0.30819
0.03682 0.09337 -0.13842
0.15874 -0.10671 -0.25715
0.02814 0.09337 -0.00214
0.25235 0.10671 0.36540
-0.08866 -0.09337 0.20490
0.21754 -0.10671 -0.24411
0.03107 0.10671 0.19151
0.00488 -0.10671 0.18664
-0.00644 -0.09337 0.12628
0.28013 0.10443 -0.04476
0.24280 -0.09337 0.22763
0.23750 -0.10671 -0.23420
-0.12839 0.10671 0.33720
-0.01255 -0.09337 0.04346
-0.09212 -0.09337 0.10410
-0.09601 -0.09337 -0.28559
0.27763 0.10671 0.02269
0.26059 0.05777 0.36347
0.16593 -0.09337 -0.08046
-0.22579 -0.10671 -0.06539
0.06624 -0.09337 0.01462
-0.13568 -0.10671 -0.14596
0.00015 0.10671 -0.00853
-0.27585 0.09337 0.22531
-0.15055 -0.10671 0.13174
-0.26558 -0.10671 -0.15370
0.01141 0.10671 0.09009
-0.26941 -0.10671 -0.17503
0.27712 -0.06392 0.25553
-0.14912 -0.05236 0.26420
0.25599 -0.07627 0.26294
-0.09375 -0.10671 0.06303
-0.28013 -0.10432 -0.39242
-0.24654 -0.10671 -0.06772
0.10380 0.09337 -0.08875
-0.00197 0.10671 -0.12127
-0.04648 -0.09337 -0.15534
-0.02835 -0.09337 -0.34312
0.00042 -0.09337 -0.29978
-0.20847 -0.09696 0.24742
-0.24156 0.03523 0.34657
0.22279 -0.09337 0.05954
-0.11993 -0.01323 0.29355
-0.16223 0.10671 0.38088
-0.13493 -0.01655 0.29106
-0.04359 -0.10671 -0.22044
0.27713 0.10671 0.07515
0.11531 0.09337 0.32887
0.27123 0.09337 0.10642
0.15551 -0.10671 0.16447
-0.05755 0.10671 0.29459
-0.23669 -0.09337 -0.17146
0.24056 -0.10671 -0.26263
0.04706 0.10671 0.24893
-0.10027 0.10671 0.35146
0.13280 -0.10671 0.01848
-0.09673 -0.10671 0.02381
-0.00516 -0.09337 -0.37891
0.17719 0.09337 0.00080
-0.10006 -0.09337 -0.34251
-0.28013 -0.04922 0.26818
0.18331 0.09337 0.09006
-0.26114 -0.10671 -0.34693
0.25139 0.10671 -0.09079
-0.18738 -0.10671 -0.39773
-0.07027 -0.10671 0.22623
-0.26302 -0.09337 0.13871
0.00094 -0.09337 -0.01472
-0.13767 -0.09337 0.20811
-0.01656 0.09337 0.04163
-0.23746 -0.09337 0.16609
-0.28013 -0.10638 0.12335
0.07104 0.10671 0.27543
-0.06474 0.09337 -0.02250
-0.12969 0.10671 0.29788
-0.01696 0.06281 0.35057
0.00394 0.09337 -0.09729
0.03064 -0.10671 0.06186
-0.17445 0.09337 0.21504
-0.13590 -0.10671 -0.10371
-0.25453 -0.10671 -0.16624
0.04159 -0.10671 0.03467
0.20576 0.06431 0.35170
0.25499 0.09337 0.34906
-0.14005 -0.09337 0.07026
0.20798 -0.09337 -0.15604
-0.17461 0.09337 0.04607
-0.05322 0.09337 0.04736
0.15642 -0.07204 0.26611
-0.04102 -0.10671 0.17342
-0.18332 0.10671 0.38624
0.21007 0.10671 0.03356
0.28013 -0.10214 0.17728
0.04377 -0.01210 0.31107
-0.19538 0.09337 0.26261
0.11216 -0.10671 0.13153
0.12854 0.09337 -0.03556
-0.28013 0.10121 -0.12382
-0.22237 0.00933 0.32714
-0.08298 -0.09337 0.02344
0.19808 -0.10671 -0.30886
-0.21281 -0.10671 -0.25999
0.11976 -0.01783 0.29010
-0.08603 0.02495 0.32218
0.02234 0.10671 0.27628
0.08831 0.10671 0.39636
0.25349 -0.09337 -0.05289
-0.13057 -0.09337 -0.05901
-0.10147 0.03126 0.34359
0.09199 -0.00600 0.31564
-0.24827 0.06267 0.36715
-0.21423 -0.09337 0.11884
-0.15549 -0.10671 0.05750
-0.26319 0.10671 -0.13036
0.06076 0.10671 -0.15576
0.10500 -0.09337 -0.16342
0.08479 0.09337 0.11029
0.08255 -0.09337 -0.10577
-0.24245 -0.09337 -0.27143
0.20430 0.09337 -0.16523
0.11076 0.10671 0.39426
-0.27510 0.00560 0.30767
0.21765 0.09337 0.25476
-0.25465 0.10671 0.16731
-0.24585 0.10671 0.31246
0.11450 -0.10671 0.17344
0.20066 0.10671 -0.14056
-0.25241 -0.10671 -0.23094
0.19292 0.10671 -0.14788
0.26594 0.09337 0.23468
-0.21636 0.10671 0.02359
0.12422 -0.10671 0.08434
0.14376 0.10671 0.18103
-0.07278 0.10671 0.12571
-0.14483 -0.10671 0.02352
0.00257 -0.10671 -0.12069
0.06546 0.10165 -0.16387
0.10643 0.09337 0.23364
0.24981 -0.05924 0.25904
-0.22703 -0.10671 0.08062
0.08914 -0.10671 -0.09501
0.14336 -0.09337 -0.29097
0.13410 0.09337 -0.16317
0.20791 0.10671 0.28453
0.07720 -0.02541 0.30109
0.16843 0.10671 -0.15857
0.09320 0.10671 0.24729
0.09669 0.09337 -0.06944
0.08589 -0.09337 -0.02706
0.12463 0.09337 0.18072
0.24982 0.10671 0.00961
0.19749 -0.09337 -0.34671
-0.24005 0.09337 -0.10030
0.16290 -0.10671 0.23755
-0.12624 0.09337 0.28492
-0.09731 0.09337 -0.04464
0.19913 0.10458 0.39857
0.07259 0.09337 0.16869
0.19447 -0.07792 0.26171
-0.02568 -0.09337 0.05056
0.23418 -0.09337 -0.02327
-0.09474 -0.10671 -0.27168
0.04358 -0.09337 -0.07744
-0.08847 0.09337 -0.00420
-0.15812 0.09337 0.25661
-0.10282 0.09337 0.35244
-0.02129 -0.09337 -0.09519
-0.18052 -0.10671 -0.30144
-0.04971 0.09337 -0.14007
-0.11374 -0.10671 0.22749
0.10279 -0.09337 -0.12488
-0.25745 -0.10671 -0.25840
-0.23448 -0.09428 -0.39085
0.24289 -0.10671 0.01368
-0.17430 0.10671 0.33760
0.03816 -0.06771 0.26936
0.07459 -0.10671 -0.02553
-0.10916 0.10671 0.37481
0.15716 -0.09337 -0.03109
0.26784 -0.09337 -0.08987
0.18758 0.09337 0.33128
-0.23782 -0.09337 -0.24195
0.10287 -0.10671 0.12613
0.13456 -0.10671 -0.09917
0.22472 0.02051 0.33553
0.10559 0.10671 0.26782
0.14028 0.10671 0.17158
-0.01561 0.09337 0.36995
0.07430 -0.10671 -0.07726
0.06019 0.09337 0.28747
0.03799 0.09337 -0.10008
-0.20869 -0.10671 -0.38003
0.07967 -0.10671 0.00654
0.27658 0.09337 0.08131
-0.16739 0.10671 0.21499
0.16851 -0.09337 -0.18310
0.08940 0.09337 0.32714
-0.05500 0.09337 -0.06626
0.21120 -0.03529 0.29367
0.09264 -0.06523 0.27122
-0.02962 0.10671 0.26003
0.15754 0.09337 0.17852
0.06333 0.09337 0.19867
-0.21070 0.09337 0.32013
0.16236 -0.09337 0.12548
0.07256 0.09337 0.32813
0.00377 -0.09337 -0.27568
-0.03894 0.10671 -0.11635
-0.26197 -0.10671 -0.27187
-0.08032 0.09337 0.33371
-0.22624 0.05819 0.34711
-0.01852 -0.10671 -0.16294
0.03502 -0.09337 -0.31464
-0.28013 0.09988 0.39348
-0.21474 -0.10671 -0.31028
-0.03469 0.10671 -0.03894
0.14035 0.10671 0.37347
0.22498 -0.10671 0.16480
-0.09952 0.09337 -0.05532
-0.19826 -0.09337 -0.32476
0.04659 -0.10671 -0.32425
-0.15032 -0.10671 0.01827
0.01705 -0.09337 0.04657
0.25334 0.09337 0.05660
0.08898 0.09337 0.22465
-0.10707 0.09337 -0.14514
-0.06889 -0.10671 -0.28381
0.27900 0.10175 -0.16379
-0.04367 -0.10671 -0.01676
0.05262 -0.10671 0.06818
0.25828 0.10671 0.14629
0.25372 0.02267 0.32047
0.13057 -0.10671 -0.07806
0.15994 -0.10671 -0.21868
-0.00018 0.10671 -0.04579
0.11893 0.10671 0.20922
0.20313 0.10671 0.30174
-0.11736 -0.10671 -0.04302
0.09078 0.09337 0.31644
-0.02984 -0.10671 0.06893
0.23795 -0.10671 -0.29353
0.02139 0.09945 0.39473
-0.27097 -0.06308 0.25616
-0.07753 0.10671 0.00930
-0.18604 -0.10671 -0.34662
-0.00512 0.03937 0.33299
0.01540 -0.10671 -0.22933
0.26225 -0.09337 0.14377
0.26555 0.10671 0.08090
-0.07185 -0.02050 0.28809
0.28013 0.10612 0.29252
0.27376 -0.10671 -0.00159
0.04120 -0.09337 -0.15281
-0.11680 -0.09885 0.24601
0.23489 0.09337 0.32584
0.14977 0.10082 -0.16449
-0.02053 0.10671 0.30093
-0.12840 0.09337 0.20133
0.11457 0.06712 0.35381
0.28013 0.10078 0.29151
0.18690 0.02474 0.33870
0.20859 -0.10671 -0.32342
-0.07376 -0.10671 -0.06661
-0.27530 0.10671 0.05306
0.09303 0.06573 0.35276
-0.01461 0.02180 0.31982
0.15605 0.09337 0.05891
0.01011 0.10671 0.14278
0.09460 -0.10671 0.06961
-0.02145 -0.10671 -0.31601
-0.01262 -0.09337 -0.30805
-0.23910 0.10671 0.23057
-0.28013 0.09463 -0.06122
-0.18610 -0.04708 0.26815
-0.05473 0.10671 0.19227
-0.02631 -0.02198 0.30366
0.13539 -0.09337 -0.03343
0.20952 -0.09337 -0.03143
0.06926 0.01732 0.33313
0.25593 0.09337 -0.01607
0.08368 -0.10671 -0.34220
-0.17612 0.09337 -0.09568
0.16316 0.09337 -0.15296
0.04637 0.09337 -0.05219
0.24279 0.10671 0.19820
-0.13175 -0.10671 0.01504
0.15851 0.09860 -0.16615
0.27345 -0.02133 0.30415
-0.09701 -0.09337 0.09018
-0.23429 -0.10671 -0.36438
0.22129 -0.10671 -0.11523
-0.25545 -0.09337 -0.29204
-0.21294 0.10671 0.22322
-0.11883 -0.10671 -0.20484
-0.15447 0.10671 0.10395
-0.09338 -0.10671 -0.06971
-0.01075 0.09337 -0.06709
-0.00646 -0.09337 0.03305
-0.06700 -0.09337 0.05166
0.17205 0.10671 -0.15539
-0.12869 -0.09337 0.15162
-0.07424 -0.10671 -0.10174
-0.02030 -0.09337 -0.38159
0.21553 0.09337 -0.14422
0.09367 -0.09337 0.21642
-0.21269 0.10671 0.20421
0.17724 0.09337 0.24371
-0.19413 -0.09337 -0.01169
0.08964 0.09337 0.35877
0.13956 -0.09337 -0.26331
0.02297 0.09337 0.25989
0.01912 0.09337 0.14608
0.06101 0.10671 0.02898
-0.00173 0.06352 0.36778
-0.19157 -0.08940 0.25309
0.24757 -0.10671 0.13966
-0.23657 0.10487 0.39880
-0.22135 -0.08290 0.25796
0.21612 0.10671 -0.11234
-0.15813 -0.10671 -0.08791
-0.12550 -0.09337 -0.30871
0.10381 -0.09337 -0.09317
-0.01653 0.09337 0.28450
-0.18955 0.09337 0.27679
0.03071 0.09337 0.16788
-0.11286 -0.09337 0.17139
-0.23361 -0.10671 -0.26425
0.07586 -0.09337 -0.02753
-0.19927 -0.08958 0.25296
-0.12062 0.09337 -0.10081
-0.03158 0.09337 0.20650
-0.19004 0.09337 0.20355
-0.13585 0.01335 0.31348
0.24870 0.09337 0.21025
-0.09865 0.10671 0.23680
-0.21507 -0.09337 -0.26291
-0.25900 -0.04274 0.27141
-0.02597 0.10671 -0.08931
-0.10759 0.09337 0.18826
0.23502 -0.10552 0.24100
0.26420 0.01332 0.33013
0.13993 0.09337 -0.16218
-0.13112 -0.10671 -0.22984
0.05207 -0.09337 -0.19821
-0.07097 0.09337 0.11034
0.26909 -0.09337 -0.12877
-0.24543 0.09337 0.34302
-0.17947 -0.10671 -0.34096
0.25120 0.10671 0.08479
-0.14228 0.10671 -0.13290
-0.03637 -0.10671 0.07644
0.10887 -0.04544 0.28607
-0.08529 0.10671 0.31913
-0.00049 0.09337 0.36446
-0.21394 -0.09337 0.03473
-0.08512 -0.10671 -0.17574
-0.23747 0.02952 0.32561
-0.02745 0.10671 0.36149
-0.02721 -0.01207 0.29441
-0.21175 -0.00875 0.31358
0.14167 0.00406 0.30652
0.21000 -0.07878 0.26105
0.17836 -0.03772 0.29186
0.24024 -0.10671 0.07362
-0.00499 -0.10671 0.18816
-0.22858 0.09337 0.01513
-0.02280 0.09337 -0.05950
-0.02210 -0.03820 0.29149
0.17874 -0.07525 0.26370
-0.16472 0.09337 0.23326
0.24489 -0.10671 -0.37694
-0.13542 -0.00064 0.30299
-0.27286 -0.09337 -0.31129
0.08084 0.10671 0.08388
-0.19344 0.09337 0.04917
0.05287 -0.10671 -0.00224
0.00464 0.09337 0.14965
0.02820 0.09411 0.39072
0.11662 0.10671 0.28349
0.12568 -0.10671 -0.06713
-0.23219 -0.09337 0.01428
-0.01170 -0.09337 -0.08330
0.09743 -0.08820 0.25399
0.00770 -0.10671 0.11381
-0.15002 -0.10671 -0.28077
-0.08279 -0.05133 0.26497
0.22572 -0.10671 -0.26565
0.00610 -0.09337 -0.29888
0.25775 0.10671 -0.04909
-0.19290 -0.06767 0.25271
-0.13987 0.10671 0.25631
0.12212 0.02401 0.33815
0.18782 0.09337 0.23888
-0.01430 0.09337 0.18560
0.12945 0.10671 0.36311
0.13678 0.10671 0.01797
-0.24087 0.02862 0.34160
-0.14888 0.10671 -0.14982
0.13564 -0.09337 0.22501
0.13511 0.00569 0.32441
-0.08010 0.10671 0.26982
0.04918 0.10671 0.03555
-0.12611 -0.10671 -0.05954
-0.12749 -0.09337 -0.20278
0.21131 0.09337 0.14280
0.26789 0.09337 0.35694
0.07409 -0.10671 -0.33257
0.02284 0.10671 0.28260
0.16357 0.07237 0.37442
0.06031 0.09337 0.22444
-0.27296 0.10671 -0.04976
0.08026 0.10671 0.37078
-0.27429 0.09337 -0.11184
-0.20356 0.10671 0.24076
0.02891 -0.10671 -0.35877
-0.12265 -0.10671 -0.18104
-0.03708 -0.10671 -0.37430
-0.04564 0.10671 -0.00693
0.02544 0.09337 0.11978
0.25731 0.09337 -0.03825
0.08327 -0.09337 -0.04381
-0.27169 0.10671 0.38903
0.05264 0.04428 0.33668
-0.08990 0.09337 0.22154
0.25129 -0.10671 -0.15352
-0.06293 0.06567 0.36940
0.19750 -0.10671 -0.28643
-0.02215 -0.10671 -0.29208
0.10280 -0.09337 -0.32290
-0.15164 0.10671 -0.09208
0.27972 -0.10671 0.22008
0.17821 0.04982 0.35750
-0.09073 0.10671 0.25532
-0.27869 -0.09337 -0.05722
-0.00436 -0.10671 -0.27505
-0.20582 -0.10671 -0.02977
-0.05702 0.10671 -0.15730
0.11969 -0.10671 0.06844
-0.14371 -0.05237 0.26419
0.21460 -0.10671 -0.17068
0.01929 -0.09337 -0.21585
0.07488 0.09337 0.18732
0.09769 -0.10671 -0.19927
0.20419 -0.10671 0.08752
-0.16395 0.03023 0.34281
0.19880 -0.10671 -0.38848
-0.24252 -0.09337 -0.10071
0.08032 -0.10671 0.21891
0.23448 0.09337 0.22372
-0.20550 -0.09337 0.05614
-0.09592 0.10671 0.02756
-0.21254 0.10671 0.33813
-0.19052 -0.01448 0.30928
-0.04528 -0.02614 0.28386
-0.07424 0.10671 0.27160
0.16990 0.10671 0.07911
0.24958 0.09337 0.02164
0.19761 -0.02372 0.30235
0.25966 -0.09337 -0.36635
-0.02740 -0.10671 0.22787
0.12449 0.09337 -0.11240
0.16714 -0.10671 0.11445
-0.13893 -0.09337 0.15691
-0.05259 -0.10671 -0.34479
-0.14735 0.09337 0.26745
0.23113 -0.10671 -0.18047
0.26976 -0.10671 -0.20807
-0.09936 0.09337 0.20266
-0.00891 0.09332 0.37346
0.17778 -0.05009 0.28257
-0.09952 -0.02487 0.28481
-0.23978 -0.10671 0.07449
0.16545 -0.09337 0.25011
0.05463 0.10671 0.15932
0.27366 0.10671 0.23001
0.15892 -0.08051 0.25976
0.22930 -0.09337 -0.37906
-0.05008 0.08494 0.38385
-0.13002 0.10671 0.30865
0.13242 -0.03420 0.27782
0.04107 -0.10671 -0.30038
-0.27692 -0.09337 0.06709
0.18424 0.10671 0.12611
-0.04241 0.10671 0.31951
-0.15016 0.09337 0.30262
0.13270 -0.03229 0.29592
0.07342 0.09337 0.13373
0.12116 0.09337 -0.04727
0.09422 0.10671 0.33774
0.03536 -0.10671 -0.19546
-0.23088 -0.09337 -0.14155
0.16634 -0.10671 0.14013
-0.13255 0.10671 -0.13606
0.04053 0.09337 0.35878
0.06393 -0.09337 0.04294
0.26455 -0.10671 -0.19596
-0.19315 -0.09337 -0.32850
0.07635 -0.10671 -0.19051
0.10735 0.10671 0.02004
-0.06397 -0.09337 0.14632
-0.08382 0.10361 -0.16240
-0.20635 -0.10671 0.07930
0.04994 -0.09337 -0.35233
-0.27447 0.09337 0.27235
-0.27839 -0.10671 -0.25561
0.17501 0.10671 0.06033
0.07342 -0.05511 0.26213
0.02140 0.10671 0.14196
0.16062 0.10671 -0.04408
0.21276 -0.10671 0.09633
-0.14804 -0.10671 -0.17895
0.24728 0.09337 0.03314
0.06515 0.10671 0.15616
-0.22477 -0.09641 0.24784
-0.10692 -0.09337 -0.37810
0.14508 -0.09337 -0.05070
-0.28013 -0.09518 0.10976
0.11417 -0.09133 0.25165
-0.18454 -0.10671 -0.37643
0.10052 -0.10671 0.18243
-0.21605 0.10671 -0.09184
-0.00204 -0.10671 -0.37054
-0.28013 -0.10360 0.13987
0.26821 -0.07361 0.26493
-0.12432 0.10671 0.01262
-0.08573 0.03816 0.34877
0.15427 0.09337 -0.12492
-0.11223 -0.09337 0.20508
-0.16354 -0.09337 -0.28176
-0.23628 0.09337 0.22587
0.12031 0.10671 -0.07491
-0.00259 0.05927 0.36460
0.15874 -0.00750 0.29784
-0.12457 0.10671 0.39492
0.13300 0.09337 -0.01554
0.02590 0.09337 -0.02760
-0.27322 -0.10671 -0.10806
0.02610 -0.09337 -0.32161
-0.19884 -0.09337 -0.29868
0.13448 -0.10671 0.05586
0.26554 0.10671 0.10611
0.13718 0.10671 0.18518
0.22529 0.09337 0.33818
0.23721 -0.10671 0.08539
-0.10118 -0.10671 -0.29978
0.01808 -0.09337 -0.31894
0.19129 -0.09337 -0.07673
0.03213 -0.10671 0.17744
-0.21153 -0.10671 -0.38838
0.19678 0.09337 0.34735
-0.08670 0.10671 0.05168
0.06413 0.07342 0.35853
-0.17482 -0.05508 0.26216
0.03191 0.09337 0.14400
-0.01614 0.10671 -0.12465
0.27953 0.10671 0.29700
0.01337 -0.10671 -0.29601
0.24587 -0.09337 0.17685
-0.08904 0.10671 -0.07031
-0.25143 0.10671 0.21017
0.22404 0.09337 -0.01675
-0.28013 0.10283 0.31447
-0.23281 0.04462 0.33693
0.09158 0.09337 0.02191
0.11832 0.09337 0.31836
0.04156 0.10671 0.09790
0.11085 -0.02764 0.29941
0.25789 -0.10671 0.00242
0.11855 -0.06277 0.27307
0.26179 -0.10671 -0.13123
0.02372 0.10671 0.10073
-0.15429 -0.03803 0.29162
0.04182 0.09337 -0.14816
0.08521 0.09337 0.17799
-0.27575 -0.07131 0.26666
-0.11514 -0.09337 0.13884
-0.08184 -0.08375 0.25733
0.05942 -0.09337 0.19789
-0.07588 0.09353 0.39029
-0.27969 0.09337 0.16265
-0.04682 -0.10671 0.22584
0.09627 -0.10671 -0.31026
0.26080 0.02255 0.33706
-0.11959 -0.09337 -0.03232
0.19669 -0.10671 -0.01783
0.22504 0.09337 -0.09025
-0.08417 -0.09337 0.09270
-0.21214 0.10671 0.21443
0.17778 -0.09337 0.10620
-0.26223 -0.10671 0.14303
0.09381 0.09337 0.11840
-0.06425 -0.10671 -0.09244
-0.01721 0.10671 0.16605
-0.26350 0.09337 0.06194
-0.15114 0.06443 0.36846
0.26198 -0.09337 -0.05267
-0.15837 -0.10671 -0.28162
0.10881 0.09337 0.14719
0.01428 -0.10671 -0.28367
0.23503 0.02419 0.32161
-0.09833 0.09337 0.29951
0.15411 0.10671 -0.12981
0.18114 0.09337 -0.12817
-0.16437 -0.09337 -0.03788
-0.00021 0.05000 0.34097
0.20226 0.09337 0.00485
-0.13864 0.10671 0.23894
-0.12363 -0.10671 -0.16659
0.24826 0.10671 -0.14115
0.18567 0.09337 0.11894
-0.02863 0.09337 -0.08161
-0.04083 -0.10671 -0.17175
0.26211 -0.09337 -0.21036
-0.26782 0.09337 -0.15321
0.18730 0.10671 -0.01129
0.17166 -0.04663 0.26850
0.20289 -0.09337 0.05076
0.02935 0.10456 -0.16168
-0.27222 -0.10671 0.20353
-0.22103 0.09337 -0.02330
-0.08957 0.09337 0.37045
0.12407 -0.08296 0.25792
0.13782 0.09337 0.27876
0.10684 0.09337 0.01117
0.28013 -0.09957 0.23915
0.09490 -0.09337 -0.09400
-0.25601 0.09337 0.01884
0.00154 0.07428 0.35918
-0.05435 -0.10671 0.16601
0.01718 0.09337 0.10427
-0.09280 0.09337 0.26074
0.00805 -0.09605 0.24811
-0.00677 0.08089 0.36414
0.27645 -0.09337 -0.23999
0.13092 0.10671 0.16133
0.11204 0.09337 0.00743
0.27027 0.09337 -0.08638
-0.14376 0.08337 0.38267
-0.03977 -0.09337 0.04531
-0.27663 -0.10671 0.22264
-0.00730 -0.10671 -0.04080
0.22389 -0.09337 -0.35150
-0.13997 0.10671 0.04130
0.10731 -0.05271 0.26394
-0.02848 -0.09337 -0.14137
0.12024 0.01073 0.32819
-0.07708 -0.10671 -0.05396
-0.22238 0.07954 0.36312
-0.26966 -0.03654 0.29274
0.19392 0.09337 0.28879
-0.17201 -0.09337 0.15108
0.18968 0.10671 0.19069
0.00293 0.10671 0.10326
0.07823 0.09337 0.25933
0.22785 0.10671 0.16972
-0.22150 0.10671 -0.15260
-0.26773 -0.05061 0.28218
-0.09930 0.09337 0.05723
0.06056 0.09337 0.07027
-0.02325 -0.09337 -0.27672
0.28013 -0.10664 -0.10033
0.16400 0.09337 0.14701
-0.10553 0.10671 0.26284
-0.08472 0.10671 0.08175
-0.22138 0.10671 0.12369
0.02257 0.10671 0.29895
-0.13588 0.10671 0.27593
-0.11121 -0.10671 0.20878
0.01027 0.09337 -0.16002
0.23638 0.10671 0.34610
0.25075 0.09337 -0.10717
0.07202 -0.10671 0.03684
-0.22476 -0.10671 -0.20746
0.14539 -0.09337 -0.27456
0.28013 0.09867 -0.01738
-0.02700 0.10671 0.36642
-0.21996 0.10671 0.32183
0.01623 -0.09337 -0.37591
0.04641 -0.10671 -0.07840
0.17195 0.10671 0.09713
-0.11929 -0.10671 0.20607
-0.18694 -0.10671 0.23236
-0.20341 0.09337 -0.16304
0.04698 -0.09337 -0.14188
0.22800 0.10671 -0.02545
0.26232 -0.10671 -0.15063
-0.12573 0.07805 0.37868
0.11043 -0.06134 0.25746
-0.24110 -0.09337 -0.30080
0.03080 -0.04257 0.27154
0.27808 -0.09373 -0.39044
-0.09739 -0.10671 -0.26774
-0.02576 -0.10671 -0.07092
-0.15157 0.10671 0.25767
-0.02965 0.09337 -0.12350
0.18808 -0.10671 0.08290
0.27990 -0.09337 -0.30703
0.20015 0.08495 0.36718
0.06713 -0.00771 0.29768
0.17481 0.09337 -0.03524
0.12490 0.09337 0.21499
0.07646 0.10671 -0.07620
-0.06113 -0.09337 -0.15679
-0.01886 0.05670 0.36267
-0.13378 0.09337 0.26255
-0.27660 -0.00629 0.31542
0.22385 -0.10339 0.24260
-0.03954 -0.00797 0.29749
0.05888 -0.10671 -0.34475
0.25010 0.09337 0.09162
0.22420 0.09337 -0.00957
-0.23864 0.07265 0.35795
0.24174 0.10671 -0.06256
-0.04616 -0.09337 0.15175
-0.17072 -0.09337 -0.04019
0.18593 -0.10671 -0.04894
0.24625 -0.09337 -0.26588
-0.03950 -0.10671 0.11236
0.04092 0.03468 0.32948
-0.22078 0.10671 0.04887
-0.16814 0.09337 0.25740
0.05663 0.09337 0.15310
-0.14384 0.09337 0.07159
0.03349 -0.09337 -0.33649
-0.18829 -0.10671 -0.21633
0.21989 -0.09337 -0.26624
-0.03813 -0.09337 -0.04914
0.01052 0.09337 0.34168
-0.18539 -0.09337 -0.38894
-0.04476 -0.09337 0.22138
0.08684 -0.10671 -0.30101
0.20295 -0.09337 -0.31027
-0.03127 -0.09337 -0.21575
0.18109 -0.10671 0.01737
-0.18563 0.10671 -0.12561
0.10871 0.10671 0.33714
-0.02425 0.09337 0.11538
0.23745 -0.10671 0.12424
-0.02257 -0.09337 0.08896
-0.14624 -0.09337 0.05692
0.14069 -0.10609 -0.39971
0.28013 -0.09172 0.24980
0.20312 -0.09337 0.06889
-0.23008 -0.10671 -0.04295
-0.09448 -0.10671 -0.17278
-0.05945 -0.10671 0.21068
-0.22553 0.09337 0.26124
0.04029 0.10671 0.07288
-0.08922 0.09337 -0.01610
0.06869 -0.10671 -0.15268
0.08659 -0.09337 -0.21489
0.22584 0.09337 0.35716
-0.01422 -0.10671 0.12353
-0.02063 -0.09337 -0.36699
0.26668 0.06608 0.35303
-0.14483 -0.01745 0.30705
0.10080 0.01143 0.31204
0.00389 -0.10671 -0.22676
-0.17392 0.10671 0.02394
-0.12323 -0.09337 0.16619
-0.01521 -0.09000 0.25264
-0.21665 -0.09337 0.02880
0.12492 0.01642 0.31578
0.06830 -0.10671 -0.38932
0.21495 0.10671 0.33668
0.11271 0.04533 0.33747
0.06989 0.03637 0.34742
-0.16436 -0.02557 0.30096
-0.22120 -0.10671 -0.11047
-0.18007 -0.09337 0.21858
0.18553 -0.09337 -0.09131
0.06624 0.10671 0.11666
-0.02986 -0.10671 -0.38830
-0.09406 0.05586 0.34536
-0.03215 -0.09337 0.01892
0.21859 0.10671 0.37633
-0.06349 0.10671 0.16826
-0.22725 -0.10671 -0.24581
0.16827 0.02741 0.32403
0.26003 -0.00765 0.29773
0.27870 -0.10671 -0.07250
0.05253 -0.09337 -0.27374
-0.20389 0.09337 0.32825
-0.23350 0.09337 -0.07025
0.10063 0.09337 -0.15943
0.04100 -0.10671 -0.33722
-0.04454 0.09337 -0.05869
0.03312 -0.10671 0.04998
0.24754 0.10671 -0.08455
0.18985 -0.09337 -0.35748
-0.11084 0.10671 0.09092
0.03557 -0.09337 -0.11563
-0.23491 0.10671 0.01296
-0.05674 -0.09337 0.06144
0.28013 0.01193 0.31279
0.27498 0.06065 0.36563
0.04473 0.10671 0.22455
-0.04979 0.10671 0.23375
-0.08011 -0.09337 -0.04207
0.21397 0.09337 0.05983
0.02881 -0.10671 -0.29995
0.23044 -0.09337 0.21461
0.01340 0.10671 0.16701
0.03774 -0.09337 -0.31064
-0.15629 0.09337 0.24668
0.02394 -0.10671 -0.37357
0.27295 -0.10671 -0.05309
-0.23783 0.09337 0.16769
0.27439 -0.10671 -0.13486
0.21045 0.09337 0.26952
-0.22956 0.10671 0.18700
0.12748 -0.03581 0.27661
-0.25104 -0.09337 -0.06067
-0.25598 0.10671 0.39750
-0.18813 0.09337 0.28236
-0.01047 -0.09337 -0.15366
0.12482 -0.10671 0.06270
0.06672 -0.09337 0.22829
-0.14860 -0.08877 0.25356
0.09311 -0.09337 0.07922
0.09985 0.08094 0.36417
0.13747 -0.10671 -0.28153
0.28013 0.10199 0.18045
-0.13712 -0.10671 0.23224
-0.18036 -0.10671 -0.06742
0.16592 0.09337 0.00237
-0.27259 -0.04322 0.28772
-0.22021 0.07027 0.37285
0.26430 -0.09337 0.12306
-0.17965 0.10671 -0.07154
-0.10111 -0.09337 0.22429
-0.13330 0.09337 0.19665
-0.12054 0.09337 -0.15840
0.21818 -0.10671 0.13070
-0.09446 0.09337 0.34330
-0.03007 0.10671 0.07001
0.28013 0.00026 0.31053
0.11274 0.09337 0.26708
-0.01198 -0.09337 0.23219
0.25494 0.10671 0.02314
-0.09190 -0.10671 -0.23057
0.06853 0.10671 0.01429
-0.25613 -0.09337 0.13504
0.03047 -0.10671 -0.17833
0.20818 -0.09337 0.07545
-0.02322 0.02033 0.33539
0.03730 0.09337 0.08728
-0.10121 0.09337 0.27613
-0.20420 0.10671 0.35656
0.16839 0.01191 0.32907
0.18185 -0.01495 0.30893
-0.28013 0.09705 0.26665
-0.23206 0.09337 0.32714
-0.18790 0.09608 -0.16805
-0.21761 0.10671 0.24959
-0.01441 -0.06573 0.27085
0.05828 -0.10671 -0.18208
-0.20312 -0.09337 -0.13183
0.20106 0.09337 0.34534
0.19892 -0.09337 -0.16441
-0.00915 -0.09337 0.07797
0.07557 -0.06320 0.27274
-0.04265 -0.01317 0.29359
0.10050 -0.09337 -0.10428
0.25804 0.09659 0.39258
0.06941 -0.09337 -0.30053
0.08210 -0.10671 -0.09478
0.03554 -0.10671 0.02172
-0.14009 -0.09337 0.02747
-0.19861 -0.02189 0.30372
0.13095 -0.09337 -0.09797
0.18825 0.03053 0.32637
-0.20272 -0.09337 -0.36346
-0.17195 -0.10671 -0.03726
0.13266 -0.09337 -0.35503
-0.08334 -0.10671 -0.03060
-0.03026 -0.01524 0.29204
-0.07378 0.10671 -0.11036
0.15931 -0.09337 -0.07079
0.11053 -0.09337 -0.21493
-0.04556 -0.10671 -0.23697
-0.17624 0.10671 0.18611
0.22161 0.09337 0.26430
-0.20792 -0.09337 -0.04797
-0.27473 -0.09337 -0.13061
0.06307 0.10671 0.06293
0.15802 -0.10671 0.20158
-0.28013 0.10590 -0.13994
-0.19409 -0.10671 -0.24142
-0.18693 0.10671 0.30521
-0.22007 -0.09337 0.06622
0.19268 0.10671 -0.09316
-0.19759 0.10671 0.03547
-0.27996 0.09337 -0.10426
0.23303 0.09337 -0.16924
-0.15463 0.09337 0.10408
0.25096 -0.09337 -0.28448
-0.00080 -0.06122 0.27423
0.01475 -0.10671 0.15435
0.08895 0.09337 0.23604
0.06089 0.04217 0.35177
-0.09231 -0.09337 -0.08768
0.19545 0.10671 -0.00793
-0.23263 -0.10671 0.04174
0.27902 0.09337 0.10516
0.13981 -0.10671 0.22500
-0.08943 -0.09337 0.17021
-0.01524 -0.10671 0.00552
0.25454 0.09337 -0.14161
0.07031 -0.10671 0.07550
0.19234 -0.09337 0.11964
-0.02586 -0.03657 0.27604
0.00145 0.10671 -0.08625
0.05340 0.09337 0.14206
0.24534 -0.10671 -0.11682
0.26671 -0.09337 -0.07507
-0.11815 -0.02018 0.28833
-0.18356 0.09337 0.01986
0.14994 0.09337 0.30454
-0.02491 -0.01415 0.30953
0.11528 -0.10671 -0.36311
0.09260 0.10671 0.13806
0.11953 0.10671 0.26532
-0.19177 0.09337 -0.02034
-0.05553 -0.04730 0.26799
-0.22942 -0.09337 0.22455
-0.07407 0.00821 0.30962
-0.18702 -0.10671 0.02879
-0.14140 -0.10671 -0.09517
0.23055 0.05492 0.34466
-0.12530 0.09588 0.39205
0.04105 -0.09337 -0.30081
-0.21904 -0.10671 -0.26414
0.20727 0.09337 -0.07430
0.22609 -0.10671 -0.22422
-0.01536 -0.09337 -0.28146
0.09305 0.09337 -0.01688
-0.10908 -0.09337 -0.15273
0.19255 -0.10671 -0.03854
-0.03409 -0.10671 -0.19938
-0.02357 -0.10671 -0.36912
0.02919 0.04714 0.33882
0.07193 -0.10671 -0.39681
0.23857 0.10671 0.23755
-0.07885 0.10671 0.15886
0.21390 -0.09337 -0.29209
-0.08671 -0.10671 -0.01135
-0.16108 -0.10671 -0.24729
0.04033 -0.09337 0.13165
0.04740 -0.09337 0.06257
0.11213 0.09337 0.33197
0.13277 -0.09337 -0.08621
-0.03248 0.04163 0.35136
0.19311 -0.09337 0.17219
0.25486 -0.10671 0.08756
0.13022 -0.09337 0.17345
-0.00947 -0.09337 0.13725
-0.02981 0.09337 -0.00228
0.04894 -0.01560 0.29177
0.13699 -0.03958 0.29046
-0.21957 0.10671 0.23266
0.14082 -0.09337 -0.10594
0.13743 0.10671 0.09679
-0.08102 -0.05978 0.25864
0.22226 0.09337 0.02667
-0.13489 0.01519 0.33154
-0.00305 -0.09337 -0.00749
-0.25731 -0.09337 0.11635
0.07935 -0.10671 0.03652
0.06462 -0.09337 -0.28897
-0.00725 0.09337 -0.02897
0.26254 -0.10671 -0.21880
0.14662 -0.10671 0.20182
-0.25692 -0.10671 -0.27260
-0.21280 -0.07509 0.26382
-0.08483 -0.09337 -0.25552
0.21285 -0.10671 -0.12557
-0.13936 -0.06920 0.26824
0.02534 -0.09337 -0.27039
-0.10719 0.10671 0.19790
0.05033 0.09337 -0.12023
-0.26488 -0.09337 -0.25616
0.19397 -0.10671 0.13336
-0.00296 -0.09337 -0.29128
0.09625 0.09337 0.20712
0.22365 -0.10671 -0.39493
-0.09162 -0.10671 -0.35126
-0.10430 0.01021 0.32780
0.18222 0.10671 0.21965
-0.01424 0.10671 0.17660
-0.10148 0.09337 0.17992
0.08856 -0.10671 -0.30680
-0.08307 0.00057 0.30389
0.19957 -0.05459 0.26253
-0.28013 0.09513 0.13838
0.07542 0.09337 0.22395
-0.04867 0.01730 0.31644
0.16893 0.10671 0.28198
-0.26810 0.10671 0.16795
0.14613 -0.09337 -0.23139
-0.06871 0.09337 0.28150
-0.08367 -0.10671 0.10447
0.03349 -0.09337 0.18543
-0.15306 0.10671 0.19390
0.26024 -0.10671 -0.19106
0.18253 -0.10671 -0.07261
-0.06728 -0.09337 -0.09408
0.11196 -0.10671 0.14594
0.26619 -0.09337 -0.02584
0.23083 0.09337 0.33720
0.20990 -0.09337 -0.16253
-0.18661 -0.09337 -0.12138
-0.04297 0.10671 0.28628
-0.26556 0.10671 0.23765
0.19410 -0.10671 -0.36615
-0.01998 0.10671 0.17385
-0.14777 0.06906 0.35526
0.17965 -0.09337 0.05670
0.15484 -0.10671 -0.34053
0.13237 -0.07409 0.24790
-0.16970 0.10068 -0.16460
0.01471 0.10671 -0.13545
-0.25204 0.10671 0.05312
-0.22224 -0.09337 0.08130
0.01209 -0.09337 -0.06101
0.21504 0.10671 0.17454
0.03829 0.09337 -0.06215
-0.27912 0.01608 0.31553
-0.03395 -0.10671 -0.09845
0.18661 -0.10671 0.12022
0.28013 -0.10271 -0.26417
0.08606 -0.06429 0.25525
-0.06205 0.10671 0.00147
0.24571 0.08599 0.38464
-0.03768 -0.10671 -0.31804
-0.18374 -0.09337 0.09085
0.26833 -0.10671 -0.06412
0.25861 0.03255 0.34455
0.15074 -0.09337 -0.20755
0.13570 -0.09337 0.19228
0.03969 0.09337 -0.00963
0.24078 -0.09337 0.16661
0.04286 0.10671 0.34664
-0.10144 0.09337 0.01260
0.05698 -0.10671 -0.39236
-0.23188 0.10671 0.17906
0.20852 0.09337 0.18261
-0.14206 -0.02061 0.30468
0.09241 -0.09337 0.03896
0.12058 0.09337 0.02563
-0.19912 0.09337 0.24115
-0.26677 0.10671 0.23120
-0.03936 -0.10671 -0.15611
0.08200 -0.08916 0.23660
-0.19595 -0.10671 0.12627
0.03819 0.09337 0.07777
0.24350 0.10671 0.07773
0.09803 -0.09337 -0.04580
0.14546 -0.02164 0.30391
-0.02519 0.09337 -0.01372
-0.13669 -0.10671 -0.17737
0.00621 0.10671 -0.03741
0.20372 0.10671 0.12717
0.04591 -0.10046 0.24480
-0.09613 -0.09337 -0.15412
-0.24535 0.10671 -0.12633
-0.24618 0.08981 0.38750
0.08799 -0.09337 0.17677
0.00486 -0.01806 0.28992
0.13783 0.10671 0.30042
0.13539 0.09337 -0.02492
-0.17832 0.01478 0.31455
0.19619 0.09337 0.26206
-0.10120 -0.10328 -0.39760
0.22093 -0.00792 0.31420
0.05528 0.09337 0.29946
0.23199 0.10671 -0.04896
-0.07901 -0.09337 -0.11899
0.16555 -0.09337 -0.22418
-0.19296 -0.09337 0.03965
-0.04861 -0.01580 0.29162
-0.13993 0.09337 0.29510
0.21000 0.10064 0.39563
0.00910 -0.10012 -0.39523
0.10379 -0.09337 -0.05087
-0.16715 0.09337 0.30821
0.14394 -0.09337 -0.31593
0.04647 0.10671 0.06014
-0.17953 -0.09337 0.12618
0.22131 0.10671 0.04376
0.23959 -0.05910 0.25914
0.16193 -0.09337 0.09503
-0.03378 -0.04692 0.28495
-0.18019 -0.09337 -0.05871
0.25284 -0.09337 -0.10752
-0.28013 0.10346 0.13761
0.10435 0.07389 0.37556
-0.21308 0.09337 -0.07220
0.17339 0.10671 0.30478
0.02924 0.10671 0.03449
0.26367 -0.09337 0.08385
-0.02198 -0.09337 0.22618
0.03009 -0.09337 -0.09267
-0.03439 -0.10671 0.15726
-0.04279 -0.09337 0.18676
0.19613 -0.10671 0.13819
0.06081 -0.10671 -0.22881
-0.27245 0.10671 0.18507
0.04923 -0.10671 0.24009
-0.25846 0.09337 -0.14038
0.18613 -0.09337 0.10757
-0.15739 -0.09337 -0.04847
-0.24712 0.10671 0.02548
-0.14706 -0.10671 0.21111
0.18154 -0.09337 -0.34709
-0.11305 -0.10671 0.14302
0.14935 -0.09296 0.23375
-0.16238 -0.09337 -0.01516
0.17912 -0.10671 0.12416
-0.07587 -0.10671 0.22876
-0.10310 -0.09337 -0.37461
0.07743 -0.09337 0.08887
0.07220 -0.10671 -0.03562
-0.20800 0.10671 -0.09356
-0.26555 0.09337 0.20664
0.26374 -0.09337 -0.32202
0.21277 -0.10671 0.01084
0.09937 0.10671 0.00539
-0.27330 0.09337 0.13313
0.21160 0.03797 0.34862
0.25589 0.10671 0.00221
0.23250 0.09701 0.39290
0.04878 -0.10671 -0.21563
-0.16671 0.10671 -0.15813
0.03926 -0.10671 0.09829
-0.01949 0.09337 0.27497
0.20951 0.10671 0.12245
-0.06147 0.01673 0.33269
0.21052 -0.10671 -0.36022
-0.18021 0.10671 0.37147
0.06763 -0.09337 -0.14103
0.24796 -0.09337 0.14471
0.00080 0.09337 -0.01153
-0.23668 0.10671 -0.14214
-0.04580 0.07738 0.37818
-0.28013 -0.10183 -0.29442
-0.12697 -0.09337 -0.08341
-0.14099 -0.01206 0.29442
-0.00981 0.10360 0.39784
-0.12795 0.10671 -0.03680
-0.06559 -0.10671 0.13722
0.10503 0.09337 0.19971
0.25125 -0.09337 -0.37374
0.14991 -0.09337 0.21183
0.04042 -0.09337 -0.13643
0.00738 -0.10671 -0.22335
-0.08736 -0.10566 0.24090
0.17958 -0.09337 -0.35974
0.04915 -0.10671 0.23273
0.15501 0.09337 0.35315
0.27730 0.10671 0.19367
0.22300 0.09337 -0.11021
-0.07251 0.10671 0.28234
-0.15881 -0.09337 -0.36354
-0.07592 -0.09337 0.09604
0.16960 -0.10671 -0.18874
-0.24607 -0.09337 -0.37306
-0.07430 -0.10671 -0.30727
-0.24537 0.10671 0.06241
0.16553 0.10671 0.06208
0.19605 0.09337 0.26912
0.19184 -0.09337 -0.37903
0.25558 -0.09337 -0.21985
-0.14522 0.09337 0.34936
0.03530 -0.09337 -0.36440
0.01184 -0.09337 -0.22388
-0.17765 0.10671 0.00746
0.18070 -0.09337 0.02682
0.20970 -0.09337 -0.08423
-0.25535 -0.09337 0.03648
-0.27216 0.10671 -0.04255
0.02392 0.10671 0.21266
-0.14946 -0.09337 0.08422
0.04942 0.10671 0.19514
-0.23779 -0.10671 0.11670
0.20105 -0.10671 -0.10944
-0.21440 0.03446 0.32931
0.04335 0.01422 0.33081
0.19628 -0.00121 0.31923
-0.11824 0.09337 0.04016
-0.09539 0.10671 0.17450
0.05275 0.10671 -0.01400
-0.09270 -0.10671 -0.15470
-0.05797 -0.10671 0.10924
-0.15525 0.09337 0.27800
-0.25198 -0.05713 0.27730
0.13878 0.09337 0.06707
-0.05038 -0.10671 -0.19503
0.28013 0.07733 0.37661
0.12493 -0.10671 -0.17473
-0.22674 -0.10671 0.18796
0.01682 -0.10671 -0.05843
-0.20767 -0.03236 0.27920
0.24946 0.09337 0.33114
-0.28013 -0.09772 -0.28979
0.17438 0.10671 0.17261
-0.08401 -0.10671 0.21754
-0.03581 -0.10671 0.09953
-0.25158 0.10671 -0.07506
-0.09728 -0.09337 0.01259
0.17211 0.09337 0.10876
0.13120 -0.09337 0.05161
-0.12454 0.10671 0.02094
0.13051 0.10671 0.32982
0.18285 -0.10671 0.15379
0.02476 0.10671 0.09412
-0.27789 0.09337 -0.15542
-0.20964 -0.03545 0.29356
0.03671 -0.09337 -0.04559
-0.03710 -0.10671 -0.07707
0.15948 -0.10671 -0.25078
-0.13167 0.05995 0.36510
-0.22708 -0.09337 0.03124
-0.26872 -0.09337 -0.37813
0.10789 0.10671 0.37598
0.05967 0.10671 0.28606
0.00167 0.10671 0.00768
-0.15970 -0.10671 0.08012
-0.24497 0.09337 -0.07371
-0.26635 0.09337 0.18291
-0.05383 0.08316 0.36584
0.09930 0.09337 0.19727
0.21340 0.09337 0.31423
0.11232 -0.09337 0.20600
-0.20113 -0.09337 0.06759
0.26866 -0.10671 0.05226
0.07407 0.09337 0.19156
0.26664 -0.10671 -0.10117
0.25340 -0.10671 0.05370
0.07256 -0.09337 -0.15914
0.22503 -0.10671 0.07917
-0.28006 -0.10671 -0.02614
0.17752 0.10671 0.20701
-0.01290 0.10671 -0.02446
0.08006 0.10671 0.18485
-0.13494 -0.09337 -0.38867
-0.17689 0.10671 -0.12153
-0.15940 -0.09337 -0.02396
0.15547 -0.10671 -0.14334
-0.14901 0.01336 0.31349
-0.27377 -0.09337 0.16919
0.06324 -0.09865 -0.39413
-0.07574 -0.09337 0.08628
-0.08525 -0.10671 -0.04139
0.25105 0.10671 0.27057
0.10667 0.00831 0.30970
0.05202 -0.00515 0.29960
0.25273 -0.10671 -0.22566
0.23312 0.09337 0.04148
0.16519 -0.10671 -0.08733
-0.27968 0.09337 0.33690
-0.07295 -0.10671 -0.20926
-0.18708 -0.10671 -0.13408
0.23533 0.10671 -0.02925
0.16258 0.10671 0.03588
0.28013 -0.10668 0.05416
-0.01038 0.10671 -0.10868
0.04681 -0.10671 -0.20044
0.09979 0.06265 0.36713
0.07820 -0.09337 -0.36615
0.20239 0.09337 0.31204
-0.27645 -0.10671 -0.17801
-0.28013 -0.09928 0.06487
-0.20584 -0.10671 -0.12409
-0.01288 0.10671 0.16520
0.17382 -0.10671 0.22078
-0.18669 -0.09337 0.23143
-0.24853 -0.10671 -0.04234
0.10669 0.10671 0.02644
-0.08971 -0.05724 0.27721
-0.13950 -0.09337 -0.23417
-0.23459 0.09337 -0.05932
0.09873 -0.10671 -0.01833
-0.14663 -0.09337 -0.37273
-0.25319 0.09337 -0.16896
-0.20530 -0.10671 0.17225
-0.25632 -0.09337 -0.27909
0.07656 -0.06829 0.25225
0.01941 -0.09337 0.19664
0.04204 0.00196 0.30494
0.05449 0.04682 0.35525
-0.14438 -0.09337 -0.02651
0.11548 -0.10671 0.03204
-0.01429 0.10671 0.24845
-0.07978 0.09337 0.37133
-0.07202 -0.10671 -0.27526
0.28013 0.09415 0.30315
0.25929 -0.09337 -0.26549
0.26830 -0.05641 0.26116
-0.02192 0.10671 0.07831
-0.05788 -0.08008 0.26008
-0.26253 -0.09337 0.18512
0.09417 -0.09337 0.06964
-0.27316 -0.09337 0.10292
0.02023 -0.07643 0.26282
-0.21282 0.10671 -0.00488
-0.09847 0.09337 0.13433
0.06720 0.09337 0.30025
0.13928 -0.10671 -0.18645
0.16442 -0.10671 -0.02417
-0.20417 -0.09337 0.07795
-0.06159 0.08536 0.38416
-0.20289 -0.10671 0.07153
-0.12357 -0.09337 0.21006
0.05722 -0.10671 -0.39931
-0.17028 -0.09337 0.11575
-0.08217 0.02121 0.33605
-0.20104 0.10671 -0.08942
0.17602 -0.08006 0.26010
0.04617 -0.10671 -0.33667
-0.04581 0.10671 0.17549
-0.09818 0.04579 0.33781
-0.23571 -0.10671 0.03350
-0.18479 0.03692 0.33116
0.04800 -0.08145 0.24238
