ply
format ascii 1.0
comment VCGLIB generated
element vertex 1892
property float x
property float y
property float z
element face 0
property list uchar int vertex_indices
end_header
-0.05044 0.02373 0.08005
-0.10799 -0.41507 -0.06767
-0.15086 0.04509 -0.12098
0.00961 0.01495 -0.03806
0.06044 -0.42964 0.02623
-0.13949 0.03937 -0.10452
0.15774 0.33672 0.15093
-0.04971 0.32032 -0.12680
-0.08037 0.03937 0.03117
0.02192 0.02953 0.10149
0.04241 0.02953 0.05531
0.01425 -0.01885 -0.15657
-0.03656 0.05030 0.09007
0.11055 0.42964 -0.02298
0.05800 0.29591 0.15902
-0.05875 0.42964 -0.02867
-0.01106 0.42964 0.01126
0.14141 0.02541 0.10721
-0.00143 0.32032 0.12413
-0.03210 0.39659 -0.15693
0.15774 0.41893 -0.02150
0.07757 0.01495 -0.11170
-0.00924 0.07213 0.17360
0.11445 0.02915 -0.15802
-0.02050 0.04249 -0.17360
-0.00643 0.03219 -0.17360
0.01451 0.34968 0.15866
-0.15087 0.04199 -0.09712
0.11226 0.30938 0.11137
0.02268 0.30938 0.02054
0.10270 0.02953 0.05873
0.08614 0.32032 0.04415
-0.08907 0.05030 0.08419
0.09149 -0.12404 -0.17114
-0.05449 -0.41507 -0.05675
-0.00606 0.42964 -0.10784
0.04141 0.32032 -0.06027
0.07382 0.30938 -0.06528
-0.09898 -0.42964 -0.08560
0.15774 0.38346 -0.12515
0.11531 0.27346 0.17298
0.12438 0.01495 -0.08213
-0.08886 -0.36615 -0.17114
-0.09967 0.03937 -0.04992
0.08687 0.30938 -0.15283
-0.12552 -0.42454 0.14164
-0.05347 0.42964 0.07380
0.14238 0.42964 -0.14303
0.01029 -0.42964 -0.09711
-0.07862 -0.42964 -0.04747
0.11861 0.39324 -0.15693
-0.07986 0.32766 0.01444
0.10899 0.32032 -0.03567
0.09842 0.34558 0.15866
0.05728 0.02953 0.02691
-0.07986 0.34831 0.05457
-0.04329 -0.21532 0.15902
-0.10421 -0.35926 -0.15837
0.10482 0.19057 0.15902
0.11531 0.17448 0.17186
0.09323 -0.31567 0.17360
-0.08395 -0.42964 0.11910
0.08616 -0.09466 -0.17090
0.06280 0.42964 -0.09032
-0.07986 0.39190 -0.09911
0.06959 0.01495 0.06295
0.10345 0.30938 0.08078
-0.00920 -0.10927 -0.15923
-0.10267 -0.41396 0.17360
-0.07778 0.42466 -0.05937
0.08616 -0.10729 -0.16863
-0.05749 0.03445 0.17360
-0.02123 0.03937 0.14531
0.09982 -0.26697 0.17360
-0.03214 0.02953 -0.06604
0.05598 -0.41507 -0.00653
0.03915 -0.42964 -0.04542
-0.06653 0.40390 0.15866
-0.03103 0.02953 0.08651
0.08616 -0.30187 0.17180
0.11445 0.01495 -0.06070
-0.05768 0.31169 0.17238
-0.07413 0.42488 0.15866
-0.05044 0.02079 0.05434
0.05888 0.32032 -0.02865
0.08377 0.42964 -0.00716
-0.02676 0.07215 -0.17360
0.11531 0.23347 -0.15823
-0.12552 -0.42723 -0.12126
-0.07986 0.40249 0.04917
-0.07713 -0.31095 -0.17114
-0.04488 -0.20669 0.15902
0.02433 0.42964 -0.14595
-0.02392 0.05583 0.17360
0.06629 0.42964 -0.09485
-0.02582 -0.07298 0.17360
0.03861 0.34080 0.15866
0.07897 0.30938 0.02783
-0.07256 -0.35279 0.17068
-0.03906 -0.41507 0.03440
-0.04391 0.05030 -0.01493
-0.06587 0.03748 -0.17114
0.11444 0.31733 0.06545
-0.08236 0.03937 0.08817
-0.09518 -0.39834 -0.15657
-0.07426 -0.35931 -0.15739
-0.00899 -0.42964 -0.08436
-0.02345 0.03937 -0.05563
0.10207 0.01495 -0.11413
0.11442 0.14289 0.15902
0.08885 0.42964 0.15197
0.09181 0.30938 -0.00147
0.02849 -0.41535 -0.15657
0.11342 0.07152 0.17360
-0.03012 0.05030 -0.13287
0.15774 0.40020 0.02160
-0.01045 0.32032 -0.15099
0.14856 0.32032 0.10973
0.00701 0.30938 -0.15425
-0.09843 0.05266 -0.17360
-0.06388 0.42964 -0.15672
-0.08036 0.03937 0.06543
0.09488 0.32032 -0.04341
-0.04747 0.02297 0.16585
-0.09008 0.03937 0.00007
0.11444 0.31734 -0.04037
0.08157 -0.42964 -0.15817
0.09854 0.02953 -0.06328
0.15774 0.33071 -0.12024
0.06872 0.32032 0.05437
0.15774 0.40186 -0.06587
0.12411 0.38514 0.15866
0.12899 0.32032 0.03299
0.03704 -0.41583 0.15902
0.07891 0.32032 -0.06194
-0.14447 0.03937 0.04384
0.08616 -0.18798 -0.16977
0.03869 -0.41507 -0.05456
-0.05667 0.30938 -0.04194
-0.12506 -0.42964 -0.11541
0.08632 0.02953 0.09887
-0.04013 0.32032 -0.08195
-0.13957 0.09157 -0.18137
0.06998 0.30938 -0.09836
0.11936 0.02546 0.13349
-0.07148 0.05030 -0.10356
0.13297 0.02953 -0.06308
0.07580 0.32032 -0.08729
0.00882 0.32032 -0.14291
-0.03324 0.02237 -0.17664
0.15774 0.34886 -0.04980
0.10074 -0.39966 0.16263
-0.02532 -0.42964 -0.03795
-0.02498 0.07203 -0.18672
-0.03857 0.30938 -0.13020
-0.01710 0.42964 -0.14566
-0.02782 -0.16170 -0.15657
0.02633 0.42964 0.06651
-0.10194 0.08166 0.18672
-0.10860 -0.37613 -0.16917
0.15762 0.32032 0.10243
0.08616 0.00126 -0.16692
-0.04518 0.30938 0.15563
0.10751 0.25688 -0.15802
-0.04546 -0.42964 0.17135
0.11492 0.32032 0.13364
0.06465 0.02953 -0.12726
-0.04843 0.04509 0.18672
-0.10147 0.09307 -0.17577
-0.04415 -0.20554 -0.17114
0.12997 0.42964 -0.15480
0.11531 0.00853 0.16098
0.07682 0.02953 0.10010
0.09164 -0.09134 -0.17114
0.02082 0.42964 0.06814
-0.02317 0.34152 0.15866
0.11395 0.02953 0.01210
0.08052 0.30938 -0.07532
-0.03257 0.01495 -0.15033
-0.09975 0.05030 0.01132
-0.00128 -0.41507 0.05402
0.08616 -0.34800 -0.15735
0.11531 0.11424 -0.16759
-0.07946 -0.41507 -0.05473
-0.08350 0.37976 -0.08320
0.09757 -0.18017 0.15902
-0.01516 -0.03689 0.15902
-0.07716 -0.28537 0.15902
0.05945 0.02953 -0.08198
-0.09981 0.03165 -0.18672
0.10581 0.27920 -0.17260
0.09478 0.01495 -0.10418
0.01016 0.08332 -0.18643
0.00766 0.01495 -0.00058
-0.03474 0.30938 0.01716
0.15480 0.32032 0.13332
-0.07986 0.35516 0.06462
-0.00995 0.30938 0.03187
0.09919 0.32032 0.05991
-0.05761 0.31569 -0.13603
0.11549 0.01495 0.09103
-0.05116 -0.41507 -0.03840
-0.07986 0.40880 0.15424
0.10732 0.14264 -0.15802
-0.00529 0.07018 -0.17360
-0.07238 0.05030 0.04839
-0.11372 0.03937 0.03872
-0.10715 0.02366 -0.18405
-0.04529 0.04244 -0.18672
-0.07748 0.03937 0.07235
-0.03305 -0.42964 0.03266
-0.05191 0.30938 -0.13702
-0.02302 0.02953 0.10479
0.10191 0.20386 -0.15802
-0.02982 0.33001 -0.15693
0.08575 0.30252 -0.17260
-0.12730 0.03937 0.01718
-0.01917 -0.06999 0.15902
-0.03090 0.09299 0.17360
0.03570 0.01495 0.05330
-0.02830 0.42920 0.15866
-0.14072 0.05030 -0.12163
0.08424 0.32032 -0.00121
0.03680 0.30938 0.12200
-0.12659 0.09440 0.17601
0.05435 0.32032 -0.00120
-0.09626 0.06567 -0.17360
0.14698 0.02953 0.09661
0.15774 0.32894 -0.10082
-0.13822 0.08471 0.17861
0.04076 0.32032 -0.14821
0.09125 -0.03473 0.15902
-0.07178 -0.30085 0.15902
0.06249 0.02953 -0.09436
0.06006 -0.41507 0.06039
-0.08350 0.34525 -0.08431
-0.05044 0.02761 0.07160
-0.09183 -0.40646 0.15902
-0.03591 -0.42964 -0.08894
0.03598 0.01845 0.15902
-0.02405 0.08443 -0.18672
-0.01774 0.02953 -0.06502
0.15774 0.36803 0.13895
-0.07986 0.33692 -0.15239
-0.09102 -0.32051 -0.15657
0.02643 0.32032 -0.12346
0.12772 0.02953 -0.02720
0.01088 0.30938 -0.00750
-0.04635 0.42964 -0.07824
0.05346 0.30938 0.00945
-0.07986 0.37945 -0.12749
-0.13578 0.03937 -0.09284
-0.10694 0.05026 0.17360
0.00293 -0.42964 0.15242
-0.05052 -0.22054 -0.17114
-0.06134 0.04555 -0.17110
-0.05750 0.30938 -0.01450
-0.14758 0.03937 -0.06137
0.10074 -0.30652 0.16325
0.14915 0.42964 0.02915
0.03503 -0.42964 0.11094
0.09118 0.30938 0.16807
-0.03825 -0.10574 -0.16285
-0.01960 0.42964 -0.10247
-0.01419 0.30938 0.04525
0.10074 -0.29229 0.16774
-0.00911 0.30938 0.08146
0.10074 -0.38714 0.16135
0.03405 0.42964 -0.09782
0.05350 -0.41507 -0.04076
0.10689 -0.01057 0.15902
-0.00706 0.36177 0.15866
0.15774 0.32718 0.09054
-0.04943 -0.41507 0.04316
0.08714 -0.05286 -0.17114
0.07574 0.02791 -0.17114
-0.06311 0.03937 -0.14501
-0.02958 0.32032 -0.09570
0.10780 0.01495 -0.04171
-0.00805 -0.07651 0.17360
-0.03924 0.01495 0.09395
-0.05765 -0.26288 0.17360
0.07852 0.30938 0.06530
0.00959 0.32032 -0.00688
0.14419 0.42964 0.14870
-0.06599 0.03937 0.09068
0.06014 0.02953 -0.13927
0.11059 0.02595 -0.14142
0.10074 -0.31333 -0.16720
0.00803 -0.41507 0.03535
0.01358 -0.42964 0.08503
0.10074 0.14874 -0.16233
0.15774 0.34049 -0.10947
0.11025 0.32032 0.11485
0.00910 0.30938 0.05795
-0.01166 0.04921 0.15192
0.03125 0.32032 -0.00798
0.11883 0.02953 -0.08354
0.03523 0.02953 0.10847
0.04444 -0.41507 0.09606
0.07455 0.32032 0.06115
0.00581 0.02953 0.07808
0.03936 0.02953 0.06527
0.10074 0.22575 0.16377
-0.07986 0.33829 0.06790
-0.10710 0.03937 -0.09462
0.07088 0.01495 0.15364
0.06869 -0.42964 0.00062
0.09457 0.32032 0.07614
-0.07744 -0.37154 0.16080
-0.13291 0.03937 0.04125
0.13402 0.42964 -0.09488
0.11278 0.01495 0.11641
-0.07499 0.03937 -0.00989
0.05993 0.30938 -0.11454
0.06467 0.32032 -0.08570
-0.06644 -0.42964 0.13422
-0.05475 0.32032 -0.01491
0.08831 0.30938 0.05105
-0.04912 0.02527 0.17360
-0.04947 -0.41507 -0.16892
-0.08578 -0.32728 -0.17114
0.09821 0.32032 0.13881
-0.10846 -0.41507 0.13405
0.05480 0.32032 -0.09362
0.15774 0.34757 -0.01666
-0.07157 0.04539 0.17356
0.15774 0.34721 -0.03341
-0.09169 0.05030 -0.01126
-0.07128 0.05846 0.18672
0.02396 0.42964 0.00627
-0.00006 0.01495 -0.02807
-0.03925 -0.13590 -0.15657
0.15093 0.32032 -0.01190
0.00990 -0.42964 0.10303
0.12230 0.42964 -0.13711
-0.03274 0.32032 0.12035
-0.06024 -0.41507 -0.04275
0.01313 0.33919 0.15866
0.04995 0.32032 0.11475
-0.05366 0.05030 -0.03972
0.06837 0.01495 0.11497
0.01717 0.32032 0.13015
0.04462 0.32700 -0.15693
0.11326 -0.01669 0.15902
-0.04984 0.32032 -0.03320
-0.05122 -0.23628 0.17360
-0.05515 -0.41760 -0.15657
0.15361 0.32032 0.12101
0.10130 0.02953 -0.07141
-0.05966 0.42964 0.03618
-0.05264 -0.16104 -0.16667
0.07900 0.32032 -0.10457
0.02687 0.30938 -0.05853
-0.02971 0.32032 -0.06026
-0.12026 -0.42964 -0.00497
0.06494 0.30879 0.15902
-0.05768 0.31155 -0.12932
0.13476 0.32032 -0.09191
-0.14591 0.04591 -0.17103
-0.05173 0.42964 -0.03417
-0.12014 -0.41507 -0.11024
0.01140 0.42964 0.09247
0.06316 0.32032 -0.14993
-0.11981 -0.42964 0.04323
-0.03194 0.32032 -0.02113
0.02592 0.02953 -0.09811
-0.00804 0.02953 -0.07346
0.10074 0.19454 0.16295
-0.03644 -0.42964 0.07023
-0.13177 0.05834 -0.17360
0.10055 -0.27468 0.15902
-0.07913 0.40863 0.13993
0.01396 0.02953 0.14037
0.01014 -0.41507 -0.11213
-0.00796 0.42964 0.14442
-0.12741 0.03937 0.05852
-0.14912 0.03937 -0.05388
-0.11396 0.03937 -0.01285
-0.06632 -0.42964 -0.09095
-0.01019 -0.05419 0.17360
0.03161 -0.42964 0.14120
0.08616 -0.40382 -0.15970
0.10074 -0.01061 -0.16573
-0.07986 0.32783 0.07884
-0.07385 0.32070 0.05276
-0.03021 0.32032 0.04911
-0.03535 0.03937 -0.08655
-0.07986 0.33447 0.15683
-0.12441 0.05030 0.02898
-0.01722 0.09340 0.17360
0.03903 -0.42964 0.04126
-0.06377 0.42964 0.02403
-0.11155 -0.41507 -0.01456
-0.05775 -0.42537 -0.17114
-0.03381 0.32032 0.02102
0.01680 -0.42964 0.03643
-0.10365 0.05896 0.18672
0.15774 0.36647 0.00244
0.00615 0.42964 -0.05443
-0.02569 0.03937 0.16951
-0.10514 0.03937 -0.04338
0.15774 0.34629 -0.11631
0.10463 0.02953 -0.13240
-0.05439 0.31986 0.01961
-0.07986 0.38626 0.03902
-0.09907 -0.42964 0.09685
0.03920 0.29690 -0.15802
0.09419 -0.29797 0.15902
0.04691 0.01495 0.10660
0.02453 0.30938 0.07850
-0.08257 0.03937 -0.00637
0.07157 -0.41507 0.01831
0.08804 0.36110 -0.15693
-0.01863 0.07139 0.18672
-0.00100 0.32032 -0.07659
0.10074 -0.24114 -0.16456
-0.06522 -0.20942 -0.16684
0.00505 -0.42270 -0.17114
-0.00690 -0.41507 -0.05771
0.08644 -0.36515 -0.15657
0.13275 0.36606 -0.15693
0.14902 0.01495 -0.02700
0.11531 0.01134 0.17201
-0.07169 0.42912 -0.14744
0.03702 -0.42964 0.02850
0.11298 0.32032 -0.06849
-0.00055 -0.00729 -0.15657
-0.09862 0.04408 -0.18672
-0.01510 0.30938 0.07529
-0.07986 0.41181 -0.09795
0.15612 0.01495 0.02753
-0.08658 0.05030 -0.03668
-0.07277 0.42874 -0.05689
-0.05044 0.02875 0.06009
0.08616 -0.22296 0.15956
0.07782 0.01495 0.01160
-0.07930 -0.42964 -0.14283
-0.09182 -0.42964 -0.03870
-0.01035 0.02953 0.15091
0.04262 0.02953 0.13941
0.01675 -0.41507 -0.02281
0.02009 0.01495 0.00454
-0.02841 -0.42716 -0.15657
0.08616 -0.18275 -0.16729
0.15774 0.39916 0.09929
0.02143 0.02953 -0.03230
0.06617 0.30938 -0.12870
-0.09365 -0.42964 -0.06517
-0.02423 -0.41507 0.03652
0.10445 0.01495 0.01614
-0.12552 -0.42328 0.04392
0.12987 0.42964 -0.01060
0.14929 0.38504 -0.15693
-0.04002 0.32032 0.02267
-0.09443 -0.42964 -0.02740
0.12212 0.38328 -0.15693
0.09952 0.30938 0.01648
0.10074 0.08780 0.16011
0.09530 -0.18016 -0.15657
0.10074 0.01682 -0.16017
-0.09812 0.05030 0.02755
0.06748 0.32032 0.14025
-0.09451 0.03937 -0.14594
0.08616 -0.27809 0.16537
-0.01166 0.04180 -0.02594
0.10793 0.42964 -0.12132
0.02814 0.32032 -0.03260
0.02938 0.32032 -0.04543
-0.08686 0.03937 -0.06936
-0.09644 0.05030 -0.00187
0.08491 0.32032 -0.12206
0.08616 -0.12627 -0.16921
-0.07986 0.33478 0.07658
-0.05768 0.31052 -0.03630
-0.02261 0.03937 -0.08428
-0.00205 -0.41507 0.09878
0.00642 0.30938 -0.03592
-0.00228 -0.42964 -0.12528
0.05253 0.02953 -0.08718
0.03354 0.32032 -0.10822
-0.03346 -0.09774 0.15902
-0.07231 0.32039 0.12757
0.11531 0.08296 0.16899
0.09042 0.32032 0.06441
-0.09574 -0.41507 -0.02728
0.02465 -0.42964 0.13993
0.07837 0.42773 0.15866
0.00756 -0.03333 0.15902
-0.07986 0.38474 -0.03882
0.03799 0.32032 -0.08300
0.04536 -0.42964 0.12047
-0.03020 0.03937 -0.16659
0.14671 0.42964 0.01611
0.15774 0.34834 0.14248
-0.02645 0.02953 -0.13640
-0.05941 0.38982 0.15866
-0.06487 0.05030 0.12954
-0.00555 0.42964 -0.11453
-0.05924 0.32032 0.04752
0.08206 0.01948 -0.15657
0.07794 0.32032 0.03538
-0.05960 0.41745 0.15866
0.07200 -0.42916 0.03068
0.01456 0.32032 0.11585
-0.09656 -0.41507 0.07265
-0.00035 0.32032 -0.12059
0.11385 0.24161 -0.17260
0.14490 0.01495 0.02843
-0.03139 -0.42055 0.17360
-0.09950 0.03937 0.10597
0.14960 0.32032 -0.07451
-0.01758 0.02953 -0.13628
-0.11860 -0.41507 0.08745
0.09740 0.42964 0.11836
0.07701 0.03693 -0.17114
-0.04431 0.32032 0.05716
-0.01421 0.32032 -0.06767
-0.11314 -0.42964 -0.09823
0.09793 0.02953 -0.02630
-0.05768 0.31108 -0.08708
0.06426 -0.42951 -0.15657
-0.01787 0.32032 -0.12169
-0.10550 0.05030 -0.10271
0.10074 0.12947 -0.17199
0.15774 0.34522 -0.00978
0.03288 0.02953 -0.09803
-0.05752 0.03937 0.03373
-0.03817 0.02953 -0.04255
-0.13548 0.02436 0.18300
-0.01856 0.01495 0.12762
0.02970 -0.41507 -0.16464
0.00585 0.02237 -0.17520
-0.05805 -0.20036 -0.15657
0.10329 0.05269 0.17360
0.15774 0.35578 0.07239
0.11813 0.42964 0.12138
0.11113 0.01495 0.10971
-0.11761 -0.41076 -0.15823
0.08616 -0.03335 -0.15662
-0.07986 0.35025 -0.03385
-0.01537 0.32032 0.09208
-0.04370 0.32032 0.02744
-0.10248 -0.42964 -0.10502
0.01103 -0.41507 0.04337
0.10512 0.32032 -0.09363
-0.06002 0.38340 -0.15693
0.15774 0.35808 -0.11893
-0.02460 0.42964 0.14100
0.12821 0.42964 0.05794
-0.04316 0.01495 -0.05298
-0.03097 0.03937 -0.02133
0.13053 0.42964 -0.11280
-0.11478 -0.42964 -0.00856
0.06719 -0.42964 0.16497
0.08616 -0.00741 -0.16498
0.08918 0.30938 -0.16485
-0.07214 -0.42964 0.01589
0.15774 0.34383 0.01111
-0.01860 0.32032 0.00174
0.01477 -0.01244 -0.15657
0.07200 -0.42000 0.00903
-0.10764 -0.41507 -0.02249
-0.06685 0.09307 -0.17463
0.00937 0.32032 0.09250
0.09468 -0.13718 -0.17114
-0.11066 0.03937 0.14850
0.07273 0.02297 0.16431
0.07097 -0.41507 0.10146
-0.05283 -0.16179 0.16936
-0.00187 0.32032 0.13885
0.02310 0.42964 -0.01367
-0.07986 0.38527 0.02814
-0.00771 0.01495 -0.04282
-0.05255 -0.41507 0.02474
0.10074 0.14731 -0.17061
-0.06603 0.05068 0.17360
-0.08120 -0.27085 0.16727
-0.05354 -0.41507 -0.13206
-0.00254 -0.41507 0.07022
-0.05044 0.01945 -0.06379
-0.07948 -0.41507 0.00662
0.08616 -0.33563 0.16947
-0.07986 0.40097 0.15793
0.10074 0.02466 0.16123
0.15280 0.42964 -0.10966
-0.07182 -0.25262 -0.15657
0.07200 -0.42538 -0.01551
-0.02394 -0.11973 -0.17114
-0.07364 -0.41507 -0.10174
-0.07677 0.42592 0.14090
0.07293 0.30938 -0.16269
0.02504 0.39814 0.15866
0.02866 0.02953 -0.10898
-0.07547 0.36157 0.15866
0.07487 0.41737 -0.15693
0.08199 0.01495 0.00735
0.11253 0.04494 -0.17260
-0.04806 0.05030 -0.12915
-0.04208 0.07498 0.17360
0.09140 0.42964 -0.14362
0.11373 0.30938 -0.08344
-0.01451 -0.42964 -0.13989
0.12956 0.42964 -0.02387
0.08568 0.32032 -0.09315
-0.02057 0.05030 -0.10470
-0.07812 0.06735 0.18672
0.00609 0.32032 0.15527
-0.02850 0.03602 -0.15657
0.09135 -0.17942 -0.17114
-0.04336 0.02297 0.16055
0.00187 0.30938 -0.03084
0.03937 0.42117 0.15866
0.01853 0.30938 -0.03180
0.09854 -0.10678 0.15902
0.06179 0.01495 0.10338
-0.07986 0.38049 0.07882
-0.04157 0.01495 0.07382
0.11531 -0.04440 -0.16643
0.00166 0.01495 0.03441
-0.08747 -0.34415 -0.15657
0.15774 0.42828 -0.06134
0.00741 0.42964 0.13478
-0.02141 0.01495 0.14108
0.13323 0.42964 -0.11876
-0.08832 0.09323 0.17360
-0.14669 -0.42601 0.15902
-0.01041 0.32032 -0.02543
-0.05044 0.02599 -0.14930
-0.08126 0.03755 0.15999
-0.06660 0.32032 -0.00354
0.15774 0.33245 0.08771
-0.02746 -0.06428 0.16058
-0.07576 -0.32078 0.17360
0.06655 0.02953 -0.03230
-0.04056 0.03937 0.06091
-0.07557 0.32592 0.15866
0.11531 0.18805 -0.16378
-0.00257 0.32032 -0.14029
0.17278 0.01495 -0.01007
0.09835 -0.10302 -0.17114
0.17093 0.02953 0.01724
-0.01588 0.03937 0.16613
0.02019 -0.41507 0.07920
0.11531 -0.03097 0.16643
0.00723 -0.04608 0.17160
0.09290 -0.35118 0.17360
-0.04429 0.07840 -0.17360
-0.07392 0.03937 0.08690
-0.11688 0.05030 -0.16085
-0.01166 0.04059 -0.08518
0.10074 0.23125 0.17356
0.17385 0.02165 0.01297
-0.08291 -0.41507 -0.14577
-0.08610 0.07707 -0.17360
-0.06849 -0.41507 0.10646
-0.01240 0.03755 0.17278
-0.12501 0.08754 -0.18663
0.00741 -0.41507 -0.12812
0.14819 0.33819 -0.15693
-0.07986 0.40412 -0.01996
0.07067 0.32032 -0.10873
0.06528 0.32032 0.05914
-0.11150 0.05030 -0.03298
-0.12552 -0.41754 0.15329
-0.03664 -0.17837 0.15902
0.12400 0.32032 0.08761
0.05273 0.30938 -0.06295
-0.04470 -0.41507 -0.10373
-0.05293 -0.42964 -0.10328
-0.04007 -0.11848 -0.15657
-0.07099 0.32032 -0.10574
0.00299 0.02953 -0.07838
0.06207 0.30938 0.06698
-0.09813 0.05580 -0.18672
0.05655 0.29944 -0.17260
-0.04589 0.32032 0.09430
0.07434 0.32032 -0.05329
0.09404 0.30938 0.10538
-0.01942 0.32032 0.09995
-0.13094 0.02978 -0.17360
0.15774 0.40916 0.11704
0.04326 0.32032 0.16090
0.04614 -0.42964 0.17065
-0.07986 0.38461 0.08484
-0.01111 0.32032 0.07058
0.09165 -0.37985 0.17360
0.03395 0.01495 -0.10703
-0.12959 0.05030 -0.01640
-0.06340 0.32032 -0.01566
-0.04317 0.31674 -0.17080
-0.07754 0.32285 0.00542
0.11531 0.12476 -0.17008
-0.02192 -0.41507 0.07038
0.08155 0.32032 0.09372
-0.11437 -0.41507 -0.12161
-0.02467 0.05030 0.01402
0.06178 0.41229 0.15866
0.11531 0.20836 -0.15847
-0.11746 -0.41507 0.02788
0.15774 0.36448 -0.08571
0.04138 -0.42964 0.10171
0.02432 0.01495 -0.04146
0.08616 -0.21230 0.16353
0.01525 0.01495 -0.10218
-0.05374 0.32032 0.12786
0.03967 0.01495 0.03973
0.10945 0.02953 0.04911
0.08640 -0.24871 0.15902
0.09769 -0.26223 -0.17114
0.02778 -0.41507 0.03439
-0.09922 -0.41507 0.03098
-0.01359 -0.41507 -0.00889
-0.12015 -0.42517 0.15902
-0.01890 0.02953 0.08285
0.10074 0.15828 -0.16918
0.05323 -0.42964 -0.04279
-0.00175 0.07371 -0.18672
0.14282 0.32032 0.09941
0.08616 -0.29338 -0.16919
0.09931 0.42716 -0.15693
-0.02363 0.04999 0.16993
0.07546 0.32032 0.08628
-0.04276 -0.42964 -0.15029
0.15774 0.42732 -0.12582
0.02139 -0.41507 0.15697
0.05767 0.01495 -0.01710
-0.03624 0.03307 -0.15657
-0.05599 0.03937 0.08597
0.10733 -0.04577 -0.15802
0.16602 0.02186 -0.05605
-0.00612 0.32032 0.04742
-0.04797 0.36546 -0.15693
0.09543 -0.35559 0.15902
0.03023 0.03755 -0.16289
-0.04437 -0.23624 -0.15657
0.08616 -0.08786 0.16919
-0.03397 0.30938 0.09559
-0.02200 0.05300 -0.17360
0.05937 0.02953 -0.04045
0.00670 0.01495 0.15877
0.05459 0.32096 0.15866
0.10074 -0.22514 0.15919
-0.07769 0.05030 -0.08726
-0.01554 0.03004 -0.15657
0.03474 0.30938 -0.01764
0.10904 -0.41507 0.16830
-0.04287 0.02297 0.17156
0.01214 0.32032 0.12566
-0.05768 0.31278 0.14194
0.05729 -0.42856 0.15902
0.12058 0.42964 -0.11528
0.16081 0.01808 0.07041
-0.13515 0.07853 -0.18639
0.08446 0.02953 -0.12442
0.10890 0.23202 0.15902
0.00175 0.01495 0.09338
0.01458 0.41171 0.15866
0.00205 0.32032 -0.08522
0.02466 -0.41507 0.01289
0.00934 0.32032 -0.02395
-0.06209 0.32032 0.12220
-0.03165 -0.41507 -0.15250
-0.00489 -0.06732 -0.17114
-0.05232 0.30938 -0.03489
0.10074 -0.32115 0.16752
0.12803 0.32032 0.15021
0.00999 -0.42964 0.15604
0.11424 -0.05588 -0.15802
-0.07986 0.39843 0.02370
0.01315 0.37558 0.15866
0.14629 0.32032 -0.14999
-0.02276 0.03755 -0.16982
-0.04190 -0.42964 -0.11837
0.10074 -0.03058 -0.16947
0.00383 0.30938 -0.09224
0.00490 0.30938 -0.14754
-0.01942 -0.13804 -0.15657
0.03802 0.32032 -0.00349
-0.00044 0.42964 0.02803
0.07726 0.40406 -0.15693
-0.05044 0.02555 -0.03986
-0.07986 0.41730 -0.06494
-0.04961 0.32032 -0.10173
0.05228 -0.42964 -0.13227
-0.13217 0.03627 0.17360
0.10074 0.06100 -0.16033
0.06643 0.42964 0.12047
0.10039 0.02953 0.09634
-0.07058 0.03258 -0.17360
-0.04558 0.01495 -0.14148
0.14207 0.38352 0.15866
0.09619 0.32032 0.03905
-0.02501 0.30938 -0.15033
0.15442 0.01589 0.08500
0.09226 -0.40727 -0.17114
-0.04386 0.03937 -0.16582
0.11076 0.02953 -0.06771
0.09593 0.01495 0.01534
-0.11584 -0.42964 0.16318
-0.14851 -0.42161 0.17360
-0.09727 0.07729 0.18672
-0.03287 0.42964 -0.14463
0.10785 0.42083 0.15866
-0.09083 0.05386 0.17360
-0.07150 0.03937 0.10826
0.14266 0.42964 0.02810
0.12260 0.02953 0.06548
-0.05557 -0.41507 0.10883
0.04350 0.42964 0.05602
-0.03506 0.30938 -0.01355
-0.01404 0.02953 0.06066
0.03828 0.30938 0.00920
-0.13945 0.05030 0.00500
0.15774 0.37653 -0.09872
0.11117 0.16772 -0.15802
-0.06242 0.03937 0.05440
-0.04333 -0.41507 -0.01199
-0.02326 0.42964 0.03925
0.05787 0.01495 0.02916
0.04027 0.01495 -0.02382
-0.01182 -0.41661 -0.17114
0.01676 -0.41507 -0.15399
0.00309 0.42964 0.00279
-0.01496 0.03937 0.06304
0.08050 0.42964 0.01088
0.08604 0.32032 0.08853
0.15774 0.41422 -0.03609
-0.07484 0.08425 0.17360
0.07576 0.02953 0.05277
-0.08289 0.35187 -0.10092
-0.01935 -0.05869 0.15902
0.06459 0.30938 0.01764
0.01275 -0.41507 0.13832
0.10074 -0.32186 -0.16043
-0.04602 0.32032 -0.02624
-0.04267 0.42964 0.15580
0.16921 0.02001 -0.04319
-0.07874 -0.34342 -0.15657
0.11531 0.28065 -0.16191
-0.14981 0.04807 -0.08622
-0.05391 0.32032 -0.00846
0.12843 0.42964 -0.10446
-0.10885 -0.42964 -0.04455
-0.04187 -0.41507 -0.08641
0.11476 0.31658 -0.08545
0.09731 0.36410 -0.15693
0.13941 0.01495 0.08081
0.00818 -0.41507 0.04861
-0.03000 0.01495 0.11832
-0.02390 0.05030 -0.06099
0.11256 0.30938 0.03990
-0.07669 0.03755 -0.16854
0.08616 -0.26433 -0.17035
-0.13578 0.03937 -0.05874
-0.08276 0.33316 -0.07978
0.07807 0.02104 0.15902
-0.01166 0.04029 0.07497
0.06586 -0.42964 -0.08710
-0.04975 0.39635 0.15866
-0.04916 0.01495 0.06753
0.00571 0.01495 -0.06869
0.02882 0.34408 -0.15693
-0.08026 0.34316 -0.09767
0.09724 -0.36859 -0.15657
-0.12178 0.03937 0.08481
-0.04044 0.05573 0.17360
0.06883 -0.42964 0.14072
-0.08403 -0.37365 0.15902
0.03948 0.42964 -0.12165
-0.05889 0.42964 0.01950
0.00888 -0.42964 -0.02771
-0.10336 -0.42964 -0.03766
0.11531 0.04479 -0.15933
0.11487 0.01495 -0.08488
-0.12552 -0.41792 -0.08013
-0.15087 0.04427 0.16941
-0.11569 0.03937 0.13923
-0.05460 0.31976 -0.16749
-0.00041 0.30938 0.14237
0.15774 0.37883 0.10449
0.01526 0.36688 0.15866
-0.01307 0.05030 -0.12448
-0.04865 -0.14574 0.17028
0.07921 0.01495 0.04475
0.05895 0.32767 -0.15693
-0.10130 0.05177 0.18672
0.10193 0.01495 -0.14424
-0.07746 -0.27617 0.17360
0.11422 -0.05619 0.17360
0.09756 -0.30286 0.15902
0.12769 0.01495 0.03585
0.01286 0.02953 0.09923
0.08616 -0.23637 0.17339
-0.02431 0.03937 -0.12505
-0.06657 0.03937 -0.04179
-0.05673 0.03937 0.01257
-0.06566 0.05030 0.10758
0.00907 0.07430 -0.18667
-0.00536 0.30938 0.09721
0.07015 0.39702 0.15866
-0.08422 -0.28245 0.17113
0.10074 -0.22695 -0.16161
0.00915 0.09307 -0.17415
0.12876 0.01495 0.05321
0.06458 0.01495 -0.10619
0.15774 0.40647 -0.05296
0.08616 -0.29653 -0.15737
0.02824 0.01495 -0.03349
-0.07986 0.33634 0.08948
0.09784 -0.25597 0.17360
-0.06450 0.03937 -0.11028
0.10074 -0.05436 0.16752
-0.06664 -0.42964 -0.08074
0.11531 0.24996 -0.16603
-0.03277 -0.42964 -0.06805
0.03146 0.02953 -0.08331
-0.11149 -0.41507 0.15778
0.10270 0.42964 -0.15004
-0.01993 -0.42964 0.12280
0.08628 0.01495 0.13635
0.02723 0.34391 0.15866
0.07289 0.02953 0.04276
0.01403 0.42964 0.15787
0.01575 0.03738 -0.17114
0.10876 0.32032 0.06922
-0.14210 0.03937 0.09581
-0.01551 0.02953 0.09812
0.09210 -0.30458 0.15902
0.09141 0.02953 -0.15006
0.08978 0.32032 -0.03328
0.02183 -0.42964 0.04944
0.00013 0.30938 0.01105
-0.01171 0.32032 -0.14501
-0.05375 -0.25172 -0.15657
-0.03986 0.42964 0.15052
0.04096 -0.42964 0.00781
0.13885 0.01495 0.06522
-0.09227 0.03159 0.17360
0.11531 0.28002 0.16449
0.08221 0.30938 0.16423
-0.00888 -0.42964 -0.03929
0.10074 0.07266 -0.16886
0.15774 0.33017 0.06678
-0.03777 0.42964 0.00571
-0.05087 0.42964 -0.02023
-0.02277 0.03937 0.15801
0.12733 0.42964 0.09326
0.10347 0.16783 -0.15802
-0.02717 -0.17834 -0.16847
0.04106 -0.42964 -0.11753
-0.04575 -0.17467 0.17360
-0.03910 -0.10900 0.16597
0.06707 0.30976 -0.17114
0.05503 -0.41507 -0.10041
-0.08990 0.06338 -0.18672
-0.13731 -0.41507 0.16889
-0.13443 0.03937 0.05371
-0.04987 -0.15041 0.16099
0.15419 0.42964 0.14156
0.08203 0.02953 0.13118
0.04841 0.30503 0.17360
-0.09776 0.07921 -0.17360
0.11948 0.02953 -0.05042
-0.02293 -0.42964 -0.14467
-0.13020 0.05440 -0.18672
0.10074 -0.12429 0.16573
0.04748 0.01666 0.15902
0.05875 0.32032 -0.01228
-0.02260 0.30938 0.15378
-0.03853 0.05030 0.04963
0.02890 0.32032 -0.13816
-0.02093 0.03937 0.10530
-0.03439 -0.42964 -0.03914
-0.02426 0.32032 -0.10812
0.10504 -0.42704 0.15902
-0.08204 0.03706 -0.15657
-0.05521 -0.19031 0.17360
-0.07194 -0.23524 0.16448
0.06540 0.32032 -0.06354
0.10495 -0.00838 -0.17260
-0.01947 0.05030 0.09453
-0.07142 -0.42964 -0.07281
0.14233 0.02953 -0.01198
-0.02707 0.42964 -0.06644
0.10074 0.09475 0.16942
0.09691 0.02953 0.02181
-0.08449 0.05962 0.18672
0.15488 0.02953 0.02284
-0.07986 0.40113 -0.05374
0.09215 -0.40670 0.17360
-0.00049 0.02953 0.07487
0.07800 0.32032 -0.00010
-0.03968 0.32032 -0.01678
-0.10724 0.05030 0.00628
0.15774 0.38836 0.14059
-0.11145 -0.38712 -0.16967
0.02668 -0.41507 0.11973
-0.12003 -0.42964 0.08419
-0.11790 0.02815 -0.18667
0.00689 -0.04740 -0.16809
0.01030 -0.42054 -0.17114
0.08374 0.42964 0.07513
-0.06667 -0.22011 0.17360
-0.07121 -0.27368 0.17360
0.03756 -0.41507 -0.08707
0.09558 0.31205 -0.17114
0.06044 0.02344 0.15902
0.10074 -0.04309 0.16018
0.09410 0.02953 0.02690
0.01749 -0.42964 -0.13385
0.02844 0.32032 0.08445
0.01356 0.02953 0.13177
-0.05642 0.30938 -0.16920
-0.10928 -0.41458 -0.17114
-0.00140 0.02953 -0.11518
-0.05654 -0.29121 0.16896
0.09234 0.01495 -0.13432
0.10074 0.03425 0.16342
-0.00572 0.36277 -0.15693
-0.05740 0.30938 0.07708
0.08616 -0.11275 0.16423
0.09024 -0.19082 0.17360
-0.01045 0.08413 0.18672
0.05123 -0.41507 -0.13534
0.09222 0.32032 -0.07800
-0.01519 0.05030 -0.01716
-0.10378 -0.35762 0.17206
0.03953 -0.42964 0.08674
0.10074 -0.00530 0.17359
-0.01346 -0.11324 0.17360
0.11035 0.05658 -0.17260
-0.09588 0.03937 -0.08840
-0.10312 0.03150 0.18672
0.06710 0.30938 -0.06117
0.13705 0.32032 -0.11726
0.07877 0.32032 0.12634
-0.06162 0.32032 0.02599
0.06568 0.32032 0.03000
0.11341 0.30938 -0.05689
-0.01114 -0.42964 -0.10747
0.06946 0.32032 -0.06796
-0.06625 -0.23241 -0.17114
-0.05188 0.32032 0.06052
-0.07986 0.37067 -0.15135
-0.03134 0.32032 -0.05189
0.02144 -0.41507 0.13831
0.00675 0.39830 0.15866
0.01598 -0.01248 -0.16555
-0.00624 -0.05914 0.15902
0.15774 0.32865 -0.10910
0.00604 0.01495 0.14316
-0.03422 0.32032 -0.03156
-0.02759 0.01495 0.00516
0.15774 0.37308 -0.10800
0.14012 0.38225 -0.15693
0.10650 0.30938 -0.11952
0.02711 -0.41507 -0.02582
-0.02595 0.32032 0.02658
0.00565 -0.41507 0.16719
-0.06625 -0.41507 -0.14376
0.06818 0.01951 -0.15657
0.09624 -0.40358 -0.15657
0.06421 0.02953 -0.04369
-0.03618 0.30938 0.05505
-0.00865 -0.02646 0.17360
-0.08252 -0.42964 0.00740
0.05555 0.42964 -0.14918
-0.15590 -0.42964 0.16303
-0.06319 -0.41507 -0.11428
0.09418 -0.42964 -0.15708
-0.02081 0.30938 0.02150
0.15774 0.42766 -0.10233
-0.12611 0.05030 -0.16381
-0.07211 -0.34168 0.17360
-0.01475 -0.12054 0.17360
0.10026 -0.28706 -0.17114
0.10524 0.03047 0.17360
0.00185 0.02953 -0.08627
-0.06149 0.07090 -0.18672
0.05773 0.29480 -0.15984
-0.07185 -0.35005 -0.16166
-0.03375 0.02953 0.00567
0.01624 0.32032 0.08474
-0.10248 -0.42964 0.10200
0.01503 0.02953 -0.01086
-0.07986 0.34841 0.00767
-0.07958 0.32590 -0.06324
0.06457 0.30938 0.05109
-0.03356 0.02953 0.15742
0.09154 0.38994 0.15866
-0.05545 -0.41507 -0.09858
-0.02037 0.42964 -0.11968
-0.02520 0.05030 -0.13683
-0.00834 0.39538 0.15866
-0.09892 0.05030 -0.16481
0.12840 0.32032 0.12924
-0.04863 0.05030 -0.10749
-0.03673 0.02953 -0.02748
0.10074 -0.20079 0.17281
0.06222 0.42964 0.03755
0.08832 0.01495 -0.11267
0.00066 0.02203 -0.15657
-0.06991 0.05030 0.03957
-0.07986 0.35478 -0.03781
-0.03211 0.42964 -0.11060
-0.12293 0.03937 0.02073
0.00614 -0.42964 0.12190
0.01123 0.42964 0.00952
0.04013 0.02953 0.04629
-0.09595 -0.42964 0.02480
0.06705 -0.41507 -0.13456
-0.11554 -0.42964 -0.06405
-0.05988 -0.28204 0.15902
-0.09259 0.03937 -0.16132
0.04320 0.02297 0.16878
-0.04799 0.04932 -0.17360
-0.08566 -0.42964 -0.17107
0.11531 -0.06291 -0.16732
0.15774 0.32139 0.06410
-0.06747 -0.41507 -0.15712
-0.01454 0.42964 -0.07517
-0.11868 0.03937 0.11918
0.13587 0.38732 -0.15693
0.11273 0.20026 0.15902
0.02608 0.35762 0.15866
-0.07911 0.42213 0.00087
0.04352 0.02953 -0.12267
0.04589 0.01495 -0.01692
0.09787 -0.37854 -0.15657
-0.03193 0.01495 -0.01424
0.06000 -0.42964 0.00525
0.00356 0.01495 0.15005
-0.07986 0.38533 0.00963
0.03774 0.32032 0.14048
-0.00870 -0.03169 -0.15657
-0.06475 -0.42928 -0.15657
-0.05768 0.31017 -0.09583
0.03608 0.02953 -0.05904
-0.13585 0.03937 -0.04166
0.11531 0.22234 0.16457
0.04297 0.30938 -0.16816
-0.08815 -0.32032 0.17360
-0.09911 -0.41507 -0.06574
0.07143 -0.41507 -0.15953
-0.05520 0.30938 -0.10084
0.07672 0.01495 -0.07049
0.06075 -0.42964 0.08348
0.05007 0.32032 -0.04581
0.07200 -0.41907 -0.05321
0.04271 -0.41507 -0.15230
-0.12912 0.03937 -0.02583
0.10729 0.30938 0.13475
0.09985 0.32964 -0.15693
-0.02637 0.32032 0.13565
-0.07986 0.37035 -0.13808
-0.01933 0.02953 -0.14894
-0.07986 0.39684 -0.04875
0.15774 0.33300 -0.03820
0.04362 -0.42964 0.14226
-0.10692 -0.41507 0.00166
-0.06764 0.02370 0.17716
-0.11065 0.03148 0.18672
0.03732 0.01495 -0.03582
0.02351 -0.42964 -0.06172
-0.04488 0.05030 0.09857
0.06278 0.02953 -0.06106
-0.04660 -0.18979 0.15902
0.00332 0.02953 -0.11156
-0.00889 0.38358 -0.15693
0.08705 0.37123 0.15866
-0.08252 -0.27592 0.16326
0.09999 -0.33873 -0.15657
-0.05044 0.01541 0.12802
0.03493 0.32032 -0.11548
-0.02497 -0.12503 -0.15657
-0.08421 0.05030 0.13253
-0.05044 0.02771 -0.13366
-0.11042 -0.38314 -0.16028
-0.01373 0.32032 -0.04441
0.06915 -0.42964 -0.05595
0.04720 0.29494 0.17360
-0.11957 -0.41507 -0.05163
-0.02248 0.05030 -0.12960
-0.10072 -0.42692 0.17360
-0.06293 0.42964 0.10265
-0.00841 -0.41507 -0.11819
-0.02883 0.01495 -0.09441
-0.00381 0.08156 -0.18672
0.15774 0.34096 0.02614
0.00961 0.06590 0.17360
0.09800 0.02953 0.00691
-0.01718 0.05030 0.00490
-0.01915 0.32032 -0.05896
0.10555 0.06619 -0.17260
0.06219 0.03537 0.17360
-0.05094 -0.41507 -0.12354
-0.14277 0.05030 0.13749
-0.05917 0.03937 -0.08653
0.04203 0.32032 0.04825
-0.03757 0.32032 -0.15172
0.02795 -0.42964 -0.02285
-0.15087 0.04471 -0.14684
-0.04270 -0.42964 -0.13894
0.15316 0.02953 -0.00414
0.00741 0.02953 -0.09702
0.10972 0.32031 0.12343
0.15774 0.33101 -0.08959
0.15774 0.34646 0.15721
0.07200 -0.42529 -0.08959
0.05311 0.32032 0.08154
-0.12201 -0.41545 0.17360
0.00655 0.42964 0.10807
0.00073 0.42964 -0.04283
0.00553 0.30938 0.00200
-0.05570 -0.42964 -0.05109
-0.09407 -0.41290 0.15902
-0.00725 0.34911 0.15866
-0.14562 0.03937 -0.16529
-0.03885 -0.41507 -0.13714
-0.01924 0.30938 -0.15437
0.04042 0.32032 0.03784
0.15430 0.38749 0.15866
0.00288 0.01495 -0.07906
-0.04329 0.01495 0.14659
-0.00992 -0.41704 -0.15657
-0.01026 0.42964 -0.04927
0.13516 0.32032 -0.15639
-0.01727 0.02953 -0.04516
-0.06713 -0.41507 0.04345
-0.02745 -0.42584 0.15902
-0.08231 0.02370 0.17979
-0.05707 -0.17808 0.16195
-0.02932 0.32032 -0.16343
0.12332 0.01495 0.00659
-0.10766 0.05030 0.03805
-0.01379 -0.42964 -0.03398
-0.07404 -0.24331 -0.17076
-0.04946 0.32032 -0.15066
-0.07913 0.39368 0.14705
-0.11810 -0.41507 0.11485
0.11349 0.34680 -0.15693
0.10751 0.12710 -0.17260
-0.07986 0.36379 0.05454
-0.07908 0.42220 -0.03150
-0.03114 -0.41507 -0.04203
0.00652 0.05566 -0.17360
-0.04662 0.32032 0.08058
-0.00689 0.07940 -0.17360
0.10256 0.32032 -0.12101
-0.04563 0.30938 -0.10370
0.15837 0.02953 0.03804
-0.04637 -0.42964 0.08833
-0.04852 -0.26038 -0.16426
-0.01337 0.05030 0.04573
0.14821 0.42964 -0.03376
0.01971 -0.42964 0.05807
-0.01978 0.32032 0.03641
0.08327 0.32032 0.01854
-0.04636 0.30938 0.10887
-0.03463 -0.20390 -0.15657
-0.10527 0.03937 0.09816
-0.14899 0.03937 0.10171
0.09709 0.32032 -0.07339
0.11299 0.02609 0.15902
-0.13553 0.03937 -0.16704
-0.05756 0.09199 -0.18375
0.09283 0.32032 0.00753
0.10532 0.17232 0.15902
-0.07033 -0.33156 0.15902
0.09073 0.01495 0.02468
-0.00739 0.42964 -0.06065
-0.04973 0.03937 0.16444
-0.03835 0.05030 -0.07935
0.08698 -0.02038 0.15902
-0.06511 0.03937 -0.08610
-0.09394 -0.42964 -0.12494
0.02564 -0.41507 -0.04626
-0.00385 -0.41507 -0.06932
0.17011 0.02063 0.03975
-0.10880 0.04022 -0.17114
0.15774 0.39368 0.02336
-0.02786 0.05030 -0.03103
-0.04629 0.34273 0.15866
-0.05821 0.32032 0.07531
-0.07986 0.35245 0.04463
-0.02059 0.02953 -0.10154
-0.11426 0.05030 0.04351
0.02531 0.02953 0.03373
-0.00504 0.42964 -0.13839
-0.05727 0.33042 -0.15693
-0.07913 0.36221 0.14574
-0.04742 0.03937 0.09105
0.04699 -0.41507 -0.10336
0.15774 0.42955 0.10859
-0.00796 -0.42964 -0.11214
0.13170 0.42964 -0.13693
0.04266 0.42964 0.07643
0.13464 0.02953 -0.08235
0.10865 0.42964 0.11041
0.08653 0.03755 0.16332
0.06978 0.32032 -0.07769
-0.07927 0.03937 -0.10132
-0.03027 0.30938 0.07913
-0.10028 0.04482 -0.17360
0.05717 0.30938 0.12638
0.07623 0.01495 -0.09077
0.02331 0.42964 -0.04484
-0.03395 0.38842 0.15866
-0.08586 -0.30224 -0.15657
0.08524 0.01495 -0.13495
-0.08079 0.05030 0.06912
0.02316 -0.41507 -0.08616
0.00543 0.42964 0.15024
-0.04261 0.03937 0.01543
0.02760 0.32032 0.07098
-0.04914 -0.42964 -0.06532
-0.05573 0.42964 -0.08742
0.11531 0.11920 0.16379
-0.01663 0.32032 -0.09202
0.08616 -0.09424 -0.16503
-0.00531 0.30938 -0.03107
0.10904 0.14393 -0.17260
0.02605 0.02953 -0.11428
-0.02519 -0.41507 -0.15966
-0.03827 0.03994 0.18672
0.05568 -0.41507 0.14779
0.04772 0.02953 -0.14186
0.10074 -0.32288 -0.16639
0.00857 0.42964 0.02975
0.00697 -0.42964 0.14198
-0.06116 -0.42964 -0.01167
-0.07986 0.39037 0.00704
0.10074 -0.24933 0.16088
-0.07564 0.32146 0.02566
-0.07986 0.38410 0.09130
0.07200 -0.42180 -0.10642
-0.01835 0.05030 0.02325
0.00117 0.36124 -0.15693
-0.03533 -0.41507 0.07311
-0.04158 0.03937 0.08290
-0.08461 -0.42964 0.16507
0.06323 -0.42964 -0.11683
-0.08964 0.03937 0.09827
0.02330 -0.42964 0.04129
-0.08980 0.03937 0.13412
-0.05734 0.05030 -0.15753
0.07911 0.02953 -0.01361
0.09936 -0.33124 -0.17114
0.06729 -0.42964 0.02135
-0.09877 0.05030 -0.08826
0.03628 0.01495 0.06483
-0.08038 0.03937 0.11929
-0.09027 0.05030 -0.15095
-0.03680 -0.42964 0.05779
0.05741 0.01495 -0.09071
-0.04604 0.02953 -0.11432
0.11729 0.01495 0.08143
-0.03182 0.03937 -0.12559
0.07662 0.01495 0.12808
-0.07020 -0.23256 -0.15657
0.09532 0.32032 -0.11400
0.12466 0.34349 0.15866
0.09592 0.32032 0.15707
0.15774 0.33183 0.07922
0.15109 0.02861 0.09098
0.11993 0.02953 -0.06712
-0.01527 -0.13257 0.17291
-0.04667 0.05030 -0.04246
-0.05237 0.32031 0.03535
0.11273 0.42964 0.01575
-0.01306 0.30938 0.10912
-0.07477 0.32105 0.10297
-0.05812 -0.18214 -0.16653
0.05926 -0.41507 -0.09411
-0.03324 0.01495 -0.07160
0.03543 0.02953 -0.00717
0.04741 0.03755 0.17048
-0.09207 -0.41507 0.08122
-0.06463 0.32032 -0.03474
-0.05768 0.31107 -0.14141
-0.01612 -0.42964 -0.08607
0.02523 0.32032 0.02229
-0.05325 -0.22751 0.17360
-0.02977 -0.41507 0.12599
0.17325 0.01935 -0.02066
-0.07546 0.38916 0.15866
-0.08091 0.04808 0.17252
-0.07986 0.41527 0.00413
0.15774 0.36122 0.15065
0.08616 -0.29525 0.16444
0.03702 0.02953 0.02727
-0.09721 -0.40518 0.17360
0.12913 0.38887 -0.15693
-0.05440 -0.41507 0.06445
-0.06491 0.40249 -0.15693
-0.05044 0.01691 -0.13071
0.01555 0.03069 -0.17114
0.07713 0.02953 -0.01963
-0.07913 0.37015 0.13227
0.12573 0.01495 -0.00524
-0.02332 0.03937 0.06951
0.02516 0.30938 -0.03007
0.08122 0.32032 0.16479
-0.06522 0.05030 0.16383
0.15774 0.41379 0.03604
-0.09519 0.05030 -0.10276
0.07832 0.02953 -0.03583
0.05326 0.42675 0.15866
-0.01179 0.08904 -0.17360
0.02174 0.30938 0.16010
-0.11643 0.05030 0.06160
-0.03932 -0.11149 0.15902
-0.12699 -0.42964 0.16530
-0.03488 0.32032 0.14260
0.09785 0.42964 0.07543
0.10708 0.42964 -0.07768
0.09577 -0.28732 0.15902
-0.05961 0.42964 -0.06979
0.10859 0.30938 0.02844
-0.12087 0.03937 -0.16587
-0.09859 -0.42964 0.13765
0.08549 0.29480 -0.16303
-0.02059 0.40949 0.15866
-0.06731 0.02297 -0.15792
-0.08737 -0.41507 0.04007
-0.09746 -0.41507 -0.13827
0.08616 -0.25448 -0.15674
0.12507 0.02953 -0.12145
0.00838 0.32032 0.00529
0.06756 -0.41507 -0.02108
0.01948 0.30938 -0.14072
0.06569 -0.41507 0.07520
0.04768 0.42964 0.06010
-0.02279 -0.16149 -0.16511
0.01896 0.01495 0.10690
-0.08995 0.07353 0.17360
-0.09769 0.05030 0.06705
0.01063 -0.42964 -0.00181
0.11582 0.01495 -0.06876
-0.07298 -0.33586 -0.17114
-0.11106 -0.42964 0.14904
0.13664 0.40548 0.15866
-0.02806 0.34969 0.15866
0.06188 0.01495 -0.07480
0.13649 0.02953 0.03239
0.15774 0.36663 -0.15206
0.05561 0.32032 -0.04097
-0.03236 0.09004 -0.18567
-0.00604 0.37450 -0.15693
-0.02490 -0.42964 0.11908
-0.08389 -0.39635 0.16238
-0.07986 0.34735 -0.11858
-0.03876 0.30938 0.12031
-0.07891 -0.36564 -0.17114
0.00465 0.42964 0.05186
-0.01166 0.04617 0.12353
0.15774 0.36658 -0.13200
0.10074 -0.09200 0.16191
0.03924 -0.41951 0.17360
0.15160 0.02953 -0.05462
-0.00760 0.02953 -0.12925
-0.05032 0.30938 0.07535
-0.03780 -0.41507 0.10765
0.08971 -0.01100 0.17360
-0.08540 -0.28697 -0.15879
-0.08350 0.40858 -0.09143
-0.08506 -0.38628 0.15902
0.15774 0.36239 0.10740
-0.09994 0.03937 -0.14191
-0.06037 0.42964 0.05863
-0.08163 -0.42964 0.11090
0.09384 -0.32415 0.17360
0.03370 0.01495 0.13173
0.00072 0.02953 0.10230
0.07334 0.01495 0.00327
0.05618 0.32032 -0.02365
0.14040 0.42964 -0.03925
-0.04349 0.04876 0.17193
0.10456 0.32032 -0.05338
-0.08405 -0.41507 -0.09851
-0.01553 0.32032 -0.07822
-0.02761 0.03937 -0.07279
0.04408 0.02953 0.03869
-0.02221 0.30938 0.04820
-0.10457 -0.39428 -0.15657
0.09760 -0.35064 -0.15657
-0.02012 0.32032 0.00756
0.02921 -0.42964 -0.16451
0.08913 0.02953 0.15803
0.01326 -0.42964 0.11740
-0.03380 0.02953 0.15024
-0.02637 0.05030 -0.07158
-0.05155 0.05030 0.15412
0.15774 0.35121 -0.06775
0.09482 -0.10820 0.17360
0.03298 -0.41507 0.08221
-0.11482 -0.41507 -0.06825
0.01108 0.32604 -0.15693
-0.01290 0.32032 0.03008
0.02131 0.32032 0.15164
0.10074 -0.19262 -0.16135
0.01981 0.32032 0.10205
0.08273 0.32032 0.07667
-0.03781 0.05030 0.14866
0.10919 0.25936 0.17360
0.14374 0.02953 0.07403
-0.03441 0.07315 -0.18672
-0.01317 0.06867 -0.18672
-0.04101 -0.42964 0.04381
0.15774 0.33866 0.01393
-0.07633 -0.41507 -0.03732
0.05480 0.42964 0.03203
-0.14099 0.03937 0.14313
-0.04484 0.42964 -0.05336
0.05737 0.30938 -0.15988
-0.05606 0.03937 -0.12756
-0.03454 0.05030 0.12880
0.06879 0.42964 0.14535
-0.00139 -0.01781 0.17360
0.13540 0.34137 -0.15693
0.09035 0.02953 -0.08445
0.02069 0.01495 0.04783
0.02708 0.02297 -0.16368
0.07746 0.32032 -0.14093
-0.04008 -0.18530 -0.15657
-0.08738 0.03937 0.08161
0.15774 0.32194 -0.01908
0.10946 0.32032 -0.00479
-0.12503 -0.41507 -0.06276
0.01403 0.31450 0.17360
0.04622 -0.41507 -0.01570
0.10354 0.32032 0.04053
0.10695 0.17302 0.17360
0.10013 0.42964 -0.10031
-0.08251 0.03937 -0.02845
-0.00656 0.42964 0.08541
-0.01798 -0.42964 0.14190
0.15501 0.37757 -0.15693
0.01572 0.02953 0.04370
0.08760 0.42964 0.13644
0.15774 0.36315 -0.06567
-0.15519 -0.41507 0.16254
-0.02154 0.02297 -0.16426
-0.03563 0.02953 -0.03341
-0.02703 0.32032 -0.07223
-0.12552 -0.42661 0.05041
0.14989 0.01495 0.05559
0.14266 0.36019 0.15866
0.06327 0.02953 0.10618
-0.12509 0.05030 0.06047
0.04370 0.30938 0.02481
-0.01548 0.05030 0.01367
0.04817 -0.42964 -0.07464
0.09039 0.31698 -0.17071
0.01040 -0.02836 -0.17114
-0.04144 -0.42964 0.05372
0.15774 0.34078 0.13060
0.07200 -0.42143 -0.11224
0.10333 0.30938 -0.10659
-0.01564 -0.42964 0.02276
-0.12552 -0.42604 -0.08122
0.10107 0.42964 -0.06291
0.01804 0.01495 -0.01903
0.10074 0.22140 -0.16975
-0.00544 -0.42964 0.08574
-0.07908 0.03937 -0.10872
0.10407 0.30938 0.04409
-0.09382 -0.41507 -0.11355
0.10074 -0.08925 0.17230
-0.01979 0.06701 0.17360
-0.09037 0.06516 -0.17360
-0.03465 0.42964 0.06209
-0.13750 0.06751 0.18313
0.04066 0.40360 -0.15693
-0.04706 -0.42964 -0.01477
0.11997 0.42964 0.13841
0.10975 0.37991 0.15866
-0.02133 0.32032 0.14699
-0.06298 0.05030 -0.00108
0.10540 0.30938 -0.00448
-0.08018 0.36508 -0.11718
0.10074 -0.29986 -0.16228
-0.07534 0.03937 0.16551
-0.08705 0.05030 0.01178
-0.12193 -0.42240 0.17360
-0.03674 0.09260 0.17360
0.04626 0.01495 -0.10442
0.07507 0.01495 -0.06390
-0.03601 -0.42964 -0.00205
0.08818 0.30938 0.12803
-0.10580 0.03937 0.10912
-0.03485 -0.42964 -0.02807
-0.02937 -0.18678 0.16757
0.11531 0.13615 -0.16833
0.09361 0.30063 0.17360
0.06449 0.01495 0.00823
0.11266 0.32032 0.04340
0.15774 0.39851 -0.14006
0.01356 0.40080 0.15866
-0.07924 0.32512 -0.01654
-0.03778 0.32032 -0.09784
-0.07588 0.42678 -0.00171
0.09564 0.30938 0.02571
-0.11561 -0.40309 -0.15991
0.10375 0.01495 -0.01131
-0.11064 0.09307 -0.18006
-0.02190 0.35513 -0.15693
0.10074 0.19138 0.16860
-0.08260 0.02889 0.15902
-0.16462 -0.42254 0.15902
-0.03740 0.01844 -0.15657
0.06655 0.32641 0.15866
0.01278 0.30938 0.06265
0.11231 0.15537 0.17360
0.09801 0.42964 -0.01038
0.09974 0.02953 0.14780
-0.01166 0.03981 0.11790
0.09706 0.02953 0.10800
0.05167 0.32032 -0.00716
0.10902 0.30938 0.03510
0.07136 0.02953 0.08969
-0.04142 0.02953 -0.05670
-0.04683 -0.41507 0.07813
0.10292 0.02953 -0.15564
-0.02805 0.01495 0.14642
0.01437 0.29480 0.16075
0.11505 0.31437 0.15005
0.13790 0.42964 -0.02495
0.10122 0.32032 0.06972
0.08834 -0.29386 0.15902
-0.05044 0.01770 0.14040
-0.10728 -0.42964 0.12941
-0.04279 0.42964 0.06736
-0.03677 0.01495 0.07747
-0.11700 -0.42964 0.00212
-0.07986 0.41081 -0.05751
-0.00395 -0.41507 0.04562
-0.10805 0.03937 0.02911
0.02158 0.02953 -0.14502
-0.11817 0.09114 0.18582
-0.08361 -0.42964 -0.13145
-0.04478 0.30938 0.03795
0.09877 0.32032 -0.10777
0.15774 0.37351 -0.03346
0.06890 0.31504 0.17359
0.08776 0.02953 0.02543
-0.00938 -0.06731 0.15902
-0.07986 0.35854 -0.07919
-0.06660 0.39780 0.15866
0.07100 0.32032 -0.14429
0.08387 0.02953 0.13700
-0.02374 0.32032 0.01704
0.14539 0.32032 0.06812
0.09270 -0.03789 0.17360
0.10955 0.32032 0.05804
-0.09321 -0.41507 0.04262
0.02299 0.02953 -0.08103
-0.03826 0.02953 0.04848
-0.08350 0.39720 -0.09299
0.00683 -0.41507 0.13723
0.06430 0.32032 -0.09776
0.10543 0.20692 0.17360
-0.13956 0.05114 -0.18138
0.15663 0.42964 0.06635
0.06680 0.02953 0.06427
0.11531 -0.05224 0.16246
0.08616 -0.23466 -0.16395
0.09470 0.42964 0.13654
0.11304 0.31908 0.03358
-0.01822 0.02953 -0.00849
0.10074 -0.25817 0.16229
-0.07569 -0.42964 -0.16109
-0.09427 -0.41507 -0.03831
-0.07052 0.05030 0.12808
-0.01147 -0.11796 0.16209
-0.02373 0.39977 -0.15693
0.03125 0.30938 0.08723
0.08255 0.02953 0.02906
0.02419 0.30938 -0.12908
0.01382 0.02264 0.17360
0.09987 -0.40348 0.17360
-0.01363 0.01495 -0.09694
0.04714 0.02512 0.15902
0.02642 0.30938 0.00390
-0.03523 -0.42964 -0.05921
0.10615 0.38976 0.15866
0.03048 0.01495 0.06982
-0.09774 0.02381 0.18126
-0.03296 0.30938 0.06535
0.11224 0.18565 -0.15802
0.03261 -0.41507 0.06561
-0.13592 0.05383 0.18513
-0.07986 0.37192 -0.05166
-0.00287 0.42964 -0.02377
0.14331 0.42964 0.07063
-0.08196 -0.30728 -0.17114
0.10424 0.30938 0.07373
0.00164 0.01495 -0.01241
-0.02157 0.42964 -0.01358
-0.12552 -0.42116 -0.00059
-0.01842 0.02953 0.03498
0.11972 0.42964 0.00343
0.13253 0.39226 0.15866
-0.02880 -0.41507 -0.10095
-0.05111 0.41772 0.15866
0.12174 0.32032 -0.07234
0.05466 0.01495 0.07879
-0.02539 -0.41507 -0.07551
-0.04334 0.05030 0.07337
0.15512 0.02953 -0.06275
-0.11584 0.05030 0.02087
0.01254 0.30318 -0.16999
0.11243 0.29695 0.17360
-0.01582 0.32032 -0.03284
-0.00944 0.02953 0.07450
-0.03144 -0.12152 0.17360
0.07200 -0.42214 0.06751
0.05355 0.30938 -0.09604
-0.11671 0.05030 0.01504
-0.07986 0.32694 -0.12271
0.04690 0.01495 -0.09783
0.12439 0.01495 0.07374
0.10830 0.30938 0.16427
0.10510 0.28961 -0.17260
-0.04007 -0.41956 0.17360
0.04163 0.02953 0.10573
0.01432 -0.42964 0.06788
-0.06945 -0.42964 0.03900
-0.07419 -0.27671 0.15902
0.11128 0.27331 -0.15802
-0.03480 -0.42964 0.12991
0.10823 0.01495 0.00278
0.09446 0.01495 0.14025
-0.08001 -0.42964 -0.01783
-0.00901 0.02953 -0.11998
0.15774 0.41498 -0.09455
-0.05289 0.32027 -0.11982
0.10576 0.00627 0.15902
-0.09401 0.05030 0.01649
-0.11684 -0.42964 0.01216
0.00980 0.32032 -0.07073
0.03467 -0.41507 0.03468
0.08980 -0.04204 -0.15657
0.03495 0.03402 -0.15657
0.10074 0.24088 0.16358
-0.03415 0.07330 0.18672
0.07119 0.42964 -0.01001
0.11353 0.30938 -0.01295
0.07200 -0.42936 0.03656
-0.01778 0.02953 -0.02491
0.05389 0.01495 -0.15243
-0.11318 -0.42964 0.11503
0.00955 0.32032 0.07803
0.02012 0.00524 0.15902
0.13350 0.01495 -0.10258
0.11159 0.17786 0.15902
0.11248 0.30938 0.00436
0.09848 0.30938 -0.02216
0.09086 0.02953 0.01832
-0.08432 -0.39798 0.17133
-0.07738 0.02237 -0.18012
0.10074 -0.17406 -0.16362
-0.02429 0.32032 0.04685
0.02629 0.32019 -0.16679
-0.00629 0.30938 -0.06474
0.03962 0.30938 -0.07222
0.05519 0.01495 0.14552
0.05784 0.42964 0.00376
-0.02513 0.01495 0.10291
0.09019 -0.08467 0.15902
0.01883 0.00066 -0.15657
-0.05633 0.32032 0.09305
0.10074 0.01016 0.17169
-0.05196 0.05824 0.17360
-0.04186 0.03937 0.10347
0.05581 0.01495 0.12113
-0.07920 0.42187 0.12387
-0.01566 -0.13136 0.15902
0.09393 0.32032 0.02124
0.01817 0.02953 0.06726
-0.12055 0.03937 0.16921
-0.08350 0.33968 -0.08193
-0.12552 -0.41585 0.05389
-0.06611 -0.31133 -0.17114
-0.13045 0.05018 0.16924
0.15321 0.32032 -0.14504
-0.06456 -0.42964 0.04356
-0.07342 0.42842 -0.12760
0.15258 0.02953 0.01216
0.08974 -0.20851 -0.15657
0.09166 0.03569 -0.17114
0.11440 0.21506 -0.17260
0.05811 0.39234 0.15866
0.15581 0.42802 -0.15693
0.02967 0.30938 0.16085
-0.00312 0.01495 -0.06914
0.09687 0.32032 -0.00630
-0.06867 0.34380 -0.15693
0.05758 0.34307 0.15866
-0.07665 -0.33455 0.17360
0.08928 0.02151 -0.15657
0.00615 0.32032 0.04851
-0.12552 -0.42318 0.09802
0.05203 0.42910 -0.15693
-0.04504 0.03937 0.04687
0.03375 0.32032 0.10017
0.12081 0.32032 0.11134
0.01819 0.32032 0.14088
-0.02829 0.30938 0.00533
0.15774 0.38850 0.00589
0.04809 0.01495 0.09797
-0.04830 0.32032 -0.00182
-0.10271 0.03937 -0.16055
-0.10487 -0.42964 -0.11613
-0.04825 0.05030 0.06590
0.03277 0.32463 0.15866
-0.07611 0.42657 0.04822
0.02880 0.32032 -0.09097
-0.01810 0.01585 -0.15657
0.07620 0.01495 -0.05187
-0.04540 0.03937 0.04034
0.15073 0.42964 0.09932
0.10074 -0.01132 -0.15978
-0.00246 -0.42871 -0.17114
-0.02268 0.02953 0.04593
0.00141 0.42964 0.01725
0.02025 -0.42117 -0.15657
-0.07853 0.42341 -0.07820
0.15774 0.36738 -0.04365
-0.01461 0.32032 -0.05465
-0.10597 -0.41507 -0.14649
0.03637 -0.41507 -0.12737
0.11273 0.01495 -0.10727
-0.01920 0.03708 0.17360
-0.02180 -0.42964 0.02130
0.15646 0.42964 0.04733
0.10689 0.42964 0.05217
0.09187 -0.42944 -0.17114
-0.06607 -0.25232 -0.15657
0.02661 0.30938 0.11299
0.08616 0.01794 0.16789
-0.13714 0.08114 -0.17360
-0.06114 -0.42964 0.07778
-0.07943 0.42117 0.14677
0.09624 0.42964 0.03377
-0.00544 0.01495 -0.15642
-0.00143 -0.41507 0.11647
0.05046 -0.41507 0.13597
0.03221 0.01495 -0.02170
0.15774 0.39467 -0.11281
-0.02322 -0.41507 0.05239
-0.09285 -0.41507 0.02002
0.11205 -0.03426 -0.15802
0.12351 0.40975 0.15866
-0.02677 -0.06247 -0.17114
0.15774 0.36032 -0.09639
-0.00936 -0.10986 -0.16999
0.16584 0.02953 0.00623
0.07280 0.32578 -0.15693
-0.01233 -0.01328 -0.17114
-0.08350 0.37341 -0.10898
-0.06002 0.03937 -0.05540
-0.05142 -0.42964 0.06835
-0.02119 0.32032 -0.01785
0.11531 0.14588 -0.16480
0.15774 0.38562 0.11300
-0.07913 0.37962 0.10188
-0.10604 0.07180 -0.18672
-0.03411 0.32032 -0.07173
-0.08135 -0.38657 0.16763
-0.07398 -0.41507 -0.01536
0.07515 0.02953 0.03433
0.10039 -0.34547 -0.15657
-0.06865 0.42962 0.05301
0.10074 -0.21192 0.16255
0.02225 -0.41507 -0.09534
-0.00619 0.32032 -0.00416
-0.09444 -0.32765 0.15902
-0.01559 -0.08475 0.15902
-0.03430 0.05030 -0.07228
0.01515 0.04393 0.18382
-0.00788 -0.41507 0.07541
0.09135 0.32032 0.13296
-0.08350 0.34757 -0.06326
-0.03504 0.01495 -0.14122
0.00289 0.32032 -0.06703
0.02185 -0.42964 0.00303
0.05177 0.01495 -0.10188
0.11531 0.07646 0.16734
0.00233 -0.42964 0.00432
0.04610 0.30938 0.00792
