ply
format ascii 1.0
comment VCGLIB generated
element vertex 1879
property float x
property float y
property float z
element face 0
property list uchar int vertex_indices
end_header
0.23415 0.01955 0.09051
0.21686 0.27793 0.16594
0.23415 0.01721 0.14179
-0.24551 0.02547 -0.26643
0.22740 0.11715 0.15086
0.21315 -0.14936 0.26242
-0.23505 0.30207 -0.16190
-0.01059 -0.25379 -0.13379
-0.24551 0.09181 0.10238
0.15147 0.30207 -0.22625
0.06493 -0.25379 0.21497
-0.24551 0.17056 -0.19793
0.10853 0.14013 -0.29571
-0.24551 0.21596 -0.08240
-0.24551 0.19670 0.21117
-0.20034 0.25879 -0.29571
0.10867 0.12136 -0.29571
-0.24551 -0.00395 0.07578
0.21315 -0.11605 -0.29061
-0.02734 0.18802 -0.29571
-0.24551 -0.15970 0.08003
0.18761 0.30207 0.08478
0.24386 0.19229 0.12592
-0.24551 0.02713 0.29315
-0.24551 -0.03937 -0.24678
0.21315 0.27118 0.09673
0.16480 -0.25379 0.29071
-0.21588 -0.20154 -0.29571
0.12120 0.30207 -0.16575
-0.13943 -0.25379 0.08336
-0.22493 0.11034 0.29571
0.04831 -0.25379 0.14269
0.22516 0.09304 -0.25950
0.15099 0.30207 0.29983
0.05147 -0.25379 0.15872
0.22740 -0.19687 -0.10745
0.01105 -0.15119 0.29571
-0.07831 0.30207 -0.14001
0.22740 0.19040 -0.04747
-0.24551 0.27565 0.14750
-0.01683 -0.25379 -0.10633
0.21315 -0.02464 -0.27152
-0.12914 -0.02632 -0.29571
-0.24551 -0.13774 0.17689
0.22740 0.17442 -0.17088
0.22740 0.00838 -0.23330
0.23002 0.30207 -0.03755
-0.24551 0.22791 -0.22341
-0.24551 0.13728 0.07429
0.20145 -0.25379 -0.17699
-0.22954 -0.25379 -0.13182
0.20417 -0.22069 0.29571
0.18177 0.30207 0.26861
0.22740 0.11165 -0.23052
0.19738 -0.06998 0.29571
0.15166 -0.19167 0.29571
0.21315 0.08234 -0.26110
0.21226 0.30207 -0.28139
0.23415 -0.01298 0.17350
0.03931 0.30207 -0.16290
0.14264 0.30207 -0.01908
0.14308 -0.25379 -0.22428
0.16096 -0.25379 0.05548
-0.20765 -0.25379 0.26865
0.12043 -0.20551 -0.29571
-0.21180 0.30207 -0.23028
-0.24551 -0.05908 0.11176
0.04793 0.30207 0.13698
0.02401 -0.25379 0.18449
0.23415 0.11245 0.20274
-0.00028 0.05523 -0.29571
0.22740 -0.11876 -0.24141
-0.24551 0.15657 -0.24356
0.17540 -0.25379 -0.25001
-0.01821 -0.25379 -0.19661
-0.20152 -0.25379 0.06344
0.19533 0.07667 0.29571
0.22740 -0.01989 -0.24885
-0.02802 0.11336 0.29571
0.21315 -0.22914 -0.20579
-0.06086 0.21996 0.29571
0.22740 0.20696 -0.16788
-0.18965 0.30207 -0.27455
0.23415 0.10947 -0.12758
0.02529 -0.18986 -0.29571
-0.24551 0.20115 0.00581
0.11859 0.30207 -0.25590
0.21315 -0.21507 -0.12014
0.23415 -0.08973 0.16200
-0.15789 0.27793 0.30030
-0.09222 -0.25379 0.03078
0.23415 0.10165 -0.07881
0.21391 -0.20551 0.13092
-0.24551 -0.14970 0.04784
-0.24551 0.16250 -0.13317
-0.24551 -0.08705 0.14785
-0.18827 -0.25379 -0.08745
0.22740 0.15936 -0.08602
-0.17805 0.06867 -0.29571
-0.14917 -0.01532 -0.29571
0.23415 0.05298 0.09471
-0.24551 -0.15864 0.00396
-0.15925 0.05110 -0.29571
-0.10613 0.30207 0.28190
-0.11150 -0.17999 -0.29571
-0.11537 0.30207 0.23147
0.23415 -0.04973 -0.04490
-0.24551 0.22930 -0.17672
0.22771 -0.16930 -0.13877
-0.24551 0.00139 -0.10353
0.12509 -0.25379 0.09002
-0.24551 -0.03653 0.23452
0.13778 0.12054 0.29571
0.22631 0.27793 -0.20532
-0.24551 -0.10532 -0.20197
0.21315 0.23018 -0.27064
-0.11207 -0.25379 -0.14222
-0.24551 -0.09591 -0.29135
-0.24551 0.21239 -0.04164
-0.06091 0.29533 0.31382
-0.20587 -0.25379 -0.23302
-0.15846 0.30207 0.20892
-0.24551 0.22338 0.03386
0.20674 0.30207 0.01679
-0.01037 0.24340 -0.29571
0.00482 0.30207 -0.02937
0.21903 -0.20551 -0.21849
0.00862 0.07029 0.29571
0.21315 -0.21486 0.25279
0.06755 -0.00974 0.29571
0.23947 0.19701 -0.13651
-0.07208 0.30207 0.31311
0.00501 -0.10880 -0.29571
0.22882 0.06703 -0.22329
-0.12011 -0.24158 -0.29571
0.03121 -0.24334 -0.29571
0.12096 0.30207 0.24671
0.22740 0.14808 -0.01208
0.13729 0.30207 -0.04650
0.21315 -0.09176 -0.28920
-0.07193 0.05068 -0.29571
0.22740 -0.07284 0.02356
-0.17305 -0.15731 0.29571
0.18676 -0.25379 -0.28097
-0.19961 -0.25379 -0.13162
-0.23163 -0.30103 0.29571
0.13669 -0.25379 -0.09150
0.20507 -0.05053 -0.29571
-0.08010 0.06684 -0.29571
-0.11069 -0.25379 0.20385
0.22740 0.23803 -0.01204
0.23415 -0.08713 -0.16417
-0.14065 -0.25379 -0.17355
0.10922 0.30207 0.04528
0.08753 -0.21363 0.29571
-0.11099 0.19923 0.29571
0.11747 -0.12428 -0.29571
-0.15676 -0.25379 -0.21672
-0.03442 0.01511 0.29571
-0.00882 0.30207 0.25973
-0.09955 -0.01329 -0.29571
-0.07808 0.11230 -0.29571
-0.14576 0.30207 0.14476
0.23415 -0.00408 -0.18427
-0.24551 -0.03429 -0.12206
0.20500 -0.25379 0.08268
0.22740 -0.18879 0.22379
-0.24551 0.11228 0.19642
0.18952 0.25336 -0.29571
0.09386 -0.25379 -0.28502
0.21315 -0.16062 -0.29101
-0.24551 0.02271 0.18087
-0.10170 -0.07827 -0.29571
0.08516 -0.25379 -0.20985
-0.02012 -0.17800 0.29571
-0.10877 0.30207 -0.14918
0.20430 -0.25379 -0.14141
0.02648 0.30207 -0.22624
-0.24551 0.14982 0.17068
-0.12488 0.30207 0.09923
-0.24551 0.24545 -0.18887
-0.10479 -0.25379 0.09813
0.21315 0.13774 -0.27483
-0.12027 0.20149 0.29571
0.15493 -0.25379 0.03533
-0.24500 -0.03266 0.29571
-0.24551 0.20194 0.17306
-0.01597 -0.01201 0.29571
0.23125 0.29849 0.30393
-0.24551 0.24722 0.04510
-0.24551 -0.22331 -0.28774
-0.02916 0.28186 -0.31382
0.23415 -0.10003 -0.19601
-0.24551 -0.02519 -0.15431
0.21241 -0.25379 0.20038
0.19523 -0.27336 0.29571
-0.00196 -0.25379 -0.16526
-0.20704 0.28107 0.31382
-0.24551 -0.15731 0.25303
-0.17850 0.14791 -0.29571
0.05809 0.05980 0.29571
-0.03728 0.30207 0.12063
-0.23245 0.30207 0.27676
-0.24551 0.08031 -0.28274
-0.00223 0.00696 -0.29571
-0.17288 0.30207 0.21735
0.22740 0.08745 0.22353
-0.24551 0.26434 0.02698
0.06216 0.30207 0.00361
0.22740 -0.11537 -0.24999
0.05772 0.30207 0.03681
0.06708 0.11119 0.29571
-0.24551 0.05615 -0.25620
0.22740 0.23999 0.04017
-0.04320 0.30207 -0.21512
-0.24551 -0.12375 0.01237
0.21315 0.14529 0.29287
-0.24551 0.11355 -0.23022
0.00068 -0.25379 0.06839
-0.06224 0.00343 0.29571
0.22740 0.01799 -0.00885
0.01689 -0.20182 0.29571
-0.24001 -0.15286 -0.29571
0.22740 -0.14267 -0.24926
0.22030 -0.08974 -0.25950
-0.05050 -0.25379 -0.09287
0.01779 0.16950 0.29571
0.22740 0.16787 0.13669
0.21315 -0.02569 -0.28560
0.22740 -0.16997 -0.04302
0.14436 -0.07274 0.29571
-0.18638 0.26401 0.29571
0.21315 -0.22586 -0.27453
0.21903 0.30207 0.00231
-0.24551 -0.11731 0.16611
0.21315 0.18431 0.27180
-0.17970 0.05363 0.29571
0.22698 0.19162 0.00590
-0.09738 0.30207 0.02117
-0.02333 -0.14120 -0.29571
-0.16457 -0.25379 -0.17042
-0.03315 -0.25379 -0.15491
0.16767 0.30207 0.18876
0.22740 0.13002 -0.00830
0.19220 0.30207 0.26521
0.01089 -0.25379 -0.29221
-0.24551 0.16090 0.21127
-0.13564 0.22879 0.29571
0.23415 -0.15261 0.04331
0.22740 -0.19531 0.02502
0.23125 0.28625 -0.01098
-0.24551 0.06839 0.21245
-0.10812 0.30207 -0.02710
-0.24551 -0.16024 0.26292
0.13190 0.21863 -0.29571
0.12796 0.02736 -0.29571
-0.12117 -0.07773 0.29571
-0.24551 0.03550 0.00360
-0.10971 -0.25379 -0.16122
0.22437 -0.15014 0.25950
0.23415 0.10013 0.13260
0.21315 0.12301 0.29562
-0.09554 0.30207 -0.21003
0.00011 -0.25379 -0.20039
0.23415 -0.02266 0.11299
0.00329 -0.15261 -0.29571
-0.05134 -0.22101 0.29571
-0.24551 -0.14062 -0.13469
0.22336 0.15658 0.17442
0.22373 0.00514 0.25950
-0.00239 0.30207 -0.24147
0.22740 0.17883 -0.01524
-0.24551 -0.10585 0.07533
0.22740 0.12140 0.13174
0.18198 -0.25379 0.04163
-0.24551 0.08495 -0.23160
0.11261 0.30207 0.08162
0.23415 0.01361 -0.17995
-0.24355 -0.19904 0.29571
-0.22213 0.28878 -0.31382
0.23639 0.20634 -0.12524
0.22482 0.30207 0.21587
0.19640 0.17935 0.29571
-0.24551 0.11260 0.07392
-0.04426 -0.25379 0.24326
0.23415 -0.01544 -0.07981
-0.24551 0.05893 -0.26322
-0.24551 0.25906 0.24350
0.06231 0.17765 -0.29571
-0.24551 -0.03094 0.16769
0.12869 -0.25379 0.27044
-0.24551 0.12674 0.16257
-0.24551 0.22468 -0.25920
-0.24551 -0.25125 -0.22803
-0.24551 -0.12997 0.03955
-0.13893 0.30207 -0.21323
-0.13745 0.02947 -0.29571
0.22740 -0.19369 -0.00920
-0.20545 -0.25379 0.10889
-0.20805 -0.08738 0.29571
0.21315 -0.24237 0.29408
0.22740 0.02498 0.01172
-0.13411 0.30207 0.26405
0.19903 -0.25379 0.15071
-0.13839 -0.25379 -0.04407
0.16868 0.20249 -0.29571
0.05076 -0.25379 0.16668
0.22740 0.21644 0.19614
-0.19470 0.30207 0.01577
0.10170 -0.22473 -0.29571
0.05599 0.30207 -0.07631
-0.23669 -0.25379 -0.20993
0.17873 -0.24458 0.29571
-0.24205 -0.04424 -0.29571
-0.04787 0.22236 -0.29571
0.12470 0.30207 0.06377
0.21152 0.30207 0.31143
0.08313 -0.07516 0.29571
-0.24551 0.03405 0.05275
0.22740 0.07360 -0.24326
-0.24551 0.20295 0.23781
0.22030 0.25379 -0.08097
0.02298 -0.25379 0.16431
0.03134 0.10257 0.29571
-0.01239 0.13849 -0.29571
0.17627 0.30207 0.11678
0.04823 -0.25379 0.02984
-0.24551 0.00889 0.10262
0.05331 -0.20874 -0.29571
-0.24551 0.27202 0.17418
-0.24551 0.07813 0.21873
0.22740 0.17209 0.23312
0.01711 0.30207 -0.18490
0.21315 0.22163 0.00501
-0.22494 -0.26118 0.26646
-0.14785 0.30207 -0.15581
0.22356 0.15658 -0.00518
0.07076 -0.25379 0.08441
-0.08986 0.30207 -0.15717
-0.17429 -0.13370 -0.29571
-0.07757 0.30207 -0.28593
-0.21967 0.30207 -0.30979
0.20303 0.04947 0.29571
0.02760 0.30207 -0.07276
0.22740 0.23001 0.14578
-0.08344 0.30207 -0.05486
-0.22261 -0.25379 -0.17416
0.01292 -0.25379 0.13409
0.12362 0.28787 0.31382
0.06542 0.26069 0.29571
0.00023 -0.25379 -0.07380
-0.17309 0.22560 0.29571
-0.18576 -0.25379 -0.02183
-0.16507 0.28862 -0.31382
-0.12549 -0.25379 0.05435
-0.03003 0.30207 -0.28325
-0.24551 -0.15007 -0.08739
0.16673 0.30207 -0.14525
-0.03866 0.04412 -0.29571
0.23415 0.02831 -0.21998
-0.15209 -0.19214 -0.29571
-0.24551 0.02044 0.17282
0.23415 -0.15993 -0.17993
0.23260 -0.07424 -0.03621
0.11954 -0.25379 -0.24069
0.20563 0.30207 0.10745
0.09354 0.30207 -0.06471
-0.22950 -0.13598 0.29571
0.05402 -0.25379 -0.27259
0.23415 -0.08696 -0.04192
-0.24551 0.14963 -0.29082
0.06568 0.01739 -0.29571
-0.01225 0.04852 -0.29571
-0.24551 -0.01412 0.06560
-0.24551 0.16536 0.10584
0.21881 0.30207 -0.12612
0.10636 0.07956 -0.29571
-0.24551 0.15213 -0.16828
0.11469 -0.09715 -0.29571
0.23415 -0.15558 0.14207
-0.24551 0.10097 0.29061
0.04972 0.30207 -0.07098
-0.10725 0.30207 0.08095
0.15251 0.30207 0.05332
0.07354 0.30207 -0.12971
0.10813 -0.09690 -0.29571
0.23415 -0.11149 -0.11306
0.21315 -0.19372 0.26491
-0.05941 0.30207 -0.29671
0.23415 -0.16021 0.13374
0.13931 -0.23588 -0.29571
-0.18254 -0.15454 -0.29571
-0.24551 0.14373 0.03728
-0.17944 0.28711 -0.31382
0.20130 0.20546 -0.29571
-0.09179 -0.25379 -0.00027
0.22740 -0.06800 -0.03408
0.21315 -0.10137 -0.29021
-0.24551 0.14746 0.12541
-0.16406 0.30207 -0.28913
-0.24551 -0.14110 0.05004
-0.03182 -0.25379 -0.10789
0.21315 -0.23959 -0.24393
0.06522 0.30207 0.13484
0.23415 0.00250 -0.19899
0.19392 0.15769 -0.29571
-0.22503 0.30207 -0.22103
0.16728 0.30207 0.01635
-0.00191 -0.25379 0.27966
-0.07075 -0.15964 -0.29571
-0.02302 -0.25379 0.14714
-0.16789 -0.00985 -0.29571
-0.04837 -0.24819 -0.29571
0.18430 -0.25379 -0.03328
0.13808 0.19292 -0.29571
-0.24551 0.07540 0.27853
-0.23216 -0.25379 -0.07652
0.23415 -0.07767 -0.05794
-0.04700 0.30207 -0.29160
0.14397 0.30207 -0.07086
0.19338 0.27793 -0.29574
0.21519 0.27793 -0.07475
0.22740 -0.16908 0.25950
-0.24551 -0.15404 -0.06406
0.22202 0.15658 -0.13232
-0.08511 0.30207 0.29079
0.20464 -0.28042 -0.26886
-0.02353 0.01630 0.29571
-0.24551 -0.08229 0.03882
0.22740 0.03467 0.24961
0.13581 0.26356 0.29571
-0.12752 -0.15468 0.29571
-0.23048 0.30207 0.24763
-0.19052 0.30207 0.11862
-0.21862 0.30207 0.10573
0.17880 0.30207 -0.11139
0.22740 0.07979 0.25432
-0.24551 -0.12179 -0.22635
-0.12888 -0.00208 -0.29571
-0.24551 0.27997 0.16082
0.07441 -0.25379 -0.17025
0.13607 0.30207 -0.18391
0.11471 -0.21464 0.29571
-0.20225 -0.10600 -0.29571
0.22534 0.27793 -0.12106
-0.24551 -0.03533 -0.17732
-0.02426 -0.05586 0.29571
-0.24551 0.01531 0.06544
-0.24551 0.25588 -0.10239
0.07214 0.13543 0.29571
0.16148 -0.07073 -0.29571
0.21315 0.10319 -0.27304
0.22740 -0.17237 -0.19673
0.21999 0.15055 -0.09511
0.03697 0.16993 -0.29571
0.23415 -0.10197 0.21558
-0.08819 -0.03902 0.29571
0.14741 0.21250 0.29571
-0.24551 0.02432 -0.15450
0.10644 0.01913 -0.29571
0.02013 -0.03104 0.29571
-0.22523 0.17587 -0.29571
0.22740 0.16673 0.03611
-0.23207 -0.25379 0.01204
0.22740 0.22990 -0.12569
-0.16582 0.30207 -0.01707
0.23415 0.08780 0.08771
0.21315 0.15549 0.08888
0.16137 0.30207 -0.08750
-0.04103 0.30207 0.28269
-0.01476 -0.25379 0.00558
-0.24551 -0.20747 -0.23073
0.07842 0.07270 0.29571
-0.05563 -0.15656 0.29571
0.22740 0.19722 0.01317
-0.13260 -0.25379 -0.20828
0.20148 0.30207 -0.24861
-0.24551 -0.05488 -0.06635
-0.06147 -0.25379 -0.01001
0.21315 -0.20980 -0.08734
0.17324 -0.25379 0.10488
-0.13036 0.07173 -0.29571
0.18317 -0.25379 -0.28920
-0.24551 0.02483 -0.07654
-0.16408 0.22152 -0.29571
0.00598 -0.25379 -0.28685
-0.07530 0.30207 -0.07052
0.18264 -0.25379 0.27068
-0.10970 -0.02537 -0.29571
0.06366 0.30207 -0.21292
0.07883 0.09032 0.29571
-0.19770 -0.15501 -0.29571
-0.24551 -0.23521 -0.19475
-0.24551 0.22850 0.11970
0.20990 -0.29901 0.29571
0.23415 -0.00742 -0.09816
-0.24551 -0.16043 -0.08193
-0.18705 -0.00969 0.29571
-0.24551 0.18395 0.13516
-0.22764 0.30207 0.12290
0.23947 -0.03577 0.02247
0.09074 0.30207 -0.25443
0.21315 0.24945 0.28230
-0.17077 0.20915 -0.29571
0.03560 0.29212 -0.31382
0.23415 -0.13671 0.16758
0.07259 -0.25379 0.05359
0.09256 0.01036 -0.29571
0.21315 0.25712 0.25679
-0.18121 -0.25379 0.20949
0.04646 0.08907 0.29571
-0.24551 -0.10770 0.24081
0.13269 -0.21026 -0.29571
-0.24551 0.10611 -0.13943
-0.24551 0.13073 0.06176
0.00531 0.30207 -0.15900
0.23415 0.09113 0.21400
0.19639 -0.25379 0.02623
-0.14029 0.30207 0.23407
-0.24551 0.10943 -0.11467
0.21315 -0.22018 0.09611
-0.24551 0.09296 0.15609
-0.09922 0.17172 -0.29571
-0.18772 -0.25379 -0.05262
0.22740 -0.13254 0.02377
-0.24551 -0.14692 0.26016
0.23415 0.00328 0.18882
0.22740 0.05233 -0.02231
0.22740 0.01978 0.01953
-0.15665 -0.02054 0.29571
-0.04897 -0.01750 0.29571
-0.24551 -0.04436 0.01819
0.22226 0.15055 0.25915
0.06091 -0.25203 -0.29571
-0.02109 -0.14992 0.29571
0.22497 -0.17954 -0.25950
0.22740 0.12983 -0.16937
0.02016 -0.01270 0.29571
-0.24551 0.10095 0.23866
-0.06387 0.30207 0.12605
-0.24551 -0.14937 0.09560
-0.15921 -0.15349 0.29571
-0.24551 -0.11592 0.10591
0.09175 -0.12226 0.29571
-0.24551 0.01730 -0.26971
0.22740 -0.02524 0.24213
-0.21562 0.30207 0.03569
0.03711 0.15014 -0.29571
-0.12908 -0.25379 0.29361
-0.24551 -0.05444 -0.04424
0.17796 -0.03003 -0.29571
-0.24551 0.27584 0.09735
-0.24551 0.13321 0.28427
-0.11701 0.30207 -0.19531
0.22740 0.22029 0.23108
-0.24551 -0.15136 -0.16997
-0.24551 0.20546 0.06694
-0.24551 0.19483 -0.07420
0.13093 0.30207 0.06928
0.23415 -0.03396 -0.05202
-0.13490 0.30207 -0.25439
-0.24551 0.07015 -0.26141
0.03639 0.24564 -0.29571
0.22740 -0.17420 0.14437
0.23415 0.04441 -0.13557
0.22740 -0.18444 0.12674
0.23415 -0.00655 -0.10645
-0.07426 -0.25379 -0.00080
0.22740 -0.10443 0.01962
0.23415 -0.08073 0.06041
0.01488 0.29807 -0.31382
0.03771 0.30207 -0.14610
0.21315 -0.26860 0.26998
0.09512 0.04499 0.29571
0.18973 0.30207 -0.30436
-0.09270 0.30207 -0.03229
0.06033 0.30207 0.17787
0.15892 0.20318 -0.29571
0.14520 0.30207 -0.29785
-0.03063 -0.21269 0.29571
0.19592 0.13662 -0.29571
0.09775 0.30207 -0.23751
-0.06811 -0.25379 -0.18964
-0.23132 -0.25379 0.21535
0.23415 0.04594 -0.11505
0.23415 0.04486 0.14434
-0.23259 0.27793 -0.29888
-0.24551 0.23149 0.07889
0.23415 -0.13599 -0.14269
0.01870 -0.25379 -0.19799
-0.24551 0.09619 -0.21933
0.19449 0.00969 0.29571
-0.24551 0.05016 -0.11685
0.05861 -0.25379 -0.10361
-0.24551 0.23140 -0.15856
-0.02795 0.27143 -0.29571
0.21315 0.02657 0.27471
-0.08760 -0.25379 0.14116
-0.24551 0.12069 0.07496
0.23415 0.09208 0.13060
-0.19271 -0.23569 -0.29571
-0.24551 -0.23835 -0.02742
-0.10190 0.15822 -0.29571
0.22740 0.17248 -0.15950
-0.23010 0.30207 0.01295
-0.22706 0.12647 -0.29571
0.04067 -0.25379 0.02472
-0.10720 0.30207 -0.05758
0.22740 0.20409 0.09270
-0.24551 0.09518 -0.05591
-0.18013 -0.25379 -0.00174
0.22740 -0.18787 -0.02015
0.01612 0.30207 0.22187
0.15754 0.30207 -0.05887
-0.22137 -0.26735 0.28079
0.22740 0.22675 0.17517
0.21315 0.00027 0.26816
-0.16758 -0.25379 -0.18943
-0.00288 0.30207 0.17827
-0.22423 -0.11005 0.29571
-0.04871 -0.14411 0.29571
-0.07755 -0.25379 -0.24945
-0.17204 0.30207 -0.30657
0.15407 -0.25379 -0.14608
-0.15351 0.21598 0.29571
-0.24551 0.15490 0.11810
-0.24551 -0.03367 0.27172
0.19820 0.03019 0.29571
0.22417 0.15055 0.14049
0.22740 0.18731 0.02721
-0.24551 -0.17046 -0.28825
-0.24551 0.27365 -0.21814
-0.24551 0.26613 -0.10028
-0.24551 -0.11761 -0.13586
0.19585 -0.21660 -0.29571
0.07485 0.11570 -0.29571
-0.04383 -0.24209 0.29571
0.21315 0.05869 -0.27127
-0.24551 -0.07238 -0.18811
0.21315 0.27403 0.29486
-0.11778 0.30207 0.12971
0.06390 0.29669 0.31382
0.15793 -0.09844 0.29571
-0.19313 0.30207 -0.04266
-0.24551 -0.08011 0.09249
-0.01943 0.30207 -0.22755
0.22059 -0.01299 0.25950
-0.19999 0.30207 0.14843
0.21315 -0.21379 -0.27935
-0.24233 -0.15870 0.29571
0.01786 0.30207 -0.05450
0.20598 -0.30207 -0.28183
-0.22288 -0.06459 0.29571
0.22640 0.30207 -0.24220
-0.17676 -0.21053 0.29571
-0.03048 0.30207 -0.00637
-0.24551 0.10559 -0.22860
-0.22316 0.06544 0.29571
-0.08888 0.29150 0.31382
0.23307 -0.08339 0.03621
-0.24551 0.25466 -0.12970
0.01963 0.30207 -0.26031
-0.06268 -0.17515 -0.29571
-0.24551 0.19495 -0.03344
-0.12431 0.03211 0.29571
0.22740 0.21513 -0.04269
-0.24551 0.07521 0.23517
-0.00570 -0.22169 0.29571
0.01620 0.23708 0.29571
-0.24551 -0.18418 -0.17170
-0.22666 -0.25379 0.04368
0.03533 0.01935 -0.29571
0.23415 0.04064 -0.07090
-0.24551 0.14816 -0.26089
0.19151 0.18918 -0.29571
0.17860 0.11904 0.29571
-0.24551 0.15304 -0.22429
-0.19320 -0.03584 0.29571
-0.13983 0.25786 -0.29571
-0.21793 -0.21426 -0.29571
-0.05350 -0.25379 -0.10154
-0.15935 0.30207 0.29961
0.23415 -0.11758 -0.16065
-0.24551 -0.16252 0.24874
-0.09085 -0.25379 -0.12919
0.23067 -0.16930 0.04564
0.00995 0.30207 -0.06668
-0.05489 0.11933 -0.29571
-0.08748 -0.25379 -0.08372
-0.24551 0.22974 0.09472
0.22740 0.16219 0.19552
-0.24551 0.13418 0.26906
-0.04317 -0.25379 0.25624
0.22768 0.30207 0.13822
0.23415 0.05524 0.13526
-0.24551 -0.21156 -0.18395
-0.12442 0.30207 -0.15303
0.21315 0.04428 0.26191
0.21315 -0.25042 0.14092
-0.24551 0.26431 -0.24230
0.11504 -0.25379 -0.19993
-0.20917 0.30207 0.21785
-0.19440 -0.10189 -0.29571
0.22740 0.04644 0.02322
-0.08897 0.30207 0.26158
0.20795 -0.18099 0.29571
0.22075 0.25379 -0.07068
0.21217 0.10327 -0.29571
-0.19943 0.15453 -0.29571
0.21654 0.13286 -0.25950
-0.24551 0.04489 -0.00181
-0.17731 -0.25379 -0.07234
0.23125 0.28648 -0.07213
-0.19586 0.30207 0.24257
0.02822 0.17732 0.29571
0.09325 -0.25379 -0.17636
0.07857 -0.25379 -0.21090
0.02846 -0.12140 0.29571
0.23415 -0.05953 -0.05844
0.09512 -0.25379 -0.14979
0.22740 0.20511 -0.12215
-0.11809 -0.20150 0.29571
0.17360 -0.21204 0.29571
-0.21677 -0.22498 -0.29571
0.09423 -0.25379 -0.06176
-0.19022 -0.25379 0.28328
-0.05492 -0.20914 -0.29571
-0.23573 -0.16653 -0.29571
-0.24551 -0.05664 0.12358
-0.23829 0.30207 0.03072
-0.15509 0.30207 -0.25295
-0.22117 -0.25379 0.16737
-0.21020 -0.25379 0.03645
0.21315 0.17029 0.26125
0.21315 0.26345 -0.26399
-0.24551 0.28010 -0.16034
0.23415 -0.06018 -0.16445
0.19684 -0.27042 -0.29571
-0.13552 -0.22351 -0.29571
0.21315 -0.22837 -0.23838
0.03793 -0.12915 -0.29571
-0.24551 0.07644 0.02751
0.22740 0.14145 -0.17222
0.22740 0.22597 -0.22197
0.23415 0.05462 0.17319
0.23415 -0.06901 0.08537
0.16217 0.30207 0.06509
-0.24551 -0.19445 -0.14544
0.09435 -0.15190 -0.29571
0.23415 0.05305 0.21082
0.08050 -0.07816 -0.29571
0.23415 0.06772 -0.07389
0.16995 -0.25379 0.19757
-0.15819 -0.25379 -0.06018
0.02608 0.29020 0.31382
-0.15543 0.18990 0.29571
-0.02695 0.19938 0.29571
0.21107 -0.15620 0.29571
0.23415 0.06045 -0.11906
-0.24551 -0.02956 0.21990
-0.24551 0.11133 -0.01196
0.00527 -0.25379 -0.10738
0.06332 -0.15569 -0.29571
-0.08696 -0.25379 -0.21510
0.02925 0.13237 -0.29571
0.01169 -0.25379 -0.27770
-0.24551 -0.01568 0.16526
0.23395 -0.00492 -0.22329
-0.24551 0.00255 -0.22538
-0.08140 -0.20273 0.29571
-0.21803 0.30207 0.05802
0.17150 -0.25379 0.17350
-0.12414 -0.19348 -0.29571
-0.04036 -0.25379 0.03275
0.13516 0.30207 0.15364
-0.11462 -0.16888 -0.29571
0.07906 -0.25379 0.27431
0.06288 -0.25379 0.00564
-0.18982 -0.25379 0.20055
0.23415 -0.13935 0.07740
-0.10340 0.30207 -0.20616
0.05825 0.30207 -0.13459
-0.15832 0.06685 -0.29571
-0.11542 -0.25379 0.11225
0.23312 -0.15091 0.22329
0.08748 0.23754 0.29571
0.02751 -0.23322 0.29571
-0.24551 -0.05245 0.01302
0.17790 0.30207 -0.03771
-0.06524 0.00056 -0.29571
0.07226 0.30207 0.01043
-0.24551 -0.15920 -0.14002
0.23415 -0.06798 0.15609
-0.08350 0.06902 0.29571
0.13117 0.30207 -0.22575
-0.11838 -0.03177 -0.29571
0.00413 0.30207 0.02664
0.07573 0.30207 0.26102
-0.20179 -0.12757 -0.29571
0.23415 -0.10975 0.18552
0.22904 -0.07804 0.03621
0.23415 -0.09765 0.12883
-0.12829 0.00456 0.29571
-0.04421 -0.25379 0.14326
0.14387 0.28614 0.31382
-0.04763 0.18993 0.29571
0.22740 0.14844 -0.04986
-0.19704 -0.21091 -0.29571
0.22740 0.24912 0.21730
0.21475 0.25379 -0.04633
0.00608 0.10712 0.29571
0.00095 -0.23822 -0.29571
-0.24551 0.15763 0.18767
-0.02416 0.30207 -0.10471
0.00532 -0.00179 0.29571
0.19647 0.30207 -0.05200
-0.17258 -0.25379 -0.00727
0.01391 -0.21720 0.29571
-0.24551 0.26668 -0.16890
0.09770 0.21435 -0.29571
0.07379 -0.12119 0.29571
-0.22252 0.30207 0.19329
0.03983 0.30207 -0.22682
-0.12952 -0.13911 0.29571
-0.17841 -0.25379 0.26999
0.22342 0.25379 0.22209
-0.23276 0.30207 0.06569
-0.15182 0.30207 0.11701
-0.11672 0.30207 0.07567
-0.10731 0.30207 -0.21621
0.11790 0.07166 0.29571
-0.24551 0.30137 0.08886
-0.04120 0.13883 -0.29571
0.21315 0.27249 -0.13283
-0.03928 0.23615 -0.29571
0.03992 0.18813 0.29571
-0.09969 -0.25379 -0.12454
-0.06426 -0.01719 -0.29571
0.05628 0.21615 0.29571
0.04020 0.27793 -0.30939
-0.24551 0.18793 -0.06680
-0.24551 0.04481 0.14719
-0.24551 0.10604 0.27013
-0.10088 -0.25379 0.02441
-0.05149 0.30207 0.25550
0.05436 -0.15054 -0.29571
-0.00103 -0.25379 0.18415
0.21315 0.26343 0.15449
-0.19692 -0.25379 0.05050
-0.09078 0.30207 -0.29030
-0.01843 0.30207 -0.28855
0.10965 -0.25379 -0.26163
0.22724 0.30207 0.05589
-0.01013 0.30207 0.26886
-0.13414 -0.25217 -0.29571
0.01890 0.30207 -0.14818
-0.13226 0.30207 0.04014
0.15048 0.30207 -0.24529
0.00680 -0.02587 0.29571
-0.20651 0.06049 -0.29571
0.11882 -0.25379 -0.14882
0.22740 0.12097 -0.24682
0.21315 0.20583 -0.29084
-0.01185 -0.25379 -0.00038
-0.24551 -0.05786 0.14012
-0.03936 0.17326 -0.29571
0.03267 -0.25379 0.04587
-0.24551 -0.06042 0.03480
-0.24466 0.30207 0.00171
0.21692 0.15658 0.17370
-0.24551 0.07704 0.01236
0.21315 -0.11777 0.29047
0.13314 0.30207 -0.03322
0.05442 0.27397 -0.29571
-0.19934 0.10213 -0.29571
-0.13861 -0.14104 0.29571
0.06702 0.16606 0.29571
-0.24551 -0.14520 0.07320
0.21315 -0.21021 0.03580
0.05308 -0.25379 -0.23032
-0.17357 -0.11519 -0.29571
-0.02934 0.30118 0.31382
-0.24551 0.13172 0.21786
-0.24551 -0.19858 0.23500
0.21315 -0.23991 0.23283
-0.24551 0.09882 0.03290
-0.00356 -0.25379 0.02152
0.20234 0.17029 0.29571
0.18196 -0.23540 0.29571
0.22464 0.25379 0.13455
-0.24551 -0.05326 0.29287
0.06937 0.30207 -0.12096
-0.24551 -0.16429 -0.09808
0.23125 0.29835 -0.18426
0.21701 -0.14495 0.25950
-0.24551 -0.08085 0.01612
0.11255 0.30207 0.11331
0.23415 0.00248 0.12085
-0.14889 -0.25379 0.20772
-0.06824 0.27793 0.30993
-0.08985 -0.25379 -0.07093
-0.11786 -0.12069 0.29571
-0.24551 -0.00713 -0.15890
-0.16776 -0.03923 -0.29571
-0.02820 0.12901 -0.29571
-0.00893 -0.25379 0.23775
-0.13873 0.27416 0.29571
-0.24551 0.13014 -0.25560
0.23415 -0.09585 -0.21022
-0.21630 0.02570 -0.29571
0.22740 0.20707 0.17761
0.21315 -0.22576 -0.26403
-0.00133 0.30207 0.31099
-0.24551 0.03461 0.29045
-0.11621 0.28662 0.31382
0.08066 -0.25379 -0.28700
-0.11727 0.05689 0.29571
0.23415 -0.13708 -0.06027
-0.20025 0.30207 -0.29797
-0.24551 -0.04058 -0.01759
0.03366 0.30207 -0.25405
-0.03772 0.19003 0.29571
-0.24551 0.19956 -0.02089
0.21164 -0.25379 -0.24377
-0.24551 -0.08465 -0.20334
0.08671 0.10558 0.29571
0.19380 0.11374 0.29571
0.18604 -0.25379 0.08315
-0.08827 0.30207 -0.00663
0.19140 0.30207 -0.14680
-0.17535 0.15802 0.29571
0.23415 -0.06277 0.17707
-0.11855 0.30207 0.00495
-0.14712 -0.25379 0.25914
-0.23164 0.30207 -0.14431
0.19733 -0.25379 -0.19848
0.21315 0.06995 -0.26143
-0.24551 -0.21556 0.10763
0.23415 0.04229 0.06611
0.07473 -0.25379 -0.02846
0.22740 0.19810 -0.09713
0.07622 -0.25379 -0.24459
0.23415 0.02724 -0.07859
0.22249 -0.06849 -0.25950
0.23415 -0.13345 0.11406
-0.11564 -0.25379 -0.23515
0.21315 -0.22069 -0.02846
0.12810 -0.02843 0.29571
-0.22634 0.30207 -0.07606
-0.19907 0.16278 -0.29571
-0.09417 0.12354 -0.29571
-0.02694 0.05349 0.29571
-0.03571 0.30207 -0.21368
-0.09667 0.30207 0.26623
0.23415 -0.06851 -0.04385
0.22740 -0.09014 0.23389
0.04196 -0.25379 0.19751
0.22740 0.06539 0.02579
0.21739 -0.20551 -0.20665
0.23415 -0.05746 0.19540
-0.09804 0.30207 0.14412
-0.24551 -0.22138 0.10402
-0.03786 0.10947 -0.29571
0.07722 0.30207 -0.00139
-0.13266 -0.25379 -0.04719
0.20050 0.30207 0.22259
0.20335 -0.25379 0.11746
0.23415 -0.07223 -0.18863
0.19266 -0.25379 0.16673
0.22740 0.22556 0.15602
-0.24551 0.03079 -0.20905
-0.10122 0.28531 0.31382
0.07615 -0.22826 0.29571
-0.24551 -0.05572 0.24918
0.14543 0.30207 -0.10902
-0.10730 0.09110 0.29571
0.22740 0.17419 0.23972
0.01970 0.02197 -0.29571
0.04876 0.24514 0.29571
0.22740 0.19310 0.04730
0.18716 0.30207 0.17871
0.23415 -0.15120 -0.13202
0.23415 0.07722 -0.04824
-0.01429 0.30207 0.15014
0.21315 -0.24044 -0.06546
-0.03971 0.30207 -0.29354
-0.24551 -0.07225 -0.20015
-0.19256 -0.02124 -0.29571
0.15728 0.17699 0.29571
-0.00800 0.30207 -0.09667
-0.11574 -0.25379 -0.25085
0.23415 -0.15585 0.19098
0.23415 0.01593 0.16252
0.03142 0.30207 0.06100
0.22740 0.25345 0.20841
0.23415 0.02496 0.05215
0.22740 0.13145 0.04911
-0.15354 0.30207 0.10398
-0.13625 0.30207 -0.20248
0.18768 0.30207 -0.28651
-0.24551 -0.23607 0.21263
0.02690 -0.25379 0.05355
0.04834 0.30207 -0.31041
0.04731 -0.19373 -0.29571
0.17602 0.05389 -0.29571
-0.24551 -0.24665 -0.16782
-0.02973 -0.22082 -0.29571
-0.14328 0.30207 0.29065
0.22740 0.03604 -0.23652
0.07653 -0.25379 0.25639
0.22081 0.30207 -0.19370
0.22740 -0.05714 -0.02765
-0.04490 0.05423 -0.29571
0.12679 0.18612 0.29571
-0.07630 0.30207 -0.16333
-0.07368 -0.24107 0.29571
0.22740 0.23265 -0.08117
-0.24551 -0.17999 0.23516
0.09887 0.30207 0.29496
0.02307 0.06283 0.29571
-0.24551 0.21033 -0.23013
0.00044 0.30207 -0.28027
-0.14382 0.13155 0.29571
0.04312 0.05716 -0.29571
0.12581 -0.23855 0.29571
-0.09382 0.30207 -0.25167
-0.15292 0.30207 0.18690
-0.03383 -0.25379 0.00323
0.23415 -0.11274 0.19275
-0.14688 -0.22146 -0.29571
0.01335 -0.15500 -0.29571
-0.06377 -0.25379 -0.15165
-0.24551 -0.00389 0.18626
-0.24551 0.03794 -0.19289
0.03230 -0.25379 0.07740
-0.24551 0.04720 -0.14312
0.21315 -0.24678 0.28731
0.00230 -0.19372 -0.29571
-0.24551 -0.23898 -0.08570
-0.08454 -0.07106 -0.29571
0.11140 0.19508 -0.29571
-0.03527 0.30207 0.21895
0.20856 0.27793 0.30525
-0.24551 -0.17805 -0.13734
-0.24551 0.12257 -0.28020
0.17513 -0.25379 0.09489
0.23415 -0.00426 0.11153
-0.06742 -0.08727 0.29571
-0.24551 0.01208 0.24572
-0.21585 0.30207 0.17836
-0.24211 -0.25379 -0.08658
-0.07644 0.22020 0.29571
0.02260 0.15040 0.29571
0.23415 -0.14899 0.12182
-0.04627 0.15738 0.29571
-0.24551 0.09928 -0.20027
0.23125 0.28415 0.24423
0.12281 -0.25379 0.07657
0.21315 0.15512 -0.27771
0.14439 -0.25379 0.22183
0.10488 -0.03058 -0.29571
-0.05679 -0.16601 0.29571
0.21315 0.27307 0.16996
0.09102 0.09609 -0.29571
0.21003 -0.25379 0.03305
0.22740 -0.00584 -0.25050
-0.24551 0.11306 -0.12434
0.21315 0.25939 -0.17602
0.22740 -0.19416 0.10536
0.00318 -0.11344 0.29571
0.20214 0.15334 0.29571
-0.24551 0.18646 0.23599
0.06789 -0.20201 0.29571
0.19718 0.22629 0.29571
0.19031 -0.25379 -0.21005
-0.24551 -0.23639 -0.03583
-0.10589 0.30207 0.24447
-0.01578 0.30207 -0.31196
0.01170 -0.25379 -0.17965
0.22740 -0.17817 -0.00760
-0.24551 -0.12459 -0.11590
-0.24551 0.18008 0.12664
-0.03206 -0.07628 0.29571
-0.00597 -0.25379 -0.27123
0.23415 0.10342 -0.10918
-0.02771 0.21289 0.29571
-0.24551 -0.09964 0.12433
0.11227 0.14304 0.29571
0.09790 0.07152 0.29571
0.21506 0.30207 0.11546
0.07844 0.27793 0.30260
-0.00498 -0.25379 -0.15424
0.21810 -0.07014 0.25950
-0.09245 0.28093 -0.31382
0.03597 0.30207 0.08066
0.22740 0.13394 -0.20797
-0.08441 0.12217 -0.29571
-0.08480 0.27675 0.29571
-0.24551 0.26095 -0.23231
0.05711 -0.25379 0.10142
0.08844 -0.25379 -0.12962
0.18901 -0.28847 0.29483
-0.14176 -0.25379 0.09207
0.08852 0.30207 0.19617
0.22740 -0.19015 -0.05173
0.23415 0.04007 0.13696
0.23125 0.28965 -0.12194
0.13626 -0.25379 -0.27595
-0.01927 -0.25379 -0.05070
-0.13420 0.22529 -0.29571
-0.06484 0.30207 0.17075
0.22740 -0.17039 0.17469
0.02079 0.30207 0.22762
-0.02931 -0.24411 0.29571
-0.22440 -0.25379 0.10507
-0.05452 -0.25379 -0.20822
-0.18094 0.24449 0.29571
0.23306 0.07897 0.22329
0.11151 0.30207 -0.28486
0.21315 0.15169 -0.07236
-0.24551 0.21134 -0.25263
-0.08874 -0.22812 -0.29571
-0.10064 0.30207 -0.28275
0.21315 0.15701 -0.29346
0.14292 0.13747 -0.29571
-0.24551 -0.12243 -0.02806
-0.24551 0.18890 -0.17144
0.18092 0.22319 -0.29571
-0.22437 0.30207 -0.04042
-0.24551 0.01876 -0.07169
-0.24551 0.24860 0.13571
0.17902 -0.25379 0.00779
0.22740 0.23773 0.24781
-0.12609 -0.25379 -0.25178
-0.09091 0.02123 0.29571
-0.24551 -0.08020 0.12994
-0.09803 0.30207 0.21830
0.23125 0.29154 -0.01442
-0.09198 -0.25329 0.29571
0.23415 0.00980 0.06726
0.22021 0.30207 0.02109
-0.10957 -0.05693 0.29571
0.06591 0.19742 -0.29571
-0.24551 -0.00425 -0.14843
-0.24551 -0.05315 0.00631
-0.24138 -0.06031 0.29571
0.16519 0.02012 0.29571
-0.24551 -0.23178 0.27753
-0.24551 0.14279 0.21613
0.22346 0.15055 0.00189
0.21857 -0.03190 0.25950
-0.17808 0.20133 -0.29571
0.22740 0.17727 -0.06242
-0.04022 -0.11256 -0.29571
-0.13629 -0.25379 0.21199
0.13609 0.23612 -0.29571
0.21315 -0.26654 0.28882
0.07163 0.26566 -0.29571
-0.24551 -0.02174 -0.25971
0.21315 0.27204 -0.11853
-0.24551 0.24024 -0.11258
-0.19351 0.12818 0.29571
0.22740 0.16525 -0.14979
-0.24551 0.18711 -0.13394
0.23415 0.01994 0.10458
-0.12224 0.08789 0.29571
0.23415 -0.13594 -0.11692
-0.24551 0.09093 -0.03615
0.00096 -0.25379 -0.23998
-0.09509 0.30207 -0.08513
0.19464 -0.08794 -0.29571
0.06846 0.30207 0.12026
0.23065 0.30207 -0.19940
0.22740 0.10581 0.23469
0.23415 -0.02390 -0.15417
-0.18041 -0.16195 -0.29571
0.19640 -0.25379 -0.24149
-0.24551 -0.14578 -0.25348
0.21315 -0.23271 0.00203
0.23947 0.21807 -0.12388
0.05499 0.30207 0.27848
0.21315 -0.07184 0.27428
-0.01695 -0.19589 0.29571
-0.20376 -0.25379 -0.06519
0.09374 0.22460 -0.29571
0.10101 0.30207 -0.30652
0.00025 0.30207 -0.13141
-0.24551 0.16695 -0.11929
-0.21629 -0.25379 -0.27306
0.07517 -0.25379 0.23247
-0.21225 -0.25379 0.28364
-0.24551 0.12117 0.11137
-0.24551 0.16927 0.23151
-0.24551 0.10781 0.04636
-0.06761 0.12665 0.29571
-0.15209 0.17314 0.29571
-0.16894 0.30207 -0.11753
0.00190 0.30207 -0.07496
-0.15695 -0.25379 0.29068
0.03981 -0.22770 -0.29571
0.12956 -0.25379 -0.29238
0.23188 -0.05111 -0.03621
-0.22429 -0.25379 0.25898
-0.24551 0.07997 -0.11720
-0.19460 -0.25379 0.12363
-0.24208 0.30207 -0.03575
0.05610 -0.13822 -0.29571
0.22740 0.08081 -0.00807
0.12276 -0.25379 -0.02104
-0.24551 0.07948 0.13769
0.11544 -0.25379 0.05915
-0.02331 -0.10882 -0.29571
0.03761 0.17693 -0.29571
0.23406 0.11434 -0.20668
0.11062 0.30207 -0.31282
-0.24551 0.19867 -0.05645
0.16900 0.03859 -0.29571
-0.24551 0.07056 0.03394
0.07097 0.18677 0.29571
0.03791 0.10827 -0.29571
-0.24551 -0.22473 0.02582
0.23947 -0.04147 0.01463
-0.24551 0.04052 -0.24236
-0.24551 -0.00011 0.23409
-0.22109 0.20629 -0.29571
-0.24551 0.20791 0.22391
0.06986 -0.25379 -0.05094
0.21315 0.24751 -0.28511
0.16752 0.30207 0.05508
0.22740 -0.16955 0.00589
-0.24551 -0.02877 0.05721
0.05908 0.30207 0.31104
-0.23740 -0.00216 0.29571
0.17686 -0.25379 -0.04704
0.22740 0.21808 0.11510
-0.24551 0.14829 0.09529
0.03904 -0.25379 -0.25638
-0.24209 -0.29317 0.27046
0.07067 -0.25379 0.24770
0.10256 0.30207 -0.29141
-0.19579 0.30207 -0.15006
-0.17983 0.06253 -0.29571
0.11258 0.30207 -0.19021
-0.24551 -0.16746 0.02001
-0.04368 -0.25379 0.04418
-0.23528 0.30207 0.18638
-0.12427 -0.10094 -0.29571
0.21315 0.26838 -0.22231
0.22740 0.23562 0.06524
-0.24113 0.30207 -0.18657
0.21816 -0.20551 -0.03757
0.22740 0.18606 -0.20816
-0.13912 -0.25379 -0.01161
0.11604 -0.22566 -0.29571
0.00510 0.00718 -0.29571
-0.14461 0.30207 0.20429
-0.08034 0.14981 0.29571
0.06372 0.08640 0.29571
-0.03403 -0.25379 -0.27940
0.02324 0.30207 -0.21426
-0.24551 0.13139 -0.14788
0.14836 0.19475 0.29571
-0.20154 -0.25379 0.23743
-0.13468 0.30207 -0.24434
0.04440 0.01350 0.29571
0.20177 0.13407 0.29571
0.00337 -0.25379 0.09498
0.21315 -0.24090 0.11041
-0.22389 0.09601 0.29571
0.00626 -0.17812 -0.29571
0.20710 0.03714 0.29571
0.23415 -0.16486 -0.16552
-0.24551 -0.04282 -0.13815
-0.24551 -0.10980 -0.12592
-0.05724 -0.07981 -0.29571
0.23415 -0.00771 -0.13005
0.08729 0.13196 -0.29571
0.21037 0.09560 -0.29571
-0.24551 0.10389 -0.22148
-0.03548 -0.25379 -0.11391
-0.18066 -0.02992 -0.29571
0.04411 -0.25379 -0.07157
0.22740 0.21650 -0.01647
-0.00989 0.25042 0.29571
0.21122 -0.25379 0.15346
0.08113 0.30207 -0.08695
0.22740 -0.19181 -0.16776
-0.24551 0.26033 -0.17612
-0.13377 0.14089 0.29571
0.19103 0.00774 -0.29571
0.21315 -0.25166 -0.26270
0.12574 0.27793 -0.31177
0.20937 0.00927 -0.29571
0.13601 -0.22692 0.29571
-0.04198 0.30207 0.16286
-0.24551 0.02903 0.11709
-0.12876 -0.25379 -0.17159
-0.24551 0.17604 -0.26145
0.18837 0.22086 0.29571
0.19735 -0.03952 -0.29571
0.10261 0.08257 0.29571
-0.24551 -0.08435 -0.22121
-0.23124 0.27793 -0.30707
-0.24551 -0.08742 -0.09296
0.06055 0.14473 -0.29571
-0.17473 -0.25379 0.09551
0.08424 -0.25379 -0.22099
0.15379 -0.25379 0.18506
0.22740 -0.18228 0.22648
-0.19400 0.30207 -0.11621
0.20346 0.30207 0.09351
-0.00248 0.19379 -0.29571
-0.02829 -0.13551 0.29571
-0.24551 -0.15705 0.03126
0.19317 -0.25379 0.25680
-0.01475 0.30207 0.29904
-0.17043 0.12979 0.29571
-0.24551 0.03683 -0.18050
0.14864 0.25002 0.29571
0.21315 -0.16768 -0.27211
-0.20052 -0.25379 0.27248
0.23125 0.29819 0.02866
-0.24551 -0.04802 -0.17544
0.23415 0.06291 0.12170
-0.24551 0.16913 0.01224
0.04443 0.29386 -0.31382
-0.24551 0.15996 0.07489
0.21596 -0.20551 0.22298
0.21485 0.15055 0.06275
-0.24551 0.19052 -0.27109
-0.21845 0.09878 -0.29571
0.07270 0.30207 -0.23205
-0.19058 0.30207 0.00703
-0.06574 -0.17842 0.29571
0.17097 0.30207 -0.11778
0.22243 0.15863 0.00590
-0.10645 0.30207 -0.24006
-0.24551 0.08476 -0.01169
-0.24551 0.12376 0.17135
0.20736 -0.14744 0.29571
0.18793 0.30207 -0.12160
-0.16366 0.30207 -0.18579
0.23320 -0.16930 0.15080
-0.16749 0.14997 0.29571
0.23415 -0.12781 -0.14760
0.19861 -0.25612 0.29571
0.22740 0.21652 0.01982
0.10906 -0.25379 0.14019
0.16973 -0.23358 -0.29571
-0.00186 0.30207 -0.05789
-0.24551 0.17183 -0.29300
0.13401 0.05949 -0.29571
0.00592 -0.17970 0.29571
-0.12266 -0.25379 0.13058
0.22740 -0.17727 0.24453
-0.24551 0.24790 -0.15885
-0.24551 -0.18635 0.22090
0.10502 0.30207 0.00426
-0.24551 -0.24939 -0.16063
-0.08894 0.16331 0.29571
-0.24551 0.29936 -0.22445
-0.24551 0.02077 -0.12997
-0.24551 -0.22625 0.21085
-0.12410 -0.05996 0.29571
-0.19384 0.30207 -0.22247
-0.24551 0.14827 0.07986
-0.24551 -0.01695 0.14391
-0.24551 -0.09680 0.25817
-0.00556 -0.25379 -0.08840
-0.08476 -0.25379 0.26780
-0.05763 -0.25379 -0.18838
0.23415 -0.02479 0.10619
0.23415 -0.00391 -0.16884
-0.17853 0.11469 0.29571
-0.05348 0.27793 -0.30890
0.21801 0.05511 -0.25950
0.17411 0.18107 -0.29571
0.22740 0.09460 0.01527
0.23131 -0.04222 0.22329
-0.24551 -0.12424 -0.07588
0.09882 -0.25151 0.29571
0.00665 -0.08363 -0.29571
-0.24551 -0.00901 0.02296
0.14398 0.30207 0.25242
0.15378 -0.25379 0.16498
-0.04043 0.30207 0.24563
-0.03034 0.22166 -0.29571
-0.24551 -0.03051 0.19324
-0.24551 0.00119 -0.20086
0.02867 0.30207 0.19959
0.12301 0.20952 0.29571
0.21315 -0.12611 0.29468
-0.10731 0.02314 -0.29571
0.23125 0.28925 -0.02527
-0.13475 0.30207 -0.30495
0.15432 0.30207 -0.11233
-0.24551 -0.19130 -0.20450
0.16783 -0.06961 0.29571
-0.21730 -0.25379 0.10704
-0.24551 -0.03249 -0.13133
-0.07703 -0.19326 0.29571
-0.24551 -0.24418 0.01936
0.21315 0.06705 0.26469
-0.09083 0.27793 -0.30636
0.06965 -0.00094 0.29571
0.23415 -0.10125 -0.18953
-0.08696 -0.25379 0.15206
0.00938 -0.20782 0.29571
-0.13153 0.30207 0.18823
0.03253 0.30207 0.14389
0.23415 -0.08297 0.06690
-0.10361 -0.24254 -0.29571
0.18901 -0.27804 0.29517
0.22740 -0.03314 -0.23847
0.10160 0.29782 0.31382
0.19404 -0.00233 0.29571
-0.15035 0.30207 0.08367
-0.17614 0.30207 -0.11709
0.10946 -0.04748 -0.29571
-0.24551 0.19007 0.10921
0.21315 -0.23430 0.21936
0.22694 0.20960 0.25950
0.20485 0.06265 0.29571
-0.24551 0.29138 0.04221
-0.23326 0.30207 -0.10695
-0.24551 -0.08725 -0.04490
-0.24551 0.29019 0.08786
0.22740 0.16786 0.15002
-0.05954 0.19778 0.29571
0.21315 -0.07905 0.28074
0.23415 -0.01883 0.16306
0.00874 -0.11878 0.29571
0.02105 0.27793 0.30990
-0.23564 0.02372 -0.29571
0.17202 0.30207 -0.13174
-0.11779 -0.13630 0.29571
-0.24551 0.07506 0.07972
0.03031 0.25554 0.29571
-0.24551 0.29983 0.01182
-0.01869 -0.25379 -0.16697
-0.07395 -0.11994 -0.29571
-0.20395 0.26651 -0.29571
-0.15896 -0.00681 -0.29571
-0.22968 0.30207 0.18189
-0.03297 -0.25379 -0.19221
-0.15128 0.27227 0.29571
-0.11663 -0.25379 0.03071
-0.24551 -0.18992 0.18760
-0.24551 0.26432 -0.21762
0.06793 0.08004 0.29571
0.20726 -0.25379 0.07235
-0.24551 -0.05652 0.13085
0.23415 0.08351 0.05627
0.21315 -0.23966 -0.17467
0.09080 -0.25379 -0.20000
-0.12727 0.30207 0.14505
-0.24551 0.23938 0.20408
0.22740 0.06764 -0.02004
-0.19232 0.06929 0.29571
0.07633 0.30207 0.11132
0.11174 -0.08445 -0.29571
-0.21765 -0.15643 -0.29571
-0.24551 0.22694 -0.00212
0.23415 -0.12205 -0.14014
0.00437 0.29994 -0.31382
0.05554 -0.25379 0.25455
-0.19432 -0.25379 0.14950
0.11489 -0.25379 0.06882
-0.24551 0.29267 0.06751
-0.23436 0.27121 0.29571
-0.24551 -0.00873 -0.00151
0.21315 0.25636 0.00612
0.22740 0.02700 -0.24557
0.22740 0.17039 0.19676
-0.03614 0.30207 0.03028
-0.21062 -0.22885 0.29571
0.23415 -0.15255 0.07787
0.14891 0.30207 -0.01546
0.10206 -0.17436 -0.29571
-0.24551 0.28443 0.01886
0.08503 -0.25379 -0.15379
0.23415 -0.12915 0.04480
-0.09372 -0.20937 0.29571
-0.24551 0.10594 0.05858
0.23415 0.09745 0.11379
0.13184 -0.25379 0.03125
-0.14352 0.25324 0.29571
-0.19017 0.30207 0.29695
0.22740 -0.18864 0.00639
0.03950 0.15787 0.29571
0.14659 0.03913 0.29571
-0.24551 -0.23350 -0.27107
0.06254 -0.08502 0.29571
-0.06960 0.30207 0.09014
-0.12383 0.30207 -0.06889
-0.24551 -0.04880 -0.25944
-0.24014 0.30207 -0.17530
-0.16664 0.30207 -0.22236
0.21315 0.02126 0.27002
0.23125 0.29246 -0.27336
0.23415 -0.06223 -0.18475
-0.20758 0.13089 0.29571
0.21930 0.25379 0.11163
-0.13739 -0.25379 -0.05625
-0.24551 -0.05330 -0.03337
0.03300 -0.25379 -0.12467
-0.03518 -0.24208 -0.29571
-0.06534 -0.25379 -0.25823
0.22682 0.30207 -0.02965
0.01183 -0.25379 0.21465
0.13186 -0.25379 0.16324
-0.24551 -0.12549 -0.25142
-0.23766 -0.12039 -0.29571
0.18937 0.30207 0.04244
0.23398 0.11434 0.09339
-0.08913 0.12806 -0.29571
-0.13029 0.30207 0.07441
0.03566 0.30207 0.25550
0.09101 0.27270 0.29571
0.18669 0.02460 0.29571
0.22740 0.14273 -0.09707
0.13484 0.27793 -0.30848
0.23415 0.08364 0.06553
-0.24551 -0.02681 0.12098
0.13374 -0.25379 0.18658
0.21315 0.19460 -0.28050
0.05232 0.03872 -0.29571
0.12684 0.01945 -0.29571
-0.24551 -0.08926 -0.07033
-0.04603 -0.25379 0.15023
-0.24551 0.19349 0.04262
-0.23498 0.22165 0.29571
-0.16214 -0.04928 -0.29571
-0.19360 -0.25379 0.15866
-0.24551 0.24452 -0.16468
0.04448 -0.15500 0.29571
0.04372 -0.25379 0.24044
0.22080 0.15658 -0.04372
0.06071 0.22803 -0.29571
0.22740 -0.10735 -0.00603
-0.24551 0.28065 -0.19610
-0.00449 -0.25379 -0.07839
0.22740 0.05732 0.22861
-0.24551 -0.21952 -0.13943
0.05141 0.30207 -0.05991
0.10595 0.24239 0.29571
0.23415 -0.14013 -0.15166
0.05033 0.19056 0.29571
0.15103 0.30207 0.13631
0.09543 0.30207 0.18484
0.22698 0.30207 0.22582
0.01495 0.21563 -0.29571
0.01170 -0.06772 -0.29571
0.11820 0.22207 0.29571
0.08042 0.30207 -0.12610
0.05063 -0.23348 0.29571
0.18306 -0.25379 -0.15901
0.13237 0.27793 -0.30012
0.23415 0.00935 0.13196
-0.24551 0.07035 0.19827
-0.15114 0.26554 -0.29571
0.18901 -0.26193 0.28238
-0.18468 0.30207 -0.11254
-0.01827 0.30207 0.08271
0.13852 0.30207 -0.09590
0.02412 0.07470 -0.29571
-0.24551 -0.05856 -0.00942
-0.18168 -0.25379 -0.18209
-0.23801 -0.21269 0.29571
0.23415 -0.03972 0.08971
0.21937 -0.07721 -0.25950
-0.22309 -0.24787 0.29571
-0.06116 -0.25379 0.21636
-0.03696 0.15882 -0.29571
0.03076 -0.25379 0.13718
0.22740 0.18855 0.20716
0.22740 -0.07715 -0.23336
0.23415 -0.02476 -0.06428
0.14665 0.22304 0.29571
0.17326 -0.25379 0.24971
0.21582 0.06122 -0.25950
0.22740 -0.19142 0.13410
-0.08182 0.21851 -0.29571
-0.24551 0.21818 -0.00045
-0.12896 0.27793 -0.31226
-0.07684 0.30207 -0.23682
0.06551 -0.16047 0.29571
0.22632 0.25379 0.11168
-0.03027 0.13799 -0.29571
0.21315 0.26845 -0.14449
0.22740 -0.02864 0.25586
0.07523 0.03575 -0.29571
-0.02021 -0.08916 -0.29571
-0.14223 0.30207 0.30460
-0.24551 -0.04041 -0.07473
0.23415 -0.16709 0.10233
0.21315 -0.18606 0.27341
0.23415 0.06167 0.20580
-0.08709 0.30207 -0.07443
0.22740 0.11815 0.23442
-0.15701 0.00548 0.29571
0.10249 0.00034 -0.29571
-0.21342 -0.25379 -0.14638
0.08316 -0.25379 -0.23064
0.12257 0.30207 0.18342
0.22740 -0.15341 0.03000
-0.24551 -0.00921 0.11296
-0.24551 0.28134 -0.01868
-0.22223 -0.25379 -0.13633
-0.05931 0.21185 0.29571
0.22740 0.12895 0.17241
0.22512 0.25379 -0.02207
-0.24551 -0.11139 0.08692
0.21315 0.05740 0.26276
0.01499 0.30207 0.00502
-0.05958 -0.25379 0.08508
0.05364 0.30207 0.30387
-0.07695 0.30207 0.22023
-0.04736 -0.18551 0.29571
0.03762 -0.11436 -0.29571
-0.24551 0.07114 -0.17713
0.21943 0.15055 0.03032
0.06307 -0.22058 -0.29571
-0.19251 -0.25379 0.13554
0.17550 -0.00931 0.29571
-0.06980 -0.25379 -0.11284
0.22740 -0.09932 -0.23817
-0.02899 0.01124 -0.29571
-0.24551 0.19028 -0.11605
0.23098 0.27793 0.30845
-0.24551 0.28812 0.18863
-0.05244 0.30207 -0.29778
0.12447 -0.17206 0.29571
-0.24551 0.16194 -0.22203
0.13523 0.27392 -0.29571
0.21315 0.27311 0.08551
-0.03725 0.30207 0.19053
0.21559 0.15055 -0.10862
0.23415 -0.04217 -0.14675
-0.24551 0.09265 -0.13094
-0.16627 -0.25379 0.07107
0.14815 -0.25379 0.26225
0.23415 -0.08740 0.10680
-0.24551 0.26047 0.28076
-0.13208 -0.25379 0.20545
-0.05094 0.30207 -0.16868
-0.21441 0.16253 0.29571
0.00045 0.14607 0.29571
-0.02418 -0.11143 0.29571
0.10661 0.12639 0.29571
0.23415 -0.14881 -0.08259
-0.24551 0.22994 -0.24703
-0.18134 0.30207 -0.02802
0.21315 0.15395 0.00951
0.21315 -0.23839 0.12611
0.13744 0.30207 -0.15318
0.22339 0.27793 0.11282
-0.01106 0.28812 -0.31382
-0.24551 -0.10118 0.00725
0.07501 0.23816 0.29571
-0.24551 -0.18651 0.16368
-0.24551 0.12310 -0.16137
-0.00154 0.24978 0.29571
0.23415 -0.08743 0.04306
0.23415 0.03598 -0.07568
0.09356 0.15658 0.29571
-0.09646 0.23803 -0.29571
0.23415 -0.06979 0.11820
0.12377 0.30207 0.31139
0.14955 0.30207 0.08882
-0.02420 0.02947 0.29571
-0.13381 -0.25379 0.02421
-0.24551 -0.07207 -0.01307
0.10597 0.30207 0.13480
0.19403 0.10370 -0.29571
-0.24551 -0.02227 -0.22112
0.10464 -0.25379 0.05568
0.17253 0.01046 0.29571
0.23415 -0.14884 -0.20394
0.21799 0.27793 -0.15668
0.19182 0.30207 0.11332
-0.20561 0.30207 0.20796
-0.22340 -0.25379 0.13721
-0.03478 -0.04948 0.29571
-0.00166 0.08112 -0.29571
-0.24551 0.07240 0.14127
-0.06162 -0.25379 0.04767
-0.24551 0.04975 0.29001
-0.04388 0.14557 -0.29571
-0.09598 -0.03430 0.29571
0.01761 -0.04392 0.29571
0.23415 -0.16808 0.21711
-0.23687 0.08793 0.29571
0.17751 -0.25379 -0.11906
-0.19204 -0.21127 0.29571
0.22740 0.23839 0.17524
0.17319 0.11110 -0.29571
-0.24551 0.22595 0.08845
-0.13093 0.30207 -0.17260
-0.20494 -0.25379 -0.00556
-0.24551 -0.12535 0.17642
0.21315 -0.24022 -0.18316
-0.19079 0.30207 0.21088
-0.24551 0.21511 -0.03193
0.22740 0.22716 0.07158
0.18686 -0.06594 -0.29571
0.11557 -0.25379 -0.11807
0.13085 0.30207 0.10156
0.09696 0.30207 0.15035
-0.02695 -0.25379 -0.20521
0.14242 -0.13424 -0.29571
-0.06233 0.30207 0.09780
0.05678 -0.25379 -0.21130
-0.15516 -0.18366 0.29571
0.22740 0.14667 0.15909
0.22740 0.18302 0.11216
-0.22137 -0.28767 -0.29380
-0.23872 -0.25379 0.26513
-0.24551 -0.01700 0.04082
-0.03168 -0.25379 -0.12456
0.14048 -0.25379 0.15235
-0.22137 -0.25705 -0.28971
-0.12002 0.14617 -0.29571
-0.23729 -0.30207 -0.29213
0.21315 -0.19691 0.27266
0.05750 -0.25379 -0.00009
-0.24551 -0.17946 0.07007
-0.20302 0.02767 0.29571
-0.02639 0.25906 0.29571
-0.06309 -0.02549 0.29571
-0.21485 -0.11042 -0.29571
0.09917 0.30207 -0.00263
0.02463 -0.21065 0.29571
-0.24551 -0.08957 -0.17345
-0.05601 -0.25379 0.21180
-0.01464 0.15187 0.29571
-0.20112 -0.25379 -0.05038
-0.02970 0.17905 0.29571
0.05265 -0.25379 0.00635
-0.24551 0.18054 -0.09061
0.04371 0.30207 -0.10056
0.18091 0.30207 -0.22661
0.20249 0.11276 -0.29571
0.22740 0.19678 -0.11535
0.06255 -0.25379 -0.01726
-0.07545 0.30207 -0.02309
0.04468 -0.20356 -0.29571
-0.24551 0.04277 -0.05638
-0.01669 -0.02327 -0.29571
0.07591 0.08051 0.29571
0.22740 0.12171 0.02502
-0.24551 -0.12593 -0.29164
0.24551 -0.02295 0.02143
-0.10986 -0.09202 0.29571
-0.24551 -0.10486 0.02478
-0.14267 0.03381 -0.29571
-0.20039 0.30207 0.18980
0.18796 0.30207 -0.17300
0.15351 -0.00782 -0.29571
-0.22162 -0.25379 -0.05486
0.06433 0.24422 -0.29571
-0.24551 0.21271 -0.16791
-0.19061 -0.17644 0.29571
-0.23165 0.25315 -0.29571
-0.24551 0.16357 -0.16433
0.23415 0.06680 0.18345
-0.24551 -0.02419 -0.13378
0.21687 0.28209 -0.31382
-0.20698 0.30207 -0.31072
-0.24551 0.09040 0.02237
-0.08282 -0.11148 0.29571
-0.17723 -0.04058 -0.29571
-0.17301 -0.25379 0.29088
-0.23211 0.29227 0.31382
-0.24551 -0.21607 0.27425
-0.03122 0.30207 -0.01992
-0.24551 -0.18183 -0.21743
0.05213 -0.25379 0.26034
0.23415 -0.07609 -0.13999
-0.01121 -0.25379 0.08011
0.22740 0.13957 0.22805
-0.22104 0.30207 -0.29426
0.02074 -0.25379 -0.15258
-0.15939 -0.03841 0.29571
-0.03116 -0.25379 0.25353
0.23086 -0.16930 -0.07399
-0.01008 0.20241 0.29571
0.00600 0.24864 -0.29571
-0.19952 0.30207 -0.30821
-0.24551 -0.21511 -0.05802
-0.22940 0.06065 -0.29571
-0.24551 0.20181 0.08642
0.21163 0.30207 -0.09502
-0.22019 0.01314 -0.29571
-0.24551 -0.04676 0.03846
0.07424 0.30207 0.15860
-0.14123 -0.25379 0.00969
0.08059 -0.17855 -0.29571
-0.24377 0.24642 -0.29571
0.06651 -0.25379 0.27175
-0.05037 -0.25379 0.19867
0.13569 0.30207 -0.26454
0.22740 0.12904 -0.02056
-0.24551 -0.09292 0.03770
-0.07627 0.30207 -0.05657
0.19012 0.13198 0.29571
-0.07542 0.30207 0.12947
0.23415 0.03592 0.20846
0.13203 -0.25379 -0.16113
-0.04311 0.04500 0.29571
-0.16612 -0.25379 0.00797
0.21315 -0.23993 -0.04806
-0.13810 0.30207 -0.09994
-0.04125 0.28423 -0.31382
0.16018 -0.25379 -0.08921
0.05660 -0.06708 -0.29571
0.13598 0.30207 0.22824
-0.24551 0.29636 -0.29449
-0.10936 -0.25379 -0.27419
-0.20411 0.03175 -0.29571
-0.06706 0.30207 0.05135
-0.24121 -0.25379 0.16993
0.20071 -0.25379 -0.15835
0.01847 -0.25379 -0.08652
0.19141 0.30207 0.25274
0.12006 0.30207 -0.20120
0.22740 -0.13581 -0.02241
-0.24551 0.06581 0.01346
0.09342 -0.25379 0.08908
-0.21068 -0.00606 -0.29571
-0.24551 -0.18533 -0.28029
-0.24551 -0.02928 -0.24255
-0.18594 0.05997 -0.29571
-0.03594 -0.05776 -0.29571
0.22740 0.23580 -0.22702
-0.03854 -0.25379 0.05064
-0.24551 -0.18697 -0.08197
-0.24551 -0.02162 -0.04491
-0.24551 0.24800 -0.15083
0.13922 -0.25379 0.28508
-0.24551 0.12906 -0.13928
-0.24551 -0.08985 0.18545
0.19376 0.21705 -0.29571
-0.11387 0.19561 -0.29571
0.00569 0.30207 -0.08783
-0.05709 0.14849 0.29571
-0.00782 0.16503 0.29571
0.05752 0.06990 0.29571
0.23415 -0.01290 -0.14629
-0.06189 -0.25379 0.00356
-0.05735 0.30207 -0.00691
0.22740 -0.19764 -0.17898
0.23125 0.29346 0.05679
-0.24155 -0.26939 -0.29571
0.22740 0.16743 -0.13953
0.13664 0.30207 0.25293
-0.24551 0.04513 -0.27708
0.23415 -0.08726 0.09224
0.23415 -0.16101 0.20747
-0.02298 -0.13156 0.29571
0.02305 0.30207 -0.10769
0.23947 -0.03259 0.03220
-0.24551 -0.00644 0.09998
-0.24551 -0.02259 -0.14319
-0.24551 -0.19274 -0.04927
-0.24551 0.06812 -0.13462
0.08469 -0.02058 0.29571
0.16758 -0.03500 -0.29571
0.21315 -0.24443 0.18928
0.09308 -0.25379 0.22960
-0.05548 0.25497 -0.29571
0.01674 0.07996 -0.29571
0.21790 -0.20551 0.03843
-0.02344 0.30207 -0.07957
0.15391 0.23697 0.29571
-0.21795 0.25999 -0.29571
-0.05691 0.12215 0.29571
0.21315 -0.23966 -0.08141
-0.20013 0.19685 0.29571
