ply
format ascii 1.0
comment VCGLIB generated
element vertex 1879
property float x
property float y
property float z
element face 0
property list uchar int vertex_indices
end_header
0.00185 0.26883 -0.25614
0.00001 -0.14895 -0.24218
0.16474 0.23287 -0.17685
0.15129 0.24650 -0.35964
-0.19975 0.17720 -0.32625
-0.17598 0.26883 -0.17638
-0.12417 0.23287 -0.07429
-0.06024 -0.12797 0.24097
-0.18088 -0.12797 0.09924
0.21380 0.11529 -0.19138
-0.17978 -0.14895 -0.09310
-0.21588 0.26851 0.26378
-0.21998 0.24202 0.07308
-0.20479 -0.13984 -0.33057
-0.17916 0.23287 0.06924
-0.19923 -0.20940 -0.32605
-0.00317 0.23287 -0.28339
0.02214 -0.12797 -0.29943
0.18080 0.03648 -0.34676
-0.21998 0.25526 -0.08625
-0.14999 0.23287 0.28300
-0.05834 -0.12797 -0.17473
0.03634 -0.12797 -0.22365
0.12139 -0.14895 -0.16138
-0.13832 -0.12797 0.03458
0.14796 -0.12797 0.05540
0.04550 0.23287 -0.20602
0.01868 0.23287 0.15642
-0.19158 -0.05994 0.34492
0.09520 0.26883 0.25363
-0.01944 -0.12797 -0.33566
-0.20919 0.19952 0.31831
-0.04405 0.23287 -0.17194
-0.01094 0.26883 -0.23424
0.19960 0.24193 -0.03691
0.07393 -0.14895 -0.23049
0.04925 0.23287 -0.17561
-0.21998 0.23306 -0.05233
-0.02332 0.23287 0.26578
-0.13302 -0.12797 -0.30619
0.05813 0.26883 0.17829
0.17819 -0.26385 -0.33102
-0.01508 0.23287 -0.17707
0.09950 0.26883 0.35923
-0.09307 0.23287 -0.32129
-0.19995 -0.02387 0.34438
0.09069 -0.12797 -0.26861
0.04366 0.26883 -0.06573
-0.20638 0.14396 -0.33727
-0.19029 -0.14895 0.27066
-0.06100 -0.14895 -0.05957
0.16583 0.09152 -0.33142
-0.00115 0.26883 -0.20851
0.20433 0.11068 0.32035
-0.17100 -0.12797 -0.07524
-0.20543 0.26883 0.18998
0.10027 -0.14895 -0.32580
0.01507 -0.14895 -0.10665
0.19886 0.26571 0.21899
0.04478 0.23287 -0.21516
0.08041 -0.13989 -0.33656
-0.12900 0.26883 0.35567
0.19579 0.26841 -0.06687
-0.11494 -0.12797 -0.21056
-0.16222 0.23287 0.07565
-0.20430 0.07684 0.34073
0.03964 0.26883 -0.22340
0.15779 0.26883 -0.02942
-0.16607 0.23287 0.13311
0.17592 -0.14824 0.31156
0.08753 0.23287 -0.15050
0.14628 -0.12797 0.15550
-0.19879 0.26883 0.21894
-0.18635 -0.14666 -0.33656
0.18841 0.23287 0.19620
0.04968 0.26883 0.26002
-0.01876 0.26883 -0.15221
-0.17823 0.21216 -0.35065
0.02757 0.23287 -0.18127
-0.02850 0.26883 -0.23590
-0.06107 -0.12797 0.31253
-0.06641 0.26883 -0.09087
0.19960 0.24126 0.04366
0.16471 0.15710 0.33282
-0.19315 0.02541 -0.32544
0.18589 0.00193 0.32872
0.16597 0.26883 -0.06321
-0.15584 0.26883 0.09928
-0.11570 0.26883 -0.20597
0.10529 -0.14895 0.28908
-0.05657 0.23287 -0.02355
-0.06010 -0.14895 -0.07308
-0.18492 0.09128 -0.33157
0.12874 -0.14895 -0.25523
-0.21261 0.23287 -0.27431
-0.19476 -0.14895 -0.08397
0.14802 -0.14895 -0.26999
-0.15566 -0.14895 -0.25863
0.09246 -0.14895 0.18150
0.20389 0.12534 -0.27095
-0.05166 -0.14895 -0.15885
-0.07127 0.26883 -0.23538
0.17592 -0.14267 0.11242
0.13753 -0.14895 0.14845
0.20050 0.11335 -0.16639
-0.11319 0.26883 -0.23192
0.18666 0.10594 -0.33298
-0.16565 -0.12797 0.19999
-0.01075 -0.12797 0.09144
0.16015 0.22025 0.34825
-0.13020 0.23287 0.26266
-0.00819 0.23287 0.26292
0.02870 -0.12797 -0.30851
-0.04682 0.23287 -0.13059
0.16262 0.23287 0.34850
-0.06503 -0.14895 0.10627
0.21106 0.12442 -0.12019
0.08155 -0.12797 0.28703
-0.21396 0.23287 -0.00473
0.16179 -0.12797 -0.26271
0.15008 -0.14895 0.13487
-0.15674 0.26883 -0.28326
0.07849 -0.14895 -0.17317
0.08077 -0.14895 0.15928
-0.00743 -0.12797 -0.08614
-0.21998 0.24248 0.19846
-0.17832 0.23287 0.01221
-0.08590 0.25178 -0.35964
-0.03190 0.26883 -0.16465
-0.20569 -0.14522 -0.34050
0.03836 -0.12797 -0.23501
-0.20897 0.26883 0.34679
-0.17158 0.26883 -0.32235
-0.02375 -0.12797 -0.32172
-0.04360 0.26883 -0.14762
-0.17929 0.26883 -0.22851
0.04093 -0.14895 -0.27123
-0.06717 0.23287 -0.19784
0.17592 -0.13243 -0.24823
-0.16215 0.26883 -0.09054
-0.08354 -0.14895 -0.03502
-0.01968 0.26883 0.17518
0.13188 -0.12797 0.28151
0.20368 0.11095 -0.18072
-0.08150 0.26883 -0.27625
-0.03747 -0.14895 -0.03482
-0.20452 0.23287 -0.33487
0.02313 -0.14895 -0.18957
-0.04565 0.23287 -0.03289
-0.06134 0.26883 0.31294
-0.17429 -0.14895 0.02241
0.12225 -0.14895 0.18652
0.11587 0.26883 -0.09876
-0.14150 -0.12797 0.27913
-0.03075 -0.14895 0.29083
0.04754 0.26883 -0.29059
-0.14348 0.23287 0.10667
0.17152 -0.12797 -0.17539
0.06999 -0.12797 0.14468
-0.08013 -0.12797 0.23845
0.05366 -0.14895 -0.06196
-0.19337 0.22729 0.32300
-0.15232 0.23287 0.30196
0.06122 0.23287 -0.31619
0.05180 0.26883 0.08173
0.07436 -0.14895 0.05319
-0.05518 0.23287 0.20819
0.05144 -0.12797 -0.09384
-0.10425 -0.12797 0.26674
-0.00560 0.26883 -0.34236
0.19001 0.21772 0.32587
-0.18597 -0.13190 -0.32993
-0.19510 -0.14375 -0.16744
-0.06682 -0.12797 0.10487
0.20264 0.11140 0.27223
0.10653 -0.12797 -0.28790
0.03887 0.23287 0.32240
0.01780 -0.12797 0.24855
-0.14766 0.26883 0.17719
0.07566 0.26883 0.02186
-0.21973 0.26451 -0.04528
0.07366 0.26883 0.15781
0.14164 -0.12797 -0.07826
-0.18722 -0.02055 -0.32843
0.04174 0.23287 0.20973
-0.16811 -0.12797 0.26812
-0.15085 -0.12797 0.25400
-0.07618 -0.12797 0.20318
-0.21998 0.25662 0.00300
-0.07428 -0.14895 0.04099
-0.07273 0.26459 0.35964
0.14389 0.26341 0.35964
0.16149 0.23287 0.17427
0.18355 0.26883 0.31437
0.19013 0.23287 0.24565
-0.16622 -0.14895 -0.09481
-0.12294 0.26883 -0.05092
-0.09826 0.24231 0.35964
-0.15680 0.23287 -0.29916
-0.19111 0.08405 -0.34712
-0.07328 -0.13667 -0.33656
-0.02113 0.26883 0.24463
-0.09262 -0.12797 0.00132
-0.00786 0.23287 0.18357
0.16193 0.26883 -0.14904
-0.08359 -0.12797 -0.14497
-0.02116 0.23287 -0.05506
0.06644 -0.14895 -0.19748
-0.00787 -0.12797 -0.26743
-0.14238 -0.12797 0.03981
0.01107 -0.12797 0.21954
-0.19510 -0.14459 0.20410
0.16582 -0.12797 -0.12289
0.15382 -0.14895 -0.33380
0.19960 0.25483 -0.08739
-0.11151 0.23287 0.07802
-0.01188 -0.14895 -0.04161
-0.10109 0.26883 0.11963
0.15050 0.26883 0.03565
-0.09043 -0.14895 -0.00664
0.00998 -0.14895 0.17433
0.12394 -0.14895 0.28360
0.00941 0.26883 0.15488
0.12087 0.23287 -0.34919
0.08695 0.25861 -0.35964
0.09672 -0.12797 -0.24441
0.00953 0.23287 0.11426
-0.20919 0.22888 -0.30620
0.18695 0.06621 -0.33927
0.19960 0.24706 -0.18836
0.16361 0.23287 0.21144
-0.14577 -0.12797 0.03149
-0.05454 0.23287 -0.32388
0.10593 -0.12797 0.21104
-0.19644 0.05328 0.32295
-0.10184 0.23287 0.06303
-0.19510 -0.13299 0.31443
-0.06111 0.26883 -0.20304
-0.20105 -0.16433 -0.32693
0.16128 -0.14872 0.33416
-0.18942 0.10323 0.34403
0.06255 0.26883 -0.17546
0.14615 -0.14895 -0.04184
0.05723 0.23287 0.08171
0.10629 0.26883 0.11096
-0.08547 0.23287 0.22163
-0.07696 -0.12797 -0.19507
0.02693 0.26883 0.27350
-0.20296 -0.19553 0.34237
0.00965 -0.12797 -0.02753
0.16973 0.23287 -0.28157
0.16823 -0.00503 0.34249
0.13985 -0.14895 0.27039
-0.18813 -0.14895 -0.27500
-0.20919 0.20308 0.31176
-0.00520 0.26883 0.30687
-0.13182 0.26883 -0.03011
0.06346 -0.14895 -0.05346
0.15217 -0.12797 -0.08209
0.18145 0.23287 -0.21578
0.08187 0.23287 0.22015
-0.06568 -0.14895 0.04684
0.06469 -0.12797 -0.10283
-0.14691 -0.12797 -0.08034
0.16459 -0.20228 -0.33697
-0.19842 0.26883 0.22573
-0.11271 -0.12797 -0.19187
0.07422 -0.12797 0.12282
-0.08073 -0.12797 0.04843
-0.03585 -0.12797 0.29452
-0.19410 0.17107 -0.34781
0.12297 0.23287 0.26691
0.17004 0.15135 0.32445
0.09552 0.23287 0.26063
-0.21288 0.23287 -0.19664
-0.14713 -0.12797 0.04742
0.20104 0.11266 0.14895
-0.18968 -0.11517 0.34414
-0.19708 0.00587 -0.32541
-0.19045 -0.14895 -0.16126
0.13413 -0.12797 -0.26927
0.13814 0.23287 -0.22180
-0.17434 0.23287 -0.09900
-0.19933 0.02905 0.34463
-0.03843 -0.14895 -0.14455
0.10597 -0.14895 -0.24883
-0.20591 0.10875 0.33075
0.02501 0.26883 0.15456
-0.04955 -0.14895 0.13315
-0.14560 0.26883 -0.17938
0.19343 0.25186 -0.35964
0.18420 0.02410 -0.34432
0.07657 0.26883 -0.21442
0.19009 0.23287 -0.12744
0.06982 0.26883 0.12968
0.15150 -0.14895 0.17341
-0.06874 -0.14895 0.26262
-0.19360 -0.12797 0.03606
-0.16912 0.26883 -0.23122
0.00030 -0.14895 0.08723
0.12808 0.26883 -0.30064
0.13104 -0.12797 -0.14334
-0.13654 0.26883 0.18333
0.02824 -0.14895 -0.15244
0.10880 -0.12797 -0.04651
-0.08385 -0.12797 -0.09236
-0.00313 0.26883 -0.35613
-0.19510 -0.13278 -0.09763
-0.14254 -0.12797 0.14713
0.02724 -0.14895 -0.24172
-0.11502 0.26883 0.19648
0.18045 0.20331 0.34451
0.01410 -0.14895 -0.14660
0.05319 0.23287 -0.35307
0.17883 0.03489 0.34517
-0.16092 0.23775 -0.35964
-0.18491 0.26883 -0.00228
0.00847 -0.12797 -0.18460
0.18306 -0.25217 0.33166
-0.05869 0.23287 0.12810
0.08397 -0.14895 -0.02814
-0.15286 -0.12797 -0.13525
-0.11644 -0.14895 -0.04755
-0.16266 -0.12797 0.17320
0.09992 -0.12797 0.26343
-0.09518 0.26883 0.09397
0.08736 0.23287 0.20235
-0.14808 0.26883 -0.10709
-0.18749 0.04889 -0.32821
-0.08840 0.26883 0.31069
-0.15497 -0.14895 -0.18597
0.07047 -0.12797 -0.27522
0.17847 0.23287 0.14680
0.06477 0.26883 0.11705
0.21216 0.12355 -0.31319
0.08889 -0.12797 0.23774
-0.02484 0.23287 -0.33709
0.11766 0.26883 0.22380
0.19931 0.26465 0.05497
-0.09297 -0.14895 -0.26827
-0.09794 -0.14895 0.02056
-0.11650 0.26883 -0.21361
0.17724 0.15990 0.32295
0.02231 0.23287 -0.01394
-0.05095 0.23287 0.13790
0.18185 0.25209 0.35964
-0.05691 0.26883 -0.26767
-0.02981 -0.14895 0.05250
0.01788 -0.14895 -0.15272
-0.19510 -0.13827 -0.04335
0.14301 0.23287 -0.18103
0.16926 -0.25706 -0.33461
-0.05199 0.23287 -0.16516
0.02015 -0.14895 0.07604
0.06195 -0.14895 0.25471
0.11600 -0.12797 -0.20022
0.19898 0.26547 -0.18759
-0.18693 0.18194 0.32627
0.17261 -0.14895 0.12334
0.16987 -0.12797 -0.11879
0.02482 0.26883 -0.20460
0.17592 -0.12954 0.10490
0.17374 0.08553 -0.32546
0.06796 0.26883 0.34604
-0.04708 -0.14895 0.17693
-0.03928 0.23287 -0.02917
-0.12171 0.23287 0.06577
-0.16810 -0.12797 -0.16701
-0.21928 0.26562 -0.15097
-0.14810 0.23287 -0.22085
-0.11364 -0.14895 0.09406
0.16576 -0.10406 -0.33159
-0.04995 0.23287 -0.35689
0.11783 0.25701 0.35964
-0.02712 -0.12797 -0.03434
0.01076 0.23287 0.18577
0.19960 0.23919 0.18626
0.11381 -0.12797 -0.21848
0.17277 -0.23961 0.32325
0.02557 -0.14895 -0.14584
0.12562 -0.12797 -0.00656
-0.04426 -0.14895 0.06622
0.02680 -0.12797 -0.23051
-0.13996 0.26883 -0.09039
-0.19696 0.23287 0.29128
0.03774 -0.12797 -0.09535
0.18518 -0.12728 0.32769
0.00033 0.23287 0.00638
-0.20915 0.26883 -0.32898
-0.00419 0.26883 -0.29980
-0.10517 0.23287 -0.28318
-0.10377 0.23287 -0.12710
0.14073 0.26883 0.02751
-0.06879 -0.14895 -0.09840
0.09504 -0.14895 -0.03336
0.07908 0.26883 -0.20166
0.14274 -0.14895 0.25506
-0.15871 0.26883 0.00187
0.17462 0.23287 0.00612
0.12393 -0.12797 -0.27421
-0.18372 0.04892 0.33419
0.08447 -0.12797 0.25694
-0.03129 0.26883 0.32030
-0.18434 -0.22267 -0.33311
0.11654 -0.12797 -0.06888
0.05677 0.23287 -0.09340
-0.21998 0.25732 0.09131
-0.07512 0.26883 -0.24881
0.09190 -0.14895 -0.07596
-0.13398 -0.14895 -0.14289
0.05552 0.23287 0.02808
-0.01797 0.23287 0.20270
0.16001 -0.14895 -0.25693
-0.14978 -0.12797 -0.08536
-0.07605 0.26883 -0.34338
-0.00601 0.23287 0.09798
0.16876 0.15290 0.34290
0.10394 0.26883 -0.16297
0.00877 -0.12797 0.10679
-0.09122 -0.12797 0.32736
-0.21998 0.24582 0.02317
-0.08039 0.23287 0.27782
0.14636 0.26883 0.35264
0.10501 0.26883 0.32842
0.07539 -0.14895 -0.26181
-0.19128 -0.25843 0.33970
-0.16491 -0.14895 -0.31017
0.04775 -0.14895 0.20748
-0.02459 -0.14895 0.20999
0.02854 -0.14895 0.05109
0.20858 0.12563 -0.02532
0.16482 0.00134 0.33200
-0.19510 -0.14583 -0.16249
-0.18624 0.23287 -0.03469
-0.17277 -0.14895 -0.05066
-0.18499 0.03758 0.33925
-0.00858 0.23287 -0.34729
0.14174 -0.12797 0.30636
0.00283 0.26883 0.32024
0.08890 -0.14895 -0.20129
0.10226 0.26883 -0.03624
0.10226 -0.14895 0.08182
-0.16580 0.26883 -0.18297
0.19960 0.23324 0.29570
-0.09216 0.26883 -0.14363
-0.18964 -0.14895 0.16502
0.15452 -0.14895 -0.06765
-0.03016 0.23287 -0.28131
0.16714 -0.23780 -0.32946
-0.13040 0.23287 -0.22338
-0.19479 0.26883 -0.09743
0.10698 -0.14895 0.04274
0.08144 0.26883 -0.33466
0.11604 -0.14895 -0.13235
0.00836 -0.14895 0.04823
0.10084 -0.14895 0.17308
-0.05252 0.26883 -0.18273
-0.19521 0.24002 0.35964
0.17667 0.23287 -0.01712
-0.02243 0.23287 -0.14065
0.12445 0.26883 0.13074
-0.21998 0.23707 0.30976
0.19960 0.24838 0.26096
0.16898 -0.13064 0.33416
0.13294 0.23287 -0.27189
-0.01495 0.26883 -0.11232
-0.20043 0.26883 -0.35220
0.06517 -0.14895 -0.23039
0.16610 -0.05563 -0.34231
0.00494 -0.12797 0.02532
-0.13249 0.23287 0.34518
-0.12188 -0.14895 0.13808
-0.16269 -0.14895 -0.00220
0.11680 0.23287 -0.07009
0.07023 -0.14895 0.15052
-0.02035 -0.12797 -0.22822
0.16621 -0.12797 0.08943
-0.00682 -0.12797 0.16538
0.05129 -0.12797 -0.31955
-0.14397 -0.14895 -0.18199
-0.19218 0.23287 0.11895
0.18716 0.23287 -0.04613
0.07278 -0.12797 -0.04128
-0.03389 -0.12797 -0.22456
-0.21942 0.26534 0.27671
-0.13512 0.23287 -0.17464
-0.18482 0.12711 0.32949
-0.03198 0.23287 0.13315
0.04878 -0.12797 -0.32466
0.19956 0.26347 -0.16997
0.19960 0.25212 0.24915
-0.03870 0.23287 0.35665
0.16227 -0.14895 0.31998
-0.07573 0.23287 -0.17391
-0.05579 0.26883 0.05991
-0.19365 -0.24586 -0.32536
-0.20613 0.22778 0.33140
-0.17813 0.23287 -0.04637
-0.01779 0.23287 0.10803
0.19001 0.19054 -0.32793
-0.15820 0.23287 0.07220
0.19960 0.24568 0.20248
0.11796 -0.14895 -0.08875
0.12549 0.26883 -0.04515
0.16462 0.26883 -0.00260
-0.18384 0.06865 -0.33576
0.12400 0.26883 -0.06471
0.02543 0.26883 0.30963
-0.06953 0.26883 0.13052
-0.01319 0.26883 0.05665
-0.15061 -0.12797 0.19236
-0.16842 0.23287 0.33211
-0.03721 -0.12797 0.21997
-0.12772 -0.12797 0.16365
-0.19510 -0.14323 0.29936
-0.14276 0.26547 -0.35964
0.13736 -0.14895 0.23958
-0.19133 0.26883 -0.25114
-0.18627 -0.12797 -0.19944
0.19960 0.26054 0.24214
0.12101 -0.14895 -0.03343
-0.08756 0.23287 0.10441
-0.12667 -0.14895 0.15965
-0.19239 -0.13564 0.32313
-0.06970 0.23287 0.10853
0.19960 0.23435 0.32134
0.00751 -0.14895 -0.19060
-0.07872 -0.12797 0.03340
-0.19245 -0.12797 0.17044
-0.08257 0.26883 0.20847
0.16587 0.10313 0.32893
0.19539 0.23287 0.25415
-0.01350 -0.12797 -0.04539
0.00868 -0.12797 0.06254
0.02323 -0.14895 -0.22159
0.19278 0.26883 0.09471
0.16970 0.23287 -0.09932
-0.17557 -0.14895 0.28867
0.12162 -0.12797 0.28703
0.10313 0.26883 0.14802
0.02071 0.26883 -0.08326
-0.11675 -0.14895 -0.03552
-0.09094 0.23287 -0.06233
0.02170 0.26883 -0.11059
0.16185 -0.14895 0.30362
-0.19611 0.26883 0.15847
0.06765 0.23287 0.18075
0.09213 -0.12797 -0.30699
-0.19819 0.23287 -0.34660
-0.17553 0.23287 0.24482
0.09930 -0.14895 0.31242
-0.05629 0.23287 0.33660
-0.06248 0.26883 0.15811
-0.05433 -0.12797 0.06636
0.09991 -0.14895 -0.17810
0.17855 0.23287 0.03379
0.09159 0.26883 0.28524
0.03132 -0.14895 0.25462
0.13064 -0.12797 -0.33141
0.12756 0.23559 0.35964
0.18646 -0.21209 0.33822
-0.17503 -0.14895 0.29420
0.13514 0.24388 0.35964
0.15687 0.23287 -0.31572
0.15532 0.26883 0.02945
0.01855 0.23287 0.34411
-0.21659 0.23287 -0.04513
0.02049 0.23287 0.08672
-0.04625 0.26883 0.34986
-0.18478 0.23070 -0.35065
-0.10236 -0.12797 0.29157
-0.05684 0.23287 -0.17648
-0.17316 -0.14895 0.21435
-0.20287 0.25186 0.35964
-0.17961 0.23287 0.06027
0.19751 0.23287 -0.35916
0.04604 0.23287 -0.19521
0.16929 -0.06534 -0.32742
-0.07119 0.26883 0.09437
0.06134 -0.12797 0.11612
-0.15706 -0.12797 -0.14196
-0.19510 -0.14084 0.05379
-0.11032 -0.12797 0.09891
-0.18984 0.22964 -0.32655
-0.16053 0.26883 -0.16405
-0.03085 0.26883 -0.09562
-0.16642 -0.14895 -0.07189
-0.14625 0.23287 -0.01473
-0.12813 -0.12797 0.16898
0.04632 0.26883 0.09062
0.06864 0.26883 0.21268
0.11285 -0.12797 -0.06333
0.11389 0.26883 -0.01998
0.11275 0.23287 -0.04344
-0.19510 -0.14280 0.07213
0.10451 0.23287 0.28952
-0.07629 0.26883 -0.28273
0.14596 0.22093 -0.35065
0.17592 -0.13307 0.01307
-0.21998 0.25823 -0.29019
-0.12926 -0.12797 0.05570
-0.10427 -0.14895 -0.05125
0.16459 0.12538 -0.33616
-0.19510 -0.14457 -0.29352
-0.18924 0.23287 -0.33919
0.03126 -0.14895 -0.13524
0.18691 -0.22794 0.33118
-0.14376 0.23287 -0.03299
0.01351 -0.12797 -0.20738
0.19362 0.26883 -0.11037
0.07540 0.26883 0.27624
0.08397 -0.12797 -0.28341
0.12468 -0.12797 -0.12575
0.10831 -0.12797 0.11722
0.19960 0.24591 0.06049
0.00643 -0.14895 -0.32777
-0.17319 0.23287 -0.07563
-0.00057 -0.12797 -0.29096
-0.08787 -0.12797 0.23010
-0.00838 0.26883 0.24678
-0.11713 0.26883 0.20222
0.12537 -0.14895 0.15583
-0.05904 -0.14895 -0.02125
0.13677 -0.12797 -0.12971
-0.19368 -0.11186 0.32296
-0.12629 0.23287 -0.10883
0.16320 0.26883 0.10014
0.05480 -0.12797 0.07022
-0.15587 0.23287 0.25287
-0.21998 0.25699 -0.32850
0.17435 -0.14895 0.15167
-0.19177 -0.12797 0.30922
0.15212 -0.12797 0.29337
0.01191 0.26883 0.26834
0.02447 -0.14895 -0.30839
-0.00800 0.23287 -0.28867
-0.06874 -0.12797 0.15836
-0.11960 -0.14895 0.16816
-0.08246 0.23287 0.21175
0.06967 0.26883 0.35558
-0.14636 -0.14895 0.19260
0.13749 -0.12797 -0.17296
-0.12849 0.23287 0.11694
-0.18327 0.23287 0.29897
-0.07866 -0.14895 0.06275
0.09279 -0.12797 -0.29185
0.15068 -0.14895 -0.25622
-0.01237 -0.12797 -0.30560
-0.19114 0.20440 0.34825
0.10011 0.26883 -0.20338
0.04762 -0.14895 0.12325
-0.21587 0.26851 0.23967
-0.14606 -0.14895 0.15102
0.11451 0.26883 0.29042
0.20177 0.11207 -0.06836
0.21235 0.11290 -0.33523
0.02352 0.26883 -0.07796
-0.15326 0.26883 -0.13427
0.18322 0.14263 -0.34519
0.19694 0.23287 0.20609
0.01850 -0.13187 0.33416
-0.04493 0.23287 -0.20026
-0.04687 0.26883 0.03533
-0.18579 0.21968 0.32775
0.19960 0.24630 0.31530
0.11162 -0.14895 -0.12144
0.19977 0.11440 0.03023
0.07059 0.26883 -0.02785
0.17592 -0.14512 -0.14638
0.16550 -0.18303 -0.34091
-0.19276 -0.16212 -0.32550
-0.11393 0.24500 -0.35964
0.10888 0.26883 0.14440
-0.19127 -0.24258 -0.34718
0.07280 0.23287 -0.21277
-0.09471 0.26883 -0.19759
0.19960 0.25613 -0.33390
0.17592 -0.14301 0.21347
-0.20538 0.11108 0.33887
-0.04231 -0.12797 -0.16947
0.21377 0.11523 -0.02210
-0.08494 -0.14895 0.20104
0.18398 -0.24665 -0.33238
-0.13436 -0.14895 -0.18173
0.20613 0.12583 0.04247
0.17105 0.26883 0.17725
0.18200 0.26883 -0.26813
0.16305 -0.14895 -0.10011
0.04848 -0.14895 -0.08153
-0.02109 -0.13336 0.33416
-0.16038 -0.14895 -0.14180
-0.13021 0.23287 -0.07395
0.13793 0.23287 -0.25741
-0.03510 -0.12797 -0.15618
-0.18799 -0.24665 0.33997
-0.19415 0.01864 -0.34781
-0.12223 -0.14895 -0.26087
0.11220 0.23287 -0.01346
0.15390 0.23287 0.02963
0.10734 -0.12797 -0.02799
-0.10671 0.23287 0.09059
-0.11359 0.23287 0.18255
-0.00935 -0.14895 0.03237
-0.09215 -0.14895 -0.30857
-0.07274 0.23287 -0.12464
-0.11041 -0.14895 0.21988
-0.14890 0.26883 0.06980
-0.21031 0.26883 -0.08294
0.18698 0.23287 0.09349
-0.14893 0.23287 -0.04504
-0.21998 0.24248 0.14752
0.17592 -0.13467 0.17686
0.19960 0.25415 0.08753
0.15078 0.23287 -0.03409
-0.17746 -0.12797 -0.17199
0.06432 0.23287 -0.14947
-0.16686 -0.12797 -0.26555
-0.17669 -0.12797 -0.12696
-0.10340 -0.14895 -0.12397
-0.15693 0.26883 0.15892
-0.10808 -0.12797 0.25965
-0.18409 0.10068 0.33704
0.03382 -0.12797 0.04753
-0.18576 0.26883 -0.09524
0.17312 -0.14850 -0.33656
-0.01029 -0.14895 -0.18128
0.17961 0.23287 -0.28954
-0.12024 0.23287 0.34249
-0.18382 -0.10202 0.33338
-0.07323 -0.14895 -0.07689
0.08373 0.23287 -0.25056
-0.02825 -0.12797 0.14788
0.00007 -0.12797 0.20928
-0.18412 0.23287 0.01759
-0.03459 0.23287 -0.01001
-0.11817 0.26883 -0.13780
-0.15284 -0.14895 0.20893
0.03612 0.26883 0.27276
-0.19308 0.26883 -0.24146
-0.09153 0.23287 0.32400
-0.01145 -0.14895 0.26692
-0.05031 -0.14895 -0.16818
-0.18089 -0.14895 0.27344
-0.19224 0.23287 0.14653
0.13199 0.24167 -0.35964
0.01774 -0.14895 -0.07028
-0.05202 0.23287 -0.24564
-0.01618 0.26883 0.20946
0.04211 0.23287 -0.17516
-0.01882 -0.12797 0.28839
0.04820 0.26883 0.27272
0.19960 0.24996 0.01308
-0.19297 0.26883 -0.32629
-0.15057 0.23287 0.22645
-0.06337 0.26883 0.02550
0.04212 0.23287 0.32764
0.06244 -0.14895 -0.04612
-0.14534 0.26883 0.31157
-0.15344 0.26883 -0.25211
0.11413 -0.14895 -0.28939
-0.01685 0.26883 -0.20279
-0.05110 0.23287 -0.11856
0.05061 0.23287 0.35117
0.11322 0.23287 0.23125
-0.20022 0.23287 -0.32473
0.10814 -0.12797 -0.14818
0.16861 0.12237 -0.34518
-0.06881 -0.12797 0.27019
-0.08017 -0.12797 0.16223
-0.11765 0.26883 0.13051
-0.06757 -0.12797 0.04078
-0.07895 0.26883 0.34638
0.19840 0.23287 -0.07069
0.06608 0.26883 -0.12132
0.13770 0.23287 0.01740
-0.11707 -0.12797 0.01108
-0.01495 -0.14895 0.12443
-0.11911 0.23287 0.32897
-0.10138 -0.12797 -0.00349
0.18218 0.22613 -0.32713
0.16532 -0.12797 0.21213
0.21109 0.11181 0.22135
-0.10928 -0.14895 0.29472
0.20348 0.11103 -0.03934
-0.11349 0.26883 -0.35748
-0.06115 -0.14895 0.16885
0.13270 -0.12797 -0.28705
0.06891 -0.12797 -0.18203
-0.09609 -0.14895 0.12553
0.04342 0.26883 -0.29758
0.02702 0.26883 0.12825
0.01419 -0.12797 -0.24263
-0.07824 0.23287 0.22315
0.12668 0.26883 0.11148
0.13468 -0.14895 0.24694
0.00034 -0.12797 0.19952
-0.00299 0.23287 0.33136
-0.04283 -0.14895 -0.11139
-0.13856 -0.14895 -0.09237
-0.18512 -0.02066 -0.34188
0.02302 -0.12797 0.14210
0.07849 0.26883 0.17911
0.15646 0.22571 -0.35065
0.17354 0.26883 -0.35627
-0.13769 0.23287 0.02593
-0.05184 0.23287 0.08004
-0.13457 0.23287 0.00363
0.09092 0.23287 -0.34286
0.04115 -0.12797 0.26202
-0.09448 0.26883 0.07501
-0.10298 0.26883 -0.08615
-0.01688 0.26883 0.06052
0.10188 -0.14895 0.07004
-0.17071 0.22624 0.34825
0.04241 -0.14895 -0.26219
-0.05605 -0.12797 0.30686
-0.01349 0.26883 0.00287
-0.19510 -0.14598 0.11478
-0.18745 -0.14895 -0.08853
0.19960 0.25401 -0.14767
-0.20284 0.23287 0.09961
0.03788 -0.14895 0.01475
-0.20861 0.26883 0.11739
-0.17628 -0.14895 -0.28440
0.11537 0.26883 0.01978
0.13615 -0.14895 -0.05502
-0.04906 0.26883 0.19999
-0.10748 0.26883 -0.35888
0.16059 -0.14895 -0.01917
0.18654 0.05253 0.33029
-0.16176 -0.14895 0.19202
-0.21998 0.25766 -0.23850
-0.11795 -0.14895 -0.31532
-0.13224 0.23287 0.26829
0.17592 -0.14197 -0.28151
0.01068 -0.14895 -0.02033
-0.10633 0.23287 0.25236
0.14125 0.23287 0.01005
-0.20354 0.23287 0.01164
-0.02681 -0.12797 0.01140
0.01969 -0.14895 0.01994
-0.07019 0.26883 -0.07645
0.16579 -0.09413 0.33920
-0.01144 0.23287 -0.12960
0.17611 0.26883 -0.09804
-0.06992 0.26883 -0.03919
0.14712 -0.12797 0.17331
-0.03224 0.26883 0.34576
-0.14153 -0.12797 -0.00334
0.01375 -0.12797 0.31755
-0.04816 0.26883 0.02778
0.18710 -0.14873 0.33574
0.07544 -0.14895 -0.04045
0.20170 0.10922 -0.33181
-0.20622 -0.10036 -0.33461
-0.20530 0.07666 -0.34152
-0.12619 -0.14895 0.31216
0.11636 -0.12797 0.26311
-0.04034 0.26883 0.20651
-0.17478 0.26883 -0.30940
0.17068 0.20778 -0.32651
-0.00001 0.26883 0.29473
0.15470 -0.12797 -0.30199
0.02082 0.26883 -0.23626
-0.18134 -0.14895 -0.22024
-0.04130 0.26883 0.17269
-0.20607 0.11660 -0.33947
-0.11350 -0.12797 0.13080
0.17592 -0.12939 -0.33405
0.12061 -0.12797 -0.05409
0.11747 -0.14895 -0.32078
0.16613 -0.03656 0.33994
0.14822 -0.12797 0.22715
-0.20919 0.21152 0.33611
0.03115 0.26883 0.07477
0.17592 -0.14711 -0.20900
-0.14683 -0.12797 -0.26834
-0.20323 0.18508 -0.32866
0.17025 0.10820 0.32429
-0.13987 0.26883 0.23297
0.17191 -0.12921 -0.32600
0.18605 0.23287 0.04434
-0.21998 0.26145 0.22065
0.00960 -0.14895 0.30198
-0.05103 -0.14895 -0.02732
-0.13835 0.23287 0.06374
0.17683 0.00378 -0.32529
-0.21956 0.26503 -0.20480
0.17269 0.23287 -0.26799
-0.06718 -0.14895 -0.29883
0.03397 -0.14895 -0.08324
0.17592 -0.14747 -0.32068
-0.12757 0.23287 0.09495
0.21428 0.11897 0.19647
-0.12310 0.23287 -0.31070
-0.09920 0.23287 0.17154
-0.10722 0.26883 -0.16060
-0.03461 0.23287 -0.15315
0.04791 0.26883 0.10416
-0.21998 0.24159 -0.31007
0.03776 0.26866 0.35964
0.17034 0.26883 -0.10582
-0.18919 -0.05101 0.32447
0.03234 0.26883 0.08851
0.03103 0.26883 0.02305
-0.03577 0.26883 -0.06324
0.18035 0.26883 0.32103
-0.01437 -0.12797 0.01588
-0.20160 0.26883 0.02818
-0.19167 -0.23505 -0.32572
-0.20741 0.21837 -0.35065
-0.07898 -0.12797 -0.12218
0.03224 0.26883 0.34913
0.13371 -0.12797 0.27070
0.16526 -0.12797 0.06507
-0.03571 -0.14895 -0.32800
0.13750 -0.14895 -0.20056
0.10284 -0.14895 -0.20339
-0.07020 0.23287 -0.17042
-0.00524 -0.12797 -0.11973
-0.17217 0.26883 0.03171
-0.12494 0.23287 0.33107
-0.01032 -0.12797 -0.02130
0.17513 -0.19961 0.32288
0.06371 -0.12797 0.01105
0.03884 -0.12797 -0.31715
0.09916 -0.12797 0.01756
-0.01589 -0.14895 -0.16651
0.10506 -0.12797 -0.26497
0.10703 0.26883 0.32163
-0.20648 0.13458 0.33404
-0.07924 0.23287 0.14658
-0.09008 0.23287 -0.13046
-0.02976 0.26883 0.03418
0.09464 0.23287 -0.00263
0.02887 0.23287 0.21168
-0.04871 -0.12797 -0.20123
0.01990 -0.14895 0.16954
0.16033 0.23287 -0.32985
0.15233 -0.14895 0.14126
-0.09684 0.26883 -0.00690
-0.19642 -0.05562 0.34538
-0.05805 0.26883 -0.10610
0.18924 0.26883 -0.17635
-0.08651 -0.12797 -0.05233
0.08118 0.23287 -0.15734
-0.08555 0.26876 0.35964
-0.07886 -0.14895 0.27132
0.06628 -0.14895 -0.23657
-0.21998 0.25679 0.20070
-0.00175 -0.12797 -0.10239
0.17599 0.23287 0.15206
-0.02258 -0.14895 -0.15834
0.15765 0.26883 -0.22584
-0.01463 0.23287 -0.11559
-0.12671 0.23287 0.16776
-0.00592 0.23287 0.17829
-0.17923 -0.14895 0.05406
0.06023 -0.14177 -0.33656
0.06247 0.23552 0.35964
0.01747 -0.12797 0.16948
0.17592 -0.14615 0.11708
0.02049 0.23287 -0.27294
-0.00562 0.26883 0.28587
-0.06127 0.26883 -0.28615
-0.07014 -0.14895 0.25069
0.09102 -0.14895 0.31605
-0.16500 -0.14895 -0.10804
0.17219 -0.12797 -0.12635
-0.06015 -0.12797 -0.19855
0.13329 0.23287 0.35783
0.09313 -0.14895 0.23069
0.05464 0.26883 -0.14940
-0.13816 -0.14895 0.33017
-0.03196 0.23287 -0.23918
-0.21998 0.24413 0.04044
0.06119 0.26883 0.00073
0.09166 -0.14895 0.00596
-0.16268 0.26883 0.03423
0.17446 0.26883 0.16362
-0.12760 0.26883 0.31897
-0.20647 0.07975 0.33435
0.09896 0.26883 0.00203
0.18729 0.03187 -0.33640
-0.00799 -0.12797 -0.26198
0.16897 0.00057 0.32527
0.21416 0.11638 -0.14694
0.05816 -0.12797 -0.16957
0.07881 -0.14895 -0.28035
-0.18385 0.12246 -0.33569
0.10731 0.23287 -0.00055
-0.16610 0.23287 0.03665
0.14242 -0.12797 -0.14163
-0.19355 0.18523 0.32298
-0.07096 0.26883 -0.08650
-0.19510 -0.13643 -0.11902
-0.19020 0.19104 -0.35065
0.02156 -0.12797 0.07562
0.03536 0.26883 0.20230
0.08691 0.23287 0.32904
-0.18606 0.23287 0.07361
0.03668 -0.14895 -0.25279
0.08502 0.23287 -0.03892
-0.01446 0.26883 0.30662
0.13688 0.23287 -0.28302
0.09779 -0.14895 0.13503
-0.18429 0.08560 -0.33325
0.16508 0.26883 -0.03818
-0.17021 0.22701 -0.35065
-0.17775 -0.12797 -0.22316
-0.01860 0.26883 0.09648
-0.18860 -0.05627 -0.32729
0.14095 -0.12797 -0.00521
0.13082 -0.12797 0.04857
0.12630 0.23287 0.23469
-0.09609 -0.12797 0.10504
0.14833 0.23287 0.32563
0.19960 0.23342 -0.26893
-0.19510 -0.13859 -0.15866
0.02313 -0.12797 -0.31586
-0.05903 0.26883 -0.21471
-0.19510 -0.12833 -0.30365
0.17566 0.26883 -0.04509
0.19960 0.25320 -0.35239
-0.21217 0.23287 0.12982
-0.16536 0.23287 -0.32953
0.15628 -0.14895 0.09357
-0.21998 0.23557 0.29091
-0.04992 -0.14895 -0.00715
0.06478 -0.12797 -0.19233
0.04141 0.26883 -0.15428
-0.04225 -0.14895 -0.09373
-0.02847 -0.12797 -0.06180
-0.02648 -0.12797 0.06148
0.12215 0.23287 -0.25939
-0.18192 -0.14895 0.17739
0.09089 -0.14895 0.03348
0.04975 0.26883 0.32224
-0.17913 -0.14895 0.15749
0.11401 0.26883 0.11744
-0.05666 -0.14895 -0.31091
0.04329 0.23287 -0.24623
-0.15818 -0.12797 0.05089
0.17592 -0.13479 -0.31645
-0.05095 -0.12797 0.14175
-0.21125 0.23287 -0.28280
0.10120 -0.14895 -0.21233
0.08980 0.26883 0.34945
-0.03167 -0.12797 0.21818
0.01873 0.23287 0.33501
0.09267 -0.12797 -0.19993
0.17592 -0.13279 -0.17877
0.01680 -0.14895 0.15445
-0.12926 0.23287 -0.12467
0.18618 0.21186 -0.33182
-0.00160 0.26883 -0.17674
-0.20919 0.22482 -0.34782
0.00199 0.26883 0.33041
-0.00793 0.26883 -0.31310
0.18055 -0.07135 -0.34687
0.10409 -0.12797 0.05122
-0.20919 0.19337 -0.31647
0.00974 0.26883 -0.23067
0.10968 0.26883 0.09210
-0.11095 -0.14895 -0.26764
-0.01714 -0.12797 -0.31020
0.05705 0.26883 0.09044
-0.17836 -0.14895 -0.06193
0.17619 -0.14669 -0.34792
-0.03477 -0.12797 -0.31869
0.05262 -0.12797 -0.13696
0.03866 0.26883 0.13907
0.16500 0.23287 0.33135
-0.03553 -0.14895 -0.18000
-0.15698 -0.14895 0.14059
0.19001 0.13179 -0.33529
0.01745 0.26883 -0.16233
0.14068 -0.12797 0.05149
0.02263 0.26883 0.30018
-0.10712 -0.12797 0.09306
0.13202 -0.14895 -0.12650
0.08601 0.26883 0.14153
-0.16554 0.23287 0.28897
-0.04369 0.23287 0.20206
-0.19012 0.26883 0.27294
-0.00533 0.26883 -0.21445
-0.13398 -0.12797 -0.11783
-0.00133 -0.12797 -0.26437
0.09296 0.23287 0.10873
0.03849 0.23287 -0.33902
0.06242 -0.12797 -0.21957
0.07316 0.23287 -0.13696
-0.12347 -0.12797 0.26529
0.07908 0.23287 0.08798
-0.21628 0.26837 0.32336
-0.20428 0.26883 -0.17997
0.14941 0.23287 0.25091
0.06609 -0.12797 -0.04856
-0.10065 0.23714 0.35964
0.07898 0.23287 -0.04522
-0.12032 0.23287 0.35796
0.00508 -0.14895 -0.11299
-0.16357 0.23287 -0.08670
0.00842 0.23287 -0.21520
-0.13898 0.26883 0.19651
0.11842 0.26883 -0.17338
-0.10926 -0.12797 -0.00112
-0.04351 -0.12797 -0.28388
0.00406 -0.12797 -0.10256
0.02833 0.23287 0.10795
0.12906 0.26883 0.03339
0.09443 -0.14895 -0.21616
-0.18201 0.21017 0.34825
-0.14964 0.25962 -0.35964
-0.00924 -0.12797 0.12789
0.17592 -0.14059 -0.01172
0.03564 0.23287 0.09128
0.08385 0.26883 -0.15894
0.17885 0.23287 0.35783
0.03107 -0.12797 0.29269
-0.19334 -0.24665 0.32395
-0.04186 -0.12797 0.12105
0.12961 0.23287 -0.15653
0.00722 0.23287 -0.05573
0.12932 -0.14895 -0.02049
-0.01424 0.26883 -0.30174
0.07269 -0.12797 0.22543
0.18324 0.12861 0.32555
-0.20162 0.23287 -0.04877
0.10716 -0.12797 0.17557
-0.02523 0.23287 0.02695
-0.12708 0.23287 0.28147
0.08521 0.23287 0.08653
0.08654 0.23287 0.09649
-0.12314 0.25119 0.35964
-0.11691 -0.14895 0.15570
0.09253 0.26883 0.02480
-0.11190 -0.12797 -0.27957
-0.21998 0.23739 -0.16860
0.20759 0.11044 -0.16819
-0.06641 0.26883 -0.18251
0.17770 0.25879 0.35964
0.16647 -0.02789 -0.33033
-0.15320 0.26883 -0.22428
-0.16038 0.23287 0.11979
0.10680 0.23287 -0.05788
-0.18498 0.05636 -0.33141
0.17727 0.26883 0.20243
0.12101 0.26883 0.18656
0.17592 -0.13326 0.15696
0.01408 -0.14895 -0.08139
0.08802 -0.12797 0.29125
-0.18113 -0.14895 0.00654
-0.20144 -0.09257 0.34353
0.05224 -0.14895 0.08744
0.20562 0.11044 -0.30451
-0.11054 -0.14895 0.17065
0.05313 -0.12797 -0.27098
0.09451 0.23287 0.05039
0.03964 0.23287 -0.27826
0.09677 0.26883 0.33180
-0.19510 -0.12869 -0.29646
-0.07782 -0.14895 -0.20199
0.15653 0.23287 0.15003
-0.12018 0.23287 0.00468
0.18699 0.26883 -0.13648
-0.02954 0.23478 0.35964
-0.07140 -0.14895 -0.26488
0.13542 0.26883 -0.31435
0.12379 -0.14895 -0.23178
0.17317 -0.14895 0.25079
0.11296 0.26883 -0.27491
-0.16160 -0.12797 0.21496
-0.15715 -0.14895 0.32147
0.01745 0.23287 0.19544
0.01268 -0.14895 -0.10127
-0.15198 0.23287 -0.34010
-0.11444 0.26883 -0.35160
0.17592 -0.13678 0.00827
0.16973 0.18961 -0.32708
-0.03060 -0.12797 -0.32449
-0.02019 -0.14895 0.27426
-0.12484 0.26883 0.21745
0.00063 0.26883 0.12150
-0.02502 -0.12797 0.11201
0.11627 0.23287 0.31170
0.16745 0.02192 0.32666
-0.20902 0.26883 0.12298
0.16933 0.23287 -0.19001
0.07390 0.26883 0.24140
-0.18141 0.26883 0.28953
0.20134 0.11239 -0.13591
-0.02032 -0.14895 0.20409
0.15295 -0.14895 0.24372
-0.19510 -0.13832 0.11029
0.17592 -0.12848 -0.23488
0.19960 0.23674 0.34292
0.08104 0.26883 0.09844
0.12419 0.23287 -0.11585
-0.18560 0.23287 0.08445
-0.18240 0.23287 0.24883
0.02458 -0.13342 0.33416
0.04135 0.26883 0.16314
0.00975 0.26883 0.27788
-0.18065 0.23978 -0.35964
0.09488 0.23287 -0.30226
0.09197 0.26883 -0.10593
0.05556 0.23287 0.35686
-0.04527 0.23287 -0.28017
0.10197 0.23287 -0.32004
-0.09285 0.23287 -0.22395
0.19960 0.23887 0.32528
0.05629 0.23287 -0.03090
-0.07869 0.23287 -0.32288
0.10853 0.26883 -0.34758
-0.18951 -0.12797 -0.28101
-0.09132 -0.12797 -0.25144
-0.16618 -0.14895 -0.13091
-0.12587 0.23287 -0.13622
-0.10074 0.26883 0.06127
-0.02695 -0.14895 -0.19076
-0.04078 -0.14895 0.25327
-0.20205 0.26883 -0.25994
-0.01608 0.23287 0.09167
-0.14135 0.26883 -0.02363
0.04325 -0.14490 -0.33656
0.12861 0.23287 0.28358
0.11178 0.23287 -0.20497
0.01041 -0.13845 0.33416
0.18069 0.11564 -0.34681
0.05489 -0.12797 -0.08938
0.02242 0.23287 -0.33807
0.12646 0.26883 -0.05651
-0.20437 0.23287 0.32421
-0.20170 0.23287 -0.00550
-0.19371 0.23287 -0.28566
0.15572 0.26883 -0.08504
0.15460 0.21688 0.34825
-0.09233 -0.14895 0.11835
0.14215 0.23287 0.29954
0.10865 -0.14895 0.16573
0.02127 0.25761 -0.35964
0.12761 0.26883 -0.19769
0.14968 0.23287 -0.30594
-0.11831 0.26883 -0.23394
-0.20489 0.23287 -0.28836
-0.02377 -0.12797 0.31700
0.01836 0.26883 -0.27127
0.14230 0.23287 -0.21822
-0.02049 -0.14895 -0.30737
0.17272 0.23287 -0.33908
-0.07963 -0.14895 0.33105
0.14776 0.26883 -0.18731
0.17531 -0.12797 -0.15106
0.03162 -0.14895 0.19781
0.02054 0.23287 -0.35534
-0.00867 -0.14895 0.07654
-0.16323 -0.14895 -0.25586
-0.11924 0.23287 0.28630
-0.18729 -0.04591 0.34240
-0.20050 0.19015 0.32418
0.17701 -0.16664 -0.34781
-0.00709 0.26883 0.04413
0.08516 -0.12797 0.18080
-0.05106 0.23287 0.04829
-0.18916 0.26883 -0.19920
-0.19396 0.23287 0.06545
0.16707 -0.14895 -0.28576
0.18704 0.16664 -0.33453
0.08277 0.26883 -0.31101
-0.20062 0.26883 0.27345
-0.17511 0.23287 0.22246
0.02608 0.26883 0.16724
-0.02121 -0.12797 0.01944
0.17882 0.23287 0.32453
0.13496 0.23287 -0.15114
0.14971 -0.14895 0.18219
-0.05071 0.23287 0.07384
-0.16340 -0.12797 -0.24669
0.07330 -0.12797 -0.13380
0.05601 -0.14895 -0.13159
-0.13726 0.26883 -0.14676
-0.18839 -0.00337 0.32508
-0.21998 0.25352 -0.17852
-0.18949 -0.03987 -0.32671
0.19878 0.23287 -0.33247
0.05550 0.23287 -0.23484
-0.07314 0.23287 0.04460
0.17543 0.26883 0.31427
0.19960 0.23521 -0.06305
0.04001 -0.12797 0.12675
0.06225 0.23287 0.33328
0.19563 0.25605 0.35964
-0.19513 0.13088 -0.32522
-0.15790 -0.12797 -0.04097
0.11342 -0.12797 -0.02422
0.09245 0.26883 0.12602
-0.01456 0.23287 -0.35073
-0.17030 0.23287 -0.03499
-0.09225 -0.12797 0.13265
-0.20580 0.22542 -0.34021
0.03536 -0.14895 0.30616
-0.12948 -0.14895 -0.01974
-0.16646 -0.12797 0.24399
0.13801 0.26883 0.10067
-0.01133 0.23287 0.07275
0.06384 -0.14895 -0.15575
-0.10716 -0.14895 -0.28758
-0.13292 -0.14895 -0.11389
0.12579 0.26883 0.06661
-0.18759 -0.21921 0.34263
0.17804 0.18391 0.34825
0.11735 -0.12797 -0.31667
0.07868 -0.12797 0.11754
0.13118 -0.14895 0.02690
0.03342 0.26883 -0.10861
-0.10170 -0.12797 -0.16666
0.16907 -0.12797 0.02340
0.09176 -0.14895 0.26514
-0.18804 -0.12797 0.04778
-0.01139 0.23287 -0.09518
-0.05088 0.26883 0.17095
-0.15871 -0.14895 0.29193
0.06787 -0.14895 0.31518
0.21099 0.12447 0.18431
0.06277 -0.14895 -0.26080
0.00885 -0.14895 -0.25748
0.10953 -0.14895 -0.11571
-0.06339 -0.14895 -0.25453
0.08260 -0.12797 -0.05582
-0.21998 0.24382 0.33198
-0.01291 0.24162 -0.35964
-0.02075 0.26883 0.04555
-0.16880 0.23287 0.21744
-0.03526 0.23287 -0.18352
-0.09663 -0.14895 -0.12956
-0.19171 -0.12797 -0.33501
0.19033 0.26883 0.03185
-0.19274 -0.12797 0.07420
0.11460 0.26883 -0.22990
0.20605 0.12582 0.22803
-0.20644 0.05670 -0.33592
-0.05822 0.23287 -0.13905
0.15231 0.23287 -0.05085
0.04538 -0.12797 -0.13431
0.08865 -0.14895 -0.08602
0.13624 -0.12797 -0.02466
0.11953 -0.14895 -0.29243
0.01306 -0.14895 -0.21139
-0.07960 -0.12797 0.02800
-0.10262 -0.12797 0.24170
-0.05972 -0.14895 -0.31895
-0.01200 -0.12797 -0.20388
0.15477 0.23287 -0.24101
0.12933 0.26883 0.08880
-0.02920 -0.12797 0.25967
0.18283 0.26883 -0.14830
0.15573 0.23287 -0.22213
0.11590 0.23287 -0.25613
-0.18250 -0.12797 -0.04120
-0.16185 -0.12797 -0.17689
-0.19832 0.23287 -0.00041
0.09926 0.23287 0.13380
-0.06928 0.26883 0.25219
0.05185 0.23287 -0.18419
0.15666 -0.14895 -0.07684
0.16087 0.26883 -0.24377
0.20931 0.11086 0.18207
-0.01873 -0.12797 -0.30303
-0.03311 0.26883 0.24029
0.09799 -0.12797 0.21544
-0.20539 -0.14091 0.33884
0.03081 0.26883 -0.22618
0.19001 0.19502 -0.32331
-0.21995 0.26323 0.15192
0.10596 -0.14895 0.17523
0.16993 -0.14895 -0.19540
-0.00459 -0.12797 -0.18415
0.00113 -0.12797 -0.05960
-0.03895 -0.14895 0.05309
-0.00252 0.23287 0.13773
-0.07951 0.23287 0.33519
-0.18379 0.01470 0.33471
0.17895 -0.04949 0.32320
0.21114 0.11184 -0.04717
0.18422 -0.09680 0.32643
-0.01232 0.26883 0.21420
-0.07559 -0.14895 -0.30650
-0.12265 -0.12797 -0.17544
-0.10784 0.26883 0.02795
0.21381 0.12088 -0.10177
0.15311 -0.12797 0.03122
0.05700 0.23287 0.20287
0.15637 -0.12797 -0.32654
0.06180 -0.12797 0.12965
0.13852 0.23287 0.04409
0.00524 0.23287 0.14359
-0.07667 -0.14895 -0.15716
0.13788 -0.12797 -0.27842
-0.01878 0.26883 -0.23093
-0.19510 -0.13475 -0.31146
0.18262 -0.01809 -0.34566
-0.08027 -0.14895 -0.23683
-0.09068 -0.14895 -0.18271
0.07409 -0.14539 0.33416
-0.12522 0.26883 -0.35717
0.19858 0.26616 0.06380
0.00292 0.23287 -0.34458
0.11452 0.26883 -0.16288
0.08193 0.26883 -0.15017
0.03328 0.23287 -0.18525
0.16831 -0.24665 0.32599
0.11077 -0.12797 0.06405
-0.09181 0.23287 0.22232
0.00132 0.24644 -0.35964
0.02122 0.26883 0.01702
-0.08144 0.26883 -0.16985
0.02054 -0.12797 -0.24033
-0.05541 -0.14895 -0.26811
-0.08758 0.23287 0.13324
-0.04566 0.23287 0.21265
-0.09011 -0.12797 -0.10101
0.16824 0.23287 -0.34704
0.20494 0.12568 -0.27803
0.04628 -0.12797 -0.28597
0.15052 0.26883 0.29574
0.14746 0.23287 -0.19948
0.17435 0.26883 0.30479
0.05691 -0.14895 0.09162
0.08562 -0.12797 0.03226
0.12040 0.23287 0.03452
-0.19564 0.13531 0.32285
-0.16708 -0.12797 -0.20737
-0.20897 0.26883 -0.26891
-0.21998 0.23318 -0.29629
0.18423 0.26883 -0.05349
0.16551 0.13718 -0.34093
-0.17459 -0.14895 -0.31550
-0.20989 0.26883 0.28299
-0.09070 0.26883 0.14288
0.06038 0.23287 0.04806
0.17265 0.05310 0.34503
0.19530 0.23287 -0.05310
0.20110 0.11258 -0.15182
-0.12228 -0.14895 -0.07099
0.02587 0.26883 -0.03849
0.04038 0.26883 -0.10866
0.05412 0.26883 0.00284
0.06979 -0.12797 -0.17013
0.09735 0.23287 -0.35482
0.07172 -0.14895 -0.31562
-0.19201 0.26883 0.00102
-0.13401 0.26883 -0.23076
0.21253 0.12307 0.29503
-0.19269 0.26883 0.16462
0.14756 0.23287 -0.23797
0.17456 -0.12797 -0.13250
0.11501 -0.14895 0.26251
0.07462 0.26883 0.25314
-0.07834 0.26549 -0.35964
-0.01411 0.26883 0.11543
-0.00596 0.23287 -0.19783
-0.06683 0.23287 0.09932
-0.15410 -0.14895 0.26922
0.02925 -0.12797 -0.13252
0.02550 -0.12797 0.15333
0.20745 0.12578 -0.03685
0.04480 0.26883 0.31538
-0.19165 0.15314 -0.32573
0.17691 0.26883 0.33221
-0.18558 0.11947 -0.33047
-0.14630 0.26883 0.01930
0.09093 0.26883 0.20408
0.17146 -0.05246 0.34454
0.04711 -0.14895 -0.01034
-0.05483 0.26883 -0.34375
-0.04272 -0.12797 -0.04950
0.19238 0.24021 -0.35964
0.04210 0.24811 -0.35964
0.10951 -0.12797 0.01305
0.03874 -0.14895 0.17177
-0.00245 0.25077 0.35964
-0.18025 0.26883 0.21051
-0.21998 0.26029 -0.17960
-0.11970 -0.12797 -0.09613
0.21426 0.11912 -0.30065
0.07204 -0.14895 0.16217
0.02463 0.23287 0.04395
0.09579 -0.12797 0.05977
-0.16177 -0.12797 -0.25288
-0.19571 -0.13384 0.34547
0.08899 -0.12797 -0.32832
-0.08612 -0.14895 0.29550
0.02741 -0.12797 0.26772
0.20080 0.12323 -0.18031
-0.16166 -0.14895 0.28348
-0.18872 -0.06131 -0.34588
-0.13230 0.23287 0.25208
0.19960 0.25418 0.02612
-0.13192 0.26883 -0.13237
-0.20566 -0.24665 -0.33674
0.13538 -0.12797 -0.07864
-0.18697 0.07090 0.34211
0.06343 0.23287 0.26654
0.07066 0.23287 0.29975
0.00550 0.26883 0.15028
-0.05333 -0.14895 0.13989
0.09514 0.23287 -0.13980
-0.15988 -0.14895 0.23843
-0.11440 -0.14619 0.33416
0.07189 -0.12797 -0.01411
-0.19320 0.23287 -0.11035
-0.15369 -0.12797 0.13539
-0.00938 -0.14895 -0.20040
-0.00508 0.25998 -0.35964
-0.00050 0.26883 0.13627
-0.16886 -0.12797 0.16098
0.15701 -0.12797 -0.28479
0.00666 0.23287 -0.02102
-0.19510 -0.14354 0.27485
0.11326 0.23287 0.20363
0.18349 0.04493 -0.34499
0.05762 -0.12797 0.21285
0.18706 -0.05733 0.33607
0.06566 -0.12797 -0.02605
0.15126 0.26883 -0.18160
-0.14369 0.23287 0.18071
0.00145 0.26883 -0.04910
-0.12101 0.23287 0.03583
0.04702 -0.14895 -0.30366
-0.01246 -0.14895 0.17410
0.13349 0.26883 0.00869
0.04665 0.23287 0.11777
0.12615 0.23287 -0.24523
-0.20208 0.26883 -0.07624
0.08813 0.26883 0.18768
-0.16525 -0.14322 0.33416
0.19495 0.26866 0.04352
0.05458 0.26883 0.12377
0.14448 -0.12797 0.11319
-0.11333 -0.12797 0.31318
0.08931 0.26883 0.10399
0.04477 0.23287 0.01372
0.13112 -0.12797 -0.31554
-0.03416 -0.14895 0.24214
0.19978 0.12183 -0.09152
-0.05839 -0.12797 0.19207
-0.07160 -0.12797 0.19397
-0.02318 0.23287 0.34445
-0.08048 -0.14895 -0.22854
-0.00851 -0.12797 -0.10599
-0.19999 -0.26035 -0.34083
-0.15644 -0.12797 -0.04972
-0.04353 -0.14895 -0.03655
-0.18424 0.11403 0.33743
-0.04150 0.23287 0.30023
-0.10121 0.23287 -0.33043
0.09086 -0.12797 0.03474
0.18578 0.23287 -0.17324
-0.19854 0.05174 0.34496
-0.20554 -0.20167 0.32985
0.16908 0.23287 -0.23528
-0.17087 0.26883 0.26266
-0.10312 -0.14895 -0.32532
0.02108 0.26883 -0.28262
-0.03860 -0.14895 0.17344
0.08614 -0.12797 -0.19618
-0.06126 0.26883 0.10342
0.04972 -0.14895 0.13783
-0.20406 0.15345 -0.34344
-0.16555 -0.14895 0.13490
0.17511 -0.12797 0.06765
-0.11060 -0.14895 0.24602
0.15542 0.26883 -0.15218
0.16545 -0.08412 0.33839
0.07249 0.26883 0.30401
-0.14838 -0.14895 0.31575
-0.05446 0.26883 -0.03774
-0.13562 0.26883 0.02304
0.16630 0.21337 -0.34257
-0.03676 0.26883 0.14717
0.06181 0.26883 0.21601
0.14217 0.23287 0.16678
-0.06684 0.24340 0.35964
-0.19510 -0.13749 -0.24561
0.16837 0.23287 0.26488
0.16504 -0.12797 -0.14631
0.06804 0.23287 0.00549
-0.17556 0.23287 -0.25333
-0.21633 0.23287 -0.32381
0.05413 0.26883 -0.03357
-0.13723 0.23287 -0.09764
0.16590 0.23287 0.29395
-0.15371 -0.12797 -0.27558
0.17245 0.26883 0.29895
0.14415 -0.14895 -0.19214
-0.19510 -0.13770 -0.25917
-0.00684 0.23287 0.31194
-0.17418 -0.12797 0.15005
-0.04082 0.26883 -0.20966
0.03041 -0.14895 -0.33409
-0.09851 -0.12797 0.28114
0.12679 -0.12797 -0.02768
0.16678 0.21477 -0.32993
0.17165 -0.19416 -0.32611
0.14435 -0.14895 0.01392
0.19891 0.11887 0.17392
-0.01615 0.26883 -0.28519
-0.09120 0.23287 -0.29995
-0.06302 0.26883 0.04519
0.08005 -0.14895 0.32863
-0.12212 -0.14895 0.12449
-0.08691 0.23287 -0.19768
-0.14812 0.26737 -0.35964
0.15842 -0.12797 -0.12558
-0.06047 0.23287 0.30285
-0.01206 0.23287 0.20062
-0.12437 0.23287 -0.05170
0.13995 0.25492 0.35964
-0.21991 0.26369 -0.02687
0.16459 0.26883 0.02963
0.09773 0.23287 0.09372
-0.01105 0.23287 -0.33285
-0.17457 -0.14895 -0.32215
0.14632 0.23287 0.31859
0.13159 -0.14895 0.04978
-0.09579 0.23287 -0.35373
-0.06495 -0.12797 -0.13557
0.15789 0.23287 -0.19166
-0.16863 -0.12797 -0.03396
0.21433 0.11764 0.12226
0.04913 -0.14895 0.25070
-0.14634 0.23287 0.17601
0.18616 0.01274 0.33895
-0.08800 0.26883 0.10827
0.14389 0.26883 -0.22098
-0.10689 -0.14895 -0.13595
0.03579 0.23287 0.12453
0.08324 -0.14895 -0.18254
0.18590 -0.03573 -0.34197
-0.15877 -0.14895 0.27185
-0.12273 -0.12797 0.21011
0.17592 -0.14494 0.26061
-0.11262 -0.14895 0.08745
-0.10465 -0.12797 -0.24616
0.16482 0.23287 -0.14686
-0.04870 0.23287 -0.18344
0.19960 0.23553 -0.11868
0.17090 0.23287 0.17489
0.19960 0.25638 -0.07878
0.09705 -0.14895 0.22669
0.21175 0.12389 0.05978
0.11724 -0.14895 0.15676
-0.06229 0.26883 -0.33570
0.16153 -0.12797 0.16081
0.11277 -0.12797 0.27865
-0.11295 0.26883 -0.32543
-0.11293 -0.14895 -0.09377
-0.11734 -0.14895 -0.02042
-0.17292 -0.12797 -0.05388
-0.17669 0.23287 0.34693
0.18204 -0.01601 0.34370
-0.21998 0.24844 0.32403
-0.21304 0.23287 0.20374
-0.18615 -0.20915 -0.34345
-0.08115 -0.13796 -0.33656
-0.16284 0.23287 0.08312
-0.18700 -0.12797 0.27954
0.17417 -0.11579 -0.34772
0.16486 -0.02698 -0.33901
0.08583 -0.14895 -0.05646
-0.18281 -0.12797 -0.23689
0.20411 0.11077 -0.28631
-0.19874 0.26883 0.09490
0.05223 -0.14895 -0.12664
-0.06091 -0.12797 -0.29094
-0.01857 -0.12797 0.17101
-0.13645 0.26883 0.23973
-0.21998 0.24675 -0.13762
-0.17930 0.26883 -0.07856
-0.00013 0.26883 0.23660
0.10114 0.26883 -0.09804
0.01641 0.26883 -0.25823
0.00753 0.23287 0.31561
-0.18465 0.06557 0.33843
0.17539 0.21171 -0.32524
0.13941 0.23287 0.10793
0.11023 -0.14895 -0.08816
0.07149 0.23287 -0.04442
-0.11564 -0.14895 -0.19829
-0.13647 0.26883 -0.07186
-0.17579 -0.12797 0.02169
-0.01350 -0.14895 -0.08250
-0.17349 -0.12797 -0.32517
0.17934 0.13094 -0.32576
-0.05235 0.23287 0.21480
0.17974 -0.08375 -0.32592
0.01722 0.26883 -0.19494
0.06929 0.26883 0.32274
-0.12863 -0.14895 -0.10976
0.08500 0.26883 0.17329
0.03555 -0.12797 -0.12370
-0.05859 -0.12797 0.05385
0.04989 -0.14895 0.08166
-0.07190 0.23287 -0.24476
-0.11479 -0.14895 0.06983
0.11330 0.23287 -0.22815
0.16512 0.11293 -0.33999
0.09190 0.23287 -0.20433
0.10692 0.24577 -0.35964
-0.05329 -0.12797 -0.28348
-0.01624 0.26883 -0.24868
-0.20313 0.10002 0.32609
-0.10186 0.23447 -0.35964
-0.19510 -0.14443 -0.18575
0.15895 0.26883 0.23769
-0.10452 0.26883 0.22563
-0.13213 -0.14895 0.04598
0.10295 0.26883 0.21959
-0.15075 -0.14895 0.01913
0.17778 -0.24554 -0.32542
0.19936 0.11540 -0.01054
0.17461 -0.22743 -0.34778
-0.19685 0.23287 0.24298
0.09402 -0.14895 0.07464
-0.04831 -0.14895 0.15026
-0.20119 -0.13459 -0.34617
-0.21998 0.23478 0.14653
0.21241 0.11298 -0.06522
0.14075 0.23287 -0.35442
0.08373 -0.14419 0.33416
0.20664 0.11031 -0.01759
0.15175 -0.12797 0.03803
-0.20855 0.26883 0.35714
0.06431 -0.14895 -0.17834
0.19483 0.23287 0.13269
-0.18666 -0.12797 0.13998
-0.19323 -0.12797 0.10146
-0.11932 0.23287 0.29881
-0.09027 0.23287 -0.29356
0.08846 -0.12797 0.13542
-0.04149 0.26883 0.26639
-0.19061 0.26883 0.33925
-0.13849 -0.12797 0.08958
0.18372 0.26883 0.14340
0.16099 -0.12797 0.07924
0.20006 0.11394 -0.10682
-0.17057 0.23287 0.29528
-0.18885 0.26883 0.17668
-0.14200 -0.14895 -0.30982
-0.19394 -0.14895 -0.01090
0.16018 0.23287 0.06084
-0.21998 0.25442 0.17641
0.16574 0.19484 -0.33165
-0.15737 -0.14895 0.06142
-0.20919 0.22002 0.33785
0.09219 -0.14895 0.04717
-0.03174 -0.12797 0.03969
0.19001 0.20632 0.34714
0.15293 0.23287 0.25805
0.07745 0.23287 -0.05267
0.02512 0.23287 -0.14356
0.19001 0.19579 0.31920
0.00394 0.26883 -0.03398
0.20838 0.11054 -0.08125
-0.07795 0.23287 -0.18888
0.15294 0.23287 -0.26017
-0.12745 0.23287 -0.16915
0.10620 -0.12797 -0.01132
-0.00247 -0.14895 0.06489
0.00547 0.23287 -0.19078
0.09507 0.23287 0.32869
0.02918 0.26883 -0.26300
-0.06967 -0.12797 -0.04174
0.09321 0.26883 -0.25977
-0.21998 0.25112 0.09961
-0.00013 0.23287 0.34193
0.04906 0.26883 -0.14266
0.20513 0.12570 -0.07703
-0.19510 -0.13644 0.24266
-0.09832 -0.14895 -0.13461
0.05930 0.23287 -0.02085
0.14186 -0.14895 0.10203
0.06935 0.23287 0.15716
0.17517 0.23287 0.04885
-0.02738 -0.12797 -0.30860
-0.04405 0.23287 0.33601
-0.05785 -0.12797 0.25845
-0.00857 -0.14895 0.23572
-0.07941 -0.14895 0.32471
-0.00126 -0.14895 0.24670
-0.21998 0.25091 -0.13424
-0.20067 -0.14419 -0.32666
0.11010 -0.12797 0.08982
0.05525 0.23287 -0.26726
0.01047 0.26883 -0.25426
0.02484 0.26883 -0.09997
-0.13823 -0.14895 -0.04409
-0.00948 -0.14895 -0.16756
-0.04476 -0.14895 -0.18383
0.06290 0.26883 0.29912
-0.18823 0.12139 -0.34553
0.11996 -0.12797 0.11620
0.05296 0.23287 -0.08078
0.17209 0.26883 0.18629
0.05493 -0.14895 0.17754
0.14069 0.25108 -0.35964
0.03899 0.26598 -0.35964
0.16546 0.09037 0.33840
-0.09840 0.26883 0.15618
-0.20593 0.12251 -0.33309
0.02570 -0.14895 -0.17028
0.09955 -0.14895 0.21146
-0.18935 0.26883 0.18288
-0.04553 0.23287 0.04942
-0.05955 0.26883 -0.25077
-0.05522 0.23287 -0.00424
0.00203 -0.12797 -0.16873
-0.08243 -0.12797 0.20181
0.05515 -0.14895 0.15099
-0.02557 0.23287 0.15371
-0.13535 -0.14895 -0.06037
-0.20501 -0.09246 -0.33106
-0.19353 0.04248 -0.34775
0.06861 0.26883 -0.17261
0.16487 -0.16838 -0.33400
-0.21998 0.25964 -0.06251
0.04229 0.23354 -0.35964
0.17403 0.22193 -0.34770
-0.19220 -0.25627 0.32778
-0.07305 0.26883 0.26907
-0.14223 0.23287 -0.26275
-0.14153 0.23287 0.19653
-0.18815 0.23720 -0.35964
0.18281 -0.15630 0.32522
0.18567 0.01848 -0.34241
0.01232 0.26883 0.10974
0.19948 0.12110 -0.31282
-0.09047 0.26883 -0.15648
0.15075 -0.12797 -0.01039
-0.16532 0.26883 -0.22610
-0.20185 0.23287 -0.15869
0.18232 0.21820 0.34825
0.20145 0.12388 0.03035
0.14210 -0.12797 0.01250
-0.20644 0.18311 -0.33589
0.04255 0.26883 -0.16753
0.16578 0.26661 0.35964
0.12752 -0.12797 -0.02125
-0.10093 -0.14895 0.18513
-0.06184 -0.12797 0.14820
-0.01601 0.26883 0.29141
0.16362 0.26590 -0.35964
-0.21292 0.23287 0.29491
-0.18958 0.20909 -0.34650
0.08464 -0.14895 -0.04483
-0.08377 0.23287 0.10869
0.19335 0.23287 0.14715
-0.15781 -0.12797 0.02673
-0.02336 0.26883 0.07415
-0.04426 -0.14839 -0.33656
0.11845 -0.14895 -0.07441
-0.10526 -0.12797 -0.15568
0.20994 0.12508 -0.00983
-0.02162 0.23287 0.04482
-0.11871 0.26883 0.04179
0.09433 0.23287 0.12623
0.10126 0.23287 -0.22758
0.02140 -0.14895 -0.09191
-0.00223 0.23287 -0.11311
0.19960 0.23683 0.09117
0.01893 0.26883 0.14525
-0.00582 -0.14895 -0.09126
0.16465 0.00971 0.33332
0.15666 0.26883 -0.31620
0.14186 0.23287 0.06168
-0.14346 0.26883 0.10007
-0.17940 0.26883 -0.32544
0.17335 0.04863 0.32311
