ply
format ascii 1.0
comment VCGLIB generated
element vertex 1887
property float x
property float y
property float z
element face 0
property list uchar int vertex_indices
end_header
0.25481 0.22331 0.27733
-0.18025 -0.01116 -0.01599
0.05746 0.30378 0.08847
-0.18545 0.30152 0.25795
-0.13756 -0.25010 0.16137
0.13619 0.01599 0.08250
0.12586 -0.09712 -0.01599
-0.08117 0.31976 0.02524
0.00090 0.31976 0.22950
0.18168 -0.22129 0.14829
-0.02168 0.12089 -0.28779
0.01566 -0.26318 0.17991
-0.10899 0.11688 -0.27180
-0.10266 -0.30898 -0.27251
-0.19598 0.31976 -0.00420
-0.23352 0.28990 0.26955
-0.10719 -0.01141 -0.03198
0.06039 0.30378 -0.08287
-0.01836 0.30378 -0.01840
0.05874 -0.31345 0.25112
0.03695 0.03198 -0.15406
0.15380 -0.15906 -0.06012
0.03811 -0.20879 -0.13058
-0.12291 0.31976 -0.20546
-0.24411 0.00343 -0.03489
-0.20689 0.05599 -0.27180
-0.00851 0.24546 -0.28779
-0.11131 -0.19619 -0.11273
-0.14409 0.15799 -0.28779
-0.18887 -0.18714 -0.07218
-0.25481 0.31426 0.06808
-0.24023 0.03198 0.21818
0.00727 -0.07394 0.03197
0.23639 0.30378 -0.16964
-0.20353 0.29877 0.26248
-0.09732 -0.26360 0.18050
0.16868 -0.11119 0.03196
-0.07031 0.30378 0.05715
-0.02152 0.31976 0.22367
-0.23988 0.03198 -0.22292
-0.09852 -0.29366 -0.25081
0.25481 0.30834 -0.23076
-0.07562 0.30369 0.24969
0.18429 0.31976 -0.20539
-0.11955 -0.20194 0.12087
-0.00576 -0.18648 0.07124
-0.03716 0.30378 -0.17204
-0.03100 0.22441 0.27180
0.16574 0.24525 -0.27180
0.10433 0.31976 0.12788
0.24405 0.01599 -0.23810
0.16198 -0.23371 -0.13815
0.02207 0.01599 -0.13902
0.20373 0.13583 -0.28779
-0.09740 0.30378 0.09631
-0.24031 0.26554 0.27180
0.05342 -0.28884 -0.24397
0.19099 -0.00658 -0.03202
0.12193 0.03198 0.13265
-0.20937 -0.03144 -0.03198
0.11245 -0.10052 0.01599
0.21170 0.31976 0.24248
-0.03205 0.22987 -0.27180
0.04468 0.31976 0.20964
0.21177 0.31976 -0.09792
0.08646 0.15079 0.27180
0.14049 0.31976 0.03316
0.21549 0.03198 0.19444
0.19592 -0.30778 0.24308
0.15681 -0.25391 0.16677
-0.09588 0.30378 0.15062
0.17593 0.15767 0.27180
0.13337 0.02099 0.26715
0.04396 -0.12905 0.03340
0.25481 -0.19324 -0.09123
-0.04603 -0.19823 -0.08789
0.06153 0.03198 0.11051
-0.02922 0.01826 -0.26107
-0.05453 0.01599 -0.12142
-0.05974 0.01599 -0.24022
-0.01408 0.21795 -0.28779
0.23232 0.25761 0.27180
0.09777 0.31976 0.08313
0.23887 -0.14028 0.03839
0.20519 0.15065 0.28779
-0.17639 0.31976 -0.05349
-0.13293 0.30378 0.10605
-0.12921 -0.21268 -0.13609
0.14831 0.03198 0.21913
0.18018 0.31976 0.22139
0.12996 0.30378 -0.20284
-0.02942 0.31971 -0.24933
-0.18865 -0.16623 0.04256
-0.13501 -0.31255 -0.27757
-0.19953 -0.06721 -0.03198
-0.09750 -0.24933 -0.18801
0.22522 0.01135 -0.02100
-0.21215 0.03213 0.25040
-0.06822 0.01599 0.24320
-0.25481 0.31112 0.08040
-0.19702 0.01599 0.07401
0.25391 0.29667 0.28403
-0.22164 0.01599 0.13438
0.07185 0.01599 -0.17236
0.22820 0.26266 -0.28779
0.21068 -0.25017 -0.18920
0.21300 0.03198 0.23094
-0.25481 0.02443 -0.19427
0.13457 0.27648 0.28779
0.04149 -0.31530 -0.25374
0.05635 -0.28656 0.21303
-0.08060 -0.10444 0.01599
0.06715 0.01599 0.14377
0.20450 0.31976 -0.05223
0.24848 0.31976 0.14704
0.07878 -0.23381 -0.16602
-0.16861 -0.17768 -0.05878
-0.03417 0.30377 -0.27978
-0.00516 0.31976 0.07668
-0.20212 0.23199 -0.28779
-0.05169 0.31976 0.08002
0.04030 0.04326 0.28571
-0.04798 0.03736 0.28318
0.14974 0.13990 0.27180
-0.24306 0.11291 -0.27180
0.07786 0.01599 -0.17903
0.07977 -0.08895 0.03197
0.07848 0.30378 0.15268
0.19046 -0.07416 -0.01599
-0.05435 -0.27383 -0.19499
0.00089 0.22244 0.28779
0.08121 0.21072 -0.27180
-0.12513 0.30378 0.20058
-0.18001 0.31976 0.04623
0.09375 0.16067 -0.28779
-0.23739 0.04390 -0.26855
0.17105 0.31976 -0.01325
0.15229 0.04483 -0.28619
-0.09154 -0.22884 -0.15898
0.17151 -0.23687 -0.17036
-0.23013 -0.02839 -0.01599
0.07722 0.03912 -0.26489
-0.01660 0.24538 -0.28779
0.06014 -0.28931 -0.24465
-0.11706 -0.07149 -0.03198
0.15240 -0.19112 0.10555
0.04927 -0.23926 0.14602
-0.12724 0.30725 -0.27684
-0.02520 0.31976 0.00240
0.04654 -0.27548 0.19732
0.18027 0.01766 0.02534
-0.25399 -0.23474 0.16734
0.14115 0.31976 0.23434
-0.19330 0.26687 -0.28779
-0.12283 0.01496 -0.04905
0.12160 0.31976 0.04177
0.17602 -0.09255 0.01599
0.15078 0.10677 0.28779
0.24540 0.30378 0.08136
0.12576 -0.02045 0.01599
-0.23620 0.03198 -0.20533
0.19167 0.01599 0.19744
0.24901 0.30378 0.16612
-0.17081 -0.21337 0.13706
-0.25481 -0.23769 -0.15200
-0.04733 -0.04160 0.01599
0.19689 -0.24582 -0.18303
0.00248 0.02656 -0.03588
0.12948 0.31976 0.10107
-0.02560 -0.20988 -0.13211
-0.11761 0.03198 -0.07760
-0.01792 0.30378 -0.19429
0.21991 0.01599 0.24298
-0.20086 0.30378 0.15618
0.08611 0.03198 -0.24188
0.17381 0.03198 -0.14480
-0.01243 -0.25374 0.16653
-0.09506 0.24426 -0.28779
-0.07138 0.03198 0.07385
0.19415 0.01599 -0.06741
0.13556 -0.21680 0.11420
0.01107 0.03198 0.08353
0.08673 -0.30011 0.25994
0.24061 0.30378 0.00325
-0.12434 -0.15977 -0.03341
-0.21986 -0.23865 0.17288
0.19566 0.24918 0.28779
0.12675 -0.25133 0.16312
-0.23834 0.16204 0.28779
-0.12613 0.01599 0.09366
0.09469 0.30378 -0.24111
-0.19906 0.03198 -0.06348
0.18067 0.03198 0.16890
-0.23220 0.10275 0.27180
-0.00379 -0.23918 0.14590
-0.14386 0.23860 -0.28779
-0.00685 0.00107 -0.01705
0.25481 0.30634 -0.22533
0.10901 0.30378 -0.11803
-0.08543 -0.21601 0.14080
0.19488 -0.27790 0.22848
-0.18746 0.30378 0.16313
-0.11854 0.27529 0.28779
0.10490 0.07542 -0.27180
0.12886 0.01885 -0.26264
-0.12380 0.06504 -0.27180
0.04629 -0.15684 -0.05698
0.10887 0.29993 0.26083
-0.23574 -0.30232 0.26307
-0.04517 -0.31901 -0.25900
0.21963 -0.23384 -0.13834
-0.21312 0.30378 0.09682
-0.11927 -0.10202 -0.01599
0.05206 0.21687 -0.27180
0.04221 0.01599 -0.22352
0.01854 0.01599 0.07840
0.02175 -0.02597 0.01599
-0.21554 -0.05228 -0.03198
0.09897 -0.14722 -0.04398
0.14339 0.23777 -0.28779
-0.19828 -0.09621 0.01599
-0.23269 -0.06265 0.03197
-0.09685 0.01599 0.19748
-0.14913 -0.25273 -0.16510
0.07053 -0.17377 0.08096
-0.04926 0.25505 -0.27180
-0.09741 0.21395 -0.27180
0.10268 -0.12106 0.03206
0.15471 0.03198 -0.07508
-0.24986 -0.27543 -0.22498
0.22740 -0.04446 0.03197
0.22134 0.03198 -0.11994
0.23452 0.30333 -0.25239
-0.20409 0.30378 -0.01733
0.15770 0.09331 0.27180
0.04317 0.26476 0.27180
0.08505 0.31660 -0.26338
-0.21211 -0.24677 0.18438
-0.21445 -0.22305 0.15077
0.15728 -0.11200 -0.01599
-0.05459 -0.12508 -0.01599
0.23846 -0.29509 -0.22511
-0.12541 -0.05049 0.04416
0.10656 -0.31976 -0.27603
-0.19292 0.31976 -0.17900
0.20656 -0.10228 -0.03198
-0.07869 -0.02624 0.01599
0.25273 -0.26979 -0.18927
-0.12723 -0.22548 -0.15421
0.00219 0.01599 -0.05724
0.24070 0.01609 0.25055
0.13714 0.05500 -0.27177
0.15659 0.15801 0.27180
0.11582 -0.05785 -0.03198
-0.24364 -0.15859 -0.03173
-0.10972 -0.04981 -0.03198
0.19821 -0.31976 -0.28053
0.12710 -0.13805 -0.03707
-0.25011 0.07583 -0.28779
0.06128 0.31976 0.20520
-0.25481 0.09195 0.27731
0.19401 0.30378 -0.24110
0.12012 -0.19978 0.11782
0.21315 -0.17931 -0.08881
-0.09946 0.01599 0.21763
0.23778 -0.28363 -0.23659
0.23675 -0.31976 0.28341
0.12906 0.31976 0.16171
0.10288 0.30378 0.06097
-0.07202 -0.19167 -0.10632
-0.03677 0.30228 0.25611
-0.08291 0.03198 0.17447
-0.15750 0.18648 -0.27180
0.10859 0.18473 0.27180
0.15464 0.31976 -0.08731
-0.00800 0.19248 -0.27180
-0.18448 0.01599 -0.08090
0.01942 0.30378 -0.00674
0.09161 -0.31976 -0.27175
0.14752 0.30378 -0.23949
0.09878 -0.07333 0.03197
0.01358 0.05798 -0.27180
0.05412 0.01599 -0.24551
0.23216 0.03180 0.27965
0.06965 0.01599 0.07790
0.12657 -0.29946 -0.25903
0.23472 0.27987 0.27180
0.13720 -0.27124 0.19132
-0.08622 -0.25740 -0.17171
0.24177 -0.18537 -0.09740
0.03352 0.31976 0.10989
-0.15448 0.30378 -0.09688
-0.21310 -0.16113 -0.06306
-0.22601 -0.23453 -0.13932
-0.13093 -0.31903 -0.28674
-0.21713 0.03982 -0.28436
0.25481 0.23939 -0.27532
0.11311 0.01599 -0.07253
-0.10182 0.30378 0.06316
0.02466 0.01533 -0.05044
-0.05312 0.31976 0.05162
0.19147 0.02236 0.26943
-0.05276 -0.15911 0.06020
-0.11670 0.01599 0.07367
-0.11128 -0.28753 0.24213
0.17821 -0.02806 -0.03198
0.08923 -0.15430 0.02655
0.23229 0.30378 -0.16060
-0.06332 0.03198 -0.22539
-0.09932 0.23469 -0.28779
-0.14097 0.30378 -0.17316
0.05402 0.31976 0.08681
-0.08020 0.01300 -0.02197
-0.12399 0.03198 -0.19181
-0.16955 -0.24820 0.18641
0.11005 0.28516 -0.28742
-0.21530 0.24603 0.27180
0.10584 0.01345 0.04524
0.09048 -0.31919 0.25925
0.10088 -0.06195 0.03197
0.22609 0.16487 0.28779
-0.12870 -0.04738 -0.01599
0.11005 0.31976 0.04976
-0.01214 0.01599 -0.22864
0.25076 0.23519 -0.28779
0.22927 -0.26199 -0.17821
0.15472 0.27008 -0.27180
0.21449 0.03367 -0.25664
0.21147 -0.22027 -0.11911
-0.10936 0.30378 -0.18365
0.12704 0.30152 -0.25794
0.10127 0.03198 -0.21871
0.08091 0.17250 0.27180
0.10808 -0.28925 -0.24456
0.00618 0.03856 0.28380
0.15569 -0.31657 -0.25555
-0.23070 0.31976 0.07352
0.25481 0.09578 0.28129
0.13490 0.30378 -0.03535
-0.07883 0.01599 0.16343
-0.11240 -0.21852 0.14436
-0.12272 0.06966 0.28779
0.00845 0.30378 0.18763
-0.07260 0.23550 -0.27180
-0.16241 0.31976 -0.13471
-0.11105 0.30378 0.20101
-0.00802 0.03198 -0.07652
0.25481 0.31376 -0.07314
0.01602 0.28178 -0.27171
0.20372 -0.29390 0.25115
-0.15556 0.30392 -0.27968
-0.03306 0.01599 0.17186
0.23833 0.31976 -0.08747
0.06719 0.28143 0.28773
-0.14144 -0.28508 0.23866
0.14114 0.02525 -0.27337
0.22787 0.31976 -0.17122
-0.04738 0.24959 0.27180
-0.05552 0.31976 -0.21670
0.07711 -0.11283 -0.03198
-0.18959 0.30378 -0.01602
-0.21150 0.16480 0.28779
0.21299 -0.16579 -0.04193
0.24545 -0.02658 -0.03198
-0.06981 0.30378 0.00862
0.06917 -0.03789 -0.03198
0.11485 -0.17195 0.07839
0.12054 0.18027 0.27180
0.23243 -0.17280 -0.07959
-0.02331 0.31976 0.17864
-0.18487 0.30378 -0.08351
0.01995 0.31976 0.09601
-0.04498 -0.17808 0.05935
-0.21597 0.24197 0.28779
-0.16315 0.30378 0.10634
0.05115 0.03198 -0.19801
0.06741 -0.22142 -0.14846
-0.15628 0.10665 0.28779
-0.24834 0.29822 0.28326
-0.03301 -0.10278 -0.03198
-0.12141 0.30378 0.14223
0.17109 -0.26418 -0.18132
-0.12359 0.30378 -0.11752
-0.13373 -0.31976 0.28505
-0.04723 -0.15279 0.05124
0.09345 0.01599 -0.16603
-0.09497 -0.17207 0.05083
0.18840 0.03198 0.17602
0.20693 -0.22287 -0.15052
0.13993 -0.29697 -0.25550
-0.03509 0.30378 0.15444
0.03896 0.30378 -0.21394
-0.19708 -0.22679 0.12834
-0.15065 0.16193 0.28779
-0.05200 0.03198 0.20567
-0.25481 -0.20711 0.12227
0.03558 0.01599 -0.16839
-0.02747 -0.21947 -0.14570
-0.06989 0.01599 -0.23233
0.24700 -0.31814 0.25776
-0.25481 0.31077 -0.10434
0.07065 -0.04363 0.01599
-0.02277 0.01599 0.08978
0.20562 -0.28400 -0.23712
-0.24075 0.30378 0.07125
0.17742 0.03198 0.23936
-0.07527 -0.05537 -0.03198
-0.12196 0.30995 -0.27404
-0.17607 -0.25027 -0.16162
-0.13949 0.03198 -0.24501
-0.17652 0.14030 -0.28779
0.05747 -0.29109 0.21944
0.08475 -0.31584 -0.28223
-0.21554 0.30378 -0.13114
0.01584 0.03198 -0.18938
0.16433 0.30378 0.13514
-0.01348 -0.19528 -0.11143
0.12212 -0.16841 -0.07337
0.25109 -0.25871 -0.17357
0.11880 0.01599 0.21819
-0.18390 -0.20604 -0.09895
-0.09589 0.23752 -0.27180
0.01467 0.08356 0.28779
-0.00288 0.03017 -0.04413
0.08145 -0.21476 -0.11131
-0.04400 -0.09131 0.01599
0.20231 0.08672 -0.28779
-0.07517 0.03198 0.11099
-0.00320 -0.00571 0.03210
-0.03097 0.31976 0.21340
0.08576 0.18974 -0.28779
-0.06918 0.00917 -0.01988
-0.16536 0.22647 -0.28779
0.17659 -0.21582 0.11281
0.21687 0.00034 -0.01688
-0.20276 0.03198 0.15814
0.16348 0.01598 0.05557
0.06328 -0.18463 -0.09636
-0.01102 0.02946 0.27774
0.12415 0.01599 0.24730
0.15145 0.30378 -0.01214
-0.11650 0.08483 0.27180
-0.25481 -0.12017 0.02198
0.11252 -0.28283 -0.20774
0.24404 -0.13799 0.03704
0.25481 -0.14078 0.01949
0.25095 -0.29090 -0.21918
0.10532 0.21256 -0.27180
-0.06703 0.03198 -0.18047
-0.05457 -0.20721 0.12834
-0.20925 0.27454 -0.27180
0.19728 0.30378 -0.16519
0.24914 0.16258 0.27180
0.18139 0.30378 0.03743
-0.08968 0.03198 0.08506
0.00434 0.29015 0.26944
-0.20993 0.31976 -0.04641
0.21792 0.17866 0.28779
-0.00189 0.29228 0.28578
-0.12145 0.03198 -0.15681
-0.05244 -0.30738 0.27024
-0.03073 -0.31976 0.26149
-0.19905 0.29953 -0.26143
0.09404 -0.11225 -0.03198
-0.13900 0.09363 0.28779
0.01182 0.30378 -0.11670
0.22859 -0.23364 0.13806
-0.09734 0.22761 -0.28779
0.14126 0.31976 -0.13197
0.25227 0.31976 -0.02321
0.18229 -0.17120 -0.07732
-0.25481 -0.19506 0.09289
0.06224 0.01599 -0.19786
0.22202 0.19077 0.28779
-0.16452 -0.13729 0.03664
-0.10724 0.12109 -0.28779
-0.00946 0.31976 0.17018
0.09203 -0.06821 -0.03198
-0.24717 -0.25417 0.16714
-0.06143 0.01599 0.07553
0.04784 -0.24896 -0.18748
0.25481 0.02165 0.20497
0.01848 0.01599 0.17892
0.01238 0.22829 0.28779
0.14765 -0.30222 -0.23521
-0.04069 0.02223 -0.02981
-0.18255 0.30378 -0.13675
0.15412 -0.15368 -0.05250
-0.17734 -0.22236 0.12208
0.20701 -0.12521 -0.01599
0.09482 -0.31436 -0.28013
-0.03588 0.31976 0.01853
-0.23287 -0.30816 -0.24363
-0.13231 0.03198 0.15018
0.08919 0.31976 -0.00193
-0.02835 0.19429 -0.28779
0.25481 -0.11857 -0.02295
-0.22944 -0.00360 -0.03239
0.06462 0.02731 0.03726
0.06781 -0.00181 -0.01649
0.08719 0.06433 -0.28779
0.16151 0.30378 0.00871
0.20217 -0.22991 -0.13277
0.25481 0.31519 0.12385
0.03812 -0.27863 -0.20180
0.04160 0.03198 -0.17464
-0.20968 0.16518 -0.28779
-0.22029 0.01599 -0.19558
-0.05795 0.31976 0.03022
-0.17200 -0.17712 -0.08572
0.07347 0.31976 0.00302
-0.19272 0.26100 0.28779
-0.23505 -0.04748 -0.01599
0.18552 0.06340 -0.27180
-0.05190 0.13843 -0.27180
0.02465 0.04857 -0.28709
0.06693 0.30321 -0.25295
0.12785 0.03088 -0.27892
-0.05010 0.31976 -0.20520
-0.14663 0.01599 -0.18673
0.00340 0.18008 0.27180
-0.15677 0.18207 -0.28779
0.02301 -0.05832 -0.01599
-0.00046 0.30378 -0.00269
-0.11842 0.01599 -0.19507
-0.11046 -0.31839 0.25812
-0.08464 -0.26773 0.18635
0.04711 0.10377 0.27180
-0.20367 0.03198 -0.13324
0.10698 0.27253 -0.27180
-0.11364 0.06845 0.28779
-0.15778 -0.01993 -0.01599
-0.11117 -0.23605 0.16919
-0.17513 0.30378 -0.00887
-0.23889 0.03198 0.13605
-0.02165 0.30378 0.10616
0.12165 0.31976 -0.23483
-0.06880 0.17300 -0.28779
0.09037 0.31976 0.02053
-0.03392 -0.22925 0.13184
0.17844 -0.22247 0.12223
-0.00957 -0.17284 -0.07964
0.13859 -0.07348 -0.01599
0.22171 -0.18472 0.06874
0.19807 -0.18511 0.09703
-0.12427 0.08972 0.28779
0.17330 -0.28153 0.20589
-0.20146 -0.23966 -0.17431
-0.02272 -0.12066 0.03203
0.03490 -0.18000 -0.06207
0.07515 -0.31284 -0.25026
-0.24579 0.21867 -0.27180
-0.11568 0.30378 0.20724
0.20122 0.31976 0.24635
-0.00941 -0.22060 -0.11957
0.16874 0.31976 -0.14846
-0.21846 0.03583 -0.26084
0.22894 -0.17912 0.06081
0.20202 0.00760 0.03775
-0.22299 0.03198 0.13746
-0.23296 -0.11215 0.01599
0.03740 0.31059 0.27326
-0.21308 0.00175 0.03406
-0.18801 -0.18290 0.09390
0.06120 0.31976 0.14660
0.18331 0.23808 0.28779
-0.21932 -0.21144 -0.10660
0.15365 0.09096 -0.28779
0.03967 0.31976 0.11557
-0.20122 0.20003 -0.28779
-0.10179 0.03198 -0.23193
0.25481 0.30885 -0.06840
-0.21078 0.12927 0.27180
0.24313 0.31976 0.05818
-0.21392 0.17671 0.27180
0.02295 0.01599 -0.21187
-0.13314 0.12225 -0.27180
0.13693 0.03198 0.12629
0.11970 0.01599 0.08071
0.22194 -0.28287 0.23552
0.20894 0.01599 -0.17011
-0.17145 0.31683 0.26281
-0.18671 -0.18388 0.06757
-0.10020 0.31976 0.10462
0.00887 0.01395 -0.04631
0.14775 0.31976 0.06960
-0.11720 -0.31583 -0.25448
0.17236 0.02230 0.26933
0.22041 0.12646 -0.28779
0.05143 0.30378 0.20114
-0.22531 0.02333 0.27087
0.00425 0.07455 -0.28779
0.20173 0.03198 -0.22217
0.14217 0.30378 -0.07819
-0.21060 0.31976 0.01175
0.13531 0.30378 0.14033
0.12056 -0.05831 -0.01599
-0.11720 0.30378 0.12895
0.12206 0.03198 0.17011
-0.14524 -0.08043 -0.01599
-0.14874 -0.21921 0.14533
0.10511 -0.02310 0.03197
-0.13385 0.25787 0.28779
-0.20180 -0.22113 0.12034
-0.25371 0.11480 -0.27180
-0.17019 0.30378 -0.23744
0.02300 0.03198 0.16302
0.04192 0.30378 -0.23342
-0.06954 0.03198 -0.20630
0.18237 0.31976 0.05277
0.18608 0.07978 0.27180
0.21825 0.01599 0.14190
0.20116 -0.20942 -0.10374
-0.12586 0.19810 -0.28779
-0.24012 0.23179 0.28779
-0.22802 0.30341 -0.25192
-0.00475 0.31976 -0.16573
0.17055 0.18822 -0.27180
0.13893 -0.30336 -0.26454
-0.20431 0.03198 0.23205
0.01304 -0.17611 -0.05655
0.24518 0.03198 0.19869
-0.13815 -0.05837 0.03923
-0.25481 0.23134 0.28231
0.20751 -0.04411 0.03197
-0.06690 0.27090 0.27180
-0.19732 -0.26354 -0.18042
0.12914 0.30378 0.15081
-0.21958 0.30378 -0.05034
-0.24423 0.05998 0.28779
0.03917 -0.08399 0.03197
0.03682 0.31976 0.21406
-0.07141 0.05535 0.27178
-0.12353 0.31976 0.17452
-0.16003 -0.07445 -0.01599
-0.13494 0.16674 0.27180
0.24599 0.31976 -0.11145
-0.00183 -0.24511 -0.18202
0.02160 0.03198 0.18177
0.23129 0.30378 0.15010
-0.21050 -0.31976 -0.26176
0.02616 0.04299 0.28562
-0.08559 -0.02345 0.03197
0.25256 -0.03908 -0.01599
-0.25370 0.31976 -0.23464
0.10222 -0.19958 0.11753
-0.19009 0.30378 -0.01039
0.03368 0.03201 -0.24884
-0.14967 -0.31407 0.25200
0.20354 -0.29015 0.24583
0.08803 0.03918 0.26494
-0.23110 -0.23507 0.16780
-0.05609 0.31976 0.15057
-0.07429 0.07820 0.27180
-0.11784 -0.17182 -0.05047
0.24338 0.30378 0.24441
0.09757 0.07335 -0.28779
-0.06040 0.31976 0.24617
0.21598 -0.13678 0.03638
0.12626 -0.06519 0.03197
0.13659 -0.06920 -0.02588
0.15003 0.12387 0.27180
0.24929 0.30460 0.27914
0.14779 -0.17624 -0.05674
-0.19882 -0.28841 -0.21565
-0.13600 0.29464 -0.28491
0.22359 0.30378 -0.20095
-0.03038 -0.01668 0.01599
0.11905 0.30378 0.16607
0.13471 0.17950 0.28779
-0.17625 -0.06952 -0.01599
0.13424 0.31976 0.24705
-0.01079 -0.17656 0.08492
-0.24711 0.07025 0.27180
0.23624 -0.20596 0.12656
0.17233 -0.29544 0.22560
0.14351 0.30378 0.20044
0.11631 0.31976 0.17773
0.25476 -0.05990 -0.03198
-0.06948 0.13375 -0.27180
-0.07157 0.16833 0.27180
0.02225 -0.22131 0.12058
0.10840 -0.21852 -0.14436
-0.19712 0.01599 -0.12775
-0.02239 -0.09287 0.01599
-0.06886 0.03157 -0.05037
-0.04823 0.30378 -0.21622
-0.19167 -0.29934 0.23113
0.25481 -0.13088 0.01685
-0.02140 -0.06152 -0.03198
0.06455 0.03198 -0.05618
-0.03176 -0.09025 -0.01599
0.08608 0.31976 -0.10436
0.02632 0.31976 0.03558
-0.04015 -0.06682 0.01599
0.23285 0.20667 -0.28779
0.08815 0.03198 -0.16191
0.16793 -0.24536 -0.18238
0.25478 0.30197 0.25693
0.25481 0.31314 0.25701
0.18785 0.27055 -0.27180
0.21158 -0.03890 0.03197
0.15317 0.31976 -0.05935
0.08871 0.17410 -0.28779
0.08788 -0.08469 0.03197
0.04332 0.00679 0.03708
0.22211 0.03198 -0.17816
-0.01210 0.27944 0.27180
-0.11438 -0.28546 -0.23919
0.00874 0.25618 -0.27180
-0.13638 0.31976 0.19069
0.24088 0.29518 -0.28470
0.07666 -0.19253 -0.10753
-0.14652 -0.16441 0.03998
0.10468 0.29194 -0.26849
-0.07770 0.10957 0.28779
0.02858 0.09570 -0.28779
0.16126 0.26484 -0.27180
-0.09698 0.03198 -0.15000
0.05087 -0.04202 -0.01599
0.18426 0.16115 -0.28779
-0.10260 0.28374 0.28757
-0.11118 0.31958 -0.25144
0.17725 0.31976 0.21225
-0.01502 0.24742 -0.27180
0.25308 0.30227 -0.25615
0.16311 -0.08850 -0.01599
-0.12262 0.30378 0.00680
0.07484 0.01599 0.24301
-0.15282 0.02588 -0.27414
-0.12948 -0.00837 0.01599
0.00497 0.22891 0.27180
0.24072 0.30378 -0.11630
0.10842 -0.25412 0.19479
-0.16237 0.31976 0.12465
-0.11459 0.01599 0.15824
-0.14507 0.03198 0.08438
-0.17297 -0.12381 -0.01599
0.09538 0.01661 -0.25472
-0.25044 0.20984 -0.28779
0.16350 -0.29250 -0.22144
0.08640 0.31976 -0.21698
0.15632 -0.17593 0.05630
-0.20840 0.14016 -0.27180
-0.00355 0.01599 -0.07467
-0.04066 0.31976 0.15398
0.22886 -0.25939 0.20225
-0.06499 0.31641 0.26380
-0.10355 0.21108 -0.28779
-0.15936 0.03213 -0.25039
0.13538 0.21791 0.28779
-0.05080 0.12282 0.27180
0.16945 0.03282 -0.25412
0.04736 0.31976 -0.23056
0.20665 0.01599 -0.24684
-0.02988 0.31976 -0.16946
-0.21823 0.01599 -0.08963
-0.11692 -0.22636 -0.15546
0.12641 0.04799 0.27043
0.07552 0.19873 -0.27180
0.08556 -0.02687 0.03197
0.14091 -0.05129 0.01599
0.16580 -0.12799 0.03313
0.03478 0.31976 -0.03457
-0.05536 0.01599 0.07925
0.18452 0.31976 0.14320
0.09693 0.30378 0.12832
0.14290 0.03703 0.26254
-0.15244 0.13500 -0.28779
0.16165 0.31976 -0.20567
-0.00166 -0.06450 0.03197
-0.09619 -0.16836 0.07329
-0.21261 -0.29967 0.23159
0.12163 0.03198 0.14160
-0.01670 0.31976 0.07301
-0.13600 -0.21804 0.14368
-0.15168 -0.25836 -0.17307
0.25481 -0.07156 0.03184
0.12426 -0.23195 0.13567
0.09244 -0.07908 -0.03198
-0.24832 -0.08414 -0.03198
-0.25481 0.31343 0.03326
-0.11796 0.31976 0.04141
-0.07136 0.31976 0.10915
-0.08129 -0.23388 -0.13839
-0.12313 0.01599 0.07970
0.22675 0.01599 -0.24303
-0.19795 -0.08526 -0.01599
-0.19655 -0.27436 0.19574
0.12470 -0.10509 -0.01599
0.11552 0.01977 0.26473
0.14571 -0.22578 0.15464
0.22553 0.15687 -0.28779
0.00022 0.18329 -0.27180
-0.16192 0.00754 0.01914
0.02751 0.01553 0.05127
-0.16715 -0.04278 -0.01599
-0.14801 0.07647 0.28779
0.13085 0.01218 -0.04301
0.16402 -0.22584 0.15473
-0.23000 0.03198 0.11097
-0.13316 -0.03961 -0.03198
-0.03870 -0.24438 -0.18099
-0.01868 0.29167 -0.28596
-0.04704 -0.08326 0.01599
0.13676 -0.28752 0.21438
0.23131 -0.18839 0.07395
-0.12951 -0.28280 0.23542
0.15827 0.31976 0.14315
-0.10427 0.14836 -0.28779
-0.08480 0.31976 0.22184
-0.12641 0.01599 -0.06070
-0.21709 -0.19459 -0.11046
-0.22964 0.30378 -0.14165
-0.01378 0.30670 0.27735
-0.13483 -0.04490 -0.01599
-0.14322 -0.00233 0.03267
0.00427 0.10204 -0.28779
-0.25332 -0.19527 -0.08369
0.23910 0.09666 -0.28779
0.02130 0.01599 -0.10711
0.12939 0.21904 -0.28779
-0.10967 -0.30774 0.27076
-0.07194 0.02448 0.03269
0.02578 -0.10700 -0.01599
0.00328 -0.21994 -0.11864
0.14131 0.24234 0.28779
0.01908 0.01599 -0.09337
0.22740 0.01599 -0.13173
0.00476 0.03198 -0.19827
0.07146 -0.01696 -0.03198
-0.09393 0.30378 -0.20843
-0.06586 0.30378 0.18091
0.01193 0.22053 0.28779
0.00500 -0.30484 0.23892
-0.22191 -0.02304 -0.01599
-0.07134 0.17887 0.28779
-0.11837 -0.15135 0.02390
-0.22476 0.03198 0.09626
-0.01996 0.30378 -0.15790
0.14208 0.03036 0.04478
-0.17547 0.08304 0.27180
-0.03485 -0.21610 -0.11320
0.18208 -0.09114 -0.01599
-0.23808 0.27675 -0.27180
0.23718 0.31976 -0.24417
0.02337 -0.29468 -0.25225
0.16384 0.01599 -0.22070
-0.12858 -0.23782 0.17171
0.11816 -0.02371 0.01599
0.08564 0.00413 -0.01789
0.23253 0.01673 0.02457
-0.11565 0.28294 -0.28765
0.13992 0.14375 -0.27180
0.15171 -0.31269 0.27776
-0.03666 0.31976 -0.14250
0.05558 0.01599 -0.21314
-0.04808 0.12428 0.28779
0.04106 0.30378 0.13307
-0.05373 0.13217 -0.28779
0.20691 -0.16900 0.04648
-0.22742 0.31976 0.18358
0.04187 -0.22288 0.15054
-0.05701 -0.01939 -0.03198
0.03213 -0.20981 0.10429
0.22142 -0.30916 -0.24504
-0.02881 0.01599 -0.21718
0.06284 -0.28481 -0.21055
-0.20322 -0.28525 -0.23889
0.24988 0.08422 -0.28779
0.19726 0.30378 -0.12893
0.04549 0.01599 -0.07936
0.16484 0.20469 -0.27180
-0.23613 0.01599 -0.14500
-0.20408 -0.15290 0.05139
0.21372 0.01599 -0.21667
0.22213 -0.06047 -0.03198
-0.11917 -0.05324 -0.01671
0.03524 0.03198 -0.06563
-0.12554 -0.30570 0.24014
0.14746 0.03234 0.25189
-0.10287 0.06870 0.28779
-0.15283 0.31976 0.17592
0.13759 -0.19946 -0.08964
0.04618 0.03198 0.15679
0.22085 0.02033 -0.02776
0.08750 -0.00903 0.01599
0.06581 0.08730 -0.28779
0.19028 -0.09309 -0.01599
0.13654 0.05295 0.28766
-0.15826 -0.26838 -0.21500
0.06316 0.31976 -0.11320
-0.12871 0.31976 -0.11443
-0.16579 0.31976 0.03267
-0.06123 0.31976 -0.06617
-0.16848 0.30376 0.24824
0.13964 0.16710 -0.27180
-0.00302 0.22142 -0.27180
0.02700 0.02791 -0.03841
-0.10202 0.03198 0.12935
0.14168 0.21882 0.27180
-0.06875 0.31976 -0.21862
0.11245 0.03198 0.16046
0.19714 0.03198 0.21627
-0.20339 -0.27290 -0.22140
-0.18553 0.30378 0.23109
-0.21153 0.30378 0.03985
0.15544 0.01575 -0.05264
-0.02000 0.03198 0.15829
0.08198 -0.25177 -0.16374
0.08424 0.19036 0.27180
-0.25481 0.10317 0.27704
0.06927 0.24077 -0.28779
-0.03254 0.31976 0.16918
0.15285 0.21761 0.27180
-0.22873 0.31976 -0.07604
0.04842 -0.15019 0.04756
-0.08859 0.01599 0.06380
-0.25481 0.31473 0.12597
-0.09011 0.27995 -0.27180
-0.01286 0.03198 -0.17547
-0.25481 -0.09895 0.01705
-0.20100 -0.08165 -0.03198
0.03524 0.01599 0.07701
-0.10163 0.19714 -0.28779
-0.13854 0.30378 0.19795
-0.15710 0.03198 0.16716
-0.25481 -0.21749 -0.12892
0.25481 0.30680 -0.14953
0.13760 0.01645 0.25375
0.10979 -0.15762 -0.05808
-0.10655 -0.16401 -0.03942
0.19033 -0.21215 0.10761
0.05012 0.01599 0.11191
0.07923 -0.13450 -0.03530
0.11710 0.02891 -0.27722
-0.11727 -0.28185 0.23407
-0.24377 0.08973 -0.27180
-0.04892 0.31976 0.05583
0.12875 0.30378 0.02490
-0.03020 0.31976 -0.11326
0.17522 0.20675 -0.28779
-0.19017 -0.02428 -0.01599
0.14983 -0.11219 -0.03198
-0.07369 0.01599 0.10193
0.25053 0.10363 -0.27180
-0.21727 0.03198 0.23132
-0.23773 -0.05895 0.01599
-0.12244 0.30378 0.01881
-0.04908 -0.04162 0.03197
-0.24381 0.03198 -0.14412
0.01553 -0.03787 -0.03198
0.15494 0.12773 -0.28779
0.05621 0.30378 -0.23647
-0.16373 -0.23784 -0.17173
0.08631 0.20098 -0.27180
-0.11706 -0.16023 -0.03406
0.19278 0.31976 0.05127
-0.00043 -0.15317 0.05178
-0.22062 -0.14179 0.01839
0.01462 0.01599 0.09056
-0.18117 0.31976 -0.12138
-0.06513 -0.14727 0.04404
-0.09073 -0.25601 0.16975
-0.18066 0.17538 0.28779
-0.21516 0.30378 -0.24236
-0.24072 0.00709 -0.03733
0.18887 -0.09036 0.03197
0.24879 0.03198 0.21005
0.02680 0.03198 0.18703
0.19822 0.13597 0.27180
0.06331 -0.28093 -0.20505
-0.08588 0.24227 -0.27180
0.09581 0.02072 0.02818
0.14950 0.26805 0.27180
0.19717 0.28122 -0.27175
0.16601 0.16827 -0.27180
-0.12895 -0.19467 0.11057
0.10760 0.03198 -0.16564
0.23128 -0.03336 0.03197
-0.15402 0.01599 -0.22691
0.18561 0.30378 0.20695
-0.08979 -0.17113 -0.04950
0.10164 0.01599 0.14654
0.10522 0.31976 -0.20498
-0.04584 -0.06798 0.03197
-0.24296 -0.05585 -0.03198
0.18246 0.31976 -0.13565
-0.08960 0.14710 0.27180
0.23986 0.14496 0.27180
0.18468 -0.31904 -0.28677
0.02702 0.31976 -0.07058
-0.23014 0.10849 0.28779
-0.02615 0.07191 -0.27180
0.05791 0.29953 -0.26143
-0.08443 0.03198 -0.08806
-0.22649 -0.16720 0.04393
0.09621 0.30244 0.25570
0.05166 0.23759 -0.28779
0.25481 -0.23606 -0.15835
0.06433 -0.24372 0.15233
-0.07673 -0.25017 0.18920
-0.07978 -0.18254 0.06566
-0.20577 0.03198 -0.24153
-0.21932 0.22851 0.27180
0.22070 -0.02701 0.01599
-0.23442 -0.09095 0.03197
-0.09631 0.04066 0.26627
-0.14262 0.31595 0.26482
-0.08634 -0.15005 -0.02288
-0.24016 -0.24627 -0.18367
-0.25481 0.30477 -0.02790
0.21574 -0.25080 -0.16237
-0.00078 0.03198 0.20919
0.22138 0.07902 -0.28779
0.10295 -0.24650 -0.15627
-0.12836 0.30378 0.00538
0.01557 -0.21646 -0.14144
0.01875 -0.17987 0.08960
0.01234 0.30378 -0.14949
-0.03725 0.03198 -0.10840
0.05963 0.31976 0.11772
-0.13573 0.01599 -0.22715
0.19634 -0.08920 0.03197
-0.09379 -0.24528 -0.18227
-0.04555 0.03198 0.07227
-0.02320 -0.27955 -0.23082
-0.05536 0.00699 0.01891
-0.10496 0.01599 0.09110
0.10906 -0.25144 0.16326
-0.05458 0.31976 -0.06767
-0.20635 -0.07870 0.03197
-0.05530 0.19984 0.28779
-0.07461 -0.28971 -0.24521
0.24261 -0.21268 -0.13608
-0.08783 -0.07509 0.01599
0.15926 0.03869 -0.26444
0.01333 0.03198 0.18482
0.11722 -0.26759 0.18615
-0.25481 -0.14403 0.03367
0.14428 -0.31976 0.28256
-0.09074 0.08803 0.28779
0.12171 0.30378 -0.00165
0.10924 0.30378 -0.19285
0.21287 0.01439 0.04739
-0.15587 -0.02889 0.01599
-0.16507 -0.30068 0.23302
0.21400 -0.20207 -0.09333
0.09935 -0.25867 -0.20124
0.25366 0.03482 -0.25912
-0.11487 0.15378 0.27180
-0.01650 0.02165 0.02917
-0.05000 -0.21892 -0.11720
-0.03745 0.31976 -0.05747
-0.17692 0.03198 -0.07213
0.13786 0.01599 0.17258
0.16397 -0.11457 -0.01599
0.09421 -0.07129 0.01599
-0.05198 -0.21356 0.10961
-0.09617 -0.25984 0.17518
0.23405 0.02432 0.03247
0.03839 -0.12879 -0.01599
-0.24371 -0.14353 -0.01910
0.05396 -0.05743 0.01599
-0.01313 0.31976 -0.21934
0.25481 -0.15373 0.04281
-0.24323 0.01683 0.25594
0.22330 0.20978 0.28779
-0.08672 -0.31900 -0.25898
-0.17292 -0.31976 0.27169
0.19520 -0.19012 0.07641
0.20679 0.02117 -0.26748
0.17071 -0.17904 0.08843
0.18001 0.12907 -0.27180
-0.24865 -0.03714 0.01599
-0.19237 0.01599 0.11102
0.00414 -0.19722 -0.08646
0.10651 -0.14330 -0.04053
0.04291 0.30378 0.06500
0.17058 0.01599 0.18201
0.01307 -0.30913 -0.24501
0.18816 -0.20885 -0.10293
-0.08073 0.30378 -0.09166
-0.03218 -0.28524 -0.23888
0.05790 0.01802 -0.26038
-0.08966 -0.31942 -0.28730
0.11652 0.03198 0.10755
-0.08266 0.03198 0.14286
0.10570 0.03198 0.10613
-0.08843 -0.13011 0.01602
0.12424 0.01555 -0.05142
-0.23932 0.30524 -0.27862
0.19485 -0.31976 0.28451
0.15626 0.01599 -0.12809
0.10053 -0.04507 -0.03198
0.18322 0.01599 -0.08172
0.18753 0.12944 -0.28779
0.16897 0.01599 -0.19805
0.21160 0.31976 -0.15316
0.13181 0.08198 0.27180
-0.07175 0.18850 0.28779
-0.04038 -0.11399 -0.03198
-0.02358 0.03116 -0.04794
0.12778 -0.14785 -0.02140
-0.04005 -0.09710 0.03196
-0.05495 0.31976 -0.21038
0.10993 0.00551 0.03614
-0.04206 0.09715 0.28779
0.20152 -0.26153 -0.20529
-0.00708 -0.15425 -0.05331
-0.19377 0.01599 -0.11624
-0.06655 0.30093 0.25912
-0.02900 0.01599 -0.19561
0.04832 0.01599 0.11874
-0.17774 -0.29111 0.21947
-0.07975 0.29276 -0.26798
0.23820 0.16745 -0.28779
-0.25370 -0.22628 0.12762
0.19510 -0.02430 -0.01599
-0.12607 -0.25648 0.19814
-0.15005 -0.01023 0.01599
0.21364 0.01599 -0.19325
-0.02125 0.31976 -0.14023
-0.15100 0.03198 -0.13924
-0.08582 0.01626 -0.25227
0.09100 0.03198 -0.09779
-0.14246 0.15046 -0.28779
0.14869 -0.17994 -0.06197
0.16848 0.04158 0.26700
0.08529 0.12958 -0.28779
0.08778 -0.23362 0.13803
0.11935 -0.16179 -0.03627
-0.11882 -0.20552 -0.12594
0.15841 0.30378 -0.18830
-0.01768 -0.24594 0.15548
-0.00770 0.03198 -0.06054
-0.10500 0.31976 -0.07793
-0.02023 0.01599 0.22467
0.01362 0.03198 -0.17622
0.20425 0.01599 0.15337
0.21526 0.30273 -0.25479
0.00210 0.03198 -0.18023
-0.14752 0.29688 -0.26463
-0.02272 0.13996 0.28779
-0.10393 -0.02034 -0.03198
0.12413 -0.30030 -0.23248
0.18575 0.05043 0.28740
-0.15126 0.21720 0.28779
0.17283 -0.26059 0.20395
0.21482 0.01599 0.22493
-0.18216 0.01599 0.15061
0.24800 0.03198 -0.12852
-0.25481 0.02690 0.24456
0.04793 0.03198 -0.06773
0.18697 0.05831 -0.28779
-0.11406 0.31976 -0.15731
-0.19746 -0.30893 0.27244
0.19108 0.10834 -0.27180
0.13034 -0.22015 -0.14667
0.14921 0.03648 0.28270
-0.02783 0.15935 -0.27180
-0.15635 0.03198 -0.10228
-0.25078 -0.00314 -0.01629
-0.17940 0.01599 0.06697
0.23375 0.17920 0.27180
-0.09035 0.06627 0.27180
0.12377 -0.07386 0.02210
-0.05398 -0.04060 -0.01599
-0.17591 0.03532 0.26002
0.00180 0.03198 0.15979
-0.04872 0.01599 0.17285
0.13985 -0.02301 -0.01599
0.23838 -0.16150 -0.06358
0.15609 -0.22089 -0.14772
-0.15818 -0.12638 0.01599
0.25228 0.18292 0.27180
0.17092 0.06717 0.27180
0.14819 -0.15729 0.05762
-0.09365 0.01599 0.13217
0.13087 0.01599 0.15685
-0.22303 0.01599 0.15249
-0.03454 -0.02263 0.03197
-0.12665 0.10428 0.28779
-0.11459 0.11592 0.28779
0.15756 0.31976 0.24355
-0.11645 -0.06811 0.03633
-0.11967 0.31976 -0.03090
-0.14264 0.31976 0.24252
0.20084 0.01599 0.19282
-0.18424 0.18648 -0.27180
0.00731 0.13389 -0.28779
-0.21312 0.30378 0.05466
0.02597 -0.28447 -0.21007
0.19666 0.27532 0.28779
0.13360 -0.26169 0.20552
0.12626 0.30378 0.11313
0.21712 0.31976 -0.20194
0.03993 -0.24019 -0.14733
-0.19125 0.30378 -0.14353
-0.22152 -0.22938 -0.15974
-0.07631 -0.06943 0.03197
0.14518 0.31976 -0.02810
0.18279 0.28549 0.28737
-0.04446 -0.00474 0.01614
-0.21855 0.14244 0.28779
0.24618 0.30378 0.11702
-0.07732 0.03198 -0.06278
0.09967 -0.20926 0.13125
0.04187 0.14532 0.27180
0.15867 -0.15560 -0.05522
0.15929 0.30378 0.05424
0.02178 0.31791 0.25978
-0.01492 0.26519 -0.28779
-0.25481 -0.04622 0.03044
-0.23756 -0.25590 0.19731
0.05438 0.17757 -0.28779
-0.04656 0.14384 0.28779
-0.02855 -0.27514 0.22457
-0.01299 0.29615 0.26534
0.01665 0.22353 0.27180
0.05889 -0.16061 -0.03459
-0.13794 -0.31976 -0.27207
-0.24708 0.30378 0.20432
0.05792 0.03198 0.09490
0.19717 0.30378 -0.05038
0.21813 0.31976 -0.05075
0.09158 0.30378 -0.04094
-0.24539 0.30378 -0.11944
-0.24561 0.11926 0.28779
-0.07420 0.31976 -0.19401
-0.02236 0.01599 -0.15009
-0.04372 0.29536 -0.28462
-0.22530 0.01599 -0.22974
0.15131 0.31976 0.18700
0.07059 0.31976 0.16960
-0.16829 0.30378 -0.13445
-0.10835 0.30378 0.21073
-0.04322 -0.19180 0.10650
0.13860 -0.12318 -0.01599
-0.16474 -0.00518 -0.03215
0.24410 -0.23596 0.16906
-0.06016 -0.19295 -0.10814
0.25193 0.30378 0.23985
-0.09231 0.17340 0.27180
-0.14439 -0.29191 -0.22061
0.09797 0.28919 -0.28665
0.12895 0.01599 -0.06458
-0.20572 0.19119 0.27180
-0.06434 0.01599 0.24724
0.19668 0.01599 0.15433
0.22171 -0.09055 -0.01599
-0.04552 0.01599 0.07643
0.16054 0.01599 0.16384
-0.23834 -0.24516 0.15438
0.11673 -0.00837 0.01599
-0.11106 0.31976 -0.12523
-0.13548 -0.00267 -0.03259
0.19029 -0.31525 -0.25367
-0.07171 -0.23208 0.13584
-0.25481 -0.11112 -0.02309
-0.16138 0.01599 -0.14177
-0.11953 -0.28761 -0.24224
0.00904 0.13425 0.27180
-0.17579 0.31976 -0.14246
-0.10600 0.31976 0.10352
-0.17916 0.30378 0.04495
-0.19382 -0.01049 0.03198
0.07131 0.31976 -0.14837
0.18663 0.27407 0.27180
-0.16940 0.30378 0.18209
0.18350 -0.23246 0.13638
0.24341 0.15744 -0.27180
-0.04585 0.06566 0.28779
0.18075 0.01599 0.13980
-0.11499 -0.11295 -0.01599
-0.20980 0.03198 -0.19834
-0.22652 0.01599 -0.16572
-0.08279 0.31879 -0.25650
-0.15676 0.27273 -0.27180
0.21501 0.23074 -0.27180
0.17076 -0.04035 -0.01599
0.15666 -0.20000 -0.09040
0.09877 -0.31976 0.26074
-0.03827 0.30378 -0.18046
-0.14340 -0.29780 -0.22895
0.07804 0.13476 -0.27180
-0.02988 -0.09976 0.03196
-0.09294 0.24694 0.27180
-0.06357 0.31976 0.23798
-0.17388 0.31976 0.07072
0.12887 -0.12122 0.03207
-0.08330 -0.19572 0.11206
-0.10598 -0.04208 -0.03198
0.10804 0.30378 0.17140
-0.10702 0.05136 -0.27135
-0.20274 -0.05953 0.03197
0.25481 -0.00590 0.01857
0.17524 0.30378 0.21050
-0.16061 0.30378 -0.21423
-0.21644 0.16903 0.28779
0.21485 -0.15311 0.05170
-0.02635 0.03198 -0.24391
0.02821 0.01599 -0.11156
0.05516 0.30378 -0.14056
-0.14032 -0.20338 -0.12291
-0.12984 0.01599 -0.06831
0.21623 -0.24455 -0.15351
-0.22229 0.12140 0.28779
-0.10416 0.07292 -0.27180
0.02304 -0.27003 -0.18961
0.17969 0.03198 0.15990
-0.12297 -0.27735 -0.22770
-0.07322 0.11964 0.27180
-0.02564 0.03198 -0.17188
0.14978 0.31934 -0.25351
0.08229 -0.27600 -0.22579
-0.12564 -0.31976 -0.28376
0.17276 0.00954 -0.03962
0.10137 0.31976 -0.04600
0.19346 0.31606 0.26457
-0.10866 0.01750 0.02520
0.18612 -0.04866 -0.01599
0.17535 0.31976 0.20142
-0.10093 0.14310 -0.28779
0.25481 0.03593 0.28016
-0.05514 0.20013 0.27180
0.23621 0.31976 0.06696
-0.01134 -0.14928 0.04627
-0.00746 0.30378 0.22767
0.14803 -0.14828 -0.04510
-0.02383 0.30378 0.20031
0.10296 0.30311 0.25339
-0.14287 0.11599 0.28779
-0.23892 0.06335 0.28779
-0.25183 0.11185 0.27180
-0.07554 0.31976 -0.06165
0.10807 0.03198 -0.09370
0.24330 0.02333 0.03116
0.24856 0.30965 -0.27438
0.16852 0.03198 0.14070
-0.00730 -0.15474 0.02698
-0.05994 -0.04341 -0.01599
-0.17437 -0.05624 -0.01599
-0.24797 0.28406 0.27141
0.09288 0.03198 0.07853
0.17643 0.03198 -0.06903
0.02281 -0.23344 0.16549
0.04944 0.01599 -0.05895
-0.10635 0.03198 -0.13528
-0.15500 0.06610 0.27180
-0.04685 -0.24993 -0.18886
-0.07842 0.03198 0.05783
0.25171 -0.13480 0.03545
0.09509 -0.26749 0.18601
0.15332 0.03198 -0.08858
-0.04464 0.06263 0.27180
-0.20667 -0.13580 0.03592
-0.09687 0.01971 0.02717
-0.17967 0.30377 -0.24815
0.11398 0.30244 -0.28074
0.22000 0.11431 0.28779
0.10759 -0.17756 -0.08633
0.17657 0.01599 -0.22699
-0.12752 0.15348 -0.28779
-0.04731 -0.29380 -0.22329
0.06726 0.10710 0.27180
0.20064 0.08352 0.28779
0.08359 0.27196 0.27180
-0.00688 -0.29423 0.25162
-0.25459 -0.18844 -0.10175
-0.02704 -0.20576 0.09855
0.22125 0.31976 -0.16782
-0.14399 0.06960 0.28779
0.25481 0.03027 0.10385
-0.16967 0.17741 0.28779
-0.11003 0.03188 -0.27971
-0.03716 0.01599 -0.17281
-0.13444 0.13313 -0.28779
0.23558 0.03198 -0.08796
0.14426 0.30378 0.16638
0.17323 0.30378 0.21792
0.15970 0.31976 -0.12557
-0.11550 0.09684 -0.28779
0.09072 -0.28102 0.20517
0.19844 0.21152 0.28779
0.22012 0.30378 -0.03424
-0.01758 0.31976 -0.20489
0.03133 0.30347 0.28000
0.09266 0.31976 0.07041
0.01874 0.30378 -0.06334
0.03321 0.08098 0.28779
0.16240 -0.19741 -0.11445
0.18244 0.30378 0.01571
-0.14476 -0.28319 0.20825
0.02286 -0.26507 -0.21030
-0.09393 0.01599 -0.09343
-0.12018 0.30378 0.16536
0.09110 0.01599 0.07008
0.16672 0.30378 -0.13548
0.13098 0.17069 -0.27180
-0.09955 0.14070 -0.27180
0.16485 0.03198 0.16687
0.01510 0.21746 -0.27180
0.01335 0.24265 0.27180
-0.22090 -0.27663 0.22668
0.04310 0.31976 -0.19846
-0.16501 0.30378 -0.19401
-0.25481 0.02608 0.07707
-0.01734 0.30378 0.00821
-0.17870 0.25391 -0.27180
-0.20250 -0.31119 -0.24792
-0.08582 -0.03074 -0.01599
0.13816 0.12340 0.28779
-0.01228 -0.18752 0.07271
0.16305 0.13104 -0.27180
0.12058 -0.17716 0.08576
0.18273 -0.05944 0.01599
-0.22139 0.25251 -0.28779
0.14920 -0.21337 0.10934
-0.13843 0.01599 -0.09781
0.12806 -0.21912 0.11748
-0.02382 0.02759 0.27597
0.18764 -0.06732 0.01599
-0.22158 0.08863 -0.28779
0.10440 -0.19189 -0.10664
-0.11416 0.01599 0.17761
0.05552 -0.15674 0.05683
0.05948 -0.29833 -0.22970
0.23604 -0.17436 0.05407
-0.22803 0.30378 0.04301
-0.20058 -0.26654 -0.18466
0.24322 0.01567 0.05215
0.17498 0.30378 -0.04246
0.24628 -0.10196 0.03196
0.17965 0.07561 -0.28779
0.10843 -0.26604 -0.21167
-0.25481 -0.11629 -0.03145
0.05969 0.13046 -0.28779
0.12728 -0.11363 0.01599
-0.24657 -0.16422 0.03970
-0.15812 -0.31368 -0.25145
-0.03694 -0.17823 0.05955
0.14199 0.08286 -0.27180
-0.00426 0.30378 0.09660
-0.16164 0.03198 0.06315
0.24641 0.31976 -0.02682
0.09321 0.29316 -0.26773
0.05058 0.14718 -0.27180
-0.12630 0.02918 0.04132
0.03699 -0.05095 0.03197
0.20987 0.31976 0.09500
0.03746 -0.30550 0.26758
0.13780 0.01599 0.10997
-0.06374 -0.11536 -0.03198
0.15011 0.15972 -0.27180
-0.05570 0.16835 0.27180
0.23289 0.22016 0.28779
0.24212 0.30378 0.16943
0.10583 0.31976 -0.14667
-0.15818 0.28684 0.28714
0.15356 0.30378 -0.04561
0.18841 0.19693 -0.27180
0.14946 0.23016 0.28779
0.21692 0.17302 0.28779
0.01750 -0.06857 -0.03198
0.06582 -0.03593 0.01599
-0.00103 0.30378 -0.19604
0.07655 0.05066 -0.28743
-0.23060 0.03198 -0.20617
-0.13615 -0.05496 0.01599
0.16717 -0.26180 0.20568
-0.10418 0.25463 -0.28779
-0.15541 0.31976 0.08595
0.15500 0.04460 0.26892
-0.13905 0.03198 0.24560
-0.07635 -0.27058 -0.19039
0.22880 0.03198 0.05771
0.20172 -0.00916 -0.01599
0.21497 0.31690 0.26263
-0.24680 0.30378 0.10810
0.03284 0.08975 0.28779
-0.03685 0.31976 0.08389
-0.15431 -0.14849 -0.04532
-0.14851 0.03848 -0.28376
0.09645 0.13747 0.27180
0.15277 -0.23452 -0.16702
0.18211 -0.03547 -0.03198
-0.12902 0.06911 -0.28779
0.22362 0.01599 -0.10541
-0.23145 0.31976 0.01207
-0.13046 -0.02807 -0.03198
0.21424 0.19989 0.27180
-0.07280 0.03072 0.04605
0.25481 -0.19127 0.10508
-0.09370 -0.11952 0.03196
0.06048 -0.31976 -0.26892
-0.21518 -0.12149 -0.01599
0.03827 0.31976 -0.06814
0.13482 0.18609 0.27180
0.17479 0.02529 -0.03383
0.03098 0.07139 0.27180
0.03213 0.01599 0.19135
-0.23715 0.01599 0.15699
0.10304 -0.21826 0.14400
0.02853 0.01599 0.18032
0.12402 -0.22733 0.12911
-0.13385 -0.19035 0.10445
-0.09695 -0.12755 -0.01599
0.20679 0.20342 -0.28779
0.16297 -0.15588 0.02824
-0.03065 -0.17333 0.05262
0.23318 0.30378 0.22484
0.06590 -0.24461 0.18132
0.10602 0.30378 -0.17093
-0.01386 0.30378 0.22662
-0.25311 0.31976 -0.21041
-0.06328 0.31976 -0.21136
-0.00824 -0.26054 -0.17616
0.05552 0.12591 -0.28779
-0.24341 0.03216 -0.25074
-0.10652 -0.11332 0.03196
0.02641 0.01599 -0.24056
-0.18813 0.30277 -0.25464
-0.20672 -0.00063 0.01668
-0.14083 -0.28406 -0.23720
-0.01906 0.30378 -0.23946
0.16918 0.03198 -0.09347
0.07696 0.31976 -0.00375
-0.16819 0.23824 0.28779
0.23612 0.04565 -0.28643
0.09466 0.05304 -0.28767
-0.20350 0.17100 0.27180
-0.21806 -0.10975 0.01599
0.13295 -0.25895 -0.20164
0.21379 -0.06628 0.01599
0.00720 -0.09254 -0.03198
-0.23242 0.23275 0.27180
0.00827 -0.23617 0.14164
0.06489 0.29856 0.26274
0.13393 0.03198 -0.11714
0.22046 -0.18062 0.09067
0.12972 0.01746 0.25852
-0.07508 0.03198 0.23417
-0.24071 -0.12019 0.03200
0.20629 0.03158 0.05044
-0.07556 0.31976 -0.11652
-0.15594 0.27611 0.28779
0.23465 -0.18111 -0.06364
-0.23411 -0.20026 0.11849
0.19082 0.31976 0.14662
0.05485 0.01599 -0.08490
-0.04908 -0.25941 0.20228
0.03397 0.03198 -0.09743
0.11795 0.30378 -0.19714
-0.19767 -0.04049 0.01599
-0.16476 -0.01465 0.03197
-0.23636 -0.15277 0.05122
0.23947 -0.15564 0.02797
-0.22402 -0.12496 0.01599
0.06263 0.30378 -0.09014
0.12623 0.21239 -0.27180
-0.07503 0.30378 0.10279
0.01730 0.19705 0.28779
0.15875 0.06365 0.28779
0.05417 -0.23994 -0.17470
0.13311 -0.31223 0.24939
-0.05807 0.31976 -0.02012
-0.01116 0.01131 0.04175
0.09577 -0.21768 0.11544
0.25339 -0.12762 -0.03305
-0.14819 0.01603 -0.24908
-0.00138 -0.20383 -0.12354
-0.13132 0.04904 -0.28717
0.25481 0.14273 0.27194
0.08203 0.31976 0.07924
-0.13757 0.31976 -0.24047
0.22786 0.31976 0.15692
0.04149 0.03198 0.05861
0.01483 -0.06199 0.01599
-0.10938 0.30378 -0.15165
-0.18849 0.20936 0.28779
0.25240 0.01599 -0.19673
0.12709 -0.25592 -0.16962
0.03160 -0.14799 -0.02148
-0.11617 -0.24702 0.18473
-0.14751 0.09979 -0.27180
-0.17189 -0.22792 0.15768
-0.01371 0.30378 -0.15011
-0.15263 0.03198 -0.15854
-0.17690 0.31976 -0.09187
0.00028 -0.06964 -0.01599
0.04315 0.01648 -0.02437
0.11597 0.30378 -0.19182
-0.14546 0.01206 -0.02138
-0.09322 0.05268 0.27157
0.12695 -0.31976 -0.28088
-0.23897 0.30378 -0.23694
0.12274 0.31976 -0.12243
-0.15118 -0.29388 0.22339
0.19054 -0.29110 -0.21946
-0.05763 -0.22024 0.11907
0.06626 0.03198 0.18498
-0.18155 0.06413 -0.27180
0.22225 0.30378 -0.00401
0.11191 -0.10908 0.01599
0.11360 0.31976 0.23815
-0.24818 -0.02026 0.01599
-0.02619 0.30378 -0.22681
0.24949 0.30378 0.01947
-0.20115 0.31976 0.12798
0.12815 -0.31976 0.26406
-0.01909 -0.31958 0.28753
-0.24726 0.09399 0.27180
-0.10050 0.30378 0.16417
0.25307 0.01599 0.14464
-0.08692 0.03198 0.16044
0.07506 0.31583 0.26509
0.25481 -0.23887 0.15619
-0.02998 -0.26098 -0.17679
-0.19961 -0.24567 0.18282
-0.03854 0.03198 0.24355
-0.12126 -0.11429 -0.03198
-0.15362 -0.22657 -0.12803
0.24196 0.31976 0.02279
0.13287 -0.11958 -0.03196
0.24989 0.03198 0.06658
-0.25155 0.24973 0.28779
0.17136 0.27558 -0.27180
-0.20493 0.09261 -0.28779
0.19667 0.15283 -0.27180
-0.15122 0.01599 -0.06919
0.24026 -0.30459 0.23857
-0.05945 0.01599 0.12250
-0.23936 0.00171 0.01720
0.16243 0.20881 0.27180
-0.13019 -0.18526 -0.09723
0.25481 -0.05182 -0.01709
-0.18695 0.03198 0.23891
-0.25436 0.01599 -0.09133
0.23363 0.03198 0.14504
0.06858 0.04345 0.26826
0.07957 0.31976 -0.09508
-0.11202 -0.10534 0.03196
0.01390 -0.31747 0.25681
-0.11684 -0.21333 0.10928
0.23902 -0.29424 0.25163
-0.01061 0.25461 -0.27180
0.13337 0.02435 0.27228
-0.17561 0.30378 0.22932
0.18196 -0.25486 -0.16812
0.12974 -0.06519 -0.01599
0.04551 0.01599 0.23643
0.24914 0.29516 0.26622
-0.20280 0.31976 -0.23092
-0.22435 0.13500 -0.27180
0.13064 0.13814 -0.27180
-0.10854 0.31976 0.04384
0.18385 -0.07653 0.03197
0.21382 0.30378 0.06647
0.00347 0.03198 -0.09277
0.22830 0.19423 -0.28779
0.06457 -0.28232 0.20702
-0.13573 0.01599 -0.19213
0.25481 -0.20971 -0.11598
-0.05545 -0.13089 0.01603
-0.23876 -0.18965 -0.07573
-0.08062 -0.15717 -0.02978
-0.17826 0.30954 -0.27450
-0.03319 0.04227 -0.28535
0.10777 0.30378 0.03975
0.21307 0.04748 -0.27024
0.22229 0.01599 -0.21966
0.23373 -0.27503 -0.22442
-0.00579 0.18413 -0.28779
-0.17481 0.04949 0.27090
0.09554 0.29244 0.26818
-0.16644 0.06105 0.27180
0.12529 -0.03596 0.01599
0.17746 -0.31976 0.28188
-0.11919 0.01618 0.25146
-0.00671 -0.17622 0.05671
-0.07970 -0.15753 -0.05795
0.10153 -0.29761 -0.22868
0.15982 0.14658 -0.27180
-0.24677 -0.19766 0.11481
0.09079 -0.30271 0.26363
-0.06968 0.31976 -0.05272
-0.23961 0.03198 0.16083
0.14979 0.31976 0.19807
0.21713 0.27915 -0.28779
-0.24307 0.12696 -0.28779
0.00812 0.08139 0.27180
0.25317 0.05961 0.28779
0.11129 0.01599 -0.24402
0.23141 0.03198 0.06300
-0.16019 0.30378 0.01899
0.15160 0.31976 0.07580
-0.08293 0.03198 0.18447
-0.08506 0.03198 0.23390
-0.02997 0.16649 0.28779
-0.09072 0.19326 -0.27180
-0.16625 -0.25262 0.19267
0.08867 0.03198 -0.11043
0.08352 0.11685 0.27180
0.16083 0.03198 0.06440
-0.07660 0.20032 0.28779
0.21132 0.30378 0.13578
0.21959 0.01270 0.02179
0.14932 0.02951 0.04219
-0.13804 -0.17546 0.05563
-0.10927 0.01054 -0.04076
0.11743 -0.03906 0.03197
-0.09143 0.03588 -0.28237
-0.12914 0.01982 0.02727
0.07633 -0.16345 -0.03862
0.21634 -0.30001 -0.25980
0.22595 -0.01025 -0.03198
-0.23551 0.30378 -0.01483
-0.21664 -0.24669 0.15654
0.03180 0.31976 0.16028
-0.16463 0.18621 0.28779
0.19752 0.30251 0.25551
-0.24415 -0.24139 -0.17677
0.24502 0.31976 0.05226
-0.25481 0.30399 -0.02074
-0.07610 0.30378 -0.20362
0.10067 -0.17514 -0.08290
-0.23558 -0.13297 0.01623
0.02143 -0.17849 0.05992
0.19993 -0.16996 0.07556
0.25195 0.07875 0.28779
-0.16759 -0.07302 -0.03198
0.16619 -0.29370 0.22314
0.20941 0.01599 0.07064
0.11153 0.09501 0.28779
0.03950 0.31976 0.10928
-0.21552 0.31114 -0.27259
0.06057 -0.27611 -0.19822
-0.17929 -0.27530 -0.19707
0.19146 0.00493 -0.01814
-0.21287 0.19118 0.28779
0.11901 0.01599 0.18224
-0.09014 0.01599 0.20046
0.25481 0.31726 0.02326
0.12817 0.03130 -0.04874
0.11887 0.10529 -0.28779
0.11955 0.31976 0.03206
0.07304 0.03198 0.16328
0.16554 -0.15922 -0.03263
-0.20135 -0.16776 0.04472
-0.05918 0.04997 0.27103
-0.04354 -0.28118 -0.23312
-0.20175 0.30378 0.10969
-0.13353 0.30378 -0.20796
-0.15703 -0.31084 -0.27514
0.23910 -0.01822 0.01599
-0.01208 0.19733 0.28779
0.03360 0.09535 0.27180
-0.22148 0.25929 0.28779
-0.00766 -0.28263 0.23517
-0.23180 -0.27833 -0.22909
-0.21185 -0.31976 -0.28145
-0.00787 -0.22661 0.15582
0.20603 0.31976 0.12913
0.21460 0.30378 0.04513
-0.06913 0.06218 -0.28779
0.02329 0.01599 0.10694
-0.21305 0.03476 0.28168
0.17907 0.06503 -0.27180
-0.22339 0.29149 -0.28602
-0.23160 0.03198 -0.08707
-0.10766 -0.31976 0.26934
0.21318 -0.07396 -0.03198
0.18610 0.03198 0.19025
-0.16599 0.01599 -0.07185
0.03580 -0.31976 -0.26327
0.13654 0.12677 -0.28779
0.02645 0.08155 0.28779
0.18860 0.15059 -0.27180
-0.11494 -0.06246 0.04290
-0.08947 0.18889 0.27180
0.17700 0.02652 -0.27482
-0.00377 0.03358 0.25639
0.25324 0.07928 -0.27180
-0.21778 -0.19899 0.08897
0.22089 0.30378 0.08068
0.08368 0.19113 -0.27180
0.09703 -0.23192 0.16334
0.20485 -0.21968 0.14600
-0.11400 0.08937 -0.28779
-0.00649 0.09292 0.28779
0.08905 0.31268 0.27052
0.19576 0.19393 -0.28779
-0.21377 0.31976 0.24188
-0.05212 0.25282 -0.28779
-0.15952 0.17418 0.27180
0.07242 0.27424 0.28779
0.08653 -0.22007 0.14656
0.00133 -0.27478 -0.22406
-0.14845 0.31976 0.14571
-0.08767 0.31976 -0.14400
-0.10210 -0.26104 -0.17687
0.05460 -0.25885 -0.17377
-0.24110 0.03198 0.07171
0.02073 0.07757 0.28779
-0.19986 -0.03051 -0.03198
0.01302 -0.18165 0.06440
0.24679 0.03198 -0.19058
-0.02763 0.03198 0.07387
0.24032 0.01599 -0.08297
-0.18398 0.26250 -0.28779
-0.08550 0.03198 0.09131
-0.14360 0.08575 -0.28779
0.19304 0.30378 -0.04111
0.04138 0.30378 0.21543
0.19010 -0.06918 0.03197
0.05420 0.23642 -0.27180
0.02691 0.30378 -0.14639
0.11954 0.03198 -0.18787
-0.14083 0.01599 0.22053
0.16556 0.31976 -0.02370
-0.19006 0.20696 -0.27180
-0.04473 0.31976 -0.03326
0.07591 -0.30396 0.23767
0.19129 -0.06366 -0.01599
0.14366 0.25627 0.28779
0.10476 0.31976 0.21886
-0.25039 0.29707 -0.26444
0.21741 0.31976 -0.03066
0.16949 0.19774 0.28779
0.21148 0.20201 0.28779
0.15932 0.31976 0.03569
-0.09674 0.09258 0.27180
0.17936 -0.02362 -0.01599
0.15058 0.03256 -0.28019
-0.11484 -0.21356 -0.10961
0.23273 -0.14512 -0.01986
0.02844 0.11089 -0.28779
0.18019 -0.14164 0.03930
-0.06860 0.28912 -0.26991
0.24474 0.01189 0.02129
0.25481 -0.28199 -0.22148
-0.06321 -0.11525 0.03196
0.15850 -0.00190 0.01648
-0.15699 0.01600 0.24829
-0.10587 0.01599 -0.23220
-0.12265 -0.24015 -0.17501
0.09624 0.01599 -0.21606
0.18814 0.30378 0.19271
0.23448 0.10876 -0.27180
0.12810 0.10758 -0.27180
0.18631 -0.01498 0.03197
-0.22853 0.30378 -0.08262
-0.18063 0.25643 0.28779
-0.01396 0.30378 0.08219
-0.07823 -0.29822 -0.22955
-0.05639 0.01599 -0.16836
-0.23714 0.31976 -0.17189
-0.06139 0.30378 -0.06736
-0.23675 -0.31976 0.28734
-0.01723 0.03198 0.17384
-0.09961 0.01691 0.25627
0.12226 -0.20562 0.12609
0.14550 -0.23807 -0.14433
-0.15872 0.03665 0.28280
0.02605 0.03198 0.16923
0.13179 -0.19788 -0.08739
-0.05760 -0.31976 -0.28408
-0.06025 0.29643 0.26508
0.25481 0.00145 -0.03033
-0.02349 0.03198 -0.12700
-0.07483 -0.27469 -0.22393
0.13731 -0.15845 0.03154
0.01159 -0.12145 0.01599
-0.21700 0.10359 0.27180
0.18057 0.01390 -0.04620
0.24682 0.01462 -0.04801
0.03369 0.02726 -0.03717
-0.21280 0.03198 0.18633
-0.10830 0.31976 -0.00637
-0.05927 -0.23103 -0.16208
-0.08976 0.31976 -0.02073
0.23469 -0.08381 0.03197
-0.06231 0.21949 0.27180
-0.10249 0.30378 0.05488
0.11533 0.01599 -0.15398
-0.12189 0.01599 -0.06526
