ply
format ascii 1.0
comment VCGLIB generated
element vertex 1878
property float x
property float y
property float z
element face 0
property list uchar int vertex_indices
end_header
-0.24455 -0.12254 -0.30120
0.22932 0.13625 0.33809
-0.13439 -0.02386 -0.35653
-0.25058 0.01056 -0.33809
0.16597 0.09196 -0.38011
0.21976 -0.06238 0.11497
0.22129 -0.03901 -0.36731
0.14889 -0.01320 -0.05799
-0.19030 0.00093 0.39341
0.20380 -0.01320 0.21732
-0.04128 -0.02550 -0.03915
0.00938 0.14138 0.17676
0.04573 0.13523 0.34992
-0.10602 0.15982 0.20149
-0.07898 0.15982 0.13135
0.20355 0.10143 0.32904
-0.08017 -0.02550 -0.27728
-0.21425 0.15982 0.33531
-0.06742 -0.01320 0.17092
-0.04443 -0.02550 0.07866
0.03767 -0.01320 -0.31478
0.17140 -0.01320 0.20289
-0.19155 0.01085 0.35653
-0.21936 -0.02550 0.36636
-0.15521 -0.01320 -0.24886
0.03372 0.11491 -0.35653
0.10939 0.13032 0.33809
0.06932 -0.01320 -0.14317
-0.12098 -0.01320 0.14371
0.08928 0.15982 0.29265
-0.01752 -0.02550 -0.14237
-0.09478 -0.01320 -0.27611
-0.02333 0.15982 -0.32680
0.19920 0.09759 -0.35653
-0.19770 -0.01320 -0.00736
-0.21483 -0.02550 -0.17625
0.19448 0.15982 0.16013
-0.19485 -0.02550 -0.05498
0.23934 0.12315 0.33809
0.01842 -0.01320 -0.15405
0.13333 -0.01320 -0.16463
-0.21247 -0.02550 -0.28156
0.20259 -0.01320 0.34096
0.11417 -0.02550 -0.12782
0.22129 0.15923 -0.20180
0.22129 0.15629 0.10115
0.21779 -0.06238 0.15049
0.22129 0.12548 0.22305
-0.13102 -0.01320 -0.30839
-0.20361 0.13523 0.13351
0.20285 -0.03193 -0.04799
-0.16454 -0.01927 0.35653
0.17557 0.15982 0.08175
-0.21846 -0.01320 -0.05762
-0.08289 0.14138 -0.00004
-0.14010 -0.01320 -0.24202
-0.20285 0.05074 0.36257
-0.13071 -0.01320 0.08372
-0.03908 -0.01320 0.15336
0.04520 -0.01320 -0.26008
-0.17282 -0.02550 0.09192
-0.25817 -0.05033 -0.34158
0.07582 0.15982 -0.06301
0.20115 0.15982 -0.09800
0.06703 -0.02550 -0.35362
-0.21969 -0.01320 -0.24645
0.01108 0.15982 -0.18609
0.19743 0.14138 0.06907
0.12064 -0.01320 -0.30778
-0.21723 -0.05623 0.32491
0.11110 0.14138 -0.18612
0.17566 -0.02550 0.27207
-0.16353 0.14138 0.20944
0.19237 0.15982 -0.18498
-0.01712 -0.02550 -0.16837
-0.17018 -0.06814 0.39341
-0.05071 0.14138 -0.19960
0.18831 -0.01320 0.25262
-0.18336 0.15982 -0.04234
0.10890 0.12501 0.33809
-0.21234 -0.01320 -0.15411
0.21226 0.13523 -0.39043
-0.08451 0.14138 0.18742
-0.22129 -0.03351 0.23149
0.07387 -0.03343 -0.33809
0.14570 0.15982 -0.07623
0.22129 0.10319 -0.22096
-0.02652 0.14138 -0.02129
0.07165 -0.01320 0.13791
-0.16597 -0.03886 0.36136
-0.12603 0.15982 0.03619
-0.11262 0.14138 0.14790
-0.07337 -0.01320 -0.00046
0.22129 0.10793 0.01633
0.01818 0.15982 0.32890
0.14200 -0.01320 -0.13957
-0.20305 -0.02550 0.25835
0.19090 -0.01320 0.34093
-0.13002 0.15982 -0.00412
0.21577 -0.06238 -0.08474
-0.20907 0.13523 -0.03495
0.11319 0.13523 0.34092
-0.00505 -0.01320 -0.01023
0.04498 -0.02550 -0.12636
0.20285 0.10583 -0.37010
0.06033 -0.01320 0.07963
-0.16857 0.15982 -0.20238
-0.17894 -0.01320 -0.34439
-0.18204 0.14138 0.25323
-0.16184 0.15982 0.18935
0.18649 0.15982 -0.01019
-0.01991 0.14138 0.21158
0.18500 0.15982 -0.24506
-0.15669 -0.01320 0.12784
0.20259 0.14138 -0.35408
0.15774 0.14138 0.27134
-0.03343 -0.05623 -0.34064
-0.13439 -0.01320 -0.22102
-0.06664 0.14138 -0.20447
-0.07215 0.14138 -0.23843
-0.22129 0.11807 -0.25721
-0.16448 0.15982 0.16530
0.02844 -0.01320 -0.20439
0.09633 -0.02550 0.26602
0.00141 -0.02550 0.31813
-0.22997 0.05647 -0.33809
0.17450 0.15982 0.30701
-0.02632 0.14138 0.19689
-0.01824 -0.04324 -0.35653
-0.16163 0.14138 -0.24915
-0.04127 0.10143 0.33886
-0.22129 0.04706 -0.33567
-0.03020 -0.01320 -0.34663
0.17573 0.15982 0.11685
-0.09013 -0.02550 0.24954
0.16495 -0.02550 -0.15971
-0.13502 0.14138 0.27285
0.18585 0.15982 0.31675
0.21754 0.10143 0.28525
0.01782 0.14138 -0.10555
0.01688 -0.02550 0.31021
-0.07149 -0.02550 0.15785
0.10136 0.15982 -0.35283
0.05924 0.15982 -0.15104
-0.19799 0.15982 0.18824
0.18146 0.14138 0.22503
-0.21480 0.10143 0.12804
0.07277 0.14138 -0.27268
-0.06869 0.12335 -0.35653
-0.09287 0.14138 0.16481
-0.22129 -0.01684 -0.16710
-0.17433 0.15982 -0.07866
-0.22129 -0.05096 -0.17146
-0.22129 -0.01370 -0.27412
-0.17763 -0.12175 0.35653
-0.12341 -0.02550 -0.07983
0.04329 0.15982 0.11765
0.12422 -0.01320 -0.32365
0.19539 -0.02550 -0.32138
-0.18235 -0.01320 0.03093
0.22129 0.10181 -0.26282
-0.15088 0.14138 0.15849
0.10587 -0.02550 0.06666
-0.22129 0.12089 0.09394
0.18242 0.15982 -0.29300
-0.20285 0.13133 -0.20808
-0.09585 0.15982 0.25784
-0.18526 0.14138 0.21901
-0.00761 0.15982 0.17100
-0.03028 0.10777 -0.35653
-0.21701 -0.02550 -0.25213
0.00691 -0.01320 0.10937
0.13455 -0.01320 0.32575
0.21209 -0.01320 -0.29751
-0.18774 0.14138 0.24630
-0.10729 -0.02550 -0.21738
0.08953 0.14138 0.08337
-0.03631 0.15982 0.00081
-0.00605 0.15982 0.03184
0.10637 0.15982 -0.24214
-0.06763 0.11534 0.33809
-0.20922 -0.01320 -0.17599
0.19476 -0.02550 0.19471
-0.03977 -0.01320 -0.04533
0.22129 0.12878 -0.22990
0.07499 0.11644 0.35653
-0.04608 -0.01320 -0.19417
-0.13514 -0.01320 -0.29892
0.20285 -0.02555 -0.28215
0.24465 -0.14441 0.30120
-0.20285 0.10213 -0.19959
-0.08900 0.15982 -0.19918
-0.17354 0.06286 0.35653
-0.19341 -0.02550 -0.08812
-0.03145 -0.02550 -0.04273
-0.25817 0.15188 -0.31627
0.02447 0.15982 0.24327
-0.10199 -0.01320 -0.21220
-0.11340 0.12959 0.35653
-0.11090 0.15982 0.11775
0.02573 -0.01320 0.20981
0.15846 0.14138 0.07151
-0.16267 -0.02932 0.35653
0.00661 -0.02550 -0.08125
-0.03011 -0.01320 -0.04188
0.04925 -0.01320 -0.19772
0.11045 -0.02550 -0.01182
-0.20618 0.15982 -0.00052
0.22129 0.14539 0.06386
-0.15541 0.15982 -0.13240
-0.19468 0.14138 -0.20017
0.10083 -0.01320 0.01132
-0.18336 -0.08912 0.39341
-0.15257 -0.01320 -0.21836
-0.12465 -0.01320 0.10807
0.20972 0.14138 -0.10780
0.20285 0.11912 0.07699
-0.10620 0.12045 0.33809
-0.17140 0.12900 0.39341
0.08469 -0.02550 0.25348
0.11436 -0.01320 0.06983
-0.10460 -0.06238 0.35077
-0.20285 -0.03727 0.19911
-0.14738 0.15982 -0.34510
-0.06872 -0.01320 -0.19358
-0.01345 0.14138 0.29221
0.05362 0.10143 -0.35546
-0.20285 0.10262 -0.01747
0.04785 0.14138 -0.14642
0.20402 0.10143 0.03516
-0.04540 0.15982 -0.19647
-0.22129 -0.03518 0.34913
-0.08245 -0.01320 -0.04409
-0.06030 -0.02550 -0.13578
0.21183 -0.01320 0.11814
0.21641 -0.01320 0.35385
-0.08178 -0.01320 0.09485
-0.20285 -0.03218 -0.13254
-0.00294 0.15982 0.34247
-0.18063 -0.01320 -0.23640
-0.19723 0.15982 0.08543
-0.02968 -0.02550 -0.05186
-0.19069 0.15982 -0.13292
-0.19357 0.15982 0.33746
0.06483 -0.01320 -0.23180
-0.08382 -0.02550 0.23879
0.22129 -0.04895 -0.38591
-0.08346 0.11472 0.35653
-0.20285 -0.02660 -0.22516
-0.20358 0.14138 0.12563
-0.12709 -0.02550 0.07361
-0.05948 0.15982 0.30154
0.07773 0.14138 0.14797
-0.08919 -0.02550 0.08650
-0.06522 -0.02550 0.06333
0.18252 0.12502 -0.33809
0.21865 0.13523 -0.38101
-0.21782 0.13523 -0.01457
0.21560 0.14138 0.25862
-0.11662 0.15982 -0.10093
0.20285 0.10626 -0.31240
0.10892 0.14138 -0.01387
0.12015 -0.01320 0.28666
-0.21465 -0.05623 -0.05285
0.13363 -0.01320 -0.08493
-0.13635 0.15982 0.30110
0.16732 -0.01558 0.35653
0.10508 0.10143 -0.34003
-0.18688 0.15982 0.12066
0.09771 -0.01320 -0.04313
0.08752 0.14138 -0.05019
0.05775 0.14138 0.21412
-0.06610 0.14138 0.32000
0.16396 0.13317 -0.35653
-0.13775 0.15982 0.25920
0.19704 -0.01320 0.11352
0.19030 -0.16904 -0.38607
-0.20285 0.12073 -0.14515
0.08539 0.15982 -0.14370
0.04948 -0.01320 0.06852
0.05554 0.15982 0.08249
0.14243 -0.01320 -0.15129
0.07924 -0.02550 -0.00738
-0.22129 -0.01368 0.07616
-0.11629 0.15982 -0.30865
0.10382 0.14138 -0.31835
-0.20285 0.10297 -0.32136
-0.22342 -0.14994 -0.33809
0.04714 0.15982 0.33806
-0.14879 -0.02550 -0.27843
0.21885 0.14138 0.08618
-0.04605 -0.01320 0.33043
-0.00693 -0.02550 -0.14659
0.13230 -0.02550 0.12083
0.17593 -0.01320 -0.08627
-0.16597 0.08518 0.37004
-0.07395 0.13523 -0.35569
0.21034 0.10143 -0.33462
0.22129 -0.03985 0.21970
0.07119 0.14138 -0.19409
-0.12581 0.14138 -0.26908
-0.03021 0.14138 0.23159
0.06794 -0.03178 -0.33809
0.18228 -0.02550 -0.12513
-0.19107 0.12025 -0.35653
-0.17121 -0.02550 0.18705
0.19172 0.13523 0.34231
0.22129 0.09920 0.32519
0.03485 0.14138 -0.24274
0.16828 -0.01320 -0.19811
-0.22129 0.14577 0.07330
0.19064 0.14138 -0.17824
-0.05243 0.15982 -0.35105
0.03657 -0.01320 -0.02301
-0.07889 0.14138 0.15509
0.16232 -0.02550 -0.01471
0.22129 0.14938 0.00700
0.19362 -0.02550 0.07659
-0.19828 -0.01320 0.05618
-0.11998 0.15982 -0.06084
-0.22129 0.12048 -0.17640
-0.15234 0.13523 0.34202
-0.22129 -0.02428 -0.23634
0.23442 -0.09173 0.30120
-0.12830 -0.01320 0.01241
0.15263 0.15982 0.30882
-0.15642 0.10896 0.35653
-0.20285 0.08011 0.38369
-0.02453 -0.02550 0.16185
0.25817 0.09783 0.30979
-0.19484 0.14138 0.19878
0.07631 -0.01320 0.10367
0.16938 0.00090 -0.39341
0.16143 0.14138 0.17634
0.15545 0.14138 0.19124
0.14785 -0.02550 -0.10081
0.07429 -0.02550 0.35382
-0.15990 -0.02550 -0.10860
-0.17787 0.15982 -0.22632
0.04393 0.15982 -0.07199
0.22129 -0.05074 0.24488
-0.15935 0.14138 -0.06192
-0.03496 -0.02550 -0.09347
-0.07499 -0.01320 -0.07301
0.13557 -0.02550 0.03071
-0.22129 0.15797 0.34206
-0.22129 -0.04408 0.10381
-0.05719 -0.05782 0.33809
-0.22129 0.12462 -0.02200
-0.09190 -0.04369 0.35653
0.22129 0.00914 0.32885
-0.08227 0.15982 0.00659
-0.05774 -0.01320 0.25024
0.17452 0.15982 0.20344
-0.02510 -0.01320 -0.29139
-0.22129 0.10340 -0.20439
-0.20493 0.10143 0.33946
0.14889 0.14138 -0.33294
-0.19258 0.14138 0.33388
0.21679 0.15982 0.21021
-0.18641 -0.02550 -0.09291
0.25817 0.09703 0.31565
-0.02067 0.14366 0.35653
0.22129 0.10166 -0.18184
-0.25789 -0.11234 -0.33809
-0.20285 0.13218 0.03362
0.02782 -0.01320 0.35426
0.16146 -0.02550 0.21277
0.16529 0.15982 0.25186
0.18216 0.15982 0.15299
0.16817 -0.16509 -0.37678
-0.09582 -0.02550 -0.11829
0.13204 -0.02550 0.27847
0.20129 0.10143 -0.34195
0.22129 0.01137 0.31973
-0.01488 -0.02550 -0.35029
0.09259 0.13523 -0.34756
0.14449 0.15982 0.24073
-0.11154 0.14138 -0.05103
0.03632 -0.02550 0.08655
-0.03080 0.14138 -0.29397
-0.15824 0.15982 0.04689
0.20285 0.11385 0.28385
-0.19964 -0.02550 0.22761
0.17566 -0.01320 -0.05174
0.00304 0.14138 0.27088
-0.21030 -0.02550 0.17154
-0.02189 -0.02550 -0.17545
-0.07006 0.14138 0.16506
-0.15082 -0.02550 -0.18422
-0.09275 -0.01320 0.17786
0.22129 -0.02158 -0.17430
-0.07135 -0.01320 -0.29346
0.12090 0.14138 -0.30137
-0.11446 0.15982 -0.25655
-0.17133 -0.01320 0.34588
0.08020 0.14138 -0.21013
0.21280 0.10143 -0.31684
0.05041 -0.01320 0.30833
-0.02216 -0.02550 0.33194
0.03081 -0.01320 0.05503
0.25475 0.05471 0.33809
0.19483 0.15982 -0.15734
-0.07177 0.14138 0.27327
0.09581 -0.02550 -0.13318
0.06395 0.14138 0.15862
-0.21692 0.15982 0.03331
-0.16597 0.04727 0.38631
-0.16597 0.15251 0.38693
-0.15075 0.15982 0.17372
-0.04214 -0.04102 0.33809
-0.20719 -0.05623 -0.22920
-0.22129 -0.02037 -0.00560
-0.12377 -0.02813 0.33809
-0.19672 -0.01320 -0.19672
0.25817 -0.04694 0.35230
0.21560 -0.06238 -0.33016
-0.20285 -0.03175 0.13378
0.22129 0.10513 -0.33640
-0.03088 0.15982 -0.11096
-0.02203 0.14138 -0.11981
0.12120 -0.01320 -0.05354
0.03387 0.10143 -0.35167
-0.12467 -0.02550 0.08917
-0.21319 -0.05623 -0.26295
0.13580 0.15982 0.06232
-0.05045 -0.02550 -0.24166
0.22035 0.15982 0.21476
0.09381 0.14392 0.35653
-0.18762 -0.02550 0.16847
0.23497 0.09460 0.30120
0.16482 0.14371 -0.35653
-0.08088 0.14138 0.19280
0.19440 -0.13082 -0.39341
-0.16597 0.01466 0.36806
0.08871 0.14138 0.31721
0.16683 -0.02550 -0.30746
0.23092 0.13523 0.35064
-0.16063 0.14138 0.28671
-0.10825 -0.01320 0.28946
-0.13849 -0.02550 -0.20375
0.11911 -0.05111 0.33809
0.22129 -0.06058 -0.07892
0.15621 -0.02550 0.15617
0.05017 0.15982 -0.20045
0.04765 -0.02550 0.22848
-0.09917 0.15982 -0.18426
0.19956 0.10143 0.35564
-0.21028 0.14138 -0.09863
-0.24158 -0.02125 -0.33809
0.05732 -0.01320 -0.11564
-0.10996 -0.02550 -0.13712
0.23659 0.03826 0.33809
0.18581 0.14138 -0.26336
-0.19387 0.02868 0.39341
-0.19197 -0.07470 0.39341
-0.19232 0.14138 0.09305
-0.20285 0.12119 0.33128
-0.19879 0.15982 0.00721
-0.22129 0.13192 0.27448
0.11082 0.14138 0.33564
0.15633 -0.04803 0.33809
-0.08293 0.14138 -0.31928
0.10168 -0.02550 0.14749
-0.21506 0.13523 -0.06019
-0.07748 -0.01320 0.08922
0.03145 -0.01320 -0.17424
-0.07299 0.14138 0.00581
-0.02850 -0.01320 -0.13945
0.20890 0.15187 0.35653
-0.20285 -0.05203 0.06413
-0.11946 0.14138 -0.12151
-0.22129 -0.02955 -0.09111
-0.05464 0.14138 0.01450
0.09281 0.14138 -0.04230
-0.15956 0.14138 0.17737
-0.04406 -0.02550 0.32017
-0.02750 0.14138 -0.30785
-0.16300 -0.01320 -0.03329
0.22129 -0.04285 0.05816
0.18397 -0.02550 -0.34393
0.02792 -0.01320 0.06592
-0.09046 0.15982 0.02802
-0.21610 -0.02550 0.11110
-0.10311 0.13523 0.34941
0.12413 -0.01320 0.00206
0.07634 -0.02550 -0.22394
0.22129 -0.03773 0.05780
-0.03490 -0.02550 0.16323
-0.21239 0.14138 0.22059
0.15640 -0.04988 -0.35653
0.04011 0.14138 0.16098
-0.21740 0.13523 -0.27900
-0.15412 -0.02550 0.20291
0.03105 -0.05623 -0.34021
0.10627 0.15982 0.20727
0.22129 0.12432 0.30532
0.12657 -0.02550 0.27681
0.19944 -0.08597 -0.39341
-0.21845 -0.01320 0.26391
0.20199 0.14138 0.13248
0.01230 0.14138 0.29771
0.00721 0.14138 -0.05429
-0.16597 0.00172 0.38958
-0.07429 -0.02550 -0.06574
0.22092 0.13523 0.06927
0.19511 0.16656 -0.38975
-0.24229 0.13608 -0.30120
0.07133 -0.02550 -0.02336
0.03186 -0.01320 -0.33549
-0.12277 0.14138 0.12231
-0.16597 -0.11987 0.36620
-0.05784 0.13523 -0.34417
-0.07338 0.12574 0.33809
-0.22129 0.15677 -0.23836
-0.17208 -0.01320 0.17836
-0.01040 -0.01320 -0.18666
-0.01697 -0.02550 0.22910
0.21518 0.14138 -0.00596
0.16597 -0.13571 -0.37470
-0.02621 -0.01320 0.28260
-0.18365 -0.02550 0.25975
-0.02661 0.15982 -0.07650
0.05216 0.14138 -0.09087
0.15630 0.15982 -0.02714
-0.19456 -0.02550 -0.19885
0.10489 0.15982 -0.23033
-0.19579 0.05126 0.39341
-0.08120 -0.03948 0.33809
0.21393 0.13523 0.21227
0.20738 -0.02550 0.34187
-0.25817 0.15116 -0.32230
-0.09940 0.15982 0.02189
-0.20285 -0.03864 0.34349
0.15069 -0.01320 0.03215
0.09070 0.15982 0.02947
-0.01971 0.14138 -0.09881
0.20282 0.10143 -0.35097
0.07669 0.15982 0.21156
0.20285 -0.03462 -0.05814
0.20285 -0.05417 0.31779
0.01703 0.14138 0.33624
-0.22129 -0.03455 0.03521
0.07019 -0.02550 -0.09080
0.04545 0.15630 0.35653
0.20285 0.11970 -0.17308
-0.00689 0.14138 -0.06413
-0.22129 -0.02227 -0.35213
-0.13318 -0.01320 0.06345
-0.22129 0.13246 -0.21299
-0.07389 -0.01320 -0.05568
-0.22129 -0.00757 -0.33640
-0.07461 -0.02931 0.33809
0.15714 -0.05623 -0.35630
-0.11407 0.14138 -0.15437
-0.08606 -0.02550 -0.20217
-0.08653 -0.01320 0.01722
-0.08912 0.14138 0.30512
-0.20760 -0.05623 0.14109
-0.03997 0.15982 -0.01928
0.05588 -0.01320 0.34166
0.22017 0.13523 -0.19661
0.18038 0.14138 0.06071
0.22129 0.14361 -0.06052
0.07679 -0.02550 -0.25336
-0.21996 -0.05370 -0.35653
-0.23631 0.04891 -0.30120
0.00446 -0.02550 0.32771
-0.00860 0.14138 0.13653
0.20285 0.12564 0.25864
0.21169 0.15982 -0.34498
0.04877 0.15982 -0.10492
0.12644 0.15982 -0.02818
-0.03357 0.15982 0.13326
0.04213 -0.01320 0.07584
0.20285 -0.05512 -0.20075
0.04344 0.14138 -0.12485
0.02980 0.14138 0.15988
-0.06289 -0.02550 0.20154
-0.14879 -0.02550 0.29835
-0.06166 -0.02550 -0.31106
0.14229 0.15982 0.08350
0.08862 -0.02550 -0.04469
0.01777 -0.02264 0.35653
0.14508 0.14138 -0.05784
-0.08270 -0.01320 -0.12430
0.21394 0.13523 0.19499
-0.10174 -0.02550 0.10572
0.17070 0.15982 0.00264
-0.23294 -0.13227 -0.33809
-0.22129 0.12579 -0.06915
0.07937 -0.02550 -0.09748
0.20610 0.15982 0.33273
0.17585 -0.01320 0.08445
0.01290 0.15982 0.18806
0.22129 0.11783 0.26656
0.22129 -0.05681 0.11429
0.06272 -0.01320 -0.10275
-0.11416 -0.02550 0.11762
0.12727 -0.02550 0.15990
0.25817 0.14374 0.32943
0.18142 0.14138 -0.12661
0.17790 0.14138 0.11518
0.18984 -0.11425 -0.39341
0.04391 -0.05623 -0.34736
0.20285 0.11418 0.19703
0.25251 0.16554 0.33544
-0.05056 0.14138 -0.30032
0.16939 -0.06350 -0.35653
0.04851 -0.02550 -0.26280
0.22129 0.10352 -0.32645
-0.01177 0.15982 -0.27327
0.10258 0.15982 -0.27012
0.19079 0.12739 0.33809
0.16675 0.15982 0.11237
-0.22129 -0.02313 -0.02565
0.09350 0.14138 -0.02304
0.15461 -0.01320 0.30245
-0.21852 0.15982 0.10349
0.22129 -0.03089 -0.01399
-0.20285 -0.02981 0.04539
0.00778 0.15982 0.21786
0.19957 -0.02550 -0.29653
0.09386 0.14138 0.07583
-0.11626 -0.01320 -0.31081
-0.06281 0.14138 0.10698
0.05271 0.15742 -0.35653
-0.15467 -0.02550 0.02123
0.12313 0.13523 0.34454
-0.04109 0.15982 0.06032
-0.17870 0.14138 0.16472
-0.01541 -0.05528 -0.35653
-0.01404 0.14138 0.06160
-0.21202 -0.05623 0.33229
0.10485 -0.01320 -0.07652
0.20989 0.13523 -0.13246
-0.10679 -0.02550 -0.21218
0.12355 -0.02550 -0.26462
0.17170 0.15982 0.16228
-0.16597 -0.06953 0.37215
0.20285 -0.03960 0.27045
0.17906 0.13523 0.34817
0.14064 0.14138 0.23513
0.20285 -0.04120 -0.39140
-0.25817 -0.15917 -0.33779
-0.11140 0.14138 0.19412
0.08021 0.15982 0.16979
-0.20285 0.12990 -0.16260
0.03597 0.12790 0.35653
-0.16136 0.14138 -0.35133
-0.20162 -0.02550 -0.00431
0.02789 0.14138 -0.15205
0.10588 0.15982 -0.00735
-0.22129 -0.01921 -0.13236
0.01392 0.15982 0.28578
0.10347 0.14138 0.05378
0.04251 0.15982 -0.30406
0.20285 0.12989 -0.06098
-0.05424 0.15982 -0.25986
-0.05775 0.14138 0.20186
-0.00149 0.15982 0.16199
-0.11780 0.13523 -0.35633
0.21150 0.14138 0.26412
0.21079 -0.02550 -0.07147
0.04660 -0.04364 -0.33809
-0.22129 0.13367 0.05390
0.20285 -0.02271 -0.35991
0.00245 0.15982 0.26238
0.24105 0.05712 0.33809
-0.10605 -0.01320 -0.27720
-0.05501 -0.02550 -0.32969
0.02694 -0.02550 0.17921
0.06854 -0.02550 -0.09609
0.23119 -0.12650 0.33809
0.00075 -0.01320 -0.07921
-0.12920 0.15982 -0.27488
0.12604 -0.01320 -0.13590
0.15884 0.15982 0.01907
-0.18469 -0.01320 -0.15695
-0.06157 0.13523 0.34289
0.22129 0.06120 0.32287
0.16597 0.10002 -0.37950
0.07229 -0.04816 0.35653
-0.22129 0.10583 -0.24350
0.01817 0.15982 -0.18138
0.19263 0.14138 0.14453
0.22129 0.11318 0.26185
0.18508 -0.16780 -0.36143
-0.21012 -0.05623 -0.29534
-0.00464 0.15982 -0.16858
0.00607 -0.04215 0.33809
0.22129 0.15605 -0.29516
0.04417 -0.02550 -0.24990
0.01207 0.14138 0.05242
0.20285 -0.05168 -0.26750
-0.07533 -0.01320 -0.30346
0.16597 -0.01270 -0.36398
-0.13208 0.14138 0.09343
0.16597 0.05905 -0.37767
0.17462 -0.11482 -0.35653
0.11148 0.15982 0.30006
0.08978 -0.01320 -0.22812
0.22129 0.14756 -0.15970
0.12431 0.15982 -0.13143
-0.14823 -0.01320 0.30680
-0.22129 0.10398 -0.28605
-0.01275 -0.02550 0.06972
0.22494 -0.13702 0.30120
0.18464 0.15982 0.16710
0.03616 -0.02550 -0.00669
0.02198 -0.04561 -0.35653
-0.12296 -0.01320 -0.19480
0.10946 0.14138 0.35093
0.18393 0.15982 0.01250
0.20228 -0.01320 -0.26597
0.05622 -0.01320 -0.15377
-0.20327 0.15982 -0.16902
0.21956 0.13523 0.05324
0.12957 0.15982 -0.15312
-0.22129 -0.02848 -0.08086
-0.20285 -0.03100 -0.28126
0.09118 -0.01320 0.10248
-0.21128 0.13523 0.07513
0.22129 -0.02809 -0.04947
-0.21484 -0.04727 -0.33809
-0.07277 0.14138 -0.25781
0.14301 0.14138 0.27310
0.21546 0.10143 0.13707
0.19841 -0.02550 0.15752
-0.17040 -0.01320 0.27977
-0.18109 0.16322 0.39308
-0.16589 0.12695 -0.35653
-0.13730 0.15982 0.18899
0.04187 0.15982 0.25978
0.22129 -0.04903 0.15818
0.21669 0.14138 -0.04350
-0.03561 -0.02550 -0.10450
-0.22129 0.11746 0.34124
-0.15186 -0.01320 -0.30941
-0.02052 -0.01320 -0.08346
-0.15331 0.14138 -0.21568
-0.13698 -0.02550 0.17297
-0.22013 0.10143 0.06115
-0.02500 -0.02550 0.12490
-0.22129 -0.01880 0.08295
-0.04982 -0.01320 0.30626
0.08980 0.14138 -0.33056
-0.20285 -0.05077 -0.16634
0.20844 -0.01320 0.15302
-0.18329 -0.15110 0.35653
-0.20285 -0.03102 -0.22767
-0.22129 -0.01686 0.13479
0.10539 0.14138 -0.09172
-0.17408 -0.08375 0.39341
0.11446 0.14138 0.06526
0.16428 0.15982 -0.09271
0.21267 0.10143 -0.36471
0.25817 -0.03070 0.32429
0.10018 -0.02550 -0.02482
-0.20337 0.10143 0.11602
0.10423 -0.01320 0.24720
-0.16597 -0.00242 0.39318
0.17865 -0.01320 0.05461
0.08108 0.14138 0.06579
0.15876 0.15982 0.32001
0.15060 -0.02550 0.24899
-0.18155 0.15982 -0.28974
0.02055 0.14138 -0.28622
-0.10197 0.14138 0.04356
0.02800 -0.01320 -0.16560
-0.17409 -0.02550 -0.14231
0.10591 0.15982 -0.10794
0.11932 -0.02550 0.16426
-0.15646 -0.02550 -0.31242
0.20285 0.03978 -0.39210
-0.17778 0.14138 0.33243
-0.02886 0.14138 -0.06528
-0.22177 -0.16337 -0.30870
0.14086 0.14138 -0.26020
-0.05378 -0.01320 0.15469
-0.15870 -0.01320 -0.12191
-0.14749 -0.01320 -0.11252
-0.08852 -0.05623 -0.35407
-0.19966 -0.01320 0.22110
-0.16744 -0.02550 -0.30324
0.15103 -0.01320 -0.23319
0.21520 0.15982 0.09929
-0.15548 -0.02550 0.04276
0.20285 -0.03725 0.05345
0.20541 0.13523 -0.20069
0.01115 -0.04197 0.33809
-0.12540 -0.02550 -0.12254
0.02970 -0.05446 -0.35653
-0.06689 -0.01320 0.01687
0.20147 0.15982 0.15917
-0.20285 0.12941 0.13558
0.25817 -0.00095 0.31222
0.10275 0.15982 -0.23475
-0.13228 -0.01320 -0.01486
0.09577 -0.01320 0.34534
0.21573 0.14138 0.08213
-0.22129 0.15769 0.04223
-0.15163 0.14138 0.35317
-0.11319 -0.02550 -0.35314
0.04693 -0.02550 -0.20590
-0.08292 -0.02550 -0.28232
0.12033 0.15982 -0.32216
0.09901 0.14138 -0.08879
-0.17366 0.16600 0.35963
-0.04352 -0.01320 -0.31637
-0.20551 -0.01320 0.03474
-0.03832 0.15982 0.01232
-0.22129 0.12512 0.20165
-0.09504 0.14138 0.04665
0.10250 0.15982 0.00837
0.07906 -0.01320 0.32806
0.13807 -0.02550 -0.32928
-0.21279 -0.01320 -0.31098
-0.08856 0.14138 -0.15261
0.08430 0.15982 0.00219
-0.16416 -0.01320 -0.24910
-0.20285 0.10403 -0.08559
0.00953 -0.04809 -0.35653
-0.13740 -0.02550 0.04293
0.25439 0.11757 0.30120
0.20128 0.10143 0.33938
-0.08805 0.10143 0.33894
0.19913 -0.02550 0.17460
-0.24483 0.13523 -0.34794
-0.00627 -0.02550 -0.26624
0.00612 -0.01320 -0.35052
-0.19381 0.13523 -0.34527
-0.08633 -0.02550 -0.21941
-0.03306 -0.01320 -0.25705
0.06200 0.15982 0.28463
0.22129 0.11670 -0.03248
-0.19428 -0.01320 -0.17988
-0.05837 0.14138 -0.10990
-0.20609 0.14138 -0.21728
0.11266 0.14138 0.19689
0.20285 -0.14330 -0.38096
0.16579 0.15982 0.28263
0.20285 -0.04301 -0.02094
-0.04894 -0.01320 -0.27209
0.01929 -0.01320 -0.20789
0.25563 -0.05687 0.33809
0.02161 0.14138 0.31180
0.16978 -0.05830 -0.39341
0.13037 -0.06238 0.35062
-0.05324 0.14138 0.27323
-0.20285 -0.15074 0.36246
-0.16329 -0.01320 -0.19982
-0.11358 -0.02550 -0.32938
0.18022 0.15982 -0.29734
-0.19952 0.14138 0.03001
0.11088 0.15982 0.10365
-0.22129 -0.15793 -0.30301
-0.01287 0.15615 -0.35653
-0.18147 0.13101 0.35653
-0.14827 -0.01847 -0.35653
-0.19724 -0.01320 -0.31154
-0.03533 0.14138 -0.29862
-0.21998 0.13523 -0.14468
-0.16541 0.15982 -0.00201
0.04977 0.15982 0.27003
-0.07577 -0.02550 0.22532
0.20285 0.11837 -0.08062
-0.25817 -0.02981 -0.32067
0.16597 0.13054 -0.36034
0.20285 0.13086 0.14407
0.19672 -0.01320 -0.34813
0.13376 0.14138 -0.13306
-0.00770 0.14138 -0.17565
-0.22129 0.15543 -0.17220
-0.24284 0.11311 -0.30120
0.12532 -0.02550 -0.10276
-0.14356 -0.01320 0.04649
-0.21293 -0.05623 -0.07087
-0.18220 0.10175 0.35653
0.09149 -0.01320 -0.04242
-0.10542 -0.01320 -0.23845
-0.21612 -0.01320 -0.08307
0.02852 -0.01320 -0.00945
-0.04957 0.14138 0.33544
0.12289 0.14138 -0.10735
0.20688 -0.05232 0.33809
0.19401 0.15982 0.20491
-0.21855 -0.01320 -0.26253
-0.24089 -0.07855 -0.33809
-0.17381 -0.07751 0.35653
-0.04213 -0.02550 -0.22813
-0.20462 0.10143 -0.03536
0.07602 -0.06113 0.35653
0.09204 0.15982 -0.08445
-0.21559 0.13523 -0.35505
0.21003 -0.06238 0.06415
0.19135 0.01824 -0.35653
0.22129 -0.04141 0.13425
0.21168 -0.01320 -0.31464
0.20532 0.15982 0.04090
-0.08238 0.14138 -0.10461
-0.22661 -0.02046 -0.30120
0.20872 -0.02550 -0.02747
-0.04496 -0.02550 0.21970
-0.05297 -0.02550 0.04676
-0.21086 0.13523 0.24440
-0.05085 -0.02550 -0.00301
-0.21576 0.15982 -0.02989
-0.08704 0.15982 0.20802
0.19572 0.15982 -0.19711
0.19298 0.15982 -0.23772
0.18668 -0.02550 0.12061
-0.23492 -0.00671 -0.30120
-0.10083 0.14138 -0.18430
0.03076 -0.02550 -0.18332
0.14914 0.14138 0.30576
-0.18879 0.14138 -0.00730
0.12064 0.13523 -0.34013
0.16483 0.14138 -0.30353
-0.02926 -0.02550 0.32914
0.13608 -0.03483 -0.35653
0.22129 0.11188 0.26686
-0.13967 -0.02550 0.03104
0.06947 0.14138 0.19439
-0.08474 -0.01320 0.11850
0.20488 -0.06238 -0.26175
0.22129 0.12375 -0.21224
-0.22129 0.12461 -0.32496
-0.20035 -0.01320 0.21102
0.02538 0.14138 -0.34807
0.22129 0.12792 -0.15282
0.22129 0.15091 0.17766
0.21960 0.10143 0.33512
0.12813 0.15982 -0.25803
-0.21222 -0.04485 -0.35653
-0.16975 0.15982 -0.08746
-0.15888 -0.01320 0.19675
0.04980 -0.02728 -0.33809
-0.05471 0.14138 0.17744
0.08029 -0.01320 0.22807
0.13954 -0.02550 -0.28822
-0.21411 -0.02550 0.35007
-0.23319 0.07326 -0.30120
0.09152 0.10854 0.33809
-0.11493 0.15982 0.34616
-0.22129 -0.03323 0.25713
0.14974 -0.02550 -0.01654
-0.00645 -0.01320 0.31818
0.22129 -0.03853 -0.12302
-0.13936 -0.05127 -0.33809
0.13288 0.14138 0.20311
-0.13495 0.15982 0.22050
0.06831 -0.02550 0.11996
0.09057 -0.01320 -0.09247
-0.16948 0.14138 0.33811
-0.18807 0.05162 0.35653
0.14545 -0.02550 -0.12933
-0.19509 -0.16572 0.39059
-0.14544 -0.02550 0.33946
0.06696 -0.01320 0.17101
0.20285 0.11358 -0.33819
-0.17379 0.01393 0.35653
-0.02577 -0.01320 0.05388
-0.20285 0.08851 0.39336
0.20285 -0.02980 0.12475
0.08528 0.10143 0.33831
-0.14155 0.15982 0.24904
0.17493 -0.02550 0.01242
-0.20071 0.11031 0.35653
0.05531 -0.01320 -0.08200
0.21009 -0.03658 -0.39341
0.05405 0.10771 0.33809
-0.22129 -0.06893 -0.33287
0.18250 0.12531 0.35653
0.14172 0.14138 -0.22691
0.22129 -0.05999 0.32218
-0.06829 0.15982 0.26636
0.19373 -0.04955 -0.35653
-0.13633 -0.01320 -0.22779
0.17284 0.14138 0.24916
0.09646 0.10520 -0.35653
0.11162 -0.02550 -0.21347
-0.20208 0.15982 0.02724
-0.20813 0.15982 -0.16453
-0.17015 0.10407 0.39341
-0.21763 -0.05623 -0.17036
0.11877 -0.02550 0.03178
0.22129 -0.05892 -0.29936
0.10787 0.15982 0.03222
0.14222 -0.02550 -0.27763
0.10093 -0.01320 0.03822
0.16732 0.15982 -0.17690
-0.00092 -0.02550 -0.23142
-0.18818 0.15982 -0.09550
0.16597 0.16057 -0.37189
0.16597 -0.02273 -0.39248
-0.12748 0.14138 0.17187
0.05879 -0.03049 -0.35653
-0.00532 0.14138 -0.35348
0.20285 -0.03068 0.05866
0.17258 0.14138 0.07898
0.00464 0.15982 -0.33498
0.00546 -0.01320 0.02478
-0.22129 0.11752 0.05182
-0.05421 0.15982 0.05637
-0.23621 -0.04230 -0.33809
-0.20285 -0.05363 -0.05939
0.16152 -0.02550 -0.29551
-0.22129 0.03390 -0.33001
-0.20285 -0.05078 0.27801
0.20285 0.12944 0.19981
-0.23576 -0.16904 -0.31343
-0.17666 -0.13997 0.35653
-0.20704 -0.02550 0.28089
0.21349 0.15982 -0.22278
-0.12996 0.14138 0.26305
-0.25817 0.02446 -0.33076
0.17302 -0.16377 -0.35740
0.21413 0.14138 0.18776
-0.22129 0.14582 0.24140
-0.04229 0.14138 0.09016
-0.10512 0.14538 0.35653
-0.16636 0.15982 0.07688
0.01008 -0.01320 0.01972
0.20285 0.10278 -0.05506
-0.12398 0.15982 -0.09304
0.07419 -0.01320 0.33112
-0.25493 0.16614 -0.32214
-0.03793 0.15982 -0.34070
0.07508 0.15982 -0.22032
0.20285 -0.02701 0.30509
-0.15527 -0.01320 0.20371
0.04232 0.14138 0.31031
-0.17299 0.14138 -0.14129
0.03133 0.15982 0.32882
-0.02715 0.15982 0.09919
-0.03295 -0.01320 -0.21588
0.03422 -0.02550 0.02965
0.07311 -0.01320 0.14835
0.05121 -0.01320 -0.09964
0.21228 0.11905 0.33809
-0.03344 0.15982 -0.24097
0.04116 0.15982 -0.35223
0.20285 -0.04460 0.07256
-0.02398 -0.02550 0.08755
-0.22129 -0.04416 -0.22141
0.09547 0.15982 -0.13069
-0.25247 -0.14210 -0.33809
-0.14473 0.10835 -0.33809
-0.09156 -0.02550 -0.14390
0.05014 -0.01336 -0.35653
-0.07380 0.14138 0.21098
-0.16247 -0.01320 0.05029
-0.20285 0.13170 -0.31439
0.14607 -0.01320 -0.20789
-0.10765 0.15982 -0.01071
-0.08172 0.14138 0.10083
0.20285 -0.02757 -0.35147
-0.20096 -0.02550 0.16758
-0.05711 0.14138 -0.27463
0.17166 0.14138 -0.06611
-0.05228 -0.01320 -0.20812
-0.15117 0.14138 -0.31670
-0.00220 -0.01320 0.29434
-0.20285 -0.02753 0.19100
0.08299 0.10143 -0.34128
0.22129 0.13411 -0.18443
0.06240 0.14138 -0.32233
-0.03339 -0.01320 -0.00138
-0.17466 0.14138 0.02970
0.20285 -0.10391 -0.37038
0.23446 -0.01625 0.33809
-0.13344 0.15982 0.27165
0.12329 0.14138 0.30245
0.08169 0.15982 -0.02414
-0.09576 0.15982 -0.24142
0.12664 0.13523 0.34808
0.13578 0.15982 -0.05401
-0.25817 -0.03458 -0.35269
0.10419 0.14138 -0.20770
0.08860 0.10712 -0.35653
0.21451 0.10143 -0.03020
-0.12796 0.14138 0.12578
0.15884 -0.01320 0.27156
0.10000 -0.04073 -0.35653
-0.20006 -0.01320 0.26242
-0.20285 0.10803 0.10012
0.20285 0.12708 0.08703
0.25064 -0.16904 0.32313
0.11688 -0.01320 0.02174
-0.13167 -0.02550 0.18780
0.22129 0.12748 -0.35171
-0.20285 0.03365 0.36039
-0.19371 -0.01320 0.23267
0.21168 -0.01320 0.22843
-0.10505 0.14138 0.11683
0.10974 -0.01320 0.23759
0.09679 -0.01320 0.31881
-0.09909 -0.02550 -0.01161
0.01234 0.15982 0.10169
-0.10097 0.14138 -0.12130
-0.16609 0.16301 0.38964
0.16597 -0.06085 -0.36999
-0.06135 0.15982 -0.05767
0.22129 -0.07042 0.32129
0.18906 -0.01320 -0.12234
0.18998 0.15982 0.10108
0.22129 0.15945 0.05945
0.01158 0.14138 -0.16148
-0.01860 -0.02550 0.20188
-0.15132 0.14138 0.23334
-0.22129 -0.02981 0.30088
0.20285 -0.05895 -0.21605
0.04186 -0.01320 -0.00509
0.22129 0.10743 -0.28414
-0.22129 0.12072 0.15044
0.02437 0.14138 0.32533
0.09683 0.15982 -0.07277
0.11309 -0.02550 -0.00112
0.01667 0.15982 -0.06115
-0.02083 -0.02550 -0.33858
0.05906 0.11381 0.33809
-0.25503 0.10143 -0.34049
-0.16848 -0.14899 0.35653
-0.18366 -0.16563 0.35926
-0.22129 0.12566 -0.16253
0.17206 -0.02550 -0.18788
0.09346 -0.01320 -0.03152
-0.20285 -0.09318 0.38479
-0.06664 0.15982 -0.04163
-0.22129 0.12240 0.30097
-0.20301 0.15982 0.08904
0.21570 0.15982 -0.12556
-0.10678 -0.01320 -0.33498
-0.21449 0.10143 -0.33015
0.06236 -0.04448 0.35653
0.12554 -0.02550 0.08009
0.08450 -0.02550 -0.25007
0.16233 0.14138 0.32302
-0.02072 -0.01320 -0.27688
-0.22129 0.14256 0.09273
0.22129 -0.05795 -0.36046
-0.16597 -0.02143 0.37287
-0.25817 0.13865 -0.31932
-0.02085 0.15982 -0.19500
0.22129 -0.06011 0.09298
0.14900 0.14138 -0.04874
0.00628 -0.02550 -0.21375
-0.12686 -0.02550 -0.31973
-0.18293 0.14138 0.29335
-0.25688 0.16420 -0.31164
-0.12617 0.12373 -0.33809
-0.16020 -0.02550 0.10723
-0.04166 -0.02550 0.14079
-0.18939 -0.01320 -0.29009
-0.18281 0.14138 0.10159
0.20285 -0.02938 0.29551
-0.03655 -0.01320 -0.06834
-0.24655 0.06141 -0.30120
0.06708 -0.01320 0.14814
-0.02259 0.14138 0.33995
-0.11491 -0.03521 0.35653
-0.05615 0.14138 0.28789
-0.10576 -0.02550 -0.12698
-0.22129 -0.04666 0.31539
0.19425 0.14138 -0.07575
-0.22129 0.11926 0.23248
-0.14174 -0.01320 -0.19603
-0.21381 0.14138 0.19088
0.11629 0.15982 0.14497
0.20285 -0.03393 0.10844
-0.21760 0.15982 0.25202
0.15984 -0.04500 -0.33809
0.07519 0.14138 -0.21344
-0.02425 -0.02550 0.11188
-0.07778 -0.02550 -0.04994
0.19060 0.15982 0.24211
0.12423 -0.02550 0.18340
-0.17577 0.14138 -0.26870
-0.15146 0.12410 -0.33809
0.13806 -0.02550 0.28590
-0.08728 -0.02550 -0.06618
0.14808 -0.01320 0.19897
0.17817 0.14138 -0.07832
-0.22129 -0.09481 -0.33061
0.20587 0.14138 -0.33642
0.25817 0.04739 0.33655
0.02873 -0.02550 0.23323
0.20285 0.13453 0.27341
-0.11241 0.14138 -0.23103
0.09079 0.14138 0.34477
0.18697 0.15982 -0.33484
0.17727 0.03829 -0.35653
0.21087 0.15982 0.16796
0.11738 -0.02550 0.19468
-0.20285 -0.02740 -0.14430
0.22129 0.12807 -0.18890
-0.01469 -0.01320 0.05595
-0.20414 0.14138 -0.03038
0.19888 -0.03496 -0.35653
-0.00262 0.14138 0.33087
0.02976 -0.01320 0.30419
-0.03427 0.15982 0.24685
-0.06581 0.15982 -0.27530
0.07185 0.15982 -0.07826
0.07826 -0.02550 -0.33885
0.15391 -0.01320 0.16737
0.11946 0.11571 0.35653
0.15620 0.15982 -0.06724
-0.01467 0.14138 0.03633
-0.19973 -0.02550 -0.10669
0.00997 0.10143 0.34454
0.20354 0.14138 0.31142
0.20521 -0.06238 -0.12711
0.04713 0.14138 0.03399
0.20123 -0.02556 0.35653
-0.14034 -0.04973 -0.35653
-0.15266 0.13073 0.33809
-0.06210 -0.01320 0.24347
0.21324 -0.01320 -0.04193
0.13688 0.14138 0.11731
-0.22797 0.08175 -0.33809
0.20285 -0.03745 0.31196
0.12917 0.14138 -0.06506
-0.04820 0.15982 -0.26425
-0.18850 -0.02550 -0.24350
-0.13184 0.15982 -0.08819
-0.20285 -0.03055 -0.07406
-0.25817 -0.12429 -0.31452
-0.20966 -0.05623 -0.17731
-0.09703 0.14138 -0.33504
-0.08293 -0.01320 0.33847
-0.14027 0.15982 -0.23997
-0.18502 -0.04096 -0.33809
0.11578 0.15982 0.19159
0.12172 0.14138 0.25947
0.13792 0.15982 0.14003
-0.10961 0.15982 0.15516
0.15016 0.15982 -0.17683
-0.22129 0.11665 -0.15136
-0.01764 -0.02304 -0.35653
0.07718 0.14138 -0.00662
-0.18064 0.14138 -0.32149
-0.01436 -0.01320 0.04608
-0.19038 0.14138 -0.32782
0.15515 -0.02550 -0.26046
0.22129 0.11098 -0.00012
0.25817 0.10973 0.31391
-0.02624 0.15982 -0.34967
-0.00561 -0.01320 -0.02004
-0.03381 0.15982 -0.26359
0.17488 0.00450 -0.35653
0.15553 0.14138 0.17291
0.03504 0.15982 -0.01232
-0.22129 0.12467 0.24264
-0.09352 0.14138 -0.23132
0.14408 -0.03256 0.33809
-0.06300 -0.01320 -0.03517
0.21245 -0.01320 0.23428
-0.06520 -0.01320 -0.02119
0.08557 0.15982 0.04644
-0.04067 -0.02550 -0.02042
-0.08459 0.15982 -0.32475
-0.01277 0.15982 0.08379
-0.16597 -0.11679 0.38633
0.11353 -0.02550 -0.17301
0.17945 0.14138 -0.29592
0.20302 0.13523 -0.12296
-0.20285 -0.02831 0.05720
-0.08984 0.14138 0.00405
-0.21049 -0.02550 0.11957
-0.20285 0.10278 -0.19070
0.06785 0.15982 -0.33843
-0.07897 0.15982 -0.01722
-0.19595 -0.02550 -0.02166
0.25817 -0.05360 0.31455
0.06848 -0.01320 0.13329
0.18787 -0.01320 -0.19800
-0.04767 -0.05623 -0.34730
-0.08815 0.14138 0.16558
-0.21562 0.10143 -0.30823
-0.20285 0.13314 0.30672
0.22175 -0.08523 0.33809
-0.18121 0.14138 -0.34705
0.18360 -0.04392 0.33809
-0.25817 0.07099 -0.32004
0.18541 0.15982 -0.21936
-0.07113 0.14138 0.23150
-0.19220 -0.02550 0.00947
-0.16201 -0.02550 0.29197
0.22129 -0.02893 0.30675
0.21532 0.13523 0.29851
-0.08342 0.14138 -0.21237
0.09357 0.14138 0.31586
-0.20285 0.11958 -0.19574
0.21593 0.10143 -0.25280
0.13062 0.14138 0.01716
0.22129 -0.06234 0.01784
-0.20918 0.10143 0.10648
0.21958 -0.02550 0.23256
0.20285 0.12730 0.05153
-0.15437 0.15982 -0.15175
-0.13759 -0.01320 0.33324
0.25691 -0.12897 0.33809
0.17619 0.15325 -0.39341
-0.20285 0.10149 0.24012
0.13903 0.15982 0.26077
0.16060 -0.01320 -0.08563
-0.04107 0.15982 0.17177
0.14432 -0.02550 0.25342
-0.16979 0.14138 -0.09031
0.13218 -0.01320 -0.00250
-0.20285 -0.03008 -0.09743
-0.21242 -0.02550 -0.19087
0.18760 -0.10446 -0.39341
0.20830 -0.02550 0.32651
-0.16597 -0.10016 0.35706
0.19218 -0.02550 0.16183
0.10676 -0.01320 -0.16267
0.02352 -0.01320 0.26995
0.14564 0.15971 -0.35653
0.16532 0.14138 -0.02409
-0.18596 0.12050 0.33809
-0.09893 0.14138 0.30703
-0.11006 -0.02550 0.27012
0.17976 -0.02550 -0.10696
0.16737 -0.01320 0.21804
-0.01580 0.15982 0.20410
-0.22129 -0.02852 0.02749
-0.02287 0.14138 0.05841
-0.14414 0.15982 -0.17688
-0.05273 -0.02550 0.24346
0.05401 0.14138 -0.17074
0.18340 -0.01320 -0.33620
0.11911 -0.02550 -0.24574
0.14757 0.14138 0.35618
0.20285 -0.04846 -0.02378
0.08039 -0.02550 -0.08447
-0.19793 0.15982 -0.10186
-0.02237 0.14138 0.29877
0.12192 -0.06238 0.35213
0.18458 -0.02550 -0.27491
-0.06024 -0.02550 0.09205
-0.14103 -0.01320 0.14316
-0.10826 -0.01320 -0.23313
-0.09421 0.14138 0.34648
0.05368 -0.04578 0.35653
-0.20112 -0.01320 0.11039
-0.02598 0.15982 0.00234
-0.18768 0.14310 0.35653
0.22129 -0.04731 -0.12520
-0.03460 -0.05802 0.33809
0.20360 0.15982 -0.34680
0.25817 0.08769 0.32515
-0.15213 0.15982 0.35477
-0.02147 -0.02550 -0.25067
0.22129 0.09161 0.32391
-0.03317 -0.01320 0.07424
-0.09091 -0.01320 -0.29007
0.03544 -0.01320 -0.15757
0.25817 0.12095 0.35400
-0.07813 0.13523 -0.34986
0.06149 -0.01320 -0.24337
0.02586 -0.01320 0.16243
-0.22129 0.06946 -0.32284
0.04801 -0.02550 -0.00462
-0.13175 -0.01320 -0.18532
-0.12728 0.15982 -0.10584
0.25817 -0.15787 0.33630
0.23018 0.09489 0.30120
-0.24251 -0.01020 -0.30120
0.16557 0.15982 -0.35303
-0.07577 0.15982 -0.23602
0.20322 -0.02550 0.27908
0.13873 -0.01320 0.33299
0.00184 0.14138 -0.16128
0.15898 -0.02550 -0.00636
0.20285 -0.05466 0.10311
0.20285 0.10616 0.26641
-0.08129 -0.01320 0.30164
0.20285 0.10504 -0.25191
-0.20285 -0.03060 0.06614
-0.04709 -0.01320 0.00715
0.03646 0.15982 0.28925
-0.20306 0.14138 0.06827
0.15073 -0.01320 -0.03767
0.20285 0.11762 -0.13145
0.20285 0.09121 -0.36125
0.15872 -0.02550 0.31536
-0.13036 -0.02550 0.27862
-0.18289 -0.01320 0.22273
-0.21870 -0.05623 -0.29468
0.11657 -0.01320 0.17242
0.20285 0.13153 -0.21943
-0.01532 -0.02550 0.20800
0.14374 0.15982 0.15928
0.17141 -0.02550 -0.01373
0.20754 0.10143 0.29121
0.21619 0.14138 0.07558
-0.17059 0.15982 -0.35158
-0.15545 -0.02550 0.33476
0.10531 -0.01320 0.31305
0.01169 -0.01320 0.31023
0.13039 -0.02550 0.25935
0.18023 0.14138 0.08054
0.20285 0.03259 -0.37511
0.07468 -0.01320 -0.05814
0.18412 -0.08051 -0.39341
0.21999 0.14138 0.05473
0.02949 0.12930 -0.33809
-0.19325 0.14138 0.32438
0.01309 0.15982 0.08100
0.22129 0.13100 0.25530
0.12352 -0.02550 -0.27297
-0.22129 -0.05487 0.18878
-0.06856 0.14138 0.19370
-0.20285 0.11974 0.26535
0.24457 0.00422 0.33809
0.17897 0.14138 0.12563
0.05095 0.15982 -0.08143
0.14108 -0.02869 0.33809
0.16659 -0.01320 0.03321
0.22129 -0.05604 0.16166
0.14860 0.15982 -0.25050
0.22129 0.12749 -0.00218
0.10134 -0.01320 -0.26831
0.00629 0.15982 -0.05177
-0.09489 -0.02550 -0.33285
0.19983 -0.02550 -0.23858
-0.10358 0.14138 -0.11434
0.21623 -0.02550 0.26871
-0.01841 0.15982 -0.35531
-0.20441 -0.05623 0.37950
-0.15057 -0.02550 0.22219
0.13311 0.10743 -0.33809
0.19256 -0.02550 -0.26833
0.21844 0.14138 0.14368
-0.08937 0.13523 0.34262
-0.08715 0.15982 0.30018
0.00473 -0.01320 0.31042
0.18122 0.15982 -0.03968
-0.02593 0.15982 0.28975
-0.20285 -0.05312 0.19585
-0.00374 0.15982 0.19441
-0.08263 0.15982 -0.31621
0.22051 -0.02550 -0.12225
0.04181 -0.01320 0.11526
-0.06813 -0.01320 0.09782
-0.08327 0.15982 -0.17651
-0.14564 0.10631 0.35653
-0.16881 -0.01320 0.31392
-0.18398 0.14138 0.20316
0.14854 0.15982 -0.31057
-0.03158 0.14138 0.21594
-0.18095 -0.01320 0.03546
-0.16276 0.15982 0.28872
0.03071 -0.01320 0.24936
-0.04652 -0.01320 0.19065
0.16597 -0.11803 -0.36598
-0.20285 0.11877 -0.33627
-0.11556 0.13523 0.35481
-0.03649 -0.02550 0.18713
0.25817 -0.13805 0.32301
0.09281 0.14138 -0.16302
0.06767 0.14138 -0.05717
0.15993 0.14138 -0.33110
0.20834 0.10143 0.34942
-0.02999 -0.01320 0.29727
0.13851 0.15982 -0.11717
0.09077 -0.01320 -0.11255
0.14486 -0.02180 -0.35653
0.22129 -0.01473 0.17164
0.22129 0.15129 0.11642
0.21952 0.13523 0.20184
-0.18842 -0.16904 0.38236
0.22129 0.13093 0.10786
0.21412 -0.06238 0.25813
-0.02165 -0.01320 -0.26454
-0.22129 0.11407 0.34697
-0.03318 0.14138 0.18635
0.25817 0.12054 0.30594
0.13291 -0.02550 0.06116
0.02161 0.14138 -0.04002
-0.20285 0.12946 -0.09073
-0.09329 0.14138 -0.23781
-0.20285 -0.05401 -0.25844
0.19685 -0.09929 -0.39341
0.21991 0.13523 -0.28970
-0.20285 -0.11913 0.36452
0.14287 0.15982 0.03121
0.06155 0.14138 0.06199
-0.19489 0.15982 -0.02745
-0.03825 0.13411 0.33809
0.19735 0.15982 0.17867
0.12192 0.11426 -0.33809
0.23131 -0.05463 0.33809
-0.02207 -0.04942 -0.33809
-0.21498 0.13523 0.13032
-0.19675 0.14138 0.35562
-0.20285 0.11647 -0.15125
-0.05810 -0.01320 -0.03262
-0.25817 0.09026 -0.30187
-0.22129 -0.04334 -0.17394
-0.20931 0.14138 -0.20539
-0.17731 0.14138 0.25923
-0.08582 -0.01320 -0.00087
0.21664 0.15982 -0.05040
-0.14371 0.15982 -0.16442
-0.21956 0.15982 0.11062
0.02291 -0.02550 0.04341
-0.22129 0.09223 -0.30977
-0.21946 -0.02550 0.13007
0.22129 -0.08021 0.33431
0.11354 0.14138 0.17391
0.21261 -0.05542 0.35653
-0.10529 -0.02550 0.33694
-0.17660 0.15982 -0.10192
-0.00471 0.15982 0.21045
0.08260 -0.02550 -0.31018
-0.17615 -0.02550 -0.03004
-0.19838 0.15982 0.29763
-0.12701 0.14942 0.35653
0.13405 0.14138 0.28420
0.23025 -0.09549 0.30120
-0.03466 -0.02550 -0.35089
0.09409 0.14138 0.25719
0.10105 -0.01320 0.04647
-0.18751 0.10638 -0.35653
-0.19463 -0.02550 0.03924
0.20285 -0.05336 -0.25233
-0.22129 0.10368 0.14491
0.22129 -0.05305 -0.25809
-0.03352 -0.01320 -0.01851
0.21846 0.10143 -0.15158
0.14301 0.15982 -0.26210
0.01556 0.14138 -0.31475
0.00242 0.13373 0.33809
-0.04930 0.14138 -0.23028
-0.22129 0.07683 -0.32635
-0.14528 0.14138 0.02913
-0.19527 0.14138 0.34285
0.05117 0.15982 0.22091
-0.18096 -0.01320 -0.21658
0.06805 0.15982 0.05155
0.20603 0.10325 -0.39341
0.22129 -0.04874 0.18851
-0.04522 -0.01320 -0.29929
-0.22129 -0.03002 0.24308
-0.13971 -0.02550 0.34840
-0.25817 0.13196 -0.30899
0.18961 -0.01320 0.00244
0.14800 0.14138 0.00047
-0.16555 -0.02550 0.00774
0.15060 0.14138 0.04103
-0.19963 0.10506 -0.35653
-0.20285 0.11441 0.17897
0.16453 -0.01320 -0.06522
-0.17725 -0.02550 -0.33098
-0.13976 0.14138 0.15619
-0.21550 -0.01320 0.07391
0.22129 0.10193 0.02938
-0.16381 -0.01320 -0.29737
0.06712 0.14138 0.01493
0.04584 0.15982 0.19415
-0.21079 0.13523 0.26310
-0.06261 -0.01486 -0.35653
-0.20285 0.12055 0.31706
-0.18550 -0.01320 0.12610
0.20670 0.10143 0.25761
-0.20285 0.11748 0.09400
-0.25817 0.01920 -0.32012
0.18258 0.14138 -0.21363
0.22994 -0.16673 0.30504
-0.15050 0.13523 -0.34557
-0.19451 -0.01320 -0.09477
0.22129 0.14791 0.02274
-0.10558 -0.01320 -0.24874
-0.00600 0.14138 -0.33131
0.03925 -0.01320 -0.10817
0.08093 0.14138 -0.11646
-0.22129 0.15166 0.04246
0.21033 0.13523 0.15614
0.25433 -0.16674 0.30708
-0.05236 0.14138 -0.33781
0.08128 -0.02550 0.13909
-0.13548 0.12631 -0.35653
-0.04171 0.14138 -0.11881
0.20285 0.10985 -0.35434
0.20523 -0.01320 -0.16160
0.04842 0.14138 -0.04619
0.01335 -0.02550 0.17376
-0.10991 -0.01320 0.01263
0.22129 0.12016 0.28386
-0.17892 0.14138 0.07766
0.20285 0.10520 0.12677
0.20499 -0.06238 0.35037
-0.06532 -0.01320 0.07379
0.10026 -0.02555 -0.35653
0.20285 -0.04889 0.22361
0.20285 0.12073 -0.30088
0.01766 0.15982 0.02984
-0.09410 0.15982 -0.15789
0.16265 0.15982 0.20013
-0.02551 0.14138 0.32894
0.13354 0.15982 0.26302
0.22675 -0.05699 0.35653
-0.20285 -0.04443 0.05458
0.08380 0.14138 0.14113
0.12223 0.14138 0.09232
-0.12452 0.15982 0.26645
-0.00901 -0.02550 0.07618
0.16260 0.14138 0.22750
-0.15599 0.15982 -0.17410
0.09130 -0.01320 0.07898
-0.22129 -0.05076 -0.18729
-0.21053 -0.02550 0.23434
-0.22129 -0.05442 -0.33121
0.01827 0.14138 -0.16781
0.22129 0.15698 0.11126
-0.20285 -0.04973 -0.30837
0.06560 0.14138 -0.26264
0.15754 -0.02550 -0.02187
-0.08598 -0.02550 -0.16410
0.18322 0.15982 -0.05640
0.07445 0.14138 -0.35316
0.22129 0.12843 -0.08011
-0.20285 -0.04800 -0.08262
-0.24544 0.11786 -0.35653
-0.06312 -0.05115 0.35653
0.17244 -0.09030 -0.39341
0.01874 -0.02550 0.15188
-0.16847 -0.08777 0.39341
-0.01931 -0.02550 0.08032
0.14629 0.15982 -0.34646
-0.21704 0.15982 -0.27631
-0.11310 -0.01320 -0.12616
0.16295 -0.05623 -0.33870
-0.05016 0.15982 -0.06599
0.17120 -0.02550 0.16459
-0.21096 0.10143 0.38739
-0.18177 0.14138 -0.33618
-0.17826 -0.01320 0.31993
0.20285 0.10774 0.03661
0.01718 -0.01320 0.15753
0.19492 -0.01973 -0.39341
0.22502 0.11429 0.35653
-0.12997 -0.02550 0.29453
-0.20746 0.14138 0.13373
0.08476 0.14138 0.21448
0.20285 0.10863 0.31105
-0.20285 0.12461 -0.06557
0.11680 0.14138 0.26904
-0.03235 -0.02550 0.29177
0.22129 -0.03247 0.33143
0.08611 -0.01320 0.03491
-0.03321 0.14138 -0.17344
0.22129 -0.02842 0.25575
0.07686 -0.02550 -0.20265
0.18713 -0.01320 -0.35552
-0.20285 -0.04030 0.13541
-0.06659 -0.01320 0.03080
0.22014 0.13523 -0.39023
0.17320 -0.01320 -0.16906
-0.11938 -0.02550 -0.25102
0.22026 -0.02550 0.02414
0.16169 -0.03692 -0.33809
-0.00543 -0.02550 0.27462
-0.09778 0.15982 -0.01993
0.15457 -0.02550 -0.11677
0.18210 -0.02550 -0.23941
0.21801 -0.02550 0.17051
0.21088 -0.02550 -0.20621
0.04204 -0.02550 0.18728
0.07001 -0.01320 -0.23025
-0.08695 0.14138 0.18219
-0.11303 0.14138 0.04147
-0.17909 -0.01320 0.24776
0.20285 0.10187 0.17154
-0.04204 -0.02550 0.33676
0.02459 0.15458 -0.35653
0.11362 0.14138 -0.33910
0.01626 0.15982 -0.24174
0.21149 0.14138 0.20531
0.02368 -0.02550 -0.33797
0.22129 -0.02142 -0.11978
0.21556 -0.06238 -0.10952
0.08954 -0.02550 -0.23766
0.19667 0.14138 0.12921
-0.01589 -0.01320 0.09784
-0.17978 -0.05192 0.35653
0.14105 0.14138 0.20953
-0.08694 0.15982 0.11641
0.08282 -0.06238 0.35617
0.16733 0.15982 0.01895
0.03351 -0.01320 -0.22433
-0.22129 -0.03773 -0.03756
0.10145 -0.01320 -0.10415
-0.16835 0.00326 0.39341
-0.21893 -0.05623 -0.18901
0.10761 0.10143 -0.34468
0.21617 -0.02550 0.33099
0.02788 0.15982 0.02642
0.12831 -0.02269 0.35653
0.20285 0.06295 -0.37192
-0.18540 0.11913 -0.35653
0.04723 -0.02550 0.18989
0.05674 -0.02550 -0.19203
0.11936 -0.02550 -0.22050
-0.20351 0.13523 0.34075
0.13735 0.14138 -0.00594
-0.21650 -0.05623 0.20552
-0.20222 -0.04158 -0.35653
0.24044 -0.06613 0.33809
-0.11232 -0.06099 0.35653
-0.22869 0.11953 -0.33809
-0.14457 0.11700 -0.33809
-0.21238 0.15982 0.31022
0.20536 0.13523 0.33430
0.19690 0.15982 -0.03849
0.22129 0.11811 -0.24509
-0.06317 -0.04975 0.33809
0.15643 -0.02550 0.16459
-0.23013 -0.02543 -0.33809
-0.19871 0.15982 -0.27471
-0.06529 -0.02550 0.12716
0.09606 -0.01320 0.17173
0.11273 0.14138 0.10597
0.07608 -0.01320 0.12985
0.15870 -0.01320 0.03346
0.24237 0.13521 0.33809
-0.20813 -0.01320 -0.07712
0.13968 -0.03893 -0.33809
0.21405 -0.06238 0.00395
-0.14897 0.15982 -0.30062
0.11695 0.15982 0.11688
-0.15616 -0.01320 0.33336
0.19079 0.15982 -0.32711
-0.18358 0.14138 -0.12841
-0.13603 -0.02550 -0.32210
0.14904 -0.02550 0.23953
0.23572 0.08066 0.30120
0.19647 -0.02550 -0.10827
0.22129 -0.01734 -0.08567
-0.10912 0.11627 0.35653
0.07701 -0.02550 -0.02340
0.22129 0.03917 0.32529
-0.16204 -0.02550 -0.15949
0.15378 0.12403 0.33809
-0.11920 -0.01320 0.19844
-0.20285 0.12489 -0.31874
0.20301 -0.02550 -0.24438
0.00050 0.15982 -0.09770
0.02770 0.15759 0.35653
0.17751 0.15982 -0.31006
-0.21499 0.13523 -0.25682
0.19200 0.14138 -0.00971
0.07696 -0.04621 0.35653
0.05105 -0.01320 -0.25772
-0.00331 0.15033 -0.35653
-0.07948 0.14138 -0.05907
-0.03251 -0.02550 -0.11162
-0.11017 -0.01320 -0.00199
-0.25817 0.01100 -0.30965
0.20797 0.15982 0.02716
0.04323 -0.01320 0.14884
0.25817 -0.00426 0.31815
-0.03637 0.15982 -0.14402
-0.04387 -0.02550 -0.28637
0.20302 0.13523 -0.07761
-0.20055 -0.02550 0.06614
0.20285 -0.08707 -0.35720
-0.13116 -0.02550 -0.09248
-0.10857 -0.01320 0.31708
0.13814 0.14138 0.16252
-0.25558 0.03805 -0.30120
0.19498 0.14138 -0.15384
0.10875 0.15982 0.08548
0.03316 0.14138 0.22886
0.24507 0.00560 0.30120
0.13911 0.15982 0.23593
-0.20285 0.13327 0.00668
0.14708 -0.01320 -0.10619
0.00359 0.14138 0.11156
-0.15479 -0.01320 0.28073
0.01488 -0.02550 -0.00301
-0.18316 0.15982 0.16866
-0.22129 -0.04605 -0.32352
0.13215 -0.01320 -0.05164
-0.08615 0.15982 0.03940
-0.00225 0.15982 0.25843
-0.21387 0.15982 0.15953
0.22129 0.11494 -0.20806
-0.20970 0.10143 0.29757
0.19967 0.14138 -0.08428
0.12069 0.14138 0.07441
0.03619 -0.01320 -0.25437
0.22129 -0.06089 -0.24443
-0.22129 0.10311 -0.22207
0.06937 -0.02550 -0.24856
0.20326 -0.06238 -0.23512
0.05258 -0.01320 -0.27500
0.16597 -0.08225 -0.38270
-0.12588 -0.01320 -0.24870
-0.15313 0.14138 0.18609
0.22129 -0.04130 0.16842
-0.25817 0.11986 -0.35069
0.17649 -0.01320 -0.03786
-0.20285 -0.04058 -0.09836
0.11289 0.15982 0.20092
0.14822 -0.01320 -0.28712
0.08350 0.14138 0.07383
0.02009 -0.03347 -0.35653
-0.21235 -0.01320 0.14986
-0.06716 0.15982 -0.22301
0.03890 0.14138 0.23731
-0.10529 0.14138 0.28175
0.08991 -0.02550 0.25219
0.10588 -0.01320 0.19139
0.10223 0.14815 -0.35653
-0.16960 0.15982 -0.13130
0.03022 -0.02550 -0.21852
-0.20285 -0.05356 0.02212
0.18998 -0.02550 0.16903
-0.19864 0.03415 0.35653
-0.18253 -0.15679 0.39341
0.17759 -0.01320 0.13426
0.12354 0.15982 0.15057
0.10531 -0.03543 0.33809
-0.03640 0.15982 0.26520
-0.05691 -0.01320 0.00169
-0.22129 0.11650 -0.22425
-0.22129 0.14685 0.18235
0.06175 0.12054 -0.33809
-0.00093 0.14138 0.30915
-0.20871 0.14138 0.02028
-0.13803 -0.01320 0.09596
-0.22129 -0.04521 0.01512
0.06591 0.15982 0.11626
-0.11758 0.15982 -0.04056
0.17627 -0.02550 -0.24537
-0.01156 0.14138 0.22777
-0.06607 -0.02550 -0.29637
0.13312 0.14138 0.17049
-0.20285 0.12626 0.22546
0.21980 0.15982 0.04409
0.06097 -0.02550 0.23104
-0.18367 0.15982 -0.17269
-0.00029 -0.04875 -0.33809
0.12170 0.15982 0.18869
0.07263 0.11670 -0.35653
-0.16224 -0.02550 0.31367
0.12090 -0.01320 0.08292
-0.22129 -0.04173 0.28471
-0.13387 0.15982 0.25559
-0.04952 0.14138 -0.00106
-0.19653 -0.02550 0.29545
0.06433 -0.02550 -0.11017
-0.14893 0.14138 -0.14576
0.07788 -0.01320 0.11763
0.15453 -0.02550 0.15063
-0.13872 -0.01320 0.21318
-0.04047 -0.02550 0.29005
0.01054 -0.01320 -0.02082
-0.12280 -0.02550 0.18185
0.00588 0.15982 0.18808
0.16697 0.14138 0.09541
-0.20493 -0.01320 0.18866
0.10262 0.15982 0.20214
0.00165 0.14138 -0.22573
0.20285 -0.05804 -0.09184
0.05797 -0.01320 0.14824
0.14822 -0.02550 -0.09477
0.17098 -0.02550 0.26232
0.08924 0.15982 -0.09312
0.25565 -0.05682 0.30120
0.20285 0.13172 0.04279
0.04422 0.15982 -0.15768
0.14662 0.15982 -0.11328
