ply
format ascii 1.0
comment VCGLIB generated
element vertex 1854
property float x
property float y
property float z
element face 0
property list uchar int vertex_indices
end_header
0.08350 -0.10036 0.21122
0.05121 -0.01452 0.38233
-0.17683 -0.05582 0.36299
-0.01844 0.08849 0.37277
-0.15398 -0.13262 0.38233
0.09080 -0.19799 0.24254
0.07169 -0.22312 -0.36570
0.00663 0.04520 0.13620
-0.01802 -0.17205 -0.29994
-0.06763 -0.21506 0.27578
-0.12220 0.11231 0.31516
0.07169 -0.09864 -0.34375
-0.11847 -0.11948 -0.03409
0.08124 -0.07991 -0.23202
-0.06762 0.01075 -0.30967
-0.02657 -0.10956 -0.38233
0.03786 -0.07621 0.23417
0.06263 0.09319 0.12344
0.00211 0.00333 -0.38233
-0.03496 -0.21506 -0.09217
-0.04514 0.00717 0.16010
0.07913 -0.10275 -0.15580
-0.15011 -0.07837 -0.11470
-0.04390 -0.19594 0.10251
-0.04760 -0.16193 -0.36321
-0.14123 0.10992 0.22002
-0.01726 0.00755 0.13501
-0.18638 -0.17930 -0.15705
0.01694 0.00956 -0.18644
0.06679 -0.17085 -0.18897
0.05492 -0.19594 -0.33564
0.04861 -0.09058 -0.37277
0.07233 -0.06974 -0.13381
-0.18469 -0.15875 -0.11470
0.08124 -0.10989 -0.17651
0.02668 -0.04395 0.11470
-0.01426 -0.06007 0.37277
-0.17683 0.07442 -0.28971
0.04161 0.09080 0.17929
0.09080 0.10495 0.06140
-0.09708 0.10992 -0.11705
-0.16744 0.05974 0.26250
-0.10036 -0.06319 -0.13009
0.01546 -0.19594 0.11459
-0.14289 -0.08792 0.12426
0.01357 0.00597 -0.25781
-0.04965 -0.17085 -0.17719
-0.06438 -0.17201 -0.36321
-0.07179 0.09080 -0.27248
-0.17983 0.09136 0.12125
-0.08124 0.03149 -0.25856
-0.19594 0.10434 -0.30365
-0.09080 -0.13234 0.17411
0.08124 -0.12986 -0.23599
-0.10623 0.01855 0.11470
-0.03605 0.09319 0.12661
0.00838 -0.08124 -0.20169
0.06575 -0.19833 -0.38218
-0.09463 0.10992 -0.36706
-0.09080 0.02616 -0.31044
-0.00640 0.05490 0.24373
-0.00954 0.06225 0.37277
0.07986 0.08434 0.11608
0.04074 0.09080 0.20298
-0.18201 0.09319 -0.21477
0.09080 0.10179 -0.28348
0.07367 -0.05551 0.38233
-0.01693 0.00956 -0.26708
0.12989 -0.17799 0.37516
-0.10036 0.06171 -0.13931
-0.16727 0.13936 -0.03821
-0.01881 -0.15726 -0.11470
0.07169 -0.18501 -0.37058
-0.02180 -0.11978 0.13620
0.02999 -0.20629 -0.09558
-0.18638 0.05089 -0.32617
-0.17264 -0.01836 -0.12426
-0.00134 0.04307 0.25329
-0.17385 -0.14240 -0.11470
-0.16727 0.16572 -0.09026
-0.01742 -0.16013 0.23178
-0.07758 -0.10965 -0.12426
0.01289 0.05045 0.38233
-0.15550 0.09080 -0.33394
-0.13394 -0.19594 -0.38416
-0.03476 0.10992 -0.18289
0.06280 -0.22462 0.38100
0.03877 0.00956 -0.20459
-0.06155 -0.05574 0.13381
-0.17683 -0.18426 -0.31216
0.02426 -0.06367 0.38233
-0.09477 -0.21506 -0.16401
-0.08173 0.06930 -0.22103
-0.08124 -0.07673 -0.32852
0.08093 0.01075 -0.14277
-0.14815 -0.21506 0.01010
0.07169 0.08780 0.30027
0.07169 0.06680 -0.11263
-0.17683 0.01321 -0.36956
-0.17683 -0.10920 0.35883
-0.09080 0.02736 -0.19369
-0.03676 -0.17444 0.15737
-0.08124 -0.16279 -0.14405
-0.05702 -0.11439 -0.38233
-0.17683 -0.17971 -0.26885
0.08602 -0.17350 -0.14757
0.03555 -0.21506 0.27494
0.01330 0.06496 -0.13381
-0.00943 0.10992 0.06922
-0.00713 0.10992 -0.11338
-0.18638 -0.03591 -0.35992
0.08602 -0.16874 -0.29438
-0.09080 -0.00117 0.13070
-0.17683 -0.19821 -0.31098
-0.17683 -0.15227 -0.29574
-0.10730 -0.19833 -0.12011
0.07854 0.02727 -0.36799
-0.18638 -0.04660 0.18734
0.03298 0.00956 -0.29450
0.02635 -0.02118 0.38233
0.10949 -0.02974 0.37396
-0.08124 -0.11430 -0.15888
-0.02809 0.10992 0.12683
0.08124 -0.08409 0.25575
-0.13316 -0.04720 -0.38233
-0.16727 -0.17744 0.03849
-0.18638 -0.18878 -0.27041
-0.02315 0.04334 -0.36082
0.07169 -0.21811 -0.20063
0.04548 -0.13139 0.37277
-0.09080 -0.14472 -0.18269
-0.04820 -0.14003 -0.13620
-0.09080 -0.16144 -0.21316
-0.10036 -0.13394 -0.26361
-0.17683 -0.10123 0.22310
0.04394 -0.17085 -0.35582
-0.17683 -0.07641 -0.36314
-0.05926 -0.18602 0.38233
-0.09803 -0.19833 0.13262
-0.13181 0.10992 -0.10942
-0.18978 0.10992 0.36487
-0.09964 0.07031 -0.12187
-0.16727 0.15939 -0.30244
-0.12143 0.12250 0.36321
-0.10035 0.09319 -0.18638
-0.17683 -0.08164 -0.36885
0.08602 -0.08427 -0.15957
0.00736 -0.15015 0.13620
0.07169 -0.19357 -0.13953
-0.10036 0.02675 0.24079
0.03739 -0.08124 -0.25745
-0.06649 -0.19594 -0.04567
0.05248 -0.08722 0.17515
-0.07497 -0.17205 -0.32427
-0.18638 -0.17075 0.26392
0.02591 -0.11470 0.13397
0.07838 -0.08363 0.17573
-0.18936 0.09080 -0.29727
-0.17254 -0.21506 -0.33989
-0.11760 -0.12904 0.03682
-0.10194 -0.19594 0.39860
-0.04931 -0.19594 0.18896
0.08602 -0.05142 -0.22851
0.01117 -0.17563 -0.36163
0.08841 -0.06340 -0.24511
-0.17683 -0.11401 0.34996
-0.00689 -0.05230 0.11470
-0.08363 -0.11385 -0.18582
0.06806 -0.17205 -0.28860
0.01751 0.09080 -0.26286
-0.18638 -0.01470 -0.32015
0.12583 -0.17193 0.37396
-0.17683 -0.20556 0.03058
-0.13038 -0.21506 0.10432
-0.18638 -0.08064 0.24151
-0.16727 0.18358 0.13108
0.05735 -0.21510 -0.26952
-0.14071 0.11352 0.28674
0.02987 0.00717 0.13667
0.07939 -0.08005 -0.13814
-0.07355 -0.19594 0.08525
0.03453 0.03117 -0.12426
-0.13187 -0.10346 -0.12426
-0.17683 0.04500 0.29670
-0.10036 -0.09969 -0.16026
-0.07674 0.08271 0.25329
-0.17683 -0.17483 -0.34127
0.02609 0.03185 -0.36321
0.09080 -0.20339 -0.30941
-0.04031 -0.21506 0.05381
-0.12025 -0.09176 0.24373
0.01778 -0.14214 0.24373
-0.17865 0.01550 -0.37459
-0.04954 -0.17205 -0.31237
-0.02562 -0.19594 -0.19600
-0.00880 -0.20421 0.04270
0.08124 0.06074 0.37433
-0.07896 0.01818 0.25329
0.01536 -0.17360 -0.22939
-0.07581 0.09080 -0.17911
0.07169 0.08697 -0.10516
-0.13874 0.14564 0.34409
-0.02471 -0.19594 -0.37219
0.08026 -0.16201 -0.11470
-0.18638 0.07863 0.18018
-0.03044 -0.18447 0.25329
-0.10148 0.09080 0.09524
0.03754 -0.00973 -0.37277
0.08602 -0.15983 -0.35943
0.07685 -0.07661 -0.36082
0.06231 -0.03524 0.11470
-0.07854 -0.21506 0.38220
-0.17582 -0.12904 0.05365
-0.13925 -0.21506 -0.25924
0.01141 0.03784 0.23178
-0.17683 -0.16364 -0.35165
0.01041 -0.17444 0.21403
0.08955 -0.21506 -0.34428
-0.04723 0.09080 -0.04641
0.01354 0.06232 0.38233
-0.17683 -0.19504 0.28533
0.08841 0.05497 -0.15596
-0.12092 -0.19594 -0.00424
-0.17683 0.02187 0.33248
-0.18532 -0.19833 -0.35201
0.08124 -0.17721 0.21625
-0.17683 0.01260 -0.13400
-0.17248 0.09080 0.35563
-0.18638 0.08584 -0.36976
0.00661 -0.08124 -0.25589
0.02864 -0.10936 0.25329
-0.01930 -0.19594 -0.04817
-0.08363 -0.15242 -0.35679
-0.06681 -0.19594 -0.28935
0.08124 -0.15860 -0.14606
-0.14606 -0.21506 -0.22669
-0.08363 0.01335 -0.29212
-0.09080 -0.07745 -0.21646
-0.18638 -0.02523 0.25429
0.03203 -0.17205 -0.13955
-0.04126 -0.05296 0.24373
-0.17683 0.16551 0.24582
-0.09080 0.01252 0.22150
0.00656 0.03434 0.25329
0.01375 0.10992 0.12702
-0.14267 0.10992 0.16879
-0.09080 0.02737 -0.24827
-0.16727 0.19108 -0.21848
-0.16727 0.05671 0.26951
-0.17683 0.16930 0.35125
0.07859 0.10992 0.33667
-0.01144 0.04661 -0.36082
-0.18638 0.07805 0.19939
-0.07817 -0.17727 0.19355
0.07697 -0.16631 -0.37805
-0.01334 0.01075 -0.17899
0.09080 0.09450 0.31352
-0.05832 0.04362 -0.38233
-0.15262 -0.21506 -0.15436
-0.10036 -0.04277 0.15560
-0.09247 0.09319 -0.35139
0.08124 0.00035 -0.36974
-0.18875 -0.21506 -0.27933
-0.17121 -0.19594 0.07047
-0.05620 -0.19594 0.05578
-0.16727 0.18985 -0.02267
0.06552 -0.21506 0.25828
0.08642 -0.17922 -0.25958
-0.06520 -0.16715 0.25329
0.04034 -0.09663 0.24373
-0.00795 0.10992 0.13453
0.07607 -0.10275 -0.26726
-0.11899 -0.19594 0.13938
-0.08220 -0.12581 -0.37277
-0.18638 -0.14451 -0.35977
-0.17683 0.15946 0.06597
-0.00410 -0.19594 -0.28859
-0.05221 -0.10688 -0.11470
-0.00585 -0.18514 -0.11470
0.07169 0.00062 -0.13455
-0.08363 -0.04573 -0.18321
-0.14525 0.05589 -0.38233
-0.11308 0.09080 -0.10719
-0.06239 0.10992 -0.02856
-0.18638 -0.10981 -0.25720
0.08602 -0.01356 -0.26397
0.07169 -0.09743 -0.23592
-0.04754 -0.17324 0.22391
0.04820 -0.17205 -0.25412
0.07795 -0.19833 -0.28742
-0.07881 0.10992 0.13933
-0.18638 0.08269 0.02405
-0.01551 -0.21506 -0.01891
-0.05162 -0.03786 -0.11470
-0.12084 0.10992 -0.31291
-0.02435 -0.21506 -0.28998
0.08602 -0.08452 -0.20595
-0.17683 -0.17495 0.24352
0.02147 -0.21506 0.34042
-0.17683 0.11962 -0.30141
0.08124 0.06684 -0.05451
0.00616 -0.08124 -0.27628
-0.18450 -0.19833 0.38021
0.08066 0.09319 -0.10561
-0.00119 -0.09583 0.25329
-0.12079 -0.16018 0.24373
-0.07659 0.00956 -0.29742
-0.14032 0.08776 -0.12426
-0.09931 0.09319 0.20276
-0.01120 -0.17085 -0.19238
-0.10036 -0.03943 0.19814
-0.13826 -0.21506 -0.22982
0.01834 0.04195 -0.13381
-0.17683 -0.17009 0.30423
-0.18638 0.05626 -0.30555
-0.04548 -0.03587 0.11470
-0.13661 0.09080 -0.03550
0.08841 -0.11032 0.20609
0.03872 0.04997 -0.13620
-0.05400 -0.21506 -0.24674
-0.05373 0.01075 -0.22334
0.08375 0.00000 -0.14785
-0.11556 -0.19594 -0.36604
-0.00027 0.09080 -0.29935
-0.01452 -0.08124 -0.23625
-0.06861 0.09080 -0.08123
-0.02464 -0.17085 -0.20471
-0.07998 0.10992 0.30326
-0.18575 0.05687 -0.38169
-0.15803 -0.01245 0.12426
0.04508 0.00836 0.14646
-0.18638 0.01832 -0.26737
-0.10036 -0.04258 -0.31265
-0.02694 0.00990 -0.36321
-0.16847 -0.18017 0.11470
-0.18638 -0.13624 -0.32393
-0.01024 0.10992 -0.03412
0.15345 0.02977 0.37396
-0.00068 -0.17460 0.19355
-0.10015 -0.01252 -0.12187
-0.10036 0.04361 -0.18952
-0.17683 -0.05688 -0.36511
-0.08198 -0.02151 -0.20348
0.05561 -0.19594 -0.24483
-0.05028 -0.01280 -0.12426
-0.13956 0.12665 -0.35365
-0.17683 0.07313 0.12508
-0.12016 0.08871 -0.37277
-0.18409 0.09319 0.37228
0.07986 -0.21506 -0.31304
-0.04115 -0.19594 -0.20752
0.08124 0.07826 0.13983
-0.12351 0.10992 -0.33896
-0.08602 0.12691 -0.29641
-0.06790 -0.12104 -0.13381
0.08339 0.09080 -0.20851
-0.05798 -0.15855 -0.36082
-0.17536 0.01371 -0.12426
-0.17683 0.13666 0.37043
0.08602 0.01530 -0.29677
-0.16727 0.14454 -0.21715
-0.17806 -0.15906 -0.37400
-0.07616 0.03437 -0.36321
0.07408 -0.07399 0.25061
0.03190 -0.21506 0.15533
-0.09399 -0.11246 -0.12187
-0.11993 0.10992 0.34941
-0.05744 -0.02689 0.13381
-0.18638 0.05004 0.23026
-0.11893 -0.11948 0.01128
-0.04292 0.10992 -0.13906
0.00946 -0.21506 0.19205
-0.17873 -0.11456 0.11470
0.08602 0.06578 -0.29578
0.04347 -0.17085 -0.33689
-0.10036 -0.09428 -0.30015
-0.02437 -0.13579 0.25329
-0.18638 -0.16272 0.20914
-0.04906 -0.08005 -0.25684
-0.18635 0.09319 -0.30395
0.08841 -0.01928 0.15406
-0.10003 0.09319 -0.13583
-0.01440 0.00717 0.17761
0.08602 -0.16000 -0.21698
-0.09080 -0.06593 -0.30599
0.07169 -0.21618 0.27776
0.01376 0.09080 0.33376
0.01307 -0.21506 -0.21885
0.08841 0.00994 0.15135
0.02675 -0.19833 -0.37358
-0.17669 0.04842 0.25329
-0.11298 -0.11571 -0.11470
-0.02861 0.06930 -0.13384
-0.06475 -0.08602 0.11470
-0.16544 -0.19594 -0.09368
-0.08841 -0.16254 0.01768
0.01159 0.00836 0.18108
-0.10036 -0.17461 -0.00455
-0.04184 -0.08420 0.19355
-0.01881 -0.13710 0.23417
-0.09391 -0.14438 0.11470
-0.16727 -0.14951 0.08648
-0.17267 0.10992 0.05108
0.01361 -0.13471 0.24373
-0.16084 -0.19833 0.38006
0.07982 0.05111 0.38090
-0.09080 0.02418 -0.12982
-0.17683 -0.17765 -0.08866
-0.09080 -0.13027 0.20596
0.07408 0.06828 0.24913
-0.00746 0.07398 0.12717
-0.16538 -0.19594 -0.26876
-0.15263 0.10992 -0.11554
0.02405 0.00956 -0.19946
-0.10036 -0.09585 -0.21382
-0.15850 -0.21506 -0.25422
-0.08005 0.05034 0.16654
-0.16727 0.11451 -0.12412
0.05346 -0.21506 -0.29314
0.08124 0.09157 0.02669
-0.16727 0.11593 -0.27630
0.04988 -0.19594 -0.18338
-0.08523 0.10992 0.33364
-0.08124 -0.13362 -0.20534
-0.02457 -0.05236 0.37277
-0.10036 -0.14573 -0.32256
0.08363 0.03153 0.13460
0.06754 -0.10034 0.24373
-0.15393 -0.19594 -0.38628
-0.18638 -0.11960 0.20305
-0.07143 0.01564 0.25329
0.07370 0.03006 0.12224
0.08602 -0.08485 -0.28398
-0.13904 0.10992 0.24500
-0.00131 -0.13661 0.23417
0.09080 0.09588 0.32523
0.05721 -0.03428 -0.36082
-0.14225 -0.01478 0.37277
-0.10036 -0.19281 0.08623
0.08124 0.06246 0.24086
-0.03970 -0.10523 0.12717
0.03359 -0.16073 0.25329
-0.15611 -0.02446 0.25329
-0.16635 -0.11948 -0.03113
-0.02311 -0.19594 0.14921
0.00484 0.05481 0.13381
-0.08005 -0.08570 0.21430
-0.03977 0.10992 0.29801
-0.09543 0.09319 -0.24578
0.08092 -0.16244 0.23178
-0.10051 0.10992 0.19648
-0.13906 0.10992 0.35421
0.07342 -0.06449 -0.36321
-0.08229 -0.11979 0.23417
-0.08363 -0.12382 -0.22290
-0.08005 -0.15160 0.15820
-0.18638 0.00786 0.26051
-0.17683 -0.15856 0.16746
-0.08363 -0.07217 -0.21997
0.08841 -0.07049 -0.30183
-0.06671 -0.17205 -0.33985
0.05347 -0.19594 -0.25394
-0.17683 -0.03155 0.23668
0.00568 0.03370 0.12717
-0.18638 -0.04397 0.22740
-0.16611 0.10992 -0.17994
-0.18638 -0.12356 0.31775
0.08124 0.01933 0.25703
-0.03994 -0.17205 -0.20814
-0.09463 -0.17916 0.38233
-0.01268 0.10992 -0.21020
-0.09547 0.10992 0.34415
-0.09172 -0.01323 0.25329
-0.08005 -0.17502 0.14430
-0.14477 0.09080 0.16144
-0.17683 0.20526 0.13345
-0.09634 -0.18082 0.25329
-0.04494 -0.16082 0.11470
-0.16727 0.16426 0.08590
-0.17683 0.13723 -0.36148
-0.14353 -0.18764 -0.11470
0.05099 -0.02436 0.23417
-0.01323 0.10992 0.19334
0.07936 0.00157 0.38044
0.05264 0.06041 -0.13381
-0.11447 0.05168 -0.11470
-0.08244 -0.13115 0.13389
-0.00060 0.06265 0.13620
-0.16613 -0.10178 -0.38233
0.05735 -0.22349 0.15635
-0.09159 -0.12464 0.11470
0.00816 -0.14642 0.38233
-0.12650 0.04619 0.25329
-0.13293 -0.04623 0.38233
-0.15614 -0.07508 -0.38233
-0.10036 -0.18679 0.00534
0.07045 0.09285 -0.40144
-0.12264 0.12857 -0.31058
-0.17683 0.02159 -0.28955
-0.04298 -0.19594 0.20018
0.01377 -0.04783 -0.37277
0.07415 0.03848 -0.13620
0.02277 0.06645 -0.13620
0.04934 0.00597 -0.23402
-0.09336 -0.19594 0.09360
0.07169 -0.00129 -0.34250
-0.14516 -0.21506 -0.11663
-0.05882 0.09080 0.08919
-0.04792 -0.21506 0.12784
-0.17182 0.10992 0.01272
-0.05618 0.02804 -0.37277
0.00533 0.00536 0.12717
0.05303 -0.15855 0.37277
-0.07432 -0.08363 0.17913
0.02810 0.10992 0.30569
-0.17683 -0.18305 -0.02281
0.02495 -0.17527 0.17444
0.07870 -0.01443 0.36799
0.07579 -0.21506 0.30980
-0.16727 0.21433 0.06283
0.08066 -0.21506 -0.27656
-0.15656 0.01925 -0.11470
-0.12765 -0.19594 0.29770
0.08127 0.10992 -0.21112
-0.08841 -0.13229 -0.04877
0.07961 0.06066 0.23178
0.08145 -0.07873 0.37516
-0.18638 0.04157 0.18990
-0.19594 0.09413 0.02800
0.04660 -0.08741 0.11470
0.08124 -0.00290 -0.25429
-0.07364 0.07173 -0.11470
0.03943 -0.07893 0.24373
0.09080 -0.20694 0.19341
-0.10036 -0.05039 -0.22889
-0.14050 0.10992 -0.31442
0.01093 0.09080 0.38611
-0.13684 -0.19691 0.38233
0.05612 -0.19833 0.24441
-0.12038 -0.12904 -0.07066
-0.07329 -0.08483 -0.23251
-0.10036 -0.04000 -0.13394
-0.18638 -0.14895 -0.24679
-0.00637 0.10992 0.15879
-0.08354 0.05217 0.37277
-0.15181 -0.19594 -0.06711
0.08124 0.05076 -0.32853
-0.04987 -0.17802 0.18394
-0.02595 -0.14285 -0.13381
-0.02150 0.01075 -0.16299
0.07277 0.05635 -0.08884
0.03715 0.04626 -0.36321
0.07169 -0.02704 0.23914
-0.12436 0.02289 0.24373
-0.10989 0.14815 -0.32959
0.08199 -0.17324 0.15140
-0.17683 0.01307 -0.35678
0.04870 -0.17444 0.18602
-0.17683 0.15726 0.23754
-0.17683 -0.16341 -0.27804
-0.16847 0.06137 -0.38233
-0.05085 0.10992 -0.21102
-0.10373 0.07069 0.25329
0.02458 -0.08244 0.19155
-0.04864 0.02701 0.13620
-0.08124 -0.14806 -0.34566
-0.00636 -0.08722 0.18312
-0.01240 0.00956 -0.33518
-0.06368 -0.20214 -0.40144
-0.13686 0.09319 0.12144
0.08124 -0.15246 -0.26375
-0.00865 0.10992 -0.13133
-0.06382 -0.04674 0.37277
-0.01686 0.10992 0.39418
0.08225 0.07347 0.37516
-0.18137 -0.08933 -0.37731
0.05739 -0.21506 0.33698
0.06863 0.01717 0.13381
-0.16997 0.10992 0.37418
-0.18638 -0.13398 -0.24788
-0.07523 -0.19594 0.03192
0.08124 -0.16683 -0.36939
0.06342 -0.15750 0.37277
0.02645 -0.03061 -0.36321
0.05526 0.00217 0.38233
0.07814 -0.15104 0.11780
-0.06270 0.09080 0.37141
-0.10276 -0.21506 0.00453
-0.08091 0.09080 0.11465
-0.09080 -0.06180 -0.24356
-0.17683 0.11464 0.33353
0.03531 -0.21506 0.34043
-0.14255 0.05161 0.12426
-0.08124 0.02040 -0.15647
-0.01579 -0.17391 0.23417
-0.15182 0.08792 -0.37277
0.04087 0.09080 -0.20635
-0.03832 -0.08124 -0.14971
0.09070 0.09080 0.12224
-0.09080 -0.02595 0.16515
0.08124 -0.00551 -0.18374
-0.17683 -0.19529 -0.34089
-0.19029 0.10992 -0.26567
-0.08686 0.10992 -0.08733
-0.08377 -0.21506 -0.35576
-0.09522 0.14162 0.33931
-0.16931 0.09080 -0.18337
0.08841 -0.02153 -0.34772
-0.00292 -0.13494 -0.12426
-0.17683 0.12233 0.22879
-0.10560 0.09080 -0.25374
-0.17683 0.07412 -0.24757
-0.09955 -0.11948 -0.06581
0.00136 -0.17205 -0.25533
0.07514 -0.08244 0.20214
-0.13694 0.10992 -0.38035
-0.09723 -0.01746 0.24612
0.10629 -0.09709 0.37396
0.07752 0.00717 0.18465
-0.14955 -0.06576 0.37277
-0.01766 0.09080 0.14345
0.08124 -0.05610 0.37768
-0.06585 -0.19594 0.34443
-0.05144 -0.08005 -0.16832
-0.18566 0.09319 0.01342
0.07693 0.01075 -0.29991
0.03803 -0.05416 -0.38233
-0.00963 0.03550 -0.38233
-0.02948 0.09080 0.19792
-0.03418 -0.21506 0.16384
0.02219 0.01020 -0.11470
-0.04786 -0.21506 0.09095
-0.10724 0.05622 -0.12426
0.06704 0.00358 0.18364
0.02736 -0.08124 -0.32926
-0.03197 -0.19594 -0.05152
-0.19525 0.09080 0.27247
-0.08537 -0.21506 -0.08384
0.05972 0.10992 0.37295
-0.09461 -0.17932 0.12187
-0.16727 -0.17222 -0.03392
0.00657 -0.19594 -0.20951
0.05820 -0.03005 0.13620
-0.02268 0.10992 -0.07261
0.10492 0.05570 0.37396
-0.06473 -0.08124 -0.16925
0.08124 -0.16695 0.20947
-0.10036 -0.14588 -0.00532
-0.14015 -0.21506 -0.14080
-0.11863 -0.19594 0.17122
0.07809 0.00239 0.14220
-0.18515 -0.08267 -0.11593
-0.01090 -0.19594 -0.11374
0.06945 -0.22462 -0.19082
0.00447 -0.06204 -0.13620
-0.03280 -0.21506 0.01294
-0.09080 -0.06273 0.12275
0.08602 -0.03846 -0.29481
-0.09080 0.03375 -0.17697
0.00154 -0.02747 0.12717
0.08124 -0.08637 0.12750
-0.18638 0.07690 0.06075
-0.18196 -0.15446 -0.11912
-0.12448 0.10992 0.35927
-0.00457 -0.19594 0.05729
-0.08841 -0.13970 -0.05323
-0.06903 -0.06309 0.13620
0.08602 -0.13024 -0.25581
-0.18594 0.01637 0.38188
-0.10036 0.00887 -0.27306
0.09080 0.10262 -0.19689
-0.11530 -0.21506 -0.20351
-0.08005 -0.13292 0.16825
-0.06495 0.10992 0.16766
-0.13488 0.09080 -0.18895
0.06830 0.04085 0.13620
-0.05630 0.04556 -0.13381
-0.09080 -0.18822 0.13567
0.01390 -0.08124 -0.26693
-0.17683 0.20660 -0.11971
-0.02398 -0.15641 0.23178
-0.15550 -0.19594 0.15601
-0.12936 0.09080 0.35062
-0.09657 0.10992 -0.27127
0.07067 0.00358 0.13618
-0.03277 -0.19833 0.24488
-0.16727 0.21394 -0.13010
0.00478 -0.04883 -0.36082
-0.14821 -0.04431 0.24373
-0.01918 -0.00957 0.37277
-0.10840 0.14269 -0.35365
0.07304 0.06147 0.13381
0.07169 -0.22228 -0.28909
-0.14508 0.09080 0.28137
-0.09080 -0.04881 0.14383
-0.11929 -0.02901 -0.37277
0.01227 -0.09937 0.38233
-0.09080 -0.08040 -0.29867
-0.08363 -0.16480 -0.22046
0.08987 -0.19594 -0.34454
0.05924 -0.12106 -0.13620
-0.01483 -0.17085 -0.34817
-0.12910 -0.19594 -0.19693
-0.18638 -0.13788 0.32274
0.06463 -0.06006 0.24373
-0.14227 -0.17823 -0.37277
-0.18638 -0.14225 -0.27605
0.08602 0.00502 -0.21973
0.08841 -0.12314 0.22117
-0.12658 -0.05304 0.38233
0.07402 0.09319 -0.02476
-0.08363 -0.16689 -0.20475
-0.10506 0.09080 0.35920
-0.03358 -0.15288 -0.12426
0.05069 -0.19833 0.25235
0.08343 -0.17299 -0.37038
0.04545 -0.19594 -0.35247
-0.05702 -0.19594 0.09316
0.01063 -0.08483 -0.26006
-0.17683 0.16032 -0.26122
-0.04967 -0.19594 0.33987
0.08124 0.00753 -0.38168
-0.17683 -0.01665 -0.23541
-0.07991 0.06351 0.23178
0.08124 -0.05847 -0.36838
0.00599 0.10992 -0.09258
0.02699 -0.02855 0.13620
0.01826 0.10992 -0.21059
-0.18568 0.10992 -0.34662
-0.08088 0.05423 0.23417
0.03628 -0.19594 0.16642
0.01854 -0.08005 -0.15900
0.08643 -0.10468 -0.13142
0.01062 0.09080 -0.03818
-0.18638 -0.16481 -0.30404
0.07783 -0.19833 0.19213
-0.03052 0.10992 0.25562
0.07169 0.07520 0.04206
-0.17683 -0.11139 0.17574
0.04743 -0.14500 -0.38233
-0.15022 -0.19594 -0.24868
-0.02731 -0.17123 0.25329
-0.17683 0.05050 -0.18312
0.07521 0.03371 -0.12904
-0.17683 -0.19282 0.17543
-0.17683 0.15010 0.32417
-0.18446 -0.12085 -0.11662
-0.09508 -0.02013 0.25329
0.08602 -0.14120 -0.25334
-0.08986 -0.19355 0.09819
-0.15971 0.10992 0.14877
0.08124 -0.08907 -0.14046
0.10584 -0.04436 0.37396
0.08602 0.05390 -0.28645
-0.04549 0.10992 0.25568
-0.12248 -0.05278 -0.12426
0.07701 -0.19833 -0.16361
-0.18638 -0.18057 -0.16915
-0.03001 0.09080 0.16585
-0.03300 0.10992 -0.26713
0.06244 0.09080 0.04009
-0.01126 -0.19594 0.05375
-0.09041 -0.07371 0.12717
0.03920 0.06552 0.38233
-0.13139 0.10992 -0.36420
-0.16280 -0.22060 0.11470
-0.14175 -0.20238 0.09558
-0.07307 -0.03711 -0.13381
-0.10514 0.05766 0.24373
0.06267 -0.19594 -0.27686
0.09659 -0.14900 0.37396
-0.17683 -0.16224 -0.17182
0.03128 -0.19594 -0.09628
0.07349 -0.11897 0.23417
0.07764 0.00956 -0.33992
0.05346 -0.18781 0.12717
-0.08124 0.01719 -0.33087
-0.16249 -0.18006 0.24557
-0.02738 0.09080 -0.15372
-0.16727 -0.15167 -0.09999
-0.00798 -0.19594 -0.26357
-0.18937 0.09080 0.27098
-0.02679 0.09080 0.08756
0.07190 -0.08005 -0.14670
-0.03270 -0.06773 -0.37277
-0.02333 -0.08124 -0.16271
0.08185 0.07079 -0.37038
0.03624 -0.08244 0.19986
-0.09080 -0.04486 -0.27871
0.07532 -0.09514 0.11470
-0.16727 0.16926 -0.15669
-0.06593 -0.11497 -0.36321
-0.08124 -0.13209 -0.32105
-0.10036 -0.10755 0.24597
-0.11868 0.09319 -0.37735
-0.18638 -0.18852 0.30261
0.04685 -0.04932 -0.38233
0.09080 0.09497 -0.36230
-0.08244 -0.11902 0.22419
-0.02411 -0.08722 0.23211
-0.09948 0.09319 -0.20546
-0.10765 -0.15756 -0.38233
-0.10036 0.06068 0.22735
-0.06268 -0.08385 -0.26763
-0.06597 -0.21506 -0.12173
0.08841 0.04587 -0.20408
0.07291 -0.11151 0.25807
0.08124 -0.18326 -0.33643
-0.13157 0.06240 -0.12426
-0.04853 0.05826 -0.36321
0.03591 -0.19726 -0.37277
-0.02707 -0.21506 -0.13042
-0.10491 -0.05979 0.11470
-0.18638 0.02889 -0.19678
-0.13372 -0.05588 0.37277
-0.18638 -0.16611 -0.21312
0.07831 -0.19833 0.16180
-0.04743 -0.12473 -0.13381
-0.18638 0.05105 -0.34022
-0.08538 0.12904 -0.31154
0.00235 0.09080 -0.08886
-0.16727 -0.14953 -0.08020
0.11819 -0.16864 0.37396
-0.08363 -0.06471 -0.17782
-0.06551 0.00717 0.13742
-0.16046 -0.21506 0.16234
0.00282 0.00597 -0.23888
0.08124 -0.19182 0.32980
0.08124 -0.09682 0.25601
-0.17603 -0.02342 -0.37277
0.08124 -0.18783 -0.26391
0.04718 -0.17085 -0.27553
0.08124 0.04225 -0.12243
-0.18638 -0.19772 -0.26254
-0.16511 -0.02203 0.38233
-0.17191 -0.08365 -0.38233
-0.08005 -0.04293 0.17839
-0.17598 -0.07167 -0.38233
-0.17683 0.14202 0.07926
-0.10824 -0.00994 -0.11470
-0.18638 -0.16197 0.33147
-0.00812 0.10992 -0.16129
-0.18638 0.07886 -0.34266
-0.03467 0.10992 0.00724
0.06215 -0.08124 -0.28590
0.04704 0.06629 0.38233
-0.04155 0.09080 -0.07575
0.02754 -0.17947 0.12717
-0.04120 -0.05866 -0.13620
-0.13936 0.09080 -0.10700
-0.18638 0.04134 -0.14574
0.06931 -0.13774 0.23417
-0.01880 -0.08005 -0.22773
-0.17683 0.16322 -0.34557
-0.18638 0.03078 0.22951
-0.08632 -0.21506 -0.32870
0.06258 -0.17324 0.15820
-0.13110 0.09080 -0.09181
0.07244 0.10992 -0.16735
-0.07517 -0.08722 0.17465
-0.01804 -0.00572 0.25329
-0.03028 -0.21506 -0.10119
-0.10210 0.02992 -0.11470
-0.10036 0.07808 -0.33392
0.05663 -0.19594 -0.18948
-0.17398 0.16918 0.37549
-0.15524 -0.02786 0.37277
0.08124 -0.12381 -0.18673
0.05551 -0.14108 0.13381
-0.09080 -0.00770 0.21143
-0.10164 -0.19594 -0.07537
0.05211 -0.17205 -0.28125
-0.18638 -0.12052 0.12545
0.08144 -0.09080 -0.30989
-0.04011 0.06918 -0.38233
-0.10036 0.04703 -0.26749
0.03921 0.01446 0.23178
0.08426 0.00000 -0.14248
-0.16727 0.11075 0.18374
-0.10036 -0.01685 -0.19462
0.08124 -0.02153 -0.21490
-0.18412 0.09319 -0.08665
-0.13447 -0.11645 0.11470
0.07205 -0.21506 -0.37748
0.08602 -0.08727 -0.29996
-0.16376 -0.13597 -0.11470
0.02862 -0.18688 -0.11470
-0.10892 0.14528 -0.28197
-0.09080 0.07109 0.22315
-0.01568 -0.14879 0.11470
-0.04028 -0.12149 -0.36082
-0.09080 0.07614 -0.31664
-0.17683 -0.11160 0.16900
0.07169 0.08742 0.14668
-0.10900 -0.11948 0.09561
-0.10036 0.01889 0.22112
-0.17717 0.04627 -0.11470
-0.09649 -0.19594 -0.06565
0.00624 -0.13131 0.38233
0.08222 -0.19594 -0.10320
-0.09080 -0.15483 -0.32322
-0.13423 0.09080 -0.24316
0.06779 -0.22462 0.20766
-0.05633 0.03702 -0.36321
0.03729 -0.17085 -0.14659
0.01840 -0.06336 -0.37277
-0.11084 0.04240 0.38233
-0.07075 -0.21506 -0.23524
-0.04981 -0.19594 -0.05601
0.05986 -0.22462 0.26649
-0.08117 -0.02390 0.16102
0.03276 -0.21506 -0.20396
0.04485 -0.02348 0.11470
-0.15783 -0.09086 -0.38233
-0.02385 -0.00330 0.12717
-0.06127 0.10992 0.07894
-0.08124 -0.11464 -0.31049
-0.01140 -0.08124 -0.34961
-0.12551 -0.20473 0.09558
-0.16062 -0.21506 -0.02250
-0.13081 -0.20626 0.40144
-0.18638 0.08040 -0.07558
-0.10036 -0.01680 -0.28906
-0.04571 0.10992 -0.36496
0.08124 -0.04142 0.22072
-0.16727 0.11963 -0.32794
0.09080 0.09484 0.35270
-0.09080 0.08963 -0.35730
-0.12993 0.09080 -0.32470
-0.09080 0.06272 0.22129
-0.16727 -0.16640 -0.07978
0.00054 -0.10492 -0.38233
-0.12882 -0.08464 0.25329
0.04653 0.07192 0.37277
0.08841 0.01827 0.17228
-0.17683 -0.00759 -0.13037
0.07114 -0.13332 -0.12426
0.02754 -0.21506 0.18623
-0.04408 -0.16003 0.13620
-0.17683 0.03561 -0.20404
-0.18638 -0.14341 -0.16048
0.05276 0.01921 0.12717
0.08124 0.05898 0.14106
-0.07641 0.09080 0.18287
-0.09080 -0.00917 -0.23937
-0.04606 0.09080 -0.15343
-0.19125 0.10650 -0.39481
-0.02132 0.10992 -0.34735
0.05815 -0.08005 -0.36114
0.06286 -0.21506 -0.36362
0.06545 -0.21506 -0.23387
-0.10036 0.02851 0.15209
0.01401 -0.17205 -0.34473
-0.12793 0.02940 0.11470
0.01595 0.00956 -0.33297
0.08124 -0.10319 -0.27641
-0.02305 0.10992 -0.28350
0.07460 0.07885 -0.36089
-0.00011 -0.21506 -0.19910
-0.06345 -0.07033 -0.13381
0.02346 0.09080 0.34054
-0.16010 0.09118 0.31201
0.07169 -0.19749 -0.33477
0.02173 -0.05570 -0.38233
-0.04313 0.01320 0.38233
-0.16774 -0.12856 0.11470
-0.00882 -0.19940 -0.04261
-0.16020 -0.19833 0.24384
-0.05233 0.08012 0.11470
0.07521 -0.04278 0.36799
0.04198 -0.21506 -0.27152
-0.18638 -0.02961 -0.15164
-0.02639 -0.10907 0.25329
-0.04728 0.09473 0.40144
-0.02697 -0.08005 -0.31961
0.08602 -0.01033 -0.23695
0.05582 -0.17085 -0.20507
0.00015 0.01075 -0.13513
-0.16900 -0.19594 -0.04412
-0.08124 0.04139 -0.29759
-0.08244 0.02522 0.18750
-0.10036 0.06076 -0.26614
-0.11226 0.13004 -0.31051
0.04685 0.10992 0.29582
-0.04885 -0.17205 -0.24832
-0.01426 -0.07654 0.11470
0.08841 -0.12400 -0.23042
-0.16727 0.17457 -0.24746
-0.10959 0.00434 -0.12426
0.02534 -0.09997 0.25329
-0.18276 0.00589 -0.37870
0.02529 -0.17324 0.22181
-0.06505 0.09319 0.37961
0.07561 -0.16516 0.12033
-0.17683 0.18996 -0.23952
-0.05246 -0.05684 0.23178
-0.17683 -0.14156 0.35064
-0.17683 -0.04603 0.22593
-0.16727 0.14605 -0.30516
-0.10036 0.06347 -0.24254
-0.19594 0.09504 -0.21263
-0.18638 -0.18626 -0.32049
-0.12587 0.09080 -0.28939
0.07789 0.03289 0.23417
-0.10695 -0.16507 -0.37277
0.06918 -0.08005 -0.29977
-0.05041 -0.19594 -0.16696
0.07395 -0.08363 0.13667
0.08602 0.02074 -0.15266
0.02706 -0.08005 -0.20921
-0.18545 -0.04752 -0.11563
-0.07825 -0.08244 0.22584
-0.18638 -0.13013 -0.32757
0.05629 0.03642 -0.36082
-0.08005 -0.13711 0.21376
-0.01841 0.00956 -0.31014
-0.14260 -0.07009 -0.38233
0.08124 -0.06859 0.25085
-0.10731 0.14576 0.29876
0.01507 0.03768 0.12717
-0.12670 0.05358 0.12426
-0.08244 0.06194 0.16206
-0.17922 -0.19183 0.25196
-0.01405 -0.17205 -0.32462
0.08124 0.08923 0.07160
0.05060 -0.08194 0.23178
-0.18864 -0.21506 0.17096
0.02766 0.00956 -0.29192
0.07430 0.01485 0.25807
0.07169 -0.09161 0.25385
0.08841 -0.02705 -0.26865
-0.02552 -0.11342 0.38233
-0.11000 0.14532 0.33931
-0.01588 -0.17802 0.18990
-0.10036 -0.13539 0.14302
-0.06708 -0.03076 0.11470
0.06676 -0.11231 -0.36094
-0.17260 0.10992 -0.29758
-0.09080 -0.08897 -0.36698
0.04484 0.00717 0.16219
0.04702 -0.00058 0.12717
-0.04312 -0.06517 -0.12426
-0.08818 0.13435 0.36321
-0.02372 -0.04889 0.12717
-0.11648 -0.13787 0.37277
-0.00662 -0.21506 0.35020
-0.00400 -0.07637 0.37277
-0.11972 0.10992 -0.20316
-0.16727 0.12910 0.27214
-0.05204 -0.19439 -0.12426
-0.08172 0.02002 0.24373
0.04454 0.09080 -0.13609
-0.03508 -0.17444 0.14966
-0.10020 -0.01192 0.38233
-0.01192 -0.08005 -0.31823
-0.07902 -0.21506 0.32073
-0.07195 0.04007 0.23178
-0.06651 -0.00710 -0.11470
-0.17656 -0.19833 0.12358
-0.09080 -0.18997 0.15845
-0.10877 -0.18317 -0.11470
0.00169 0.09080 0.32712
-0.00695 -0.03342 -0.37277
-0.06544 0.00040 0.11470
-0.18674 0.10992 -0.37910
0.08124 -0.14537 -0.35361
-0.06950 -0.17000 -0.37277
0.07169 -0.00458 -0.22500
-0.15211 -0.07372 0.11470
0.08289 0.10992 0.06729
-0.09080 -0.06385 -0.28233
0.02962 -0.14411 -0.36321
-0.04657 -0.21506 0.07874
0.05414 0.00836 0.20719
-0.04374 -0.19594 0.24155
0.05064 -0.19594 -0.20852
0.08417 -0.16724 0.37516
-0.19006 -0.21506 0.26260
-0.08363 -0.13290 -0.36049
-0.09080 -0.15901 0.19172
-0.07269 -0.08124 -0.24921
-0.02188 0.09080 0.04657
0.02653 0.09080 0.07352
-0.17683 -0.06063 0.19675
-0.07582 -0.19594 0.40114
-0.06064 -0.13743 -0.13620
-0.17683 -0.00985 0.14962
0.05090 -0.17085 -0.22336
-0.18638 0.02791 0.27366
-0.19261 -0.19594 0.21454
-0.02359 -0.19238 -0.12426
-0.10036 -0.03534 -0.16928
-0.19412 -0.21506 -0.26672
0.08181 -0.18160 0.14238
-0.07872 -0.04758 0.25329
-0.04822 0.00956 -0.19634
0.08018 -0.19833 0.32987
-0.02236 -0.17324 0.18095
-0.06296 -0.00915 -0.12426
0.02081 0.09319 0.12161
-0.02084 -0.21506 0.34969
-0.00978 -0.08363 0.17760
-0.09573 0.01270 -0.37516
-0.09080 0.05657 -0.32505
0.08841 -0.12250 0.17725
-0.13251 0.14291 -0.36321
-0.06897 -0.13785 -0.38233
0.08124 -0.10953 0.37228
-0.08363 -0.02309 -0.29224
-0.10177 -0.21506 -0.22867
-0.17683 -0.06776 -0.13290
0.08833 -0.21506 0.18421
-0.10036 -0.08827 -0.34929
0.07094 -0.19833 0.11566
0.08288 -0.04628 0.23417
0.06262 -0.22462 0.16389
-0.03425 -0.08363 0.17747
-0.12333 -0.19594 -0.28324
-0.17683 -0.11732 -0.13844
-0.06461 -0.00094 0.38233
0.04182 -0.01189 0.37277
-0.11968 0.10992 -0.40115
-0.10971 -0.03877 0.11470
0.07169 -0.18298 -0.29303
-0.02437 -0.01632 0.25329
-0.09584 -0.21506 0.14348
-0.15929 0.09080 -0.35212
0.08602 -0.14901 -0.22059
-0.09080 -0.02932 -0.32304
-0.14236 -0.10209 -0.37277
-0.03623 0.09080 0.21511
0.05735 0.09080 -0.11323
-0.17683 -0.01823 -0.24056
-0.15717 -0.09879 0.11470
0.07572 -0.05769 0.37680
-0.02778 0.04054 0.23417
-0.00874 -0.03503 0.24373
-0.02330 -0.21506 0.17699
0.08538 -0.21506 -0.38430
-0.13295 -0.11948 0.05432
-0.05354 0.04116 0.24373
-0.08363 0.06020 -0.15543
-0.10736 -0.15712 0.24373
-0.17683 0.18187 -0.31765
-0.16727 0.19615 0.07449
0.15644 -0.17683 0.37261
-0.08930 -0.19594 -0.29959
0.08602 -0.02546 -0.17899
0.08124 0.03516 -0.32809
-0.09080 -0.05818 0.12811
-0.09317 -0.04649 -0.11470
-0.06687 -0.08497 -0.12426
-0.17683 0.16186 -0.24290
0.04111 -0.19594 -0.22522
-0.10036 -0.03927 -0.15979
-0.17683 0.21744 0.01458
-0.19050 -0.21506 0.11550
-0.16728 -0.07732 -0.38233
0.08124 -0.06819 0.12243
0.07236 -0.08841 0.20740
-0.02514 -0.20766 0.09558
0.08124 -0.19384 0.26092
-0.06218 -0.19594 0.15603
-0.00756 -0.17354 0.25329
-0.03164 -0.08124 -0.26334
-0.13731 0.10992 -0.28334
-0.17683 -0.05556 0.20303
-0.04797 -0.21506 -0.01979
-0.00570 -0.08005 -0.25490
-0.17683 0.15618 0.21734
0.03029 -0.11368 -0.13620
-0.17607 0.05868 0.12426
-0.17683 0.15228 -0.25815
-0.13302 -0.05303 -0.38233
-0.14676 -0.18498 0.37277
-0.12591 -0.21506 0.31908
0.08124 -0.15133 -0.20682
-0.12077 -0.19594 0.28854
-0.17683 0.17451 -0.01639
0.03186 -0.19283 0.38233
-0.17683 -0.17060 0.08010
0.08602 -0.07001 -0.20756
0.08602 -0.01847 -0.21437
-0.08124 -0.02338 -0.24517
0.01020 -0.13048 0.23178
0.05795 -0.19594 0.32869
-0.12821 -0.19594 -0.39502
0.05412 0.09080 -0.01303
-0.13862 0.12588 0.28674
-0.09080 0.05034 0.19100
-0.17253 0.01717 0.25329
-0.15648 0.09080 -0.26816
0.02605 -0.21506 -0.15385
-0.10405 -0.21506 0.37189
-0.01293 -0.19594 -0.12444
-0.12134 0.02363 -0.11470
-0.06556 -0.10151 0.38233
-0.11850 -0.19594 -0.29958
-0.07515 0.01061 -0.12426
-0.01306 0.10868 -0.40144
-0.16947 -0.11629 -0.12426
-0.03676 -0.07654 0.13381
-0.07993 -0.16502 0.23417
0.04988 -0.15139 0.37277
-0.04934 -0.03602 -0.36082
0.06755 0.00956 -0.13636
-0.10036 -0.05827 0.13537
-0.04975 -0.21506 -0.13587
-0.13628 0.14815 0.32008
0.01293 0.07163 0.24373
0.05174 -0.16815 -0.12426
-0.18632 0.01539 0.11476
0.09080 0.10148 -0.17335
0.02714 0.01350 -0.13381
0.03897 -0.08288 -0.38233
-0.14261 -0.09757 0.25329
-0.17683 -0.01067 0.21050
-0.16727 0.20252 0.02821
-0.05022 -0.08124 -0.30857
0.17115 -0.05033 0.37396
0.03706 0.00956 -0.34139
-0.08244 0.04700 0.21923
-0.06335 0.09080 -0.28605
0.07169 -0.19661 -0.15415
-0.18638 0.08052 0.15968
0.05269 0.09080 0.13573
-0.00778 0.01075 -0.27080
0.01298 0.09039 -0.11470
0.07659 0.10992 0.28526
0.03291 -0.21506 0.23482
-0.17683 -0.07480 0.16534
0.05878 -0.19594 0.26045
0.04069 -0.21506 -0.10230
0.08841 -0.17632 -0.24097
-0.04985 0.09007 0.38233
0.03884 0.08782 -0.12426
0.00439 -0.19669 0.24373
-0.11030 -0.20346 0.09558
-0.15846 -0.19729 -0.09558
-0.17683 0.05873 -0.34673
0.08195 -0.05590 0.12665
-0.08244 -0.03206 0.15950
-0.17683 0.11117 0.30669
0.07169 0.08268 0.21885
0.02065 0.00956 -0.22989
-0.18638 0.00124 0.28594
-0.09080 -0.19603 0.15166
-0.19568 0.09080 -0.16491
0.08841 -0.17100 0.17792
-0.18310 0.09319 0.26485
-0.17683 0.07552 -0.05333
0.00022 -0.17444 0.20209
0.02378 0.10992 -0.05793
-0.19478 -0.21506 0.22673
-0.13291 0.09319 -0.11716
0.08124 -0.07723 0.23595
0.07847 -0.17444 0.22985
-0.18638 0.01000 -0.28365
0.02213 -0.14245 0.37277
0.08841 -0.08793 -0.17179
-0.16727 0.16196 -0.00492
-0.12107 0.08568 0.38233
0.02603 -0.06916 0.24373
-0.10036 -0.14188 -0.16468
0.00848 -0.07348 0.12717
0.13963 -0.17833 0.37516
-0.09999 -0.11285 0.38233
0.06061 -0.19594 -0.24901
0.08841 -0.14459 -0.31950
0.07396 -0.06284 0.37505
0.09080 -0.21004 -0.20113
-0.03016 0.09080 0.05936
-0.12577 -0.09135 0.24373
-0.05602 -0.08124 -0.34250
0.00622 0.09080 0.16539
-0.14550 -0.00931 -0.11470
-0.10036 -0.16566 0.16944
-0.00180 0.09080 0.08570
0.08124 -0.11559 0.24014
-0.02350 -0.07305 -0.36082
0.19258 -0.15023 0.37038
-0.12437 -0.12904 -0.04593
-0.06437 -0.08363 0.15441
-0.17264 0.06689 -0.37277
-0.08124 0.01070 -0.32300
-0.04899 -0.03814 0.12717
0.05324 -0.02247 -0.11470
-0.14296 -0.12904 0.08335
-0.16228 0.09080 -0.00416
-0.02980 0.01075 -0.29701
-0.18994 0.09080 -0.11272
0.08841 -0.13065 -0.23764
0.08124 -0.13462 0.24535
-0.03132 -0.21506 -0.02045
-0.14075 -0.20398 -0.40144
0.04575 -0.19523 -0.37277
0.07876 0.03444 -0.37984
-0.10036 -0.14749 0.11233
-0.16727 0.13908 -0.34658
-0.08244 -0.17194 0.18518
0.07169 0.06733 0.37258
-0.02122 0.09080 -0.07041
-0.01627 0.09080 0.03342
-0.04903 0.10992 0.10867
-0.17683 0.12872 0.29737
-0.18638 -0.04609 0.25123
-0.18638 -0.19184 0.11889
-0.18638 0.02237 0.33892
0.07470 0.00192 -0.12124
-0.12598 0.07340 0.38233
-0.10036 -0.18120 -0.13191
-0.08244 0.02369 0.20268
-0.08005 0.02047 0.18915
-0.18342 -0.19833 0.17027
-0.11231 0.06479 0.37277
0.01139 0.01075 -0.30791
0.05818 0.00717 0.18355
0.08244 -0.16881 -0.36085
-0.19594 -0.21238 -0.23971
0.08124 0.08647 -0.36592
-0.12616 -0.06466 -0.37277
0.00200 -0.20427 0.07304
-0.00425 -0.08124 -0.18831
0.07203 0.08040 -0.37311
-0.13686 -0.22462 -0.37957
0.07626 -0.11383 0.12904
0.08229 -0.14076 0.23417
-0.17683 0.11963 -0.32627
-0.17413 0.01426 0.12426
0.07536 -0.02265 0.12058
0.02744 -0.19594 0.19801
0.03016 0.09080 -0.36580
0.09021 0.10992 0.24506
-0.01718 -0.09218 -0.38233
-0.10036 -0.13880 -0.02585
0.08602 -0.01150 -0.30189
-0.13832 -0.12904 0.04897
0.08323 -0.08722 0.23323
-0.02939 -0.21506 0.11611
-0.12369 0.09080 0.06347
0.02252 0.10992 -0.09508
-0.17683 -0.07317 -0.29232
-0.07885 0.03577 0.23417
-0.05107 -0.21506 0.24874
-0.08961 0.05960 -0.38233
0.08124 -0.19050 -0.33019
0.06767 -0.17205 -0.22226
0.06328 0.00717 0.17848
-0.17683 -0.19531 -0.23508
0.08124 -0.02781 -0.32681
-0.05674 -0.11602 0.38233
-0.17683 0.15227 0.27836
-0.09729 -0.15076 0.25329
-0.06213 0.02230 0.23178
-0.16361 -0.19594 0.36535
-0.01771 -0.03144 0.11470
-0.10036 -0.13400 -0.07754
-0.06180 -0.05231 -0.36321
0.08602 -0.11244 -0.24749
-0.08124 -0.06535 -0.32270
0.08602 0.00074 -0.34152
-0.09934 -0.19833 -0.31211
-0.12322 0.09756 -0.40144
0.07628 -0.13540 -0.12904
-0.17758 0.09319 -0.11474
-0.09080 0.07343 -0.13125
-0.06663 -0.17444 0.18636
0.06730 -0.00630 0.24373
-0.01960 -0.19594 0.19025
-0.05924 -0.19594 0.22354
-0.17683 0.08738 -0.15945
-0.00447 -0.08005 -0.17314
0.02920 0.03647 0.11470
0.07525 0.00239 -0.26760
-0.02978 0.02423 0.13620
-0.09080 -0.07440 0.21677
-0.08616 0.12665 0.29809
-0.01109 -0.21506 0.32205
-0.06258 -0.21506 -0.04064
0.07169 -0.00806 0.20177
-0.18638 0.04699 0.15221
-0.07677 -0.07175 -0.11470
-0.18638 -0.05797 0.34773
-0.00244 -0.04743 -0.11470
-0.07349 0.09080 -0.27863
-0.05321 0.10992 0.18664
0.08841 -0.13358 -0.28771
-0.15890 -0.00185 0.24373
0.00463 -0.08005 -0.32589
-0.17472 -0.19594 0.22980
0.06630 0.03526 0.13381
-0.18231 -0.03974 0.11877
-0.02438 -0.18796 -0.38233
0.00533 0.09080 0.06214
0.08124 0.04378 -0.33956
-0.01988 -0.07822 -0.13620
-0.10036 -0.13578 -0.17280
-0.04413 -0.17324 0.19548
-0.05525 0.10992 -0.00428
0.08507 -0.21506 -0.17184
0.04253 -0.05908 0.24373
-0.04997 0.00836 0.17297
-0.15853 -0.21506 -0.39505
-0.06296 -0.03665 -0.36321
-0.08616 0.10992 0.21478
-0.17683 -0.07289 -0.18569
-0.07832 0.00597 -0.23112
-0.16126 0.01345 -0.38233
-0.16743 0.10992 0.19131
-0.10036 -0.13414 -0.09727
0.02162 0.09080 -0.19596
-0.03275 0.10992 -0.28861
0.01214 0.10992 -0.16318
-0.08244 -0.08140 0.16773
-0.11221 -0.19594 -0.38912
0.07239 -0.19833 -0.20848
-0.18638 0.03786 -0.34377
-0.08363 -0.12097 -0.18402
-0.02519 -0.04664 -0.13381
0.01616 -0.02593 0.25329
0.01006 -0.17205 -0.20405
-0.08899 0.10992 0.36014
0.07671 -0.17085 -0.20920
-0.15212 -0.21506 0.06501
0.08211 -0.05057 0.13381
-0.07456 0.09080 -0.32658
0.02820 0.01133 0.37277
0.08042 0.00956 -0.25729
-0.08475 -0.21506 -0.00954
-0.09080 -0.02620 -0.13615
-0.01399 -0.16823 -0.36082
-0.11636 0.06790 0.38233
-0.08857 0.10992 0.02644
-0.00569 -0.07466 0.24373
0.07809 -0.21506 -0.30642
-0.09080 -0.14175 -0.12215
0.08124 -0.12632 -0.16347
0.08124 -0.05795 0.21410
0.07174 0.07885 0.25893
-0.18049 0.09319 -0.12267
0.07169 -0.19631 0.14421
-0.09080 -0.13911 0.16757
-0.04172 0.00819 0.37277
-0.16866 -0.11948 0.02922
-0.09080 -0.11698 -0.22586
-0.10036 0.00101 -0.27909
-0.18638 -0.10002 0.35811
0.07169 -0.16505 0.12756
-0.17761 0.07529 0.24373
0.00403 -0.17802 0.18418
0.02403 -0.17563 -0.25615
0.06302 0.10992 -0.04912
-0.17683 -0.06515 -0.27582
-0.11045 0.10992 0.06990
-0.18735 -0.19594 -0.30873
-0.01481 -0.11629 0.24373
-0.06504 -0.08363 0.14236
0.05811 0.08379 0.12717
0.06999 0.06875 -0.37277
-0.11714 -0.21335 -0.40144
-0.08363 -0.04309 -0.23062
0.04440 -0.07686 0.13620
-0.13982 -0.21506 -0.02024
0.07199 -0.06732 0.11470
-0.18750 0.09080 0.38120
-0.09414 0.14815 0.36297
-0.09104 -0.21506 0.23689
-0.02972 0.00702 -0.38233
-0.17683 -0.16243 0.11214
-0.10036 -0.08901 -0.28277
0.02078 -0.15579 0.24373
-0.18638 -0.19210 -0.14593
-0.04101 0.08001 0.37277
-0.02870 -0.21506 0.23869
-0.17683 0.04485 0.25938
-0.03106 -0.00735 0.38233
-0.08363 -0.02340 -0.25335
0.08203 -0.21506 -0.26476
0.08841 -0.04976 0.22553
-0.14224 0.14044 0.28197
-0.08439 -0.19594 -0.17413
-0.17683 -0.17441 0.31388
-0.10461 -0.19594 0.16466
-0.00670 -0.21506 0.11870
-0.14442 -0.21506 0.29320
0.05735 -0.22364 0.21061
0.07810 -0.02109 0.11470
0.06341 0.06731 -0.38233
-0.01340 -0.01327 0.37277
-0.17858 0.09319 -0.08365
0.10466 -0.18138 0.37038
0.01749 -0.17205 -0.19564
0.07329 -0.14797 -0.36799
0.03941 -0.08124 -0.22915
-0.17683 -0.20579 -0.00777
-0.18638 0.01293 0.37290
-0.10759 -0.19594 0.05681
-0.17683 -0.20218 0.07622
-0.09080 0.08898 -0.14416
0.01949 -0.01246 0.37277
0.05452 -0.13457 0.23178
-0.02863 0.06002 0.25329
-0.05425 -0.17205 -0.27526
-0.12056 0.10992 -0.22116
-0.16925 -0.16662 0.11470
-0.19473 0.10992 -0.11887
-0.18638 0.01424 -0.12576
-0.08244 0.11370 -0.30749
0.07824 -0.19833 -0.22453
-0.03129 0.09080 0.04637
-0.17310 0.10992 -0.07498
0.07235 -0.21506 -0.35649
-0.03695 0.09117 -0.11470
-0.18638 -0.15339 0.16172
-0.08518 0.09080 0.38961
-0.03547 0.10992 -0.30513
-0.11355 -0.21506 -0.17794
-0.09080 -0.08822 0.21530
-0.09612 -0.19833 -0.31758
-0.14312 0.04142 0.11470
-0.17441 0.10992 -0.31581
-0.04483 -0.21506 0.17522
-0.09080 0.04457 -0.35333
-0.04847 -0.21506 0.22409
-0.02397 0.03472 0.37277
-0.08363 0.06842 -0.19221
-0.10784 0.07210 0.24373
-0.01973 -0.13289 -0.13620
-0.07492 0.09080 0.03216
0.09080 0.09086 0.07581
-0.04244 0.08417 0.24373
-0.18094 -0.01522 0.38233
-0.17683 0.01399 0.19000
-0.17683 -0.17344 -0.08154
-0.08124 0.00631 -0.26387
-0.13603 0.04089 0.12426
-0.16520 0.11393 0.35365
-0.19594 0.09179 -0.07253
-0.16708 -0.19594 -0.11169
-0.10357 -0.21506 0.20640
-0.01750 0.07826 0.38233
-0.12180 0.09080 0.17339
-0.09076 -0.05186 -0.11470
-0.14843 0.09319 0.38201
-0.06798 -0.18166 0.24373
0.08278 -0.12307 -0.13381
-0.10036 -0.15720 0.19451
-0.13117 -0.17413 -0.38233
-0.17231 0.09080 0.32827
0.08124 0.03116 0.22085
-0.10398 0.09080 -0.10366
-0.09080 -0.12343 0.07431
0.01174 -0.08722 0.19226
-0.14337 0.12721 0.31364
0.00958 0.10992 -0.36473
0.07679 0.09200 -0.37788
-0.16908 -0.09385 0.37277
-0.12751 0.14815 0.31665
-0.16442 -0.07952 0.38233
-0.02837 -0.13088 -0.36082
-0.17512 0.05496 0.29263
0.08124 -0.03836 -0.13843
-0.17683 0.00100 -0.27389
-0.17683 -0.12629 -0.24819
0.09080 -0.20108 -0.20905
-0.03086 -0.08005 -0.14517
0.07169 0.08310 -0.33789
0.02331 0.10992 -0.36231
-0.10105 -0.19594 -0.04752
0.04862 0.00358 0.23377
0.07590 -0.19833 -0.34060
0.05903 0.05701 -0.11470
-0.09808 -0.14187 -0.37516
0.08841 -0.06805 0.15771
-0.07321 -0.21506 0.10339
0.07408 -0.13856 0.25028
-0.01879 0.10992 -0.16294
-0.17683 -0.00593 0.16103
-0.16543 -0.01164 0.11470
-0.12214 0.10992 0.16676
-0.17378 0.10992 -0.23628
-0.10036 -0.00368 -0.14599
-0.15686 -0.21506 0.38389
-0.17683 -0.16007 -0.35825
-0.06320 -0.21506 0.17876
0.01128 -0.08287 0.13501
-0.17683 0.11988 -0.10172
0.08841 -0.03515 -0.22520
-0.00231 0.09080 0.20690
0.06868 -0.22462 0.35208
-0.10118 -0.19594 -0.10681
-0.18638 -0.16115 0.15393
-0.09080 -0.05483 -0.31701
0.06656 0.09080 0.39929
-0.13514 0.01409 -0.37277
-0.04725 -0.19594 -0.03768
0.07169 -0.05037 -0.12799
0.17090 0.07646 0.37219
-0.10036 -0.02568 0.14355
-0.17683 -0.05929 0.35689
0.06718 0.10992 -0.28399
0.07814 -0.08841 -0.34087
-0.01829 -0.21506 -0.16126
-0.10036 -0.09038 0.21951
-0.03634 0.00956 -0.17224
-0.18638 -0.17532 0.27657
-0.03078 -0.08244 0.16281
-0.10036 -0.01373 -0.29993
-0.17115 0.10992 -0.12547
-0.07953 0.09182 0.38233
-0.02704 -0.17205 -0.32918
-0.16654 -0.05991 0.12426
-0.16727 0.14932 0.05129
-0.19594 -0.20167 -0.23766
-0.09080 0.04419 -0.17497
-0.12911 0.05958 -0.38233
-0.09528 -0.17115 0.11470
-0.12371 -0.17111 0.37277
0.03607 -0.08363 0.18847
0.03225 -0.17324 0.14150
-0.02600 0.10992 0.35229
0.01025 0.10992 0.14501
-0.18638 -0.13684 0.24822
0.05633 0.09080 0.36493
-0.17683 0.18437 0.22939
0.03979 -0.15312 0.13620
-0.17683 -0.17725 -0.00193
-0.16895 0.08363 0.34470
-0.18638 0.03331 0.36193
-0.10532 0.09080 0.29137
-0.14337 0.13326 0.32565
0.03450 0.00836 0.16921
-0.13266 0.10992 0.30468
-0.01097 0.03937 -0.12426
-0.04117 -0.12650 0.25329
0.03551 0.03202 0.13620
0.08124 -0.18109 -0.24316
0.00363 -0.05456 0.23417
0.03432 -0.21406 0.09558
0.00237 -0.02665 0.13381
-0.03432 0.10992 -0.15507
-0.16727 0.13650 0.12621
-0.10036 -0.01092 -0.35858
-0.16727 0.16287 0.27437
-0.08124 0.01575 -0.28389
-0.18638 0.08889 0.21785
-0.13859 0.13473 0.29251
-0.09106 -0.08378 -0.12187
-0.17905 0.10992 0.02136
-0.10036 -0.00954 0.20919
0.00579 -0.07308 0.13620
-0.15395 -0.05190 -0.37277
-0.16727 0.18714 0.16130
0.04345 -0.02803 -0.13381
-0.09080 -0.02120 -0.28284
-0.00127 -0.06690 0.23417
0.04132 0.10992 -0.34851
-0.08841 -0.17336 0.03406
0.08841 -0.13851 0.14948
0.00518 -0.04474 -0.37277
-0.17683 -0.16234 -0.20341
-0.17683 0.02852 0.28635
-0.17683 0.18747 0.06082
0.08124 0.07790 0.01615
0.07105 0.09080 0.36917
-0.05197 -0.05356 -0.37277
0.08124 -0.19780 -0.24088
-0.17683 -0.21797 0.11562
-0.15231 -0.19300 -0.37277
-0.17683 -0.18569 0.20239
-0.18638 -0.09959 -0.25532
-0.01821 0.08488 -0.12426
0.07891 -0.08587 -0.11704
-0.08841 -0.16869 0.02379
-0.18638 -0.14033 -0.12556
-0.17683 0.19348 -0.22077
0.03733 0.00956 -0.21503
-0.13591 0.10992 -0.19437
-0.10036 -0.18222 0.18393
0.00776 -0.16912 0.38233
-0.16727 0.19132 0.12290
-0.14337 0.14461 -0.28877
-0.16727 0.12804 0.32575
-0.18638 -0.11808 0.34906
-0.07042 -0.08124 -0.16240
-0.01526 0.08477 0.25329
-0.11997 -0.16445 0.37277
0.05885 0.04420 0.11470
0.07304 0.07885 -0.32932
-0.04026 0.00387 0.24373
-0.14609 -0.12904 0.03355
-0.18183 -0.00641 0.38233
-0.10189 0.10992 0.33702
-0.11470 -0.17588 -0.12351
-0.04600 -0.19833 0.24962
-0.09080 -0.15250 0.22701
-0.12765 -0.11948 -0.01616
0.05658 0.00395 -0.12426
0.08602 -0.01601 -0.13876
-0.16522 0.07848 0.37277
-0.08363 -0.14196 -0.22925
-0.01205 0.01075 -0.15296
-0.17683 0.16536 0.08700
0.04121 -0.14855 -0.11470
-0.09080 -0.15842 -0.32725
0.04143 0.09080 -0.31170
-0.02378 0.00836 0.18302
-0.00419 -0.19594 0.13305
-0.13264 0.10992 0.25067
0.07703 0.10992 0.34429
0.08244 -0.04903 -0.13447
-0.06539 -0.17324 0.21799
-0.17683 0.17894 -0.00879
-0.09080 0.08366 -0.37209
-0.10349 -0.05667 -0.11470
0.02688 -0.17205 -0.33221
0.06143 0.10992 -0.36895
-0.14142 -0.12904 -0.02113
-0.02059 -0.19594 0.16126
0.02239 0.08226 0.38233
-0.17591 -0.19833 -0.37323
-0.17683 -0.08664 0.18026
0.01982 0.10992 -0.38938
-0.18638 -0.07027 0.33450
-0.08244 -0.04655 0.19974
-0.03251 0.01479 0.11470
-0.17384 0.10992 0.36287
-0.00257 -0.21265 -0.09558
0.04896 0.10992 -0.03585
-0.16727 0.14638 0.18901
-0.02947 0.08368 -0.37277
0.06895 0.09080 0.25388
-0.01750 -0.02233 0.25329
-0.18638 0.09002 0.26046
-0.08363 0.01921 -0.18555
0.08124 -0.01014 -0.34144
-0.01892 -0.19594 0.39020
0.08124 -0.16731 0.12589
0.08602 -0.18005 -0.13032
-0.08363 0.03922 -0.18332
-0.11135 -0.16917 0.12426
-0.01676 0.01736 -0.36321
-0.10083 -0.21506 -0.29447
-0.03502 0.00717 0.15181
-0.07721 0.00956 -0.30284
-0.05765 -0.08124 -0.15903
-0.05100 -0.08005 -0.32255
0.05593 0.10992 0.35208
-0.14594 -0.13905 0.24373
0.08124 0.04299 -0.15957
-0.13189 0.14079 0.36321
-0.07972 -0.08005 -0.26850
0.07210 0.07439 0.11470
0.05562 -0.08005 -0.18994
0.06703 -0.13122 0.13620
-0.10036 0.06739 0.21985
-0.11858 0.01491 0.25329
-0.18638 -0.03125 -0.33000
-0.05831 -0.01300 0.12717
-0.18638 -0.02213 0.37106
0.08841 -0.15886 -0.19393
-0.04882 -0.17161 0.37277
-0.18638 0.04066 0.19916
-0.07754 -0.17171 0.12717
-0.18638 0.06510 -0.17270
-0.06553 -0.21506 -0.10859
-0.13952 -0.11948 0.03900
0.08124 0.01733 0.18474
-0.18638 -0.10949 -0.31358
0.07939 -0.01195 -0.15282
-0.08005 0.04683 0.18643
-0.17655 0.10992 -0.12694
-0.17683 -0.03645 0.19908
-0.10727 0.09080 -0.33988
-0.08124 0.05245 -0.22351
0.18842 -0.12286 0.37396
-0.03760 -0.19594 0.03992
-0.12729 -0.19594 0.25748
-0.16727 0.14009 -0.09299
-0.17683 0.18206 0.31854
0.07784 0.07885 -0.31088
-0.02912 0.10992 0.10436
-0.14678 0.00815 0.38233
0.08841 -0.13833 -0.14245
-0.19491 -0.19594 0.24033
0.08124 0.00316 -0.11762
0.07115 -0.17205 -0.25466
-0.11285 -0.19833 0.11584
0.07169 0.00057 0.37022
-0.16727 -0.15691 0.03016
0.07169 0.07974 -0.02857
0.08602 0.05972 -0.16350
-0.13832 0.12182 0.35365
-0.06306 -0.08244 0.16264
-0.17683 -0.05135 -0.15676
-0.17170 -0.21506 0.34756
0.08124 -0.04802 -0.28206
-0.10036 -0.06971 0.21471
-0.08536 0.01232 0.11470
-0.05569 -0.19833 0.12090
-0.10036 -0.04894 -0.27873
-0.01650 -0.03259 0.13620
-0.04386 -0.08005 -0.28355
-0.18336 0.06281 -0.38233
-0.02937 0.09080 -0.39218
0.07272 -0.11606 0.24373
-0.10917 -0.00755 -0.12426
0.08124 -0.19647 0.18156
-0.00309 0.03178 0.25329
-0.05069 0.05506 -0.37277
-0.10036 -0.02118 0.13071
-0.00104 -0.19594 -0.21789
0.02266 -0.08793 -0.38233
-0.10036 -0.11075 -0.17538
-0.04277 -0.19833 -0.11633
0.08124 -0.18762 0.24214
-0.00793 0.02169 0.38233
0.08150 0.07217 0.12665
-0.16727 0.17462 -0.34084
-0.02443 0.04753 -0.11470
0.08124 -0.01349 -0.16012
0.01771 -0.08321 -0.36082
-0.17683 -0.22450 -0.12325
-0.09080 0.02043 -0.21605
-0.17569 0.08363 0.30190
0.04810 0.10992 -0.21439
-0.18638 0.02053 0.13924
-0.09520 0.11231 0.28966
-0.11373 0.05655 0.11470
-0.17683 0.20830 0.18016
-0.16727 0.13517 -0.16375
-0.13592 -0.13251 -0.38233
-0.18638 -0.04762 0.27929
-0.18638 -0.04245 -0.31626
-0.02594 0.08396 0.37277
-0.08841 -0.16788 0.08302
0.08841 0.06130 0.23081
0.09063 -0.13911 0.37396
-0.07581 -0.10515 -0.11470
-0.05923 -0.17563 -0.26270
0.07970 -0.19833 -0.11592
-0.13529 0.09080 -0.33724
-0.02854 -0.05758 0.24373
0.01667 -0.17393 -0.38233
-0.17922 -0.12834 0.24380
-0.17683 -0.03615 -0.36041
0.04010 -0.08124 -0.19556
-0.14602 0.04406 0.12426
-0.17232 0.03225 0.12426
-0.02950 -0.08244 0.15313
0.04989 -0.17173 0.38233
-0.16727 0.13007 -0.12696
-0.14175 0.09189 -0.11470
0.08044 0.01324 -0.38152
