ply
format ascii 1.0
comment VCGLIB generated
element vertex 1886
property float x
property float y
property float z
element face 0
property list uchar int vertex_indices
end_header
-0.19811 0.15889 0.11976
0.02842 0.25365 0.07124
-0.10652 -0.10047 -0.21041
-0.13858 -0.10047 -0.07299
0.13240 -0.10047 0.20151
-0.07909 0.25365 0.15165
-0.21953 0.21963 -0.12917
-0.22012 0.07311 0.19844
-0.03029 0.25365 0.21945
0.04490 0.25365 -0.12917
-0.12337 -0.12091 0.05432
-0.27831 -0.11698 0.01141
0.09568 0.17762 -0.27316
-0.21528 0.08557 0.19309
-0.18345 0.22751 0.20022
0.04646 0.21581 -0.09116
0.00283 0.25365 -0.08183
-0.09651 0.21581 -0.03521
-0.19600 0.21581 0.10555
-0.12897 -0.10047 -0.14245
0.13439 -0.12091 -0.09022
0.09303 0.19093 0.27426
-0.04496 0.19185 0.28556
-0.01658 -0.10047 0.18494
0.06403 -0.12091 0.06386
-0.15084 -0.10047 -0.22975
0.14407 -0.12091 -0.21667
0.08623 0.25365 -0.05437
0.27473 0.24855 -0.08091
-0.26878 0.25365 0.04908
-0.28631 0.20968 0.03924
-0.01947 0.25365 -0.21727
-0.23946 0.17255 -0.16264
-0.00128 0.21581 0.18777
-0.00202 -0.10047 0.27230
0.01964 0.21581 0.00970
0.24900 0.25365 -0.01409
0.12738 -0.12091 -0.19842
-0.20069 -0.12091 0.17455
-0.17576 0.21581 -0.16382
0.19753 -0.12091 -0.08631
0.09023 -0.12091 0.09905
-0.16517 -0.10047 0.21199
0.23937 0.23935 -0.08269
0.09198 -0.11994 -0.26218
-0.15129 0.21581 0.02001
-0.01053 0.21581 0.17005
0.28540 0.23486 0.02512
0.12326 0.21581 -0.20299
-0.00331 0.25365 -0.13379
-0.10568 0.24855 0.24185
-0.17474 -0.12091 0.09712
0.19157 0.17143 0.21726
-0.23780 0.25365 -0.05605
-0.00657 0.25365 0.27635
-0.07698 0.21581 0.03273
0.19083 0.06365 0.21302
0.08601 -0.10047 0.22919
0.18039 0.24855 -0.20034
-0.08372 -0.10047 -0.25400
0.26804 0.24855 -0.07970
-0.28767 0.25365 -0.02444
-0.10629 0.15889 -0.23670
0.03254 0.15889 0.05516
-0.09624 0.18153 -0.27293
-0.05690 0.25365 0.08514
-0.10208 -0.10047 -0.10616
0.12913 0.21581 0.01789
0.03375 -0.12091 -0.03032
-0.03301 0.21581 0.18264
0.08345 -0.12091 0.20467
0.00889 0.21581 -0.21099
-0.14504 -0.10047 0.07037
-0.18701 0.20129 -0.19667
0.00839 -0.11880 0.27871
0.12446 0.25365 0.10704
0.11941 0.15889 -0.16795
-0.13433 0.15889 -0.24422
-0.02103 0.21581 0.17874
-0.26445 0.25365 0.12273
-0.18253 -0.12091 -0.06668
-0.21597 -0.12091 -0.15732
-0.00353 0.15889 0.12705
0.10062 -0.12091 -0.19573
-0.18944 0.04198 -0.19423
-0.10945 0.15889 0.07604
-0.11174 -0.10047 -0.20025
-0.06939 0.20600 -0.28234
0.09274 0.25365 -0.08032
-0.06223 -0.12091 -0.05197
0.14909 -0.10047 -0.11909
0.14244 0.25365 -0.13145
-0.21513 0.10874 0.19293
-0.27789 -0.10047 0.00972
0.25927 0.22498 0.12921
-0.20462 0.15366 0.18243
-0.12884 0.25365 -0.21467
0.15387 0.24855 0.22855
-0.21784 0.15889 0.03293
-0.10742 0.15889 -0.11178
0.07420 -0.10047 -0.13377
0.07396 0.24855 -0.28859
0.19452 0.25365 0.11758
-0.24389 0.22700 0.07179
-0.04967 0.25365 -0.04726
-0.16417 -0.10047 0.17484
0.28230 0.20216 -0.06970
0.10704 -0.10047 -0.15662
-0.24526 -0.12091 0.12411
-0.14353 0.25365 -0.08464
-0.18586 0.23155 0.17305
0.19274 0.23485 -0.16408
-0.01187 0.21581 0.03151
-0.13747 0.21581 -0.00503
0.07543 0.15889 0.17808
0.08279 0.22601 -0.23933
-0.26445 0.24855 0.06922
-0.14728 -0.10047 -0.07376
-0.16170 0.21581 -0.18591
0.20401 -0.18312 -0.21891
0.19864 0.25365 -0.05192
0.21589 0.15889 -0.01714
0.00193 0.21581 -0.06734
-0.14374 -0.11202 0.23939
-0.06098 -0.10047 0.07477
-0.23711 0.19065 0.16570
0.07370 -0.10047 0.24972
-0.19493 0.21581 0.00861
0.17998 0.25365 -0.10806
-0.10571 -0.11884 -0.25649
-0.19746 -0.12091 -0.08463
0.23919 0.23118 -0.08314
0.15887 0.15889 0.14088
0.03535 -0.10047 0.01492
0.04960 0.21581 0.06998
0.07119 -0.10047 0.15409
0.06588 -0.12091 0.16905
-0.15126 0.21581 0.03242
-0.18281 0.11161 0.20500
0.20648 -0.10898 -0.18663
0.19086 -0.12864 0.19282
0.11090 0.25365 -0.25706
-0.08809 -0.10047 0.20429
0.24887 -0.12091 -0.05258
-0.10028 -0.12091 -0.12573
-0.20403 -0.10047 -0.09397
0.22872 0.25365 0.17478
0.08992 0.15889 -0.25756
0.12213 0.25365 0.19535
-0.06011 -0.10047 -0.26891
0.21799 0.21581 0.03270
0.25346 0.23435 -0.13607
-0.11671 0.25365 0.06683
0.17397 -0.10047 0.08334
0.19153 -0.12091 0.14730
-0.22518 0.15889 -0.08109
-0.02499 0.15889 -0.15097
-0.08630 0.15889 0.18222
-0.28348 0.24855 0.00637
-0.15996 -0.12091 0.14288
0.28595 0.21872 -0.04202
0.02785 -0.12091 0.13211
0.11962 0.21581 -0.07715
-0.07559 0.23765 0.24231
0.03853 0.21581 0.19757
0.16967 0.25365 0.06313
-0.01224 0.25365 0.23099
0.13325 -0.10047 -0.08218
-0.16803 -0.10047 -0.15231
-0.19068 0.16744 0.19299
0.24159 0.24855 0.08348
0.00118 0.24855 -0.26784
-0.27141 0.20049 0.09991
0.19623 0.19002 -0.21369
-0.10024 0.15889 -0.18622
-0.03007 -0.10047 -0.01173
-0.09961 0.21581 -0.22490
0.17697 0.24855 0.18715
-0.08453 0.21581 -0.12948
-0.19070 -0.12091 0.01780
-0.20838 0.25365 0.16345
0.16894 0.25365 0.05321
-0.04856 -0.10047 0.22463
-0.25634 0.25365 -0.02722
-0.11676 0.15889 0.13405
0.19490 0.04038 -0.18878
0.07872 0.21581 0.16964
-0.08135 0.21581 0.06610
0.19203 -0.21305 -0.20882
0.20010 -0.13998 -0.21845
0.06730 0.25365 -0.20959
0.06079 0.15889 -0.17442
0.07715 0.21581 -0.04146
0.13908 -0.12091 0.16299
0.00921 0.23524 0.28750
-0.18088 0.02871 -0.20308
-0.21040 0.10878 0.20815
0.23863 0.21581 -0.07790
0.20349 0.10878 -0.21507
0.19476 -0.11678 0.18891
0.07526 0.15889 0.26794
-0.03140 0.15889 0.06345
0.26027 0.24385 0.15702
0.26475 -0.12091 0.05698
0.21729 -0.15121 -0.20155
-0.11435 0.21581 0.12369
-0.03023 0.21581 0.10907
-0.09564 -0.12091 0.10380
0.10532 0.24657 -0.28334
0.08667 0.25365 -0.17623
-0.10851 -0.12091 -0.04130
0.09595 -0.12091 -0.16776
0.07818 0.21581 0.17693
0.14380 -0.12091 -0.04624
-0.23596 0.15889 0.05028
0.07349 0.20371 -0.28180
0.12962 -0.11318 -0.24659
-0.13259 0.21581 -0.07593
-0.05652 0.25365 0.13188
-0.01596 -0.10047 -0.27659
0.19360 -0.05932 -0.21580
-0.08358 0.15889 -0.18162
0.06461 0.21581 -0.20795
0.07097 0.15889 -0.14242
-0.08515 -0.10047 0.14317
-0.24743 0.22537 0.05735
0.26055 0.23711 0.11895
-0.03870 0.25365 -0.17085
0.08592 -0.12091 -0.14280
0.18833 -0.09357 -0.21053
0.14702 0.25365 0.14315
-0.07922 -0.10047 0.22125
0.13946 -0.10047 -0.21571
0.24299 0.24855 -0.16723
-0.18080 0.18278 0.22552
0.08949 0.21581 0.19918
-0.21395 0.11725 -0.20460
-0.21696 0.00769 0.20159
0.18469 -0.03451 0.20688
-0.10653 -0.12091 -0.06134
0.22501 -0.22976 -0.21304
0.20102 0.25365 -0.07524
0.15361 -0.12091 0.14180
-0.20972 0.15908 0.20140
0.05771 -0.12091 0.00910
0.27942 0.17164 -0.08057
0.11339 0.25365 -0.20343
-0.09222 0.15889 0.17336
0.05837 -0.10047 0.00776
0.03093 -0.10047 -0.21695
-0.00789 0.21581 -0.22010
-0.15275 -0.12091 0.19325
-0.07239 0.15889 0.08478
0.01684 0.21581 0.12476
0.18225 0.23112 0.17775
-0.10126 0.15889 0.16594
-0.07764 0.15889 -0.12679
-0.21093 0.15889 0.18386
0.10038 0.21581 -0.04285
-0.16189 0.23344 -0.23775
-0.22021 0.24855 -0.20623
-0.23886 0.20839 -0.16342
-0.21061 -0.15077 -0.20820
-0.01252 0.21581 0.16207
0.22058 0.21581 0.10214
-0.06294 -0.12091 0.12756
0.10601 0.15889 -0.06186
-0.24607 0.21581 0.05548
0.12660 0.25365 0.00011
-0.04660 0.25365 0.08374
0.23319 -0.10047 0.01722
-0.19569 0.16231 0.21410
-0.19773 0.25365 0.12733
-0.08322 -0.12091 -0.05799
-0.04826 -0.10047 -0.11362
0.18881 -0.15841 0.20945
-0.20644 0.09007 0.18425
0.13726 0.25365 0.24496
-0.17814 0.15889 0.08475
-0.04597 0.25365 -0.20314
-0.22292 0.21581 -0.06493
0.04537 -0.12091 0.03563
0.13914 0.15889 0.06283
0.00241 0.23879 -0.28839
-0.20889 0.24031 0.14303
0.08464 -0.10047 0.24561
0.03916 0.15889 0.16401
-0.08587 -0.12091 0.03606
0.19469 -0.10047 0.01428
-0.18930 -0.04055 0.19437
0.13590 0.15889 -0.09121
-0.18135 -0.12091 0.09480
0.19138 -0.12091 -0.18728
-0.18907 -0.07247 -0.21127
0.19285 -0.17288 0.21247
0.27863 0.23344 -0.08618
0.21365 -0.04898 0.19145
0.18711 0.01146 -0.19657
-0.03745 0.21028 -0.28655
0.22986 0.15889 0.00408
0.14891 -0.12091 -0.12936
0.22295 0.25365 0.18877
0.06521 -0.12091 -0.21836
-0.18194 -0.01214 -0.20173
-0.00895 -0.10047 -0.21607
0.01096 0.22501 -0.25353
-0.20625 -0.03502 -0.18405
0.18583 0.23344 -0.22134
-0.09523 -0.12091 -0.13345
0.13982 0.21581 0.10220
0.20559 0.13796 0.18339
0.00879 -0.12091 0.18801
-0.10580 -0.12091 -0.24960
0.07103 0.15889 -0.16917
-0.17029 0.21792 -0.23359
0.08002 -0.10047 0.01867
0.07943 0.15889 -0.20708
0.24694 0.17193 -0.15289
0.10513 0.21581 -0.21305
-0.15821 0.25365 -0.03719
-0.18506 -0.10047 0.00655
-0.23971 0.24855 -0.17146
0.01917 0.15889 -0.18684
0.06122 0.21581 -0.06144
-0.19458 0.02254 -0.18910
0.13388 -0.10047 0.05773
0.05814 0.21581 -0.07738
0.20917 -0.12091 0.15782
-0.20047 -0.16490 0.18499
0.03611 -0.10047 0.00471
0.06540 0.22375 0.28287
0.22136 0.21581 -0.10691
0.05701 0.22620 0.29670
-0.18318 -0.10047 -0.05558
0.27895 0.22082 -0.08170
0.11029 0.25365 -0.22368
-0.25640 0.25365 -0.03235
-0.09684 0.25365 0.03577
0.12635 0.15889 0.06212
-0.09880 0.21581 0.13353
0.20815 -0.10047 0.02492
0.06051 0.17943 0.28351
-0.16566 -0.10047 -0.03343
0.20607 -0.04401 -0.21249
-0.12216 0.21581 0.14292
0.29074 0.17034 0.00560
0.01850 0.25365 0.08697
0.09739 0.15889 0.24916
-0.07917 0.15889 -0.24385
0.26857 0.17931 0.10676
-0.03107 -0.10047 0.20832
0.20746 0.15889 -0.11561
-0.19562 0.20299 -0.21781
0.26054 0.24855 0.04070
-0.18840 -0.13617 0.21059
0.06848 -0.12091 -0.19648
-0.08983 0.15889 -0.08297
-0.13161 0.23344 0.25777
0.24640 0.20149 -0.15360
0.07925 -0.10047 0.08434
-0.00271 0.25365 -0.25195
0.27879 0.16430 0.08209
0.12072 0.21586 -0.26279
-0.18249 0.24855 0.22279
0.06841 -0.12091 -0.03443
0.15120 0.25365 -0.07048
0.12592 0.25365 0.22569
-0.02628 -0.10047 -0.26307
-0.13693 0.21581 -0.21122
-0.10566 0.15889 0.07204
0.27856 0.24855 -0.02366
0.20122 -0.19178 0.19018
0.02360 0.22562 0.28837
0.15033 0.15889 0.00126
-0.19618 0.15889 -0.18459
0.28563 0.24855 0.02933
0.10406 0.25365 0.02069
-0.28045 0.24855 0.09284
-0.22438 0.21883 -0.18229
0.18474 -0.10047 -0.02263
-0.04445 0.25365 -0.25756
0.03243 0.25365 0.20260
0.16865 -0.12091 -0.18755
-0.06069 0.21581 0.02095
0.17534 -0.12091 0.11279
0.03133 -0.12091 -0.02067
-0.05608 -0.10047 0.17559
-0.24723 -0.12091 -0.03087
-0.07028 0.25365 0.01037
-0.19868 0.04716 -0.18499
-0.20826 0.25365 0.13371
-0.18502 0.15269 0.20722
-0.18818 -0.01606 -0.19550
0.20907 0.16315 0.20948
0.12222 -0.10047 0.05794
-0.05397 0.23344 0.29016
-0.11451 0.21581 0.22435
0.09628 0.25365 0.11839
-0.04766 -0.10047 -0.25926
-0.06823 -0.10047 -0.21805
0.12376 0.25365 -0.17947
-0.15551 0.24855 -0.25999
-0.18746 -0.04932 -0.19621
0.14306 0.25365 0.06357
0.02851 -0.12091 0.10951
-0.07453 0.25365 0.18006
0.05122 -0.10047 0.00188
0.07662 -0.10047 -0.14149
-0.14960 -0.10047 -0.13500
0.22991 -0.24988 0.21839
-0.27715 0.25365 -0.04643
0.03930 0.21581 -0.06595
0.15707 -0.12091 0.10372
-0.05048 0.25365 -0.24142
0.01268 0.21581 0.15314
0.10564 0.21044 -0.26904
-0.22404 0.19664 0.18273
-0.03555 -0.12091 0.18424
0.10878 0.25365 -0.01878
0.05209 -0.12091 -0.16883
0.15656 0.15889 0.24306
-0.06925 -0.10303 -0.27070
0.00835 0.15889 0.24439
-0.05738 0.22602 0.24742
0.20183 0.25365 -0.19934
-0.11708 0.21581 0.08893
0.03900 0.25365 -0.21326
-0.20649 0.06649 0.21207
0.16408 -0.10047 0.03237
-0.21455 0.11296 -0.19235
0.28261 0.23373 -0.04637
0.10046 -0.10047 -0.11760
-0.28400 0.17580 -0.05677
-0.09214 0.15889 -0.11554
-0.04521 0.25365 -0.24849
0.05300 0.21581 0.02518
-0.05707 -0.10047 0.08970
0.13858 0.25365 0.02158
0.06353 0.21581 0.08199
-0.11718 0.15889 -0.07755
0.23352 0.15889 0.02593
0.07823 0.25327 0.29438
-0.20942 0.15889 -0.15614
0.19062 0.15007 0.21281
-0.08829 0.25365 0.16973
-0.12959 0.15889 0.16565
-0.07066 0.21581 0.03161
0.17373 0.25365 -0.19138
-0.00303 0.25365 0.07907
0.25979 -0.12091 0.00505
0.16400 0.21581 -0.16269
0.04499 0.15889 0.10582
-0.05504 -0.12091 0.00904
-0.03125 0.21581 -0.01502
-0.20439 -0.20161 -0.22199
-0.05301 0.25365 -0.00891
-0.13560 0.16125 0.25663
0.30180 0.24317 0.02186
0.07685 -0.12091 0.14500
-0.04758 0.25365 0.15643
0.19182 -0.12091 -0.11355
0.07572 -0.10047 -0.03849
-0.03794 -0.10047 0.03968
0.16005 0.25365 0.17297
0.11112 0.23093 0.22760
-0.19395 -0.12091 -0.16896
0.13618 0.15889 0.18349
0.11286 0.15889 -0.04506
-0.16883 -0.10047 0.04947
-0.01109 0.21581 -0.09139
0.25248 -0.10047 -0.05246
-0.01454 -0.10047 0.24389
0.20757 -0.01974 0.21098
-0.09838 0.21581 -0.09703
-0.21245 0.09660 0.19025
0.05198 0.15889 0.22027
0.21536 0.19153 -0.19404
0.20328 0.08744 0.21528
-0.12109 0.21581 -0.04014
0.05080 0.21581 0.10319
0.19190 -0.05600 0.19178
0.00502 -0.12091 -0.09846
-0.07215 -0.12091 -0.03479
-0.04113 -0.10047 0.05478
0.25619 0.19535 -0.13665
0.00142 -0.12091 0.00210
-0.26813 -0.10047 -0.03105
0.21884 0.19042 0.19971
-0.21501 0.07266 0.20355
0.04829 0.25365 0.00113
0.20535 0.23534 -0.20258
0.13116 -0.11552 0.24596
0.23120 0.25365 0.12940
-0.22452 0.25365 -0.04076
0.07070 0.21581 0.11303
-0.21627 -0.05046 0.20229
-0.17207 0.25365 0.02130
-0.16860 0.22561 0.23488
0.09675 0.21581 0.02669
0.30081 0.24636 0.02945
-0.17762 -0.10047 0.13547
-0.00839 -0.12091 0.22428
0.06809 0.25365 -0.05684
0.10780 0.15889 0.00290
-0.02997 0.25365 0.06577
0.27929 0.25365 0.00185
0.22443 0.21581 -0.02264
-0.28529 0.23344 -0.05721
0.17763 -0.12091 0.00240
0.19071 0.18899 0.19297
-0.28896 0.23344 0.04059
0.18637 0.05065 -0.19730
-0.15417 -0.10047 0.12165
0.03475 -0.10047 0.16776
0.21075 -0.12091 -0.12289
0.19105 -0.12091 0.00553
-0.17427 -0.11546 0.21597
0.08145 -0.10047 0.10888
-0.06977 -0.10047 -0.21284
-0.06109 0.15889 -0.07147
0.10776 0.24855 -0.27415
-0.07804 -0.10047 -0.02547
-0.04008 0.25365 0.16966
-0.00275 -0.12091 0.15743
-0.15319 0.21581 0.12472
0.19504 -0.16602 0.19058
0.12941 0.25365 -0.10267
0.26679 -0.10047 -0.06648
-0.07438 0.15889 -0.02785
-0.07731 -0.10047 -0.24866
0.18655 -0.12091 0.19039
0.29002 0.17276 0.01110
0.02230 -0.12091 0.26031
0.05326 0.20198 -0.28447
-0.23777 -0.12091 -0.03591
0.10801 -0.10047 -0.06093
-0.01021 -0.12091 -0.20171
0.23541 0.15889 -0.13206
-0.02746 -0.12091 -0.17791
0.01608 0.15889 -0.05682
-0.02582 0.15889 -0.23920
0.23543 0.15889 0.05303
0.09709 0.21581 0.18498
0.15097 0.15889 0.16135
0.06125 0.15889 -0.07130
0.20861 0.15889 0.16254
0.18102 0.15889 0.02794
0.28167 0.23344 0.06012
0.16248 0.15889 -0.06103
-0.05909 0.15889 0.01013
0.01094 -0.10047 -0.13147
0.02659 0.25365 0.22452
-0.02911 -0.12091 0.24128
-0.18618 0.15889 0.07787
0.23430 0.25365 -0.10709
0.22386 0.21581 -0.05477
0.13631 -0.10047 0.19338
0.20168 -0.24210 0.21370
0.06887 -0.10047 -0.19007
-0.02911 -0.12091 0.15927
-0.04636 -0.10047 -0.19050
0.28794 0.23344 0.01814
0.10332 0.25365 0.15051
0.20614 0.17921 0.21241
0.12114 0.15889 -0.25504
-0.14493 0.25365 -0.04357
0.08632 0.24036 -0.23787
-0.05172 0.25365 0.26066
-0.26578 0.24855 -0.05800
0.20009 0.03491 0.21847
0.04739 0.25365 -0.09026
-0.19464 0.15889 -0.02104
-0.26680 -0.12091 0.04211
-0.17641 0.15889 -0.09142
0.03096 0.25365 0.28903
-0.21749 0.21581 0.02465
0.18093 0.24516 -0.24193
-0.20664 -0.12091 -0.04634
-0.03651 0.15889 -0.11079
0.24650 0.22306 0.06438
0.12731 -0.10047 0.19423
0.04990 0.25365 -0.18364
0.04071 -0.10047 0.17859
-0.18146 -0.10047 -0.13869
-0.21930 0.24855 0.16126
0.05452 -0.12091 -0.15654
0.21790 -0.10794 0.20065
-0.16130 0.15889 0.03090
0.03331 -0.10047 0.19807
-0.24620 0.24855 -0.11529
-0.12018 0.15889 0.12909
0.15678 0.25365 0.00283
0.15660 0.25365 -0.09540
-0.14786 0.25365 0.08417
-0.15552 -0.12091 0.18335
0.23847 0.24855 0.14341
0.15918 0.21581 0.05053
0.15257 0.15889 -0.09463
-0.02956 -0.12091 -0.18284
0.17347 0.21581 0.17844
-0.03296 0.25365 0.01262
-0.21842 -0.16405 -0.19818
0.14444 -0.10047 -0.15163
0.14938 -0.10047 0.12443
0.16864 0.15889 -0.22742
-0.11435 0.25365 -0.06537
-0.24054 0.15889 0.02994
-0.11292 0.15889 -0.03103
0.28482 0.22145 -0.05057
-0.20785 -0.16220 -0.21185
0.22743 0.15889 -0.01553
0.19398 0.03157 0.21617
-0.23347 0.21481 0.17044
-0.19094 0.22985 0.16643
0.01034 0.15889 -0.28397
-0.03965 0.21581 -0.14157
-0.05867 0.21237 -0.28375
-0.22365 0.15889 0.06145
-0.22553 -0.24336 -0.21915
-0.24628 0.21738 -0.06601
0.18087 0.24855 0.22188
0.02918 0.15889 -0.04465
0.17024 0.25365 0.15988
-0.23587 0.15889 -0.10483
-0.21005 0.00710 0.18785
0.18205 -0.10991 0.21000
-0.29926 0.23344 0.03402
0.21049 -0.13451 -0.20806
0.18602 0.25365 -0.00196
0.25995 0.25365 -0.11892
0.27131 -0.10047 -0.04881
0.21371 0.15889 -0.12015
0.04690 0.21581 0.15141
-0.06319 0.15889 -0.01425
-0.11050 0.25365 0.12807
0.22543 0.24088 0.11636
0.23891 0.24855 0.12832
-0.23371 0.25365 0.15517
-0.06051 -0.10047 -0.18925
0.07900 0.15889 -0.00130
0.19537 -0.07012 -0.18830
-0.05565 -0.10047 -0.12164
0.14223 -0.10047 -0.02183
-0.09629 0.23344 -0.28274
-0.02324 0.25365 0.29710
-0.23102 0.23344 0.17512
-0.08576 0.15889 0.22735
-0.23872 0.25365 -0.00490
0.20810 -0.15276 0.21085
0.15072 0.21929 -0.24861
-0.20319 0.25365 -0.01256
0.21005 -0.07932 0.18785
-0.04908 0.15889 -0.06227
0.05502 -0.12091 0.02058
0.17987 0.21581 -0.05237
-0.01053 0.21581 -0.24099
-0.04688 -0.12091 -0.26721
0.19691 0.10673 -0.18676
0.19698 0.19666 0.18670
-0.06925 -0.10047 0.23232
-0.16885 0.21581 -0.16368
-0.21310 0.04794 -0.19090
0.06046 0.24855 0.24851
0.07489 -0.12091 -0.18711
-0.21460 0.25365 -0.02735
0.19299 -0.01836 0.21519
-0.22233 -0.12091 0.12860
-0.18968 0.15889 0.11890
-0.02621 0.25365 -0.10690
-0.26335 0.15889 -0.02174
0.06008 0.21581 0.18120
0.15254 -0.10811 -0.23264
0.10726 0.21581 0.00283
0.19001 -0.17650 0.20938
0.03102 -0.10047 0.17153
-0.19854 0.15889 -0.07790
-0.01870 0.25365 -0.05648
-0.05617 -0.12091 0.00251
-0.01158 0.25365 0.17524
0.05102 0.15889 -0.25599
0.18894 0.15889 -0.03750
-0.26219 0.17299 0.12217
-0.08496 0.23963 0.23843
-0.02358 0.15889 0.02898
-0.17168 -0.12091 0.19314
-0.09145 0.21581 -0.17605
-0.20293 0.15350 -0.21563
-0.20188 0.24855 -0.19665
-0.03922 0.21581 -0.01553
-0.02288 0.15889 0.20093
0.06852 -0.12091 -0.15230
-0.07032 -0.12091 0.18055
-0.16738 0.20082 -0.23582
0.24623 0.25365 0.16573
-0.12523 0.21581 0.04540
-0.10865 0.25365 -0.24262
0.20187 -0.23780 -0.21692
0.11797 0.15889 0.04788
-0.02800 0.15889 -0.26404
-0.08098 0.21581 -0.13553
-0.28129 0.23612 0.05640
0.11725 -0.10047 -0.00729
-0.15841 -0.10047 0.15426
0.06557 0.15889 -0.07830
0.06474 -0.12091 -0.11857
0.20228 0.15889 0.05401
0.12268 0.15889 -0.07056
0.10933 0.24855 0.27047
0.19779 0.19041 0.21248
-0.28288 0.19373 -0.06531
0.27109 -0.12091 0.02249
0.09556 0.15889 -0.22378
0.00320 -0.10047 0.11163
0.01597 0.21581 -0.14454
-0.00575 0.24855 0.28852
-0.02148 0.15889 0.28808
-0.13445 0.25365 -0.07505
0.11803 0.25365 -0.07115
0.22005 0.17943 0.18794
0.09277 0.25365 0.21824
-0.08903 0.25365 0.03008
0.02398 0.15889 0.17207
-0.18193 -0.12031 0.20413
0.27611 0.17928 0.08855
-0.30073 0.25007 -0.03002
-0.24341 0.20788 0.15749
0.12062 0.15889 0.03280
0.22672 0.25365 0.06247
0.15645 0.15889 0.00861
0.20155 0.25365 0.13767
0.25747 0.24855 -0.05020
-0.20284 -0.11565 0.21571
0.23926 0.15889 0.02639
-0.04830 -0.10047 -0.14418
-0.24313 0.15889 0.07660
-0.21391 0.22506 -0.19594
-0.27404 0.15889 0.06288
-0.29080 0.24855 -0.04733
-0.15044 -0.10047 0.06379
0.02779 0.24464 -0.25132
-0.29099 0.21437 -0.00372
0.10501 0.21581 0.10100
0.17792 0.21581 0.10010
0.16328 0.24855 0.22511
0.21432 0.15158 0.20423
0.25348 -0.10047 0.03865
-0.19489 -0.12091 0.09793
0.22588 0.24855 -0.14086
0.05413 -0.12091 0.18503
-0.23849 0.25365 -0.12262
0.12512 0.21581 0.16208
0.14634 0.22664 -0.26584
0.03645 0.25365 0.16672
-0.07330 0.20500 0.28183
-0.18968 0.15889 -0.16877
0.21462 0.22737 0.13556
0.23485 -0.12091 0.02473
-0.15031 0.25365 -0.19691
-0.17544 -0.11347 -0.21506
0.25785 0.24855 -0.10286
-0.18646 -0.09933 0.19722
0.22292 0.15889 0.05837
-0.08879 -0.10047 -0.19242
-0.02098 0.25365 0.28474
-0.02619 0.21581 -0.00351
-0.18437 -0.10047 0.17543
-0.07633 0.24732 0.24201
0.21829 0.10053 -0.20026
0.00851 0.25365 -0.09732
0.04158 0.16317 0.28600
-0.28958 0.19468 0.01443
0.16671 0.22709 0.25225
-0.07395 0.21581 0.17714
0.10299 0.15889 -0.21939
-0.26589 0.25365 -0.03458
0.16864 0.21581 -0.13862
0.15557 -0.12091 0.17268
-0.18006 0.21581 0.08152
0.18798 0.25365 -0.02737
0.18669 0.25365 0.06145
-0.17553 0.24855 -0.22002
0.24988 0.15889 -0.02252
-0.05031 0.25365 0.05357
0.23090 0.18699 -0.17379
-0.03082 0.24855 -0.25561
0.24906 0.15889 0.04777
0.01186 0.15889 0.07389
-0.19446 0.23344 0.22291
0.16593 0.21581 0.06227
0.02843 0.21581 0.06026
0.17253 0.15889 0.22198
-0.26039 -0.10047 -0.02448
0.21500 0.05901 -0.19281
0.14193 0.15889 -0.09849
-0.11184 -0.10047 -0.01953
0.16872 0.15889 -0.16978
0.19188 -0.05843 0.21408
0.07251 0.25365 -0.11681
-0.12579 0.24855 -0.22557
0.11316 0.21581 -0.10381
-0.21293 -0.14722 0.20578
-0.02822 0.15889 -0.24582
0.07673 -0.10047 0.23752
-0.07931 0.25365 -0.04287
0.03440 0.25365 0.26776
0.19132 -0.02512 0.19236
-0.25105 0.15889 -0.12604
0.18295 0.19941 0.20514
-0.19267 0.15889 -0.02922
-0.20211 -0.05857 -0.18157
-0.10177 0.24855 0.26742
-0.20989 0.15889 0.03203
0.09797 0.24855 0.24529
0.19696 0.01229 -0.18671
0.05024 -0.12091 -0.25371
0.20137 -0.20436 0.19441
-0.18758 0.21276 -0.20978
0.29756 0.24918 0.05411
-0.00941 0.15889 0.27872
0.18771 0.21581 -0.00733
0.14163 0.23344 -0.26694
-0.26001 0.25365 -0.00326
0.21926 0.10937 -0.19706
-0.16532 0.15917 -0.23740
0.20005 0.16477 -0.18363
-0.11244 0.25365 0.03040
0.20816 -0.24319 0.20793
-0.09973 -0.10047 0.17992
0.29085 0.19839 0.00473
-0.09849 0.21581 0.20667
-0.20728 0.25365 -0.14855
-0.02568 0.15889 0.19589
0.06011 -0.12091 -0.26817
-0.02030 0.24855 0.26366
-0.13110 -0.12091 -0.03603
0.06629 0.21581 0.19752
0.01739 -0.10047 0.19024
0.19326 0.03343 -0.21545
0.14744 -0.10047 -0.06837
0.02211 0.23863 -0.25207
0.22304 0.21870 0.18403
-0.14690 -0.10047 -0.18787
0.11882 0.21581 0.06196
-0.22918 -0.10047 0.01092
0.04411 0.25365 -0.05514
0.01412 -0.12091 -0.14042
0.10076 0.25365 -0.08837
0.10716 0.24585 0.28258
-0.02699 0.21581 -0.09761
-0.07201 -0.10047 -0.06531
-0.22873 -0.12091 -0.04100
-0.16917 0.25365 0.23169
-0.02335 0.16119 -0.28840
-0.12182 -0.10047 0.19247
-0.06184 0.15889 -0.26403
0.28890 0.24855 -0.02153
-0.16652 0.25365 -0.07060
-0.00592 0.23344 0.29833
-0.00633 0.21581 0.14633
-0.21755 -0.09469 -0.20101
-0.18903 -0.10047 -0.05799
-0.03164 0.21581 -0.03630
-0.02315 0.25365 -0.01400
-0.03664 0.15889 0.18568
-0.08380 0.25365 0.16454
-0.06599 -0.12091 0.00969
0.03009 0.15889 0.16840
0.07183 0.25365 0.12965
-0.21643 0.21581 0.10679
-0.21121 -0.18260 -0.19227
0.04484 -0.12091 0.12544
-0.19752 0.15889 -0.16398
-0.06273 -0.12091 0.22830
-0.18758 0.03210 0.20977
0.07583 0.15889 -0.16517
-0.30101 0.23170 -0.02427
0.23966 0.15889 0.04836
0.30401 0.24142 -0.00509
-0.17915 -0.12091 -0.20057
-0.21457 0.15887 -0.20398
0.12805 0.25365 0.26034
-0.14202 -0.12091 -0.04539
-0.28048 0.15889 -0.04998
-0.04593 0.15889 0.09709
0.13757 0.15889 -0.00372
-0.18325 -0.14609 -0.20476
-0.19819 0.03513 0.22036
0.10924 -0.10047 0.08026
0.26781 0.24855 -0.10122
-0.12704 0.23410 -0.25721
-0.09038 0.23369 0.27239
0.03374 0.25365 -0.07093
-0.14812 0.24366 -0.20499
-0.05475 0.25365 -0.05972
-0.19769 0.23067 0.22848
0.15250 -0.12091 -0.17461
0.00058 0.24528 -0.30461
-0.22793 -0.10047 0.14634
-0.14209 0.23014 0.20961
-0.20931 0.10073 -0.18711
-0.17651 -0.12091 -0.07705
0.13324 0.15889 0.19850
0.07825 -0.10047 0.21892
0.14487 0.21581 0.14437
0.16861 -0.10047 -0.15097
-0.03278 -0.12091 -0.07478
-0.18524 0.09439 -0.19843
-0.18768 0.23344 -0.23383
0.27524 0.22319 -0.09065
-0.04312 -0.12091 -0.14827
-0.03150 0.25365 -0.09796
0.08983 -0.12091 -0.25342
-0.12199 0.17097 -0.26226
-0.09760 -0.10047 0.08924
0.04168 0.15889 -0.11457
-0.02184 -0.12091 0.19093
0.15704 0.24750 0.19814
0.17717 0.16570 -0.22831
0.07046 -0.12091 0.06804
-0.06986 -0.12091 0.22704
-0.08450 0.21581 0.03382
-0.07390 0.25365 0.23595
0.06728 0.25365 -0.20176
0.11481 -0.10047 0.06957
-0.20232 -0.10047 -0.01901
0.19392 0.15889 -0.10859
0.19848 0.25365 -0.08230
-0.02351 0.15889 -0.08814
-0.08873 -0.12091 0.17306
-0.06033 -0.12091 0.16846
-0.02070 -0.10047 -0.14466
0.25310 0.19385 0.14413
-0.21177 -0.10047 0.05231
0.17108 -0.10047 -0.07125
0.07793 -0.12091 -0.09349
-0.16240 -0.10219 -0.22507
-0.03512 -0.10047 0.05804
-0.09953 -0.12091 0.11549
-0.20204 -0.10047 -0.17752
-0.25543 0.16759 -0.13850
-0.04272 -0.10935 -0.27419
-0.28215 0.17076 0.07084
0.16325 0.15889 -0.08062
0.16528 0.25365 -0.17042
0.18954 0.18641 -0.21882
0.26203 -0.10047 -0.04332
0.19930 -0.10047 -0.03769
-0.21888 -0.10433 0.17047
-0.11547 0.15889 -0.18268
0.21517 -0.12091 0.04858
-0.06761 0.25365 0.19961
-0.12117 0.15889 -0.24958
0.02959 0.15889 -0.02225
-0.28220 0.24855 -0.10492
-0.11929 -0.12091 -0.00399
0.18706 0.20024 -0.22072
0.01908 -0.10047 -0.15798
-0.24867 0.23590 -0.14613
-0.19572 -0.02614 0.18795
-0.10116 0.25365 -0.28000
-0.15063 -0.10047 0.20635
0.03279 0.21581 0.14429
0.08741 -0.10047 0.13339
0.21758 -0.10312 0.17217
0.20114 -0.01696 -0.18253
-0.06068 -0.10047 -0.00425
0.00657 0.21581 -0.16719
0.07717 0.15889 0.11567
0.19313 -0.04663 -0.21533
-0.05267 -0.12091 0.26145
0.28067 0.24712 -0.11177
0.15263 0.24108 -0.20153
-0.12389 -0.10047 0.05046
-0.18652 -0.02395 -0.19716
-0.20059 -0.12091 0.04565
-0.18843 -0.10047 -0.02871
0.20234 -0.07287 0.18133
-0.21467 0.01218 -0.20389
-0.23698 0.24126 -0.08847
-0.04771 0.25365 -0.01497
-0.20915 0.13282 -0.18695
0.16222 0.23442 0.19416
-0.25082 -0.11772 -0.11941
0.10471 -0.10047 -0.02621
-0.16416 0.24855 -0.21256
-0.26498 -0.12091 -0.01001
0.02919 -0.12091 0.01324
0.15142 0.25365 0.13602
0.15756 0.21581 -0.08073
-0.10452 -0.11117 0.25699
0.07991 -0.12091 -0.06501
-0.01281 -0.10047 0.03836
-0.20441 0.07402 -0.18221
-0.03766 0.21581 -0.04800
-0.18102 0.25365 0.01966
-0.17936 -0.12091 -0.15700
0.15851 -0.11770 -0.22806
-0.20911 0.25365 -0.17238
0.19884 0.09159 -0.21971
0.09214 0.25365 0.05279
0.18213 -0.12091 -0.05465
-0.21783 -0.06369 0.20072
-0.08859 0.15889 0.20377
-0.10668 0.15889 -0.16538
0.20722 -0.15856 0.18659
-0.18748 -0.18729 0.20263
-0.18969 0.16217 0.21188
0.19663 0.25365 0.02512
-0.27070 0.16645 -0.10163
0.13211 0.15889 0.04370
-0.13987 -0.12091 0.09904
0.19431 0.01090 -0.21651
-0.08570 0.25365 0.26497
0.02855 -0.10047 0.11142
-0.20284 -0.24715 0.21723
0.19241 0.07810 0.19126
0.11783 0.25365 0.17788
0.07135 0.15889 -0.07384
0.26290 -0.12091 -0.02612
0.11082 -0.12091 -0.16296
-0.10198 -0.10047 0.01680
-0.20283 -0.12091 -0.08347
-0.08733 -0.10047 -0.01067
-0.20794 0.15889 0.00021
0.21616 -0.23580 -0.22466
-0.02724 0.15889 -0.21683
0.06333 0.24855 -0.25911
0.19483 -0.12091 -0.07012
0.20692 -0.21304 0.22372
0.11302 0.20903 0.26598
0.28379 0.17009 0.05839
0.18540 0.15889 0.20956
-0.00653 -0.12091 -0.22630
-0.24773 0.22940 -0.05501
-0.07875 0.15889 0.10379
-0.14700 0.15889 -0.03626
-0.02670 -0.12091 -0.21351
-0.22772 -0.23431 0.21242
-0.06568 -0.12091 -0.02987
-0.19351 -0.14511 0.19030
0.12021 -0.10047 0.03915
0.15653 -0.10047 0.01267
0.08951 -0.12091 0.23864
-0.06173 -0.10047 0.01035
-0.15816 -0.10047 0.09517
0.20853 -0.12985 0.18634
-0.01472 0.15889 -0.03330
0.25305 0.21881 -0.01460
0.21605 -0.10042 -0.19386
-0.20934 -0.10047 -0.04429
-0.25547 0.24855 0.12099
-0.17128 -0.12091 -0.11292
-0.20236 -0.11445 -0.19200
-0.14235 0.17313 0.25383
-0.11221 -0.10047 -0.13534
0.30131 0.22862 -0.02202
0.23364 -0.10047 0.11066
-0.18305 0.06345 -0.20063
-0.00755 0.25365 0.02733
0.09015 0.21581 -0.20994
-0.11457 0.21581 0.09565
-0.22461 -0.24918 0.21036
0.28725 0.21035 0.03213
0.00756 -0.10047 -0.21673
0.22948 -0.10047 -0.12515
0.18611 -0.02608 -0.20830
0.18510 -0.10791 0.19858
0.05440 0.21581 -0.19108
-0.10113 -0.12091 0.08817
0.07771 -0.12091 0.16261
0.12955 0.21581 0.15379
0.03086 0.25365 -0.02104
0.08661 -0.10047 0.01035
0.06275 0.25365 -0.13893
0.12521 -0.10047 -0.10688
0.19972 -0.12091 0.18384
0.21028 -0.12091 -0.05438
0.19406 -0.21828 -0.21048
0.11933 0.22077 0.22420
0.02123 0.25365 0.23925
-0.11948 0.21581 -0.19426
-0.18869 -0.10047 0.04022
0.25553 0.15889 0.10522
0.19302 -0.10047 0.17926
0.16290 0.23344 0.24574
0.18376 -0.06485 -0.20596
-0.23612 0.24855 -0.12388
-0.21073 -0.01415 -0.18854
-0.14226 0.15889 -0.10617
0.06103 0.21581 -0.05625
-0.21463 0.24239 0.13555
0.20477 -0.04979 -0.21379
0.11313 0.23848 0.26296
-0.08521 0.24855 0.25195
0.22879 0.21581 -0.02898
0.15725 0.15889 -0.01470
0.03033 0.22001 -0.28748
-0.08706 -0.12091 -0.06495
0.15353 -0.12091 0.08391
0.24043 0.21795 0.08013
0.18830 0.15889 -0.21623
-0.04969 -0.12091 -0.00810
0.15403 0.24204 0.20045
0.27246 0.15889 0.03906
0.04741 -0.12091 0.21845
0.03318 0.21581 0.07577
-0.06986 0.21581 0.05191
0.24946 0.23699 -0.04189
-0.12117 0.15889 0.23999
-0.18361 -0.02052 0.20581
-0.23739 0.24855 -0.14643
-0.04398 0.15889 0.05925
-0.12728 -0.12091 -0.13766
0.20602 -0.18558 0.18729
0.01143 0.24781 0.25347
0.01834 -0.12091 -0.17413
0.25840 0.25365 -0.12504
-0.27574 0.16979 0.08946
-0.18510 0.12361 0.19857
-0.09984 0.24855 -0.27151
-0.19595 0.19461 -0.21390
0.20895 0.15889 -0.14280
-0.20075 0.14379 0.21781
0.07318 0.23956 -0.27908
-0.22670 0.15889 -0.05760
0.20964 0.19827 0.18745
-0.05897 -0.12091 0.08172
0.21436 0.23344 0.19432
0.02525 0.15889 0.28670
0.24316 0.15889 0.04272
-0.11157 0.25365 -0.26430
0.19516 0.21581 0.11638
-0.06234 0.15889 -0.13399
-0.06969 0.24855 -0.29186
-0.05828 0.15889 0.17638
-0.00560 0.23530 0.25424
-0.23810 0.24855 0.09554
0.02671 -0.12091 0.25039
0.20230 -0.24005 -0.21174
-0.07518 -0.10047 -0.07853
-0.14960 0.25365 -0.25073
0.04746 0.21581 -0.18019
0.12341 -0.10047 -0.20385
-0.04853 0.22222 0.24859
0.11328 0.25365 0.09512
-0.05187 0.15889 -0.22656
0.05633 -0.10047 0.16900
-0.20165 -0.10047 0.02280
-0.10956 0.25365 -0.08640
-0.17208 0.21581 0.00701
-0.19024 0.21581 -0.01585
0.02729 -0.12091 -0.27327
-0.13809 -0.10047 -0.01262
0.09775 -0.12091 0.06168
0.13075 0.22012 -0.25864
0.13366 0.23747 -0.21608
0.04649 0.15889 0.05831
-0.04717 -0.12091 0.23403
0.12122 0.24855 0.23653
-0.22780 0.24855 0.19819
0.04998 0.25365 -0.23763
-0.19486 -0.03909 0.18881
-0.05915 -0.10047 -0.06003
0.27328 0.24855 0.01358
-0.12313 0.16196 0.26179
0.18443 0.21581 -0.07842
-0.14555 -0.12091 0.15585
0.18643 -0.08913 -0.19725
0.02596 -0.12091 -0.07749
-0.22110 -0.22394 0.20507
0.04494 0.21581 -0.08078
-0.26872 -0.10047 -0.07369
-0.08841 0.21581 0.16466
-0.14045 0.15889 -0.15093
0.17542 0.25365 -0.16012
0.14811 0.25365 0.23156
-0.10262 0.24855 0.28258
-0.00043 0.15889 -0.05675
-0.09237 -0.10047 -0.14028
0.13137 0.25365 -0.22863
-0.00709 0.25365 0.25893
-0.07237 -0.12091 0.13841
0.02841 0.21581 0.20310
-0.09226 0.15889 0.01725
-0.27659 0.25365 0.09968
-0.11406 0.15889 -0.14230
-0.03619 -0.12091 0.24686
-0.22970 0.20614 -0.17536
0.24712 0.23160 -0.05966
0.04757 0.25365 0.21524
-0.08079 0.21581 0.17695
0.20982 -0.16117 0.20976
0.17892 0.25365 -0.18833
0.01113 0.24855 0.27703
-0.16543 0.25365 -0.14483
0.01923 0.25365 -0.19282
0.01036 0.25365 -0.23082
0.15823 0.15889 0.06125
0.20639 0.21581 -0.09943
0.00508 -0.12091 0.16914
-0.26104 0.24855 0.00253
0.16798 0.25365 -0.19198
0.19593 0.24855 0.17142
0.11174 -0.12091 -0.18713
-0.24700 0.23344 -0.15887
0.20966 0.15957 -0.18746
0.13447 0.15889 -0.11221
0.21247 0.15889 0.07839
0.16652 0.25365 0.21398
-0.02293 -0.10047 0.11169
0.21333 0.13762 -0.19113
-0.13994 -0.12091 -0.14065
0.18199 -0.10047 -0.03749
-0.16646 0.24855 0.24392
0.02185 0.25365 0.02856
-0.20803 0.15889 0.12720
-0.27364 0.23344 0.12436
-0.07236 -0.10047 -0.18526
0.14816 -0.10047 -0.09032
0.20735 0.16362 0.20448
-0.15919 0.15889 -0.01721
0.10416 0.15889 0.15940
0.08471 -0.12091 -0.00452
0.20985 -0.24818 -0.22417
-0.00850 0.21581 0.24568
-0.09377 -0.10047 0.00709
0.11114 0.20262 0.26676
-0.18663 0.17148 0.19705
-0.13333 0.25365 -0.10329
-0.27386 0.15889 -0.03216
-0.11514 0.24855 -0.24108
0.00993 0.21581 0.09659
-0.11711 -0.12091 -0.06459
-0.12512 0.21581 -0.14413
-0.21842 0.20668 -0.19005
0.01083 0.21581 -0.11843
-0.03206 0.15889 -0.23434
0.19676 -0.06624 -0.21896
-0.14832 -0.12091 0.09067
0.12602 -0.12091 0.06531
-0.28299 0.20000 -0.06443
-0.26788 0.15889 0.04230
0.20929 0.25365 0.06403
-0.16034 0.25365 0.09054
-0.18979 0.15889 0.06485
-0.23424 0.15889 0.13717
-0.12806 -0.10047 -0.00819
-0.26783 0.15956 -0.10855
-0.09155 0.21581 0.21626
-0.10536 0.22475 -0.26915
-0.04789 -0.10047 0.18105
-0.03480 -0.10047 0.01848
-0.13729 0.15889 -0.09725
-0.06810 0.16668 -0.28251
-0.14251 0.25365 -0.00280
0.18745 0.15704 -0.20964
-0.25639 0.25365 0.02745
-0.01383 0.15889 0.18657
-0.07098 0.24855 -0.26031
-0.29552 0.24569 0.06958
0.04974 -0.10047 -0.15921
0.05456 -0.10047 -0.24519
0.07422 0.25365 -0.05525
0.06827 -0.10047 0.20780
0.13425 0.15889 -0.24440
0.16035 0.25365 0.23243
0.20973 -0.08457 0.20882
0.25442 -0.10047 -0.08898
-0.24631 0.23344 -0.15283
0.00310 -0.10047 0.07568
0.02329 -0.11316 0.27675
0.02391 0.21581 -0.04851
-0.02611 0.15889 0.06240
-0.18805 0.24855 0.18945
-0.10474 0.25365 0.12650
0.23761 0.15889 -0.05739
-0.16460 -0.10047 0.19412
0.00076 0.21581 0.20918
-0.18825 -0.06204 0.19542
-0.01775 -0.12091 -0.20511
-0.00416 0.19015 0.29093
-0.25154 0.21691 0.02609
0.06417 0.15889 0.18138
-0.20633 0.04919 -0.18413
-0.02945 0.15889 0.21113
-0.26006 -0.10047 -0.06896
-0.22132 0.24855 0.12767
0.20083 0.25365 -0.13420
-0.22476 0.25365 0.14312
-0.17674 0.21581 0.13526
-0.06454 0.25365 -0.28158
0.05377 -0.12091 -0.02715
0.28589 0.18375 -0.04241
-0.21499 -0.04430 -0.20357
-0.06942 0.22261 0.28234
-0.21120 0.24855 0.15001
0.11259 0.21581 -0.14243
0.10354 0.24855 -0.26848
-0.11621 0.15889 0.22468
-0.20742 -0.10047 -0.01264
0.00909 0.24855 0.28342
-0.27023 0.24855 -0.13367
-0.20475 0.24855 -0.15432
-0.19782 -0.10200 -0.18586
-0.24704 0.15889 0.08244
-0.26993 0.22307 0.10347
0.23732 -0.10047 0.10702
-0.25580 0.25365 0.06884
-0.24173 -0.10047 0.08286
-0.15983 -0.10047 0.01282
-0.17957 0.21581 -0.09664
-0.20344 -0.09664 -0.21511
-0.26465 0.25365 -0.14671
0.01140 0.25365 -0.12950
-0.01302 0.25365 -0.04101
0.03409 0.25365 0.05896
-0.15616 0.18614 -0.24443
0.18722 0.17925 0.22060
-0.19794 -0.19020 0.21634
0.25481 0.23399 -0.00125
0.04906 -0.12091 -0.04232
-0.19185 -0.15971 -0.21240
0.25188 -0.12091 0.05911
-0.08673 -0.10047 -0.10109
0.16423 0.25365 0.02883
0.17182 0.25365 0.22143
0.22806 -0.23963 0.21314
0.09247 0.15889 0.05970
0.00741 0.25365 -0.17679
-0.21503 0.21834 0.19284
0.12669 0.15889 0.14281
-0.20869 0.21581 -0.01708
0.26968 0.15889 -0.04321
0.24935 0.24688 0.04277
-0.03419 0.21581 0.01653
-0.00348 0.15889 -0.16250
-0.04747 0.21581 -0.00539
-0.16538 0.25365 0.08054
0.06955 0.21581 -0.09159
-0.22081 0.25365 0.16701
0.06632 0.21581 -0.10316
-0.00763 -0.12091 0.17602
0.19705 -0.10047 -0.13357
0.21871 0.04451 -0.19651
0.08723 0.24855 -0.28409
-0.03024 -0.10047 0.06151
-0.21607 -0.12091 -0.10224
-0.20536 0.22530 0.20668
-0.13212 -0.10047 0.23716
0.05376 0.15889 -0.24618
0.08510 -0.12091 -0.16239
0.09266 -0.12091 0.20929
0.14921 -0.12091 0.17783
-0.18945 -0.12091 -0.02828
0.23267 -0.10861 0.15250
-0.01318 0.22812 -0.30247
0.07779 0.15889 -0.19756
0.06573 -0.12091 0.00127
0.04241 0.15889 -0.13259
0.01652 -0.10047 -0.26707
-0.16533 0.21581 0.00505
-0.23381 -0.12091 0.09564
0.10409 0.15889 -0.11181
0.16001 -0.10047 -0.16663
-0.16499 -0.12091 -0.21966
0.12463 0.25365 0.11673
-0.20058 0.25365 0.05432
0.18547 0.22319 0.22194
-0.08123 0.17543 0.27915
0.19218 0.24855 -0.20080
-0.02845 0.15889 -0.20719
-0.15993 0.21581 0.17817
0.02380 0.20956 -0.28834
0.06335 0.24855 0.26868
0.27493 0.15889 0.07336
0.06741 0.22176 -0.24570
-0.19677 0.25365 0.03668
-0.11242 0.25365 0.18763
-0.21989 0.25365 0.20042
-0.03004 0.15889 -0.02002
0.06171 0.24855 -0.25082
-0.02534 -0.10047 0.14752
-0.21830 -0.20880 -0.20121
-0.20190 0.24855 0.17476
-0.19846 0.09858 0.22009
-0.20403 -0.02479 -0.18183
-0.15652 0.25365 -0.02482
-0.18325 0.25365 -0.15693
-0.00951 0.15889 -0.06769
0.21651 -0.21042 -0.19953
0.02788 0.15889 0.19274
-0.17096 -0.10047 -0.12225
-0.08681 0.21581 0.02289
0.03754 0.15889 -0.07081
0.09937 0.25365 0.13191
0.19016 0.25365 -0.08425
0.00975 0.21581 0.07153
0.02154 -0.10346 -0.27698
-0.06713 0.21581 -0.12994
-0.01230 0.15889 0.22933
0.17349 0.24855 -0.22303
0.24075 0.24855 0.11156
0.03989 0.21581 0.18187
0.22235 0.16144 0.18493
0.18941 -0.08475 -0.21161
0.06281 -0.12091 0.15451
-0.02020 -0.10047 0.05098
-0.19715 -0.12091 -0.13997
-0.01759 0.21581 -0.10637
-0.16301 0.17075 0.23917
-0.01266 -0.10047 0.07789
-0.15158 -0.10047 0.01374
-0.04627 0.25365 0.02465
-0.15684 0.17569 0.24391
0.14813 0.15889 -0.22669
-0.19720 0.25365 -0.21943
-0.19745 0.05712 0.21964
0.29683 0.24542 0.05966
0.06327 0.25365 0.21380
0.19994 0.22654 -0.21861
-0.01129 -0.10047 0.02918
-0.20933 -0.11719 0.18292
-0.06229 0.17246 0.28328
-0.21294 0.02881 0.20562
0.03123 -0.10047 -0.02159
0.11461 -0.12091 -0.03370
-0.11896 0.15889 -0.10191
-0.16007 0.21581 -0.03479
0.09247 0.25365 0.00427
-0.26591 0.24855 -0.01873
0.09374 0.22827 -0.28763
0.28512 0.17872 -0.04831
0.16810 0.21581 0.14102
-0.10047 0.24099 -0.28535
-0.09978 -0.10047 0.25565
0.13417 0.21581 -0.01655
0.16531 0.15889 0.12660
0.20431 -0.10047 -0.17863
0.12501 0.15901 0.26101
0.00009 -0.12091 0.11564
0.20376 -0.12091 0.07459
0.09203 0.21581 0.00522
0.20919 -0.01300 -0.18699
0.16681 0.25365 0.00331
0.08987 -0.10047 -0.15292
-0.23345 -0.12091 0.08007
-0.10767 0.15889 0.24045
-0.09967 0.15889 -0.03876
0.05541 0.25365 -0.27750
-0.23926 0.15889 0.08678
-0.12960 0.25365 -0.24885
-0.15607 0.21581 -0.08428
0.15087 0.15889 -0.08707
0.29216 0.24855 -0.02880
0.19558 0.25365 0.04484
0.13482 -0.12091 -0.05977
0.16394 0.21581 -0.02179
0.23130 -0.12091 0.09546
0.19341 0.25365 -0.16637
0.03683 0.21581 -0.15159
-0.12332 -0.10047 0.21516
-0.19415 0.08215 -0.21634
-0.12792 0.25365 -0.06338
-0.05805 0.21581 0.09980
-0.15715 -0.12091 -0.07911
-0.11267 0.15889 -0.20038
-0.05423 0.25365 0.10884
-0.15650 -0.10047 0.17905
0.07559 0.21581 -0.10537
0.28531 0.25365 0.06773
0.01295 0.25365 0.14703
0.20544 0.24855 0.17114
0.14029 0.15889 -0.02216
0.18277 0.24855 -0.22196
-0.20971 0.15889 0.16362
0.12678 -0.11371 0.24777
-0.05766 0.24855 0.27714
0.03350 -0.10047 -0.25414
-0.07458 -0.12091 0.16364
-0.08732 0.25365 -0.09881
0.15133 0.24855 -0.26224
-0.23380 0.15889 -0.12482
-0.02142 0.15889 -0.25966
0.12320 0.15889 0.14827
0.18766 -0.12070 -0.20569
-0.06203 0.22384 0.28331
-0.03189 -0.10047 -0.11961
0.24503 -0.10167 0.13340
-0.28797 0.19034 0.02661
-0.24191 0.25365 -0.11781
-0.13916 -0.10047 -0.22073
-0.24679 0.25365 0.07147
0.20110 0.18046 -0.21746
-0.09840 0.21581 -0.15957
0.27731 0.24855 0.09871
-0.05709 -0.12091 0.18585
-0.02383 -0.12091 -0.24617
-0.26099 0.16490 0.12506
-0.18489 -0.12091 0.04682
-0.19550 -0.13804 -0.21757
-0.24540 0.18702 -0.15490
-0.01960 -0.12091 0.17643
0.21438 -0.18289 0.20850
-0.22241 -0.25207 0.22712
-0.06957 0.15889 -0.25167
-0.21608 -0.03274 0.20247
0.23346 0.20517 -0.17045
0.14048 -0.12091 -0.08227
-0.06395 0.15889 -0.25729
-0.26567 -0.10047 0.00377
-0.15748 0.24533 0.25992
0.19157 0.25365 -0.21093
-0.01470 0.24855 -0.25479
0.00119 -0.10047 0.02260
0.13652 0.21660 -0.21388
-0.25941 0.16193 -0.12888
0.18536 -0.12477 0.19831
-0.21862 0.19338 -0.18979
0.17935 0.15889 -0.11762
-0.03728 0.15889 -0.16608
0.18906 -0.12091 0.09258
0.01721 0.25365 0.00368
-0.27206 0.25365 -0.03962
0.03479 -0.10047 0.09974
0.05061 -0.12036 -0.27315
-0.21776 0.15986 0.19092
0.20508 0.21581 -0.04309
-0.19857 0.03435 -0.18510
-0.15368 0.25365 -0.18599
-0.19788 0.16094 0.18580
-0.20503 -0.25193 -0.21908
0.04256 0.15889 -0.04589
0.27521 -0.10828 -0.03501
0.17040 0.21581 0.15871
-0.02920 -0.12091 -0.16805
-0.15668 -0.12091 -0.11471
0.03974 -0.10047 0.24005
-0.16919 0.15889 0.03383
-0.06391 -0.12091 0.20196
0.10589 0.25365 0.13538
-0.04528 0.24855 -0.28308
0.15072 0.21581 0.15468
-0.16964 0.17465 -0.23408
0.21870 0.25365 -0.02258
-0.13193 0.24268 0.27232
0.14102 -0.10047 0.18154
-0.22786 0.25365 0.04965
-0.20462 -0.23779 0.21967
0.15489 0.21862 0.19979
-0.15977 0.21581 -0.00770
0.21694 0.15889 0.11671
-0.18616 0.20793 -0.20836
-0.03196 -0.10047 0.16488
-0.08460 0.15889 0.10921
0.00962 -0.10047 0.21408
0.20394 -0.23044 0.21951
0.19710 -0.16132 -0.21753
0.11047 0.21581 -0.06929
-0.21933 -0.02292 -0.19923
-0.24476 -0.10047 0.02135
0.03858 -0.12091 0.18219
-0.07073 0.21581 0.01921
0.17506 0.21581 -0.02475
0.20078 0.15889 -0.15336
-0.11426 0.25365 0.21778
-0.06187 0.24855 0.28588
0.03717 0.21581 0.23450
-0.20459 0.19755 -0.21396
0.02392 0.22143 0.25183
-0.01735 0.17504 0.28919
-0.00942 0.21581 0.05706
0.10735 0.25365 0.04833
-0.21472 0.06574 0.19252
-0.15216 0.25365 0.05640
0.07415 0.23591 0.27895
0.20123 0.20430 0.20984
-0.17760 0.18936 -0.22798
-0.07826 0.21581 0.20682
0.15421 0.20430 -0.24593
0.19081 0.25365 0.04759
-0.05701 0.18927 -0.28397
0.16859 -0.10047 0.13098
-0.04400 -0.12091 0.10154
0.10847 0.21581 0.07393
0.07349 0.15889 0.25115
-0.19898 -0.08056 -0.21957
-0.11923 0.24590 -0.22424
-0.23424 0.25365 -0.15814
-0.10734 0.21581 0.09558
0.24935 0.15889 -0.00144
-0.07049 0.15889 -0.03825
-0.18973 0.21581 -0.00632
0.10881 0.25365 0.03272
0.23086 0.23512 -0.16934
0.00608 0.15889 0.15406
-0.19826 0.24855 0.19870
-0.21399 0.15889 0.00742
0.20977 -0.11599 -0.20878
-0.28355 0.15889 0.00141
0.16534 -0.12091 -0.04522
-0.19093 -0.20560 -0.20532
-0.16101 0.24146 0.25721
0.00944 0.21581 -0.01401
-0.03943 0.25365 -0.27082
-0.02359 -0.10047 -0.00089
0.03685 -0.12091 -0.18224
-0.04386 0.25365 0.19168
-0.15283 -0.12091 0.16327
0.22096 0.25365 -0.07922
-0.01707 0.25365 0.19315
-0.27729 0.23344 -0.10000
-0.18209 0.15889 -0.04585
-0.05040 0.21581 0.16159
-0.19020 -0.14100 0.21207
0.05727 -0.10047 0.07776
0.20574 0.23531 -0.14714
-0.20050 0.25365 -0.06888
0.01220 -0.10047 -0.11287
0.22901 0.17719 0.17625
0.08276 -0.10047 0.07456
0.00340 -0.10047 0.25043
-0.21057 -0.24225 -0.22531
-0.00387 0.17850 -0.29097
0.01566 0.25365 -0.25777
-0.22508 -0.12091 0.09395
0.05796 0.15889 0.04409
0.06588 0.17295 -0.28280
0.18410 0.25365 0.11018
-0.05569 0.25365 -0.16158
0.19312 -0.12382 0.21532
-0.15977 -0.10047 -0.20614
0.04545 0.15889 0.13329
-0.28582 0.17341 -0.04300
-0.17574 0.25365 -0.01453
-0.15274 0.15889 0.23868
0.11694 -0.10047 -0.07819
-0.23401 -0.10047 0.03024
-0.21404 -0.12764 -0.20452
0.07926 0.25365 -0.16915
-0.23501 0.15889 0.00494
-0.00091 -0.10664 0.27970
-0.16904 0.25365 -0.01315
-0.21840 0.24609 -0.21160
0.13914 -0.10047 -0.04682
0.14605 -0.12091 0.06202
0.25711 0.25365 -0.06416
0.07167 -0.12091 0.02688
0.09697 0.15889 -0.00804
0.21931 -0.13572 0.19925
-0.05681 -0.12091 0.25512
0.05142 0.15889 0.10384
0.06572 0.24855 0.28771
-0.22352 0.22768 -0.12096
-0.03925 -0.12091 0.23035
0.18363 0.15889 0.17205
0.22155 0.25365 -0.03179
0.11075 -0.12091 0.09682
0.30192 0.23287 0.01738
0.03884 0.25365 0.18271
0.10016 0.25365 0.03374
0.09186 -0.12091 0.25355
0.13653 0.25365 -0.12421
-0.18614 0.24320 -0.23793
0.12540 0.24855 0.24674
0.07012 -0.10047 -0.00644
0.10818 0.25365 0.10680
0.22398 0.25365 -0.10977
0.10327 -0.12091 -0.07047
0.05039 -0.12091 -0.20912
0.11858 0.25365 -0.06280
-0.20226 -0.12917 0.21629
-0.21170 0.20909 -0.20685
-0.07084 0.25365 0.08700
0.27447 -0.12025 0.04067
-0.02611 0.15889 -0.01220
0.18191 0.15889 0.13623
-0.26087 0.21010 -0.12536
-0.21529 0.15889 0.11713
0.23087 -0.10047 0.14731
-0.00940 0.25365 0.25018
-0.24820 0.25365 -0.03578
0.18999 0.11101 -0.19368
0.06548 -0.11090 -0.27120
-0.03977 -0.10047 0.23972
0.01001 -0.10047 0.14752
-0.01179 0.25365 -0.02600
-0.13877 0.17503 -0.25532
-0.09882 0.15889 0.00745
0.10838 0.21581 -0.18758
0.17596 0.24855 -0.21631
-0.04327 0.24855 0.29113
-0.00258 -0.10047 0.14938
-0.07304 0.15889 0.07596
-0.25289 -0.10047 0.02780
-0.20033 -0.00657 -0.18334
-0.10090 0.25365 -0.18995
0.20213 0.17542 -0.21642
0.17017 0.24855 0.19022
0.08932 -0.10047 -0.25544
-0.20257 0.25365 0.19891
-0.10635 -0.12091 -0.19040
-0.04445 0.24855 -0.29430
-0.04979 0.24821 0.29813
-0.19523 -0.10047 -0.04803
-0.20177 -0.12091 -0.11153
0.18217 0.25365 0.09332
0.14339 0.21581 0.07725
0.05570 -0.10047 0.21434
0.18532 0.22330 -0.20751
0.08798 0.21581 0.05350
-0.05161 0.21581 -0.10721
-0.02340 0.22307 -0.25190
0.24322 -0.12091 0.04538
0.21586 0.21581 0.01902
-0.02106 -0.12091 -0.04989
0.16361 -0.12091 0.01972
-0.11277 -0.10047 0.16848
-0.09646 -0.12091 -0.19616
0.15662 -0.10047 -0.00972
0.25224 0.24855 0.07524
-0.19141 0.15889 0.02754
0.12378 0.25365 -0.20246
0.22457 0.25087 -0.20355
-0.13255 0.15889 -0.03567
-0.00814 0.21581 0.12783
-0.08809 0.15889 -0.09941
0.01691 0.24855 -0.26267
0.11823 0.21581 -0.17439
0.10628 -0.10047 -0.17134
-0.21444 -0.05398 -0.19225
-0.19957 0.15889 0.09716
-0.03503 -0.12091 -0.15147
-0.05653 -0.10047 0.26848
0.24058 0.22974 0.07979
-0.03692 -0.12091 0.02333
0.24543 -0.10047 0.05960
-0.02853 0.25365 -0.28019
0.25817 0.23344 -0.14457
-0.20285 0.12027 0.18082
-0.29268 0.23344 -0.02493
-0.14237 0.25365 0.06097
-0.21173 0.25365 -0.12633
-0.19401 0.19267 0.18966
-0.10131 -0.10047 -0.02893
-0.15673 0.25365 -0.01773
0.08282 0.21581 -0.18808
0.11138 -0.12091 -0.10551
0.00510 0.21581 -0.08821
0.28894 0.24855 -0.05824
0.12391 -0.12091 0.08907
-0.06675 -0.12091 0.08513
-0.03440 -0.12091 -0.16192
-0.13643 -0.10047 0.12767
0.20455 -0.10047 0.04448
-0.12135 -0.12091 0.10948
-0.10534 0.21581 -0.14614
-0.16823 -0.12091 -0.05656
-0.07121 -0.10047 -0.14184
-0.14824 0.25365 -0.17135
0.20625 0.18139 0.18405
0.12867 -0.10047 0.16676
-0.12642 -0.12091 0.14465
0.11283 0.15889 0.24683
-0.19953 -0.13295 0.18415
0.25738 -0.12091 -0.09605
0.20614 0.23960 0.20155
0.09885 -0.12091 0.24211
-0.07486 0.21581 -0.05698
0.19124 -0.13911 0.21324
-0.17786 0.23344 0.23658
-0.18680 0.05958 -0.19687
-0.01352 0.15889 0.28823
-0.17722 0.25365 0.04956
-0.02641 -0.10047 0.19529
-0.06372 -0.12091 -0.17366
-0.08554 -0.12091 -0.22159
0.01426 0.15889 -0.15712
0.21270 -0.10047 0.10792
-0.06207 -0.10047 0.04673
0.04461 0.19179 -0.28560
-0.00620 -0.12091 0.00196
0.25569 0.24855 0.03881
-0.27223 0.24855 0.08629
0.21007 0.01096 0.18787
-0.19758 -0.12759 0.21978
-0.00413 0.15889 0.25244
0.21272 0.17657 -0.19052
0.10581 0.15889 -0.24097
0.18040 -0.11089 -0.21126
-0.02725 -0.10047 0.10582
0.22226 0.15889 0.17011
-0.26648 0.15889 0.02861
0.20788 -0.12091 -0.10208
-0.00556 -0.12091 -0.09151
-0.06223 -0.10047 0.23674
-0.20839 0.15889 -0.07572
0.08737 -0.10047 0.21263
0.06779 -0.12091 0.14640
-0.04497 0.25365 0.20202
0.29027 0.20055 -0.00919
-0.17241 -0.12091 -0.18064
0.13740 0.15889 0.08004
-0.21582 -0.01744 -0.19363
0.00189 -0.12091 -0.12940
0.19382 0.15889 -0.18306
0.19487 -0.12091 -0.13298
0.23778 0.21581 -0.05046
-0.23294 0.22137 0.09822
0.04352 0.15889 0.25480
-0.08059 0.23220 0.24024
-0.04756 0.21581 0.15332
0.09498 0.24202 -0.23428
0.17467 0.15889 -0.18010
-0.02868 0.25365 0.02522
-0.19462 0.24855 0.19017
0.08806 0.21581 0.14981
0.00685 -0.10047 -0.03077
0.06711 0.21581 0.14296
0.06217 0.24855 0.29265
0.14566 -0.10047 -0.23456
-0.02347 0.21581 -0.16516
0.12584 -0.12091 0.08318
-0.04239 0.15889 -0.11655
-0.07323 0.25365 -0.27052
0.17177 0.21581 -0.07915
0.09921 0.21581 0.07940
0.03542 0.21581 -0.17820
-0.22358 0.25365 -0.16083
-0.21074 0.09490 -0.18855
-0.10470 0.25365 0.17511
-0.16960 -0.10047 0.20558
-0.01131 0.18863 -0.28999
-0.12615 0.24343 -0.22137
-0.10845 -0.10047 0.02676
0.05495 0.21581 -0.03609
-0.11243 0.21581 0.08099
-0.02382 0.25365 -0.09800
0.13457 0.15889 -0.20300
-0.04342 0.25365 -0.22633
0.09535 -0.12091 -0.05509
0.08860 0.15889 0.17045
-0.24743 0.24339 -0.05730
-0.05044 -0.10047 -0.21799
0.19915 0.21581 -0.05719
-0.11166 -0.12091 -0.15256
0.22267 0.20505 -0.18452
-0.16658 0.24855 0.22996
-0.01437 0.25220 0.30279
0.18208 -0.10047 -0.18001
0.21499 -0.18532 -0.19624
0.10355 -0.10047 -0.05218
0.14150 0.21581 0.04192
0.21967 -0.10047 0.03957
-0.20695 0.13259 -0.21160
-0.27064 0.24855 -0.07815
0.16330 -0.12091 -0.20750
0.02967 -0.12091 -0.01270
-0.02241 0.25365 -0.22662
0.24125 0.23344 0.15923
0.11378 -0.12091 0.17487
0.01309 -0.12091 0.03314
-0.15254 0.22367 0.24721
-0.03800 0.15889 0.04535
-0.03957 -0.12091 -0.06754
0.02890 0.21581 0.13254
-0.21249 -0.20399 0.19506
0.03799 0.21581 0.12268
0.22110 0.25365 -0.06123
0.02112 0.25365 -0.01507
-0.18704 0.21239 -0.22074
0.14904 0.15889 -0.15421
0.18640 0.21581 0.08053
-0.24807 -0.10047 0.05500
-0.00372 -0.12091 0.11191
0.20483 0.22456 0.18264
0.02640 -0.12091 -0.25615
-0.26196 -0.12091 0.01795
0.10394 0.21581 -0.07896
0.06087 0.15889 0.15757
0.17731 0.23344 -0.22552
-0.14031 0.17849 0.25467
-0.10537 0.25365 -0.20530
-0.06854 0.15889 0.13532
-0.00754 0.24855 -0.27336
0.17980 0.21581 -0.17168
0.13173 0.21581 0.05582
