ply
format ascii 1.0
comment VCGLIB generated
element vertex 1905
property float x
property float y
property float z
element face 0
property list uchar int vertex_indices
end_header
-0.20642 0.08760 0.04987
-0.04753 0.09802 -0.17535
-0.03168 -0.06247 0.19372
0.00402 0.09802 -0.26892
-0.17915 0.09802 -0.24414
-0.03673 0.08760 0.21680
-0.00895 0.08760 -0.22509
0.07292 0.08760 0.33887
-0.02497 0.08760 0.01453
0.10822 0.09802 0.15215
-0.18611 0.09802 -0.32419
0.18786 0.08760 -0.19533
0.12998 0.08760 -0.15289
0.00932 0.08760 -0.06898
0.10577 0.09802 -0.37962
0.21418 0.08760 -0.20336
-0.08777 0.08760 -0.16040
0.22546 -0.01226 -0.18602
-0.05733 0.08760 0.36977
0.04838 0.08760 0.22143
-0.02617 0.08760 -0.01977
0.21883 0.08760 0.00004
0.10330 0.09802 -0.04117
0.02469 0.09802 0.05076
-0.19844 0.09802 0.22085
0.13194 0.09164 -0.38554
-0.00404 0.09802 0.29578
0.16155 0.08760 -0.09974
-0.20664 0.09802 -0.25085
-0.07977 0.08760 0.14494
0.20078 0.08760 -0.23818
-0.14511 0.08760 0.00685
0.15693 0.09802 0.18470
0.00341 -0.08190 -0.20235
0.18818 0.08760 0.11131
-0.15768 0.09802 -0.08277
0.20368 -0.02040 -0.17481
0.23969 0.04934 -0.21124
0.13154 0.09802 -0.30120
0.06865 0.08760 0.36081
0.12772 0.08760 0.25405
0.09496 0.08760 0.11694
-0.18583 0.09802 0.22882
-0.14546 0.08760 0.34374
0.19786 0.09802 0.00135
0.17073 0.09802 -0.03030
-0.17721 0.08760 0.16253
-0.01673 0.08760 0.39934
0.21554 -0.02208 0.20166
0.03846 -0.08144 0.17470
0.18531 0.08760 0.07856
0.16819 0.09802 0.28579
0.12835 0.08760 0.01691
0.22957 0.08760 0.09159
0.06282 0.08760 -0.19245
-0.00287 0.00452 0.37701
0.22014 0.09802 -0.20105
0.04714 0.09802 -0.31056
0.09473 0.08760 0.30635
0.22024 0.08760 -0.08819
-0.17941 0.08760 -0.13634
-0.23970 0.03785 -0.21131
0.00901 -0.05718 0.39736
-0.02335 0.08627 0.20427
-0.22240 0.09802 -0.15827
0.00658 0.08760 -0.01770
0.18701 0.08760 0.12988
-0.19348 0.09802 -0.01043
0.09926 0.09802 0.28457
0.17649 0.09802 0.27098
0.18083 0.08760 0.16662
0.00106 0.09802 -0.18343
0.21702 0.09802 0.26444
0.21932 0.08760 -0.04060
-0.11629 0.09802 -0.38778
-0.05548 0.09802 -0.11264
0.00566 -0.02347 -0.19788
0.23368 0.08760 -0.08823
0.20892 0.05997 0.17610
0.03514 -0.03226 -0.18797
0.03130 0.08760 0.08260
0.14144 0.09802 -0.22337
0.08631 0.08760 0.27282
0.05793 0.08760 -0.37946
-0.09572 0.09802 0.06733
-0.20101 0.08760 -0.08655
0.13256 0.08760 0.13489
0.19316 0.09802 0.07980
-0.00539 0.00415 -0.41818
-0.12630 0.08760 -0.32649
-0.04071 0.09802 -0.25172
-0.16560 0.08760 -0.07830
0.01519 0.08760 0.07715
0.17018 0.09802 0.05230
-0.14761 0.08760 0.16538
0.10738 0.09174 -0.21367
-0.03911 0.08760 -0.16797
-0.20050 0.08760 0.21009
-0.19225 0.08760 -0.18644
-0.03451 0.07505 0.18928
-0.05201 0.08760 0.27638
0.21032 0.07309 -0.17662
0.00643 0.01955 -0.41580
-0.21522 0.09802 0.18936
-0.03079 0.07911 0.19533
0.18853 0.08760 0.29425
-0.11942 0.09802 -0.24106
-0.20540 0.03040 -0.17516
-0.02412 0.08627 -0.17881
0.10699 0.09802 0.08825
-0.16645 0.08760 0.31475
-0.15515 0.09802 0.08496
-0.11811 0.08760 0.19585
0.23290 0.09802 -0.14689
-0.07533 0.08760 0.05621
-0.07813 0.09802 -0.32097
0.04916 0.09802 0.26249
0.16426 0.09802 -0.14719
0.14451 0.09802 0.16875
0.00000 0.09148 0.19670
-0.23361 0.06789 -0.21195
0.17118 0.08760 0.13726
0.03535 0.07633 0.17511
-0.03008 0.00004 -0.19634
0.09947 0.08760 -0.06824
-0.09808 0.09802 0.26112
0.08740 0.09802 0.34992
-0.14611 0.09802 -0.26440
0.00985 0.06331 -0.21091
-0.02261 -0.02668 -0.18038
0.00000 0.09207 -0.19753
-0.07660 0.08760 -0.26439
-0.03162 0.08760 -0.23485
0.11173 0.09802 -0.10513
-0.07025 0.09802 -0.21360
-0.00254 0.09802 0.13467
-0.17973 0.08760 0.11740
0.15321 0.08760 -0.04900
-0.22033 0.08760 -0.26568
0.15102 0.09802 0.22523
-0.13806 0.09802 0.28729
0.15515 0.09802 -0.12332
0.00000 0.09691 0.00374
-0.00859 0.02838 0.39204
-0.07441 0.08760 -0.03860
0.00673 0.09802 0.15310
0.11851 0.08760 -0.39543
0.19777 0.08760 -0.18578
-0.22525 0.08760 0.22483
-0.11915 0.09802 0.17553
0.12640 0.08760 0.34843
-0.04864 0.09802 0.38116
0.23393 0.08760 0.06806
-0.03070 0.08760 0.30351
-0.00144 0.08760 -0.06575
0.16572 0.09802 -0.07165
-0.03299 -0.06969 0.17563
-0.22749 0.08627 0.18759
-0.14072 0.08760 -0.21455
-0.21798 0.00163 -0.20402
0.06974 0.08760 -0.09232
-0.15623 0.09802 -0.05272
0.21858 0.08760 -0.13295
-0.23001 -0.04809 0.19046
0.22587 0.07570 -0.18613
-0.01875 0.09802 -0.16650
0.14183 0.09442 -0.21367
-0.17222 0.09802 0.28767
0.00614 0.09802 -0.10844
0.14726 0.08760 -0.28739
-0.17651 0.09802 -0.17091
-0.19548 0.08760 0.32256
-0.16048 0.09802 0.25446
0.05557 0.08760 0.33567
0.09369 0.08760 -0.27637
-0.11091 0.09802 -0.22346
-0.11108 0.09802 -0.10820
-0.21573 0.03734 -0.20203
0.15945 0.09802 -0.08867
-0.23175 -0.02931 0.21108
-0.00552 -0.02726 -0.41790
-0.00801 -0.05906 -0.40936
-0.08745 0.09802 0.23434
0.10920 0.09802 0.25646
0.19138 0.08760 -0.14234
-0.21655 -0.01202 0.20258
0.23095 0.08760 -0.03367
0.20182 0.03626 0.17797
-0.22648 0.09594 -0.21367
0.19431 0.09802 -0.01570
0.12776 0.09035 0.38809
-0.05603 0.09802 0.29728
0.15471 0.09802 0.26882
0.00901 -0.09233 -0.39804
0.07374 0.08953 -0.41362
-0.01320 0.09802 -0.41415
-0.06868 0.09802 0.00364
-0.14567 0.09802 0.20333
0.02337 0.09802 0.15266
-0.17954 0.08760 0.06633
-0.13240 0.09802 0.02183
-0.09857 0.09802 -0.15529
-0.02101 0.09802 -0.38913
0.00000 0.09516 -0.17805
0.21588 -0.08902 0.17925
0.04364 0.09802 -0.07688
0.19517 0.08760 -0.07694
0.03059 -0.08493 0.19554
-0.12247 0.09802 0.08270
0.09648 0.08760 0.01324
-0.14910 0.09802 0.29938
0.22879 -0.09802 -0.19231
-0.01849 0.09802 0.36821
0.07009 0.09802 0.33675
0.09855 0.08760 0.06118
0.15312 0.08760 0.15215
-0.06923 0.08760 0.37410
-0.03599 0.09802 -0.41728
-0.04093 0.09802 -0.17234
-0.06615 0.09802 -0.29553
-0.02680 0.08760 0.06473
-0.22664 0.06442 -0.20932
0.21484 0.08760 -0.07640
-0.22384 0.09802 -0.00263
-0.13690 0.09802 -0.05052
0.11333 0.09802 0.21069
0.04802 0.09802 -0.20528
0.01089 0.08760 0.23165
0.08307 0.09802 -0.03009
-0.00123 0.08760 0.18595
-0.11026 0.08760 -0.06333
-0.08650 0.09802 -0.09443
0.07203 0.09802 -0.21539
0.05229 0.08760 -0.41635
-0.17464 0.08760 -0.22533
-0.11113 0.09802 0.29785
0.03705 -0.02127 -0.18307
-0.07702 0.08760 0.21684
0.04122 0.09802 -0.36865
0.14270 0.08760 0.19185
0.02649 -0.08230 0.19991
0.09669 0.09802 -0.22569
-0.13305 0.08760 0.16924
0.19222 0.08760 0.07900
0.13632 0.09802 0.37251
-0.02531 0.09802 -0.18526
0.14524 0.09802 0.01389
-0.06670 0.09802 -0.00599
0.20128 0.09802 0.30501
0.11047 0.08760 0.35016
-0.02577 0.09802 0.18543
0.07805 0.08760 0.39318
0.23533 0.09802 0.04202
0.01671 0.08760 0.19639
-0.06468 0.09802 -0.28734
0.08714 0.08760 -0.01997
-0.00475 0.05071 0.41959
0.03292 -0.03603 -0.17565
0.00608 -0.08772 0.19718
-0.03935 0.09802 0.18911
0.15640 0.08760 -0.13942
-0.00163 0.08760 0.05451
-0.01146 -0.00550 0.18947
0.04300 0.08760 0.25062
0.22515 -0.07382 -0.18571
0.00381 0.09802 0.33705
-0.12241 0.08760 -0.00515
0.23504 0.08760 -0.18438
-0.00484 -0.06714 -0.38026
-0.19968 0.09802 -0.05581
0.00200 -0.05302 -0.20699
-0.21222 0.08760 0.07840
-0.00073 -0.09802 -0.39799
0.00901 -0.06065 0.40339
0.22473 0.04717 0.18508
-0.00909 0.02699 -0.40032
-0.00983 0.08760 0.01419
0.02332 0.08760 0.15968
-0.15959 0.09634 0.21367
-0.13273 0.08760 -0.30566
-0.16424 0.08760 -0.26981
-0.20040 0.08760 -0.03208
0.19848 0.09802 0.22684
0.00003 0.09802 -0.25477
-0.01981 0.09802 -0.22581
-0.00283 -0.06860 0.20426
-0.21045 0.03055 -0.19648
0.00919 0.08760 0.24035
-0.02923 0.08760 0.41788
0.23133 -0.09192 -0.21095
0.22348 -0.05411 -0.18404
-0.03869 0.08760 0.34705
-0.03677 0.08760 0.14751
0.09160 0.08760 -0.38428
-0.21448 0.06172 0.17841
0.07586 0.09802 0.21093
-0.03046 0.08760 0.03109
0.01294 0.08760 -0.20443
0.13925 0.09802 -0.18396
0.05618 0.09802 0.14536
-0.09868 0.09802 -0.18755
0.23459 0.08760 0.18154
0.05112 0.08760 0.03375
-0.04665 0.08760 -0.04709
-0.10099 0.08760 -0.37331
0.01637 0.09802 0.08233
0.04828 0.08760 -0.27387
-0.03277 0.09802 0.38166
0.20026 0.08760 -0.14634
0.05405 0.08760 -0.12107
-0.21665 0.09802 -0.11281
-0.12618 0.08760 0.20352
0.17186 0.09802 0.02236
-0.15120 0.09802 0.35674
-0.03017 0.09802 -0.16576
0.12400 0.09802 -0.33142
0.13800 0.08760 -0.12518
0.23086 0.06675 -0.21103
-0.22869 0.09802 0.20331
-0.05945 0.08760 -0.13383
-0.16283 0.09802 0.02738
0.00145 -0.06313 0.20802
0.06234 0.09802 0.23113
-0.01255 0.09802 -0.12783
0.16853 0.08760 0.23085
0.08444 0.09802 -0.28679
-0.21168 0.09802 -0.07764
0.18101 0.08760 0.00504
-0.16783 0.08760 0.23547
0.01481 0.09802 -0.41978
-0.12351 0.09802 -0.35098
0.23616 -0.00879 0.20028
-0.00191 0.04272 0.20680
-0.06741 0.09802 -0.30400
0.13648 0.09714 -0.21367
0.12080 0.09802 -0.18236
-0.10624 0.08760 -0.11349
-0.20912 0.08760 0.08420
0.02396 0.09802 0.28799
0.00716 0.08760 0.20993
0.00809 -0.00079 -0.40907
0.07050 0.09802 0.06822
-0.22400 0.08760 -0.17501
-0.05107 0.08760 -0.33084
-0.18019 0.09802 -0.25880
0.00904 -0.06846 -0.40491
-0.21953 0.08760 0.01038
-0.12044 0.08760 -0.14310
0.04516 0.09802 0.21130
-0.09295 0.09802 0.14493
0.17281 0.08760 0.21378
-0.02999 -0.03180 -0.17681
-0.15765 0.08760 -0.08085
0.03530 0.09802 0.02515
-0.12451 0.09802 0.07510
-0.17983 0.09802 0.27708
0.24037 0.09110 -0.20247
0.22778 0.08760 -0.08303
0.07411 0.08760 0.18554
0.15777 0.09165 0.21367
0.06915 0.09802 -0.05114
0.06717 0.08760 0.19451
0.02150 0.08760 0.00876
0.20040 0.08760 0.05650
0.16033 0.08760 0.11451
-0.01544 0.08760 -0.00777
0.05441 0.09802 0.28199
0.14535 0.09802 0.09949
-0.20744 0.09802 -0.18978
0.00829 -0.08315 -0.39138
0.11759 0.09802 -0.27853
-0.00122 0.09802 0.12275
0.04873 0.08760 -0.20174
-0.21095 0.09802 0.23619
0.22945 -0.03074 -0.21050
0.14002 0.08760 -0.07108
-0.17282 0.08760 0.31980
-0.17762 0.09208 -0.21367
0.23621 0.09781 -0.21367
-0.20045 0.09802 0.25734
0.21480 -0.07668 0.17861
0.02188 0.04310 -0.20435
0.03083 0.08760 -0.22078
0.16783 0.08760 -0.26429
-0.23310 0.05172 -0.19470
0.02934 -0.08550 -0.19706
-0.21712 0.08760 -0.08785
0.19430 0.09224 0.32515
0.03035 0.08760 -0.13504
-0.05693 0.08760 0.29865
-0.00663 -0.02060 -0.38447
-0.17866 0.09802 -0.03623
-0.02654 0.00855 0.19990
-0.18427 0.09802 0.19267
0.20834 0.08760 0.19664
0.19042 0.08760 0.30839
0.08788 0.09802 0.10045
0.05097 0.09802 0.06559
0.21375 -0.06072 0.19978
-0.00458 0.03501 -0.19949
-0.21083 0.09802 -0.04650
-0.19059 0.08760 -0.06346
-0.18029 0.09802 0.30997
-0.14822 0.09802 0.10701
0.06078 0.08760 -0.24772
-0.14117 0.09802 -0.19512
-0.08794 0.08760 0.00358
0.02432 0.07032 -0.17915
0.12176 0.09802 -0.20384
-0.12739 0.09802 0.12850
-0.16844 0.08760 0.19952
-0.22015 0.05486 -0.18172
-0.02823 0.09802 0.27613
-0.00698 0.04333 0.38612
-0.02811 0.09802 0.27004
-0.07787 0.09802 0.12354
-0.21995 0.03645 0.18144
-0.01686 0.08760 0.37769
0.00220 0.00355 -0.20623
-0.10968 0.09802 -0.30993
0.20195 0.08760 -0.02032
-0.04604 0.09802 -0.40589
-0.05715 0.08760 -0.36490
0.22367 0.08760 -0.12740
0.00000 0.09329 -0.11414
0.04707 0.09802 0.02262
-0.00839 0.03826 0.40785
-0.15255 0.08760 0.22251
0.12075 0.09802 -0.24474
0.00468 0.07571 -0.37990
-0.12812 0.09802 0.07192
-0.05201 0.09802 -0.03556
-0.08780 0.08760 0.38733
-0.17506 0.09802 0.20336
0.03334 0.09802 -0.12957
0.11508 0.09802 -0.39292
0.15679 0.09802 -0.19199
0.19758 0.08760 0.31877
-0.16702 0.09802 0.07921
-0.08283 0.08760 -0.01264
-0.20656 0.08760 0.03860
0.01568 0.09802 0.14067
0.11471 0.09802 -0.35036
-0.13095 0.09802 0.34973
-0.17209 0.09802 -0.13031
0.00327 -0.06571 0.42188
-0.00845 0.09802 0.24991
-0.18036 0.08760 -0.30158
-0.20823 0.05061 0.19312
-0.15257 0.08760 -0.35085
0.20844 0.09802 0.17496
0.00760 -0.06873 -0.38864
0.02959 0.09802 0.07146
0.13096 0.08760 -0.16198
-0.04505 0.08760 0.02728
0.21805 0.08760 -0.24848
0.05884 0.09802 0.05891
0.10398 0.09481 0.21367
0.15062 0.08907 0.21367
0.03327 0.08760 0.03358
-0.02009 0.09802 0.18592
0.04295 0.09802 -0.26101
0.00649 0.08760 -0.16801
0.09536 0.08760 -0.17040
0.13501 0.08760 -0.38223
0.08394 0.09802 0.15356
0.01194 0.08760 0.41886
-0.23941 0.06657 -0.21265
-0.00830 -0.09310 0.19347
-0.16340 0.09802 -0.21389
0.03529 0.09802 0.25176
0.04673 0.09802 -0.10502
-0.00754 0.08287 0.38741
0.03673 0.09802 0.08035
0.20190 -0.01195 -0.17470
-0.12652 0.08760 0.09861
-0.20726 -0.09417 0.19133
0.18199 0.08760 0.27675
-0.06485 0.08760 -0.29823
-0.02375 0.09802 -0.27415
-0.23510 0.08760 -0.14623
0.12766 0.09802 0.14629
-0.23922 -0.06086 -0.20974
-0.01087 0.08760 -0.33851
0.14209 0.08760 -0.15427
0.15924 0.08760 0.03989
0.22466 -0.01772 0.20815
-0.22408 0.08760 0.04154
-0.03874 0.08760 0.28184
0.20185 0.08760 -0.23320
-0.22615 0.08760 0.25032
0.04739 0.09802 -0.11561
0.04032 0.08760 0.13231
-0.02075 0.08235 -0.20516
-0.23553 0.08760 -0.19449
-0.20384 0.09802 0.23154
-0.01044 0.09802 0.08116
-0.01301 0.08211 -0.18746
-0.15196 0.08760 0.06961
0.00313 -0.01897 0.20284
0.10915 0.09802 0.32907
0.00653 0.09802 0.02188
0.04074 0.09802 -0.34719
-0.20507 0.09802 0.15636
0.23951 0.01661 0.21069
0.05929 0.09802 0.24543
-0.03777 0.08760 -0.39243
0.05146 0.08760 -0.36299
-0.02147 -0.05337 -0.18107
0.23306 -0.07450 -0.19513
-0.01915 0.08760 -0.14631
0.00810 0.04227 0.39027
0.00481 0.09802 0.22223
0.00000 0.09152 -0.04219
-0.09046 0.08760 0.26448
0.01078 0.00956 -0.19015
0.00886 0.09802 0.30997
0.15195 0.09802 -0.09567
-0.18692 0.08760 -0.26702
-0.10923 0.09802 0.08063
-0.05309 0.08760 0.10383
-0.23614 0.09802 0.16187
-0.06505 0.09802 0.30157
-0.08986 0.09802 0.36528
-0.18725 0.08760 -0.32343
0.21430 0.09802 0.04000
-0.08378 0.08760 -0.31899
-0.00760 0.09802 -0.11034
-0.06880 0.08760 0.19457
0.02115 0.08760 -0.19351
0.06245 0.08760 -0.33349
0.20655 0.00792 0.19014
0.09403 0.08760 -0.26159
-0.23893 0.03679 0.20806
0.10508 0.08760 0.17312
-0.00355 0.08760 0.36081
0.00636 0.05500 -0.19632
0.02697 0.09802 0.25360
-0.00362 0.09802 -0.26389
-0.05108 0.08760 0.14774
0.02545 0.09802 -0.24917
-0.20900 -0.00085 0.19423
0.00646 -0.03245 0.41558
-0.02102 0.09802 0.01602
-0.12858 0.08760 0.36757
-0.17614 0.08760 -0.15588
-0.03157 0.08760 0.19653
0.20556 0.08520 -0.18878
0.07911 0.09802 0.22982
0.00201 0.05892 -0.20612
0.00831 0.09802 0.26653
0.14079 0.09802 0.06869
-0.18002 0.09802 0.31865
-0.03200 0.02010 -0.17613
-0.07486 0.08760 -0.26897
-0.15371 0.09802 0.10478
-0.20738 0.09802 -0.24256
-0.14938 0.08760 -0.23066
-0.21448 0.08760 0.18454
-0.13171 0.09802 0.37113
-0.11122 0.09802 -0.03614
-0.01812 0.08760 0.06216
-0.23309 -0.04682 0.19518
-0.22708 0.08760 0.02929
0.09884 0.09802 -0.35511
-0.07878 0.08760 -0.14170
-0.13597 0.09802 -0.18175
-0.07153 0.09802 -0.37369
-0.12654 0.08760 0.28519
-0.14847 0.09802 -0.10514
0.01946 0.09802 0.20567
-0.20184 0.09802 -0.19638
0.04760 0.09802 -0.37346
-0.20222 -0.07517 0.18017
0.01544 0.06416 0.20834
0.07275 0.09802 -0.28053
0.18551 0.08783 -0.33762
-0.01290 0.09802 0.33463
0.02931 -0.07283 0.19711
-0.17394 0.08760 0.10643
0.00873 0.08760 0.30530
-0.17267 0.09802 -0.13768
0.05418 0.09802 -0.39830
0.20343 -0.06329 0.17469
0.17296 0.09802 0.09185
0.02671 0.08627 -0.20396
-0.06239 0.08760 0.36644
-0.08215 0.08760 0.15688
0.24037 0.08894 -0.00844
-0.16102 0.08760 0.24692
0.22518 -0.04425 -0.20836
-0.00868 -0.02360 0.39251
0.16850 0.08760 -0.20631
0.15405 0.08760 0.14303
0.04889 0.08760 0.03797
0.22475 -0.01127 0.20824
0.00556 0.08760 -0.18593
0.10828 0.09802 -0.28440
0.22181 -0.00398 0.20634
-0.10549 0.09802 0.14390
0.07321 0.08760 0.39246
0.00334 -0.09802 0.38009
0.00899 0.04835 -0.40543
0.08563 0.09802 0.17076
-0.01576 0.08760 0.05100
-0.18059 0.09802 -0.07587
-0.23235 -0.07642 0.21126
0.02349 0.00257 -0.20305
-0.06123 0.08760 0.38015
-0.02784 0.08760 -0.34394
-0.01650 0.08760 -0.35275
0.12000 0.08760 -0.28711
0.23647 -0.03837 -0.20078
0.02653 0.02932 -0.17800
-0.10083 0.08760 0.36287
0.11228 0.08760 0.09394
-0.13673 0.08760 -0.04966
-0.12058 0.09659 -0.21367
-0.16588 0.08760 -0.32034
0.09900 0.08760 -0.22385
-0.10465 0.08760 0.35568
-0.19432 0.08760 0.03398
-0.11398 0.08760 -0.10427
-0.23889 0.09802 0.19689
0.22401 0.08760 0.14090
0.24037 0.09559 -0.05590
0.13001 0.08760 -0.00577
-0.18229 0.08760 0.25389
-0.04280 0.09802 0.01279
-0.23069 0.08760 0.17188
-0.17084 0.09802 -0.11022
0.01352 0.09802 0.39362
-0.21150 0.01117 0.19770
-0.00878 -0.02992 -0.40661
-0.24037 0.08796 -0.13556
0.04499 0.09802 -0.15690
-0.23688 0.02826 -0.21273
-0.00530 0.06420 -0.38126
0.03652 -0.09109 0.18501
-0.09583 0.09802 -0.11375
0.02060 0.08760 -0.20529
-0.16205 0.08760 0.36332
-0.01841 0.03832 -0.18282
-0.11320 0.09802 0.19122
-0.06968 0.09802 -0.13397
0.01152 0.08760 -0.01454
0.11088 0.08760 -0.10740
0.03707 0.08760 -0.13729
0.02429 0.03278 0.17938
0.12073 0.08760 0.12469
-0.00485 0.08760 0.19479
0.14263 0.09802 0.27311
0.04163 0.09802 0.34343
-0.01192 0.00526 -0.18878
0.00327 -0.06019 -0.21278
-0.20984 0.09802 0.02901
0.17330 0.09802 -0.12845
0.00788 -0.07712 0.38974
-0.03669 0.08760 -0.10848
-0.11089 0.08760 -0.32589
-0.23168 0.09802 0.17186
-0.23152 -0.06114 0.21101
0.20206 0.09569 0.31689
0.23171 0.00793 0.19268
0.03331 0.09802 -0.05683
0.10924 0.08760 0.05247
0.04718 0.09085 -0.42147
-0.13756 0.09802 -0.22098
-0.05233 0.09802 0.01208
0.22223 0.07002 0.18307
0.10193 0.09802 -0.13617
0.08293 0.08760 0.01155
0.15935 0.09802 -0.33953
0.12216 0.08760 -0.15615
-0.10845 0.08760 -0.31676
0.03404 -0.06505 -0.17538
-0.00911 -0.00885 -0.39588
0.10110 0.09802 0.30959
0.03592 0.08627 -0.19167
-0.23573 -0.04704 -0.21245
0.10455 0.08760 -0.38429
0.00906 0.08760 0.22418
-0.09243 0.09802 -0.25747
-0.08954 0.08760 0.05504
-0.00761 0.04838 -0.38760
-0.00565 0.08760 0.13539
-0.13398 0.09802 0.09923
0.22656 0.08760 0.02410
-0.02035 0.02793 0.18174
-0.11779 0.09802 -0.36326
-0.22910 -0.09802 0.19158
-0.13828 0.09802 0.28055
-0.21993 0.08887 -0.21367
-0.20691 0.08760 0.17043
0.20369 0.08760 0.05250
0.15343 0.09784 -0.21367
0.19207 0.09756 0.33097
0.01806 0.09802 0.09068
-0.23227 0.00554 0.19380
-0.11179 0.08760 -0.15145
0.22494 0.08760 -0.03470
0.24037 0.09402 -0.00034
0.00796 0.00324 0.40991
-0.03806 0.09664 -0.42362
0.20516 -0.08635 -0.18783
0.03326 0.09802 0.32284
0.23296 0.09802 0.07637
-0.20476 0.09802 0.01335
0.08073 0.09802 -0.34398
-0.09071 0.08760 -0.23666
0.00003 -0.05482 0.37312
0.07736 0.08760 0.19506
-0.06526 0.09802 -0.01681
0.19699 0.09210 0.21367
0.00000 0.09569 0.19453
-0.21217 -0.00307 0.19843
0.22060 0.08760 0.03787
-0.19811 0.08760 0.06920
0.23039 0.08760 0.15801
0.12036 0.08760 0.00779
-0.01412 0.09802 0.18200
0.01030 0.08760 -0.12922
-0.18146 0.08760 -0.00892
0.17767 0.09802 0.04409
0.06341 0.09802 0.16454
-0.10161 0.09802 -0.06562
-0.03073 0.09802 -0.06420
0.23002 0.08760 0.10058
-0.06942 0.09802 -0.12903
0.17755 0.09802 0.21707
-0.13931 0.08760 -0.29273
0.03911 0.08760 0.26784
-0.18652 0.09487 -0.21367
0.18716 0.08760 0.24383
0.00953 0.08760 0.21940
0.16116 0.08760 0.14156
-0.15558 0.09802 -0.03705
-0.00161 -0.09450 0.20824
-0.23602 0.06856 0.21246
0.22205 0.04461 -0.18288
-0.07869 0.08760 -0.34327
-0.08083 0.08760 -0.04445
0.02857 0.06006 -0.19790
0.01709 -0.07222 -0.20723
0.06654 0.08760 0.22104
0.20601 0.08760 0.13620
0.10129 0.09802 -0.03390
0.20245 0.06311 0.18077
-0.17775 0.08760 0.18415
-0.21967 0.08760 0.25095
-0.24037 0.09174 0.08206
-0.12102 0.08982 0.21367
0.00012 0.08760 -0.37412
0.06413 0.08760 0.36549
0.23202 -0.05866 0.21146
-0.00901 -0.08644 0.39694
0.07763 0.09802 -0.29327
-0.20511 0.04772 0.17524
0.04803 0.09168 0.21367
-0.20588 -0.05016 -0.17527
0.00901 -0.08506 -0.40428
-0.04186 0.08760 0.31899
0.11290 0.09802 0.31733
-0.22564 0.04780 0.20864
0.21298 0.08760 0.25337
-0.16543 0.09802 0.21703
-0.02096 0.01988 -0.18118
0.14232 0.09802 0.11254
-0.08453 0.08760 0.01660
0.00588 0.08760 0.27201
-0.20649 -0.09662 0.17566
-0.19895 0.09802 0.04333
0.19520 0.08760 0.13414
0.11946 0.09802 0.10576
0.21388 0.08760 0.26647
0.03397 -0.04221 0.18990
0.06490 0.09802 -0.37229
-0.18504 0.09802 -0.26916
-0.05033 0.08760 -0.09624
0.13061 0.09802 0.18228
0.03731 -0.06735 -0.18204
0.01052 0.09802 0.18535
-0.00531 0.09099 0.42509
0.09182 0.09802 -0.32398
0.20674 0.08760 0.12964
-0.05424 0.08760 0.19244
0.08667 0.09802 -0.23066
0.00911 -0.01629 0.39739
-0.00453 0.06733 -0.21241
-0.01243 0.08760 -0.02099
-0.02898 -0.04403 -0.19754
0.05352 0.09802 0.41467
0.00677 0.05019 0.19567
-0.20243 0.02322 -0.17453
0.21143 0.04355 -0.19762
0.19988 0.08760 -0.17606
-0.10576 0.09802 -0.17849
0.20927 0.02086 0.17623
0.18703 0.08760 0.22725
-0.16286 0.09802 -0.11854
-0.05487 0.09802 0.39178
-0.16734 0.08760 0.13857
0.24037 0.09055 0.14801
0.04623 0.09802 0.09774
0.15122 0.08760 0.22233
0.03066 0.06729 -0.19552
-0.20810 0.09802 0.21796
-0.20243 -0.03535 -0.17998
0.00445 -0.08919 0.37939
0.02882 0.08787 -0.42509
0.02229 0.09802 0.31858
-0.11618 0.09802 0.27947
-0.12600 0.08760 -0.08619
-0.01253 0.08627 0.40966
-0.22845 0.08760 0.10761
-0.09498 0.08760 -0.19564
0.22926 0.09802 -0.07735
0.12981 0.08760 -0.10757
0.00377 0.01316 0.20111
-0.05141 0.09802 -0.22065
0.01107 -0.07770 0.21033
0.22667 0.08760 -0.26257
-0.03506 0.08760 -0.20133
-0.03762 0.08760 -0.20970
-0.15602 0.08760 -0.16317
0.00776 0.06064 0.41128
-0.00137 -0.06459 -0.20838
0.15284 0.09802 -0.33542
0.07701 0.09802 0.17466
-0.23542 0.05209 -0.19905
-0.17632 0.09802 0.34057
0.08551 0.08760 -0.12949
-0.22790 0.09521 0.21367
-0.02682 0.08760 0.18599
0.18314 0.08760 0.09602
-0.05306 0.08760 0.04828
-0.18894 0.08760 -0.03814
0.03951 0.08760 -0.35944
0.17181 0.09802 -0.11561
-0.24037 0.09534 -0.08944
0.13947 0.09802 -0.23330
-0.11040 0.09802 -0.15656
0.18613 0.08760 -0.29589
0.20036 0.09802 0.18976
0.06235 0.08760 -0.28436
-0.02156 0.08781 -0.21367
0.09422 0.08760 -0.12219
-0.00702 0.09802 0.38939
0.22067 0.08760 -0.22216
0.16547 0.08760 0.17433
0.14835 0.09802 0.30229
0.09038 0.08760 -0.21676
0.11281 0.09802 -0.29056
-0.03096 0.08271 -0.17628
0.13199 0.08760 0.24623
0.07039 0.08760 -0.03508
0.18774 0.09802 0.23063
-0.14263 0.09802 0.15594
0.17786 0.08760 -0.04495
0.15563 0.09802 0.24635
-0.02427 0.08760 -0.22116
-0.00046 0.08760 -0.25812
0.16547 0.09802 -0.34975
0.15846 0.09802 -0.02376
0.00676 0.08760 -0.39081
-0.00012 0.08760 0.33939
0.11537 0.08760 -0.34358
0.03058 0.08760 0.37271
0.21431 0.08760 0.18721
0.13993 0.09802 -0.34726
-0.00361 0.08760 -0.40127
-0.04361 0.09802 -0.31814
-0.20803 0.08760 0.05458
-0.10245 0.09802 0.21044
-0.07787 0.08760 0.38699
0.08319 0.09802 0.06104
-0.13522 0.09802 0.14440
0.19286 0.09802 -0.03257
0.14987 0.08760 0.12929
0.01863 0.05941 0.20662
-0.10171 0.09802 0.12050
0.09286 0.09802 0.02397
-0.17318 0.09314 0.21367
-0.19395 0.09802 -0.02070
-0.07312 0.08886 0.21367
0.14068 0.09802 -0.35524
0.15886 0.08760 0.29930
0.03468 0.09802 -0.33198
0.07235 0.08760 -0.14592
0.02763 -0.04422 0.19878
0.02761 0.08760 0.42162
0.03797 0.01955 -0.17453
0.02039 0.08760 0.27148
-0.19000 0.08760 -0.25264
0.20911 -0.00718 -0.19441
0.02793 0.03042 0.17741
-0.14511 0.09186 -0.21367
-0.20576 0.09802 0.18572
0.06453 0.08760 -0.34452
0.22549 0.08760 0.23099
0.08220 0.09802 0.16337
-0.07541 0.09802 -0.03754
-0.03903 -0.01385 0.17642
-0.04867 0.09802 -0.42107
-0.04119 0.08760 0.20780
0.00906 -0.04074 0.39519
-0.03248 -0.05086 0.17575
0.01491 0.08760 0.41277
0.05377 0.09802 0.15591
0.14607 0.09802 -0.10055
0.11325 0.09802 0.35205
-0.07497 0.08760 0.03308
0.19159 0.09802 0.26943
0.00000 0.08836 -0.19041
-0.00789 -0.03849 0.19414
-0.01108 0.03202 0.21044
-0.07370 0.09802 -0.34771
0.07504 0.09802 -0.24737
0.01876 0.08760 0.09265
-0.05374 0.09072 0.41923
0.03358 -0.09802 0.18618
-0.21218 0.09802 -0.26300
0.15711 0.09802 -0.10751
-0.00132 -0.07220 0.37412
0.11947 0.08760 0.39429
0.00697 -0.05690 -0.38612
-0.03643 -0.02149 -0.17489
0.03233 -0.07279 -0.19263
0.13328 0.08760 0.05468
0.23365 0.05195 0.19564
0.00368 0.08760 0.28204
-0.03114 0.09802 0.19075
-0.03114 0.09802 0.39958
0.06487 0.08760 -0.03671
-0.22611 -0.02419 -0.18666
0.00609 0.08760 0.16618
0.22400 0.06067 0.20794
0.18376 0.09802 -0.18314
0.02994 0.04796 0.17666
0.00855 -0.00373 -0.39182
-0.01625 -0.09720 -0.18468
-0.19806 0.08760 0.23535
-0.04089 0.09802 -0.00617
-0.20427 -0.00065 -0.18614
-0.00554 0.08760 0.20314
0.04553 0.08760 -0.32598
0.24037 0.09414 0.01516
0.09683 0.09802 -0.26857
-0.00699 0.05311 -0.41361
0.21697 0.01246 -0.20300
-0.10691 0.09802 0.05825
-0.15267 0.09802 -0.24473
-0.13045 0.09802 0.22030
-0.04550 0.09802 0.11992
0.00834 -0.07668 -0.19341
0.12396 0.08760 -0.20919
0.06929 0.09802 -0.06675
0.20363 0.05746 -0.18443
0.00409 -0.07520 -0.42103
-0.02861 -0.06483 -0.19780
0.04816 0.08760 -0.13357
0.04827 0.09802 0.27337
-0.02906 -0.01517 -0.17699
0.12317 0.09802 0.25599
-0.11451 0.08760 0.11521
0.06452 0.08760 0.37062
0.17214 0.08760 0.34138
-0.14614 0.09802 0.37176
-0.05983 0.09802 -0.10252
-0.10664 0.08760 0.02184
0.23752 0.00669 0.20358
-0.22310 0.09802 0.14520
0.21952 -0.09802 0.19347
-0.14696 0.09802 -0.21239
0.18951 0.08760 0.05102
0.00742 -0.09802 0.40393
-0.20419 -0.01896 0.18592
-0.16298 0.08760 0.13261
0.13815 0.08760 0.14530
-0.00788 0.05972 -0.38875
-0.00808 0.09802 -0.21814
-0.15265 0.09802 0.01928
-0.09192 0.09802 0.35984
-0.01814 0.09802 -0.27893
-0.07366 0.08760 -0.25933
-0.02946 0.08760 -0.05985
0.23067 0.09167 0.21367
0.00000 0.08994 -0.01086
0.06737 0.09802 -0.06214
-0.11731 0.09802 -0.08227
-0.00865 -0.08635 -0.39284
-0.23111 0.09802 -0.16832
0.04787 0.09802 0.18217
-0.01307 0.08760 -0.05776
-0.22758 -0.08398 -0.18813
-0.13718 0.08921 0.21367
0.03678 0.09802 0.26986
0.17855 0.09802 -0.11299
-0.19312 0.09802 0.10253
-0.21476 0.09802 -0.19031
-0.21630 0.09802 -0.20458
0.19601 0.09684 -0.21367
-0.15818 0.08760 0.07964
-0.00902 -0.06227 -0.39452
-0.22842 -0.09150 -0.18898
0.01917 0.09802 -0.20082
0.23376 -0.08868 0.19629
-0.13360 0.09802 0.00246
0.01307 -0.01736 -0.18785
-0.02690 0.02787 -0.19974
-0.03928 0.09802 0.09995
0.00333 0.08760 -0.11996
0.09192 0.08760 0.10610
0.05927 0.08760 -0.34355
-0.06939 0.08760 -0.24369
0.22803 0.03239 -0.20997
-0.12722 0.08760 -0.06705
0.09939 0.09802 -0.33246
-0.12798 0.08760 0.29821
0.08431 0.08760 0.02299
0.01922 0.03437 0.18227
-0.18079 0.09802 -0.17423
0.22481 0.09802 -0.23149
-0.11336 0.09802 0.32716
-0.10659 0.09528 -0.40096
0.09766 0.08760 0.10022
-0.20890 0.08760 -0.13362
-0.20382 -0.08488 0.18493
-0.00716 0.09802 -0.07068
0.19704 0.08760 -0.02782
0.00214 0.08760 -0.30675
0.02263 0.09802 -0.41292
-0.00645 -0.04770 -0.41561
-0.00231 0.09802 0.23036
-0.20723 0.08760 -0.25683
-0.22562 0.02231 0.18617
-0.04506 0.09802 0.14942
-0.18008 0.09802 0.18347
-0.22335 0.08760 0.10327
0.14160 0.09802 0.33463
-0.17232 0.08760 -0.17414
-0.22755 0.09802 -0.05930
0.08706 0.09802 -0.14009
-0.01101 0.08597 0.18973
-0.07667 0.08760 0.32246
-0.23319 0.08760 0.16626
0.01908 0.09802 -0.28697
0.14135 0.08760 0.33170
-0.21938 0.09373 0.21367
-0.01367 0.09802 0.26458
-0.09233 0.09802 -0.01325
-0.16538 0.09802 -0.01489
0.01128 0.09802 -0.07939
0.16892 0.09802 0.20705
0.00223 0.03047 -0.42411
0.01765 0.09802 -0.38655
0.00917 0.01016 0.39808
0.19901 0.08760 0.05038
0.07353 0.09802 -0.13859
-0.16275 0.09802 -0.33765
0.06656 0.09802 -0.41547
0.23728 0.05559 0.21282
0.00905 0.06965 -0.39592
0.15671 0.08760 -0.18917
-0.08266 0.08760 0.33195
0.00153 -0.04295 -0.37450
0.22169 0.09802 -0.00486
0.22803 -0.02768 0.18858
0.17442 0.09423 -0.21367
0.03792 0.08760 0.24085
-0.03579 0.08760 0.16339
0.17685 0.08760 0.01147
-0.23181 0.08760 -0.23586
0.01470 0.03152 0.20866
-0.01150 0.02004 -0.18918
-0.22139 0.04199 -0.18256
0.15756 0.08760 -0.26620
-0.22592 0.04490 0.18634
0.15040 0.09802 -0.03315
0.11699 0.08760 0.31691
-0.23534 0.09802 -0.14324
0.05237 0.08760 0.01002
0.03430 0.03482 -0.17532
-0.19132 0.08760 0.00766
-0.22467 -0.05661 0.20806
-0.07671 0.08760 -0.35515
-0.13495 0.09802 -0.38522
0.02466 0.09802 -0.15057
-0.02281 0.09802 0.11733
-0.21685 0.01595 0.20288
-0.23845 0.01170 -0.20723
-0.16727 0.08760 0.34502
-0.23835 0.00791 0.20580
0.07047 0.09802 0.26539
-0.06309 0.09802 0.33338
-0.03380 0.09802 -0.24310
0.13338 0.08760 0.22331
-0.01501 0.08760 0.29053
0.01449 0.08627 -0.40977
-0.00855 -0.08828 0.39242
-0.04975 0.08760 0.17420
0.10001 0.09802 0.16352
0.17096 0.08760 -0.19235
0.00360 -0.09160 -0.20173
-0.19711 0.09802 -0.10133
-0.11668 0.08760 -0.15008
-0.16389 0.08760 -0.12390
0.21229 0.08760 0.23740
-0.03848 0.01600 -0.17470
-0.02378 0.08760 0.39341
0.02382 0.08760 -0.39223
0.01797 0.06863 -0.20700
0.03793 0.08760 -0.39953
-0.23182 0.08760 0.14728
0.21762 0.03640 0.20370
0.18020 0.08760 -0.24200
0.03294 -0.01900 0.17595
0.07497 0.09802 0.22149
-0.00917 0.04560 -0.40017
0.22529 0.05316 -0.18574
-0.05809 0.09802 0.31675
0.00289 0.09802 0.38067
-0.24037 0.09556 -0.15862
-0.18519 0.09088 -0.33807
0.17511 0.08760 -0.18117
-0.22094 -0.05277 0.20582
-0.02019 0.09802 0.12239
0.09947 0.08760 0.22412
-0.00835 -0.09564 0.40671
-0.00933 0.03263 -0.19177
0.21936 0.04123 -0.20498
-0.21240 -0.00658 -0.19843
-0.22396 0.08760 0.06152
0.16638 0.09802 -0.06108
-0.12617 0.08760 -0.19445
0.05514 0.08760 0.39319
-0.22038 0.09802 0.21549
-0.02993 0.09802 -0.02185
-0.02476 0.08760 0.16635
-0.20486 0.00805 0.17517
-0.02107 0.00039 -0.18120
-0.12576 0.09802 0.26976
0.06698 0.09802 0.25674
-0.03480 0.09802 0.13391
-0.20286 0.09802 0.19468
0.22778 0.09802 0.14437
0.05915 0.09802 -0.10094
0.00307 0.08710 -0.20038
0.04044 0.08760 0.32565
-0.23814 0.08760 0.20453
-0.00231 -0.01951 0.42398
0.15570 0.08760 0.10277
-0.00645 -0.09481 -0.38417
0.17360 0.09802 -0.01848
-0.00423 0.03607 -0.42049
0.00000 0.09208 0.05146
-0.23796 0.08760 -0.07720
-0.12148 0.09802 0.36783
-0.13458 0.09802 -0.09081
0.14928 0.09802 0.34111
-0.20117 0.08760 -0.06968
0.00906 0.08760 -0.37916
-0.21411 0.08760 -0.18791
0.21358 0.02897 0.17786
-0.03699 0.08760 -0.06701
-0.13773 0.08760 0.20456
-0.03699 -0.03575 0.18311
0.12079 0.09802 0.24923
-0.17549 0.08760 -0.13910
0.17406 0.08760 -0.32580
0.03791 0.05778 -0.18073
0.22325 -0.05432 0.18377
0.02881 0.09802 0.21243
-0.06987 0.09802 -0.06394
-0.04526 0.08760 -0.34130
-0.06633 0.08760 0.20987
0.06336 0.09802 0.00706
0.00604 0.09802 -0.14118
0.17030 0.08760 -0.12417
-0.24037 0.08994 -0.05477
0.23994 0.09802 -0.19417
0.09432 0.09802 -0.02979
-0.06196 0.09802 0.27867
0.11062 0.08760 0.29796
0.04002 0.08760 -0.21347
-0.21959 0.09802 -0.23247
-0.17799 0.08760 0.12465
0.15205 0.08760 0.18434
0.05624 0.09802 -0.24617
-0.08019 0.09802 0.14183
0.16666 0.08760 -0.20166
0.02985 -0.07455 0.17689
0.02135 0.09802 -0.04173
-0.15766 0.08760 0.10015
-0.20678 -0.06527 -0.17549
0.13532 0.09802 0.10123
-0.20559 0.09802 -0.02709
-0.02073 0.09802 0.03596
-0.18008 0.08760 -0.08440
-0.08968 0.09802 -0.12229
0.01744 0.08760 0.11533
-0.17900 0.08760 -0.13025
0.06850 0.09802 0.14692
-0.14039 0.08760 0.02561
0.00000 0.09708 0.05626
0.23006 0.09802 0.03381
0.01981 -0.01330 -0.18207
-0.21475 0.08760 -0.12863
-0.07843 0.08760 -0.19575
-0.21085 0.09651 -0.30243
-0.00685 0.08760 -0.24965
-0.06692 0.09802 0.20343
-0.20556 0.08720 0.19797
0.15759 0.09802 -0.31927
0.11237 0.09802 0.04649
0.08022 0.08760 0.34591
0.11841 0.08760 -0.36381
-0.15627 0.09802 0.30188
-0.11170 0.08760 -0.38487
-0.16264 0.08760 -0.29039
-0.17492 0.09802 -0.22271
-0.14770 0.08760 0.20599
-0.00656 0.03798 -0.41519
0.00000 0.09706 0.07223
-0.00492 -0.00017 -0.19883
-0.06166 0.09802 -0.22763
-0.15111 0.09802 0.25742
-0.05673 0.09802 -0.15256
0.20034 0.09678 0.21367
-0.01511 0.08627 0.39041
0.23842 -0.02144 -0.20597
0.23149 0.08760 -0.05171
-0.03112 -0.07564 0.17622
-0.02083 -0.04819 0.18145
0.02949 0.09802 0.25853
-0.22137 0.05859 -0.20624
-0.13536 0.08760 0.36359
-0.10222 0.09802 -0.06009
0.00724 0.08760 -0.16139
0.00783 0.08760 0.18926
-0.03657 0.09802 0.37571
-0.04237 0.09655 -0.21367
-0.11700 0.08760 -0.39597
-0.18230 0.08760 -0.09430
-0.05354 0.08760 -0.24619
0.10117 0.08855 0.40426
-0.20847 -0.00493 -0.19363
-0.15499 0.09802 -0.15438
0.10637 0.09802 -0.07160
-0.23997 0.09802 0.02035
0.15160 0.08760 -0.16525
-0.07358 0.09802 0.37784
0.10707 0.08760 0.19793
0.02928 0.09802 -0.30468
0.19112 0.08886 -0.21367
0.00000 0.09540 -0.20772
-0.05503 0.09802 0.24704
-0.13035 0.08760 -0.34219
0.09743 0.09802 0.13502
-0.23414 0.09802 -0.05382
-0.16041 0.09802 0.17959
-0.00737 0.00103 -0.41192
0.03826 -0.00261 0.17972
-0.07351 0.09802 0.40449
0.08772 0.08760 -0.09986
-0.07387 0.09802 -0.39875
0.02472 0.05756 -0.20196
0.07299 0.09802 -0.39929
-0.20980 0.09802 -0.08856
0.13149 0.09802 0.37011
-0.04330 0.09802 -0.32423
-0.16950 0.09802 -0.02473
0.00075 -0.05716 0.21094
0.03332 0.05688 0.19146
-0.13436 0.09802 -0.09708
0.00780 -0.05104 0.41023
0.17154 0.08760 0.20237
0.20377 0.05427 0.17477
-0.06247 0.09802 0.16586
0.24037 0.08876 0.14181
-0.00609 0.09143 -0.21367
0.00947 0.08760 -0.13756
0.02606 0.07836 0.20074
-0.21784 0.08760 0.09360
0.12729 0.08760 -0.06788
0.05179 0.09802 -0.26027
0.20923 0.08760 0.04205
-0.20254 0.08760 0.13623
-0.17576 0.09802 0.01718
0.18446 0.09802 0.07762
0.02156 0.09802 -0.36992
-0.14126 0.09802 -0.34090
0.21739 0.08760 0.10134
0.12815 0.08760 -0.36911
-0.12432 0.08760 0.24972
-0.17824 0.08760 -0.18359
-0.11214 0.08760 -0.35872
-0.20342 0.09802 -0.29547
0.08623 0.08760 0.27777
0.20182 0.08760 -0.31020
-0.02349 0.08760 -0.18785
0.22076 0.08760 0.01969
0.07427 0.08760 0.38234
-0.22714 -0.09649 0.18746
-0.23895 -0.01005 -0.20887
-0.14973 0.09802 -0.21761
-0.10547 0.08760 0.36612
0.02888 0.04830 -0.19752
-0.03621 -0.05772 -0.18585
-0.10019 0.08760 -0.25566
0.15772 0.08760 0.24929
0.09469 0.09802 -0.34004
0.13198 0.09802 0.15640
-0.07899 0.09802 -0.33204
0.09851 0.08760 0.17927
-0.00241 0.02038 -0.20475
0.16784 0.08760 -0.00070
-0.04073 0.08760 -0.24589
-0.04313 0.08760 -0.31891
-0.00748 0.00516 0.38815
0.09901 0.09802 -0.08692
-0.12929 0.09206 0.38716
0.07680 0.08760 0.28536
0.03578 0.09802 -0.02461
0.20463 0.09802 -0.05351
0.00000 0.08829 -0.17242
-0.12820 0.09802 -0.18435
-0.23440 0.02601 0.19700
0.20884 0.08335 0.19426
0.10079 0.08760 0.12337
0.17643 0.08760 0.05308
0.22637 -0.03893 0.18692
0.19870 0.09802 0.05272
-0.07237 0.09802 0.38999
-0.21555 -0.02707 0.17906
-0.13460 0.09802 -0.19925
-0.23399 -0.02435 0.19667
0.23134 -0.09122 0.19226
-0.19412 0.09802 -0.07206
-0.11311 0.09802 -0.20653
0.02029 0.08760 0.04802
0.17642 0.08760 -0.35026
0.01652 -0.05480 0.18441
0.00935 0.08760 -0.42668
0.05302 0.09802 -0.36229
-0.02393 -0.03684 0.17959
0.02297 0.09802 0.10088
0.01785 -0.08649 0.18324
-0.07979 0.08760 0.39787
0.22769 0.09802 0.10560
0.16872 0.08760 0.03459
-0.13027 0.09802 0.17845
-0.08848 0.09802 -0.18751
0.02446 0.08760 -0.09670
0.00856 -0.00343 0.40781
0.15083 0.09802 0.05121
0.04798 0.08760 -0.01387
0.00512 0.08760 -0.17814
0.03647 0.08760 -0.14853
-0.02775 0.09802 0.12168
0.20670 0.02573 0.17547
0.22521 -0.01196 0.18560
-0.10676 0.09802 0.23047
-0.00010 0.08760 0.32826
0.10788 0.09802 0.03926
-0.08364 0.09802 0.06511
0.02176 0.09802 -0.17028
0.02513 -0.05150 -0.17883
-0.14966 0.09802 -0.29909
0.13575 0.08760 0.38343
-0.03461 0.08293 -0.18916
-0.01264 -0.09261 -0.20985
-0.09062 0.08760 -0.28271
-0.08802 0.09802 -0.15894
-0.09254 0.08760 -0.14426
-0.20929 0.09802 -0.20213
0.05367 0.08760 0.37097
-0.20602 0.09802 -0.09921
-0.19433 0.08760 -0.00458
-0.20360 0.09802 0.11681
-0.09639 0.08760 0.29478
0.02674 0.08760 0.27802
-0.11487 0.09802 -0.27425
0.02791 0.09802 0.36464
-0.07032 0.09802 0.26146
0.03805 -0.09542 -0.17495
-0.20097 0.09802 -0.08395
-0.04182 0.09802 -0.30756
-0.06818 0.09802 0.19394
-0.00953 0.09802 0.02085
-0.22190 0.08830 0.21367
-0.19063 0.08760 0.32035
0.07664 0.09802 -0.16781
-0.06097 0.08760 -0.07256
0.05953 0.09802 -0.09517
0.00066 0.05852 -0.21137
-0.20361 0.05890 0.18438
0.19476 0.08760 0.19917
-0.18563 0.08760 0.14030
0.00892 0.04068 0.40584
-0.02455 -0.07150 0.20185
-0.18291 0.09802 0.07908
0.11125 0.09802 -0.29557
0.22039 0.09802 -0.23399
0.10466 0.08760 -0.02636
0.08990 0.08760 -0.19517
-0.17859 0.08760 0.24173
-0.16610 0.08760 -0.21235
-0.00900 0.08760 0.32721
0.21426 -0.05294 -0.20029
0.00909 0.03898 0.21119
-0.15961 0.08760 0.22801
-0.23203 -0.05230 -0.21147
0.02103 -0.09667 0.18114
-0.04817 0.08760 -0.41825
-0.10618 0.08760 -0.33247
-0.04782 0.09802 0.02156
0.07297 0.08760 0.01428
-0.11470 0.09802 -0.02993
-0.14031 0.08760 0.01951
0.03827 -0.05038 0.17462
-0.03593 0.05177 -0.17504
0.08639 0.09802 -0.17155
-0.20445 0.08760 -0.04259
0.05222 0.08760 0.32556
0.00242 0.08760 0.35575
-0.21332 0.08760 -0.18004
-0.12633 0.09802 -0.33945
0.10990 0.09802 -0.02822
-0.09824 0.09802 -0.28717
0.21387 0.09802 0.03526
0.13434 0.09802 0.05330
0.06099 0.09802 -0.04072
0.20143 0.01325 0.17671
-0.00625 0.08760 -0.20660
-0.21158 0.06860 0.19779
-0.00859 0.03114 0.19279
0.23273 0.00591 -0.19458
0.01838 0.08760 -0.39266
-0.19001 0.09802 -0.28215
0.16239 0.09802 0.31428
0.23216 -0.02387 0.21152
-0.18608 0.09802 0.17367
0.08433 0.09802 0.39752
0.03714 0.08760 -0.32500
-0.01651 0.04893 0.20787
0.00872 -0.08126 0.40653
-0.01960 0.05222 0.18216
0.04583 0.08760 0.28797
0.00515 0.08760 0.17797
-0.20767 0.08760 0.18364
0.03525 0.09802 0.21771
0.13046 0.08760 0.08518
-0.05011 0.08760 0.34290
-0.00492 -0.09242 0.19911
-0.00901 -0.07380 0.39870
0.01561 -0.04846 -0.20812
-0.22501 0.08760 0.11154
-0.01178 -0.03490 0.21019
-0.23918 0.09802 0.11191
0.22966 0.08627 -0.21061
0.00708 0.09802 -0.36497
0.14089 0.08760 0.31515
-0.23856 0.05244 -0.20707
0.17179 0.09802 -0.28617
-0.11700 0.09802 -0.34487
-0.07082 0.09802 0.37002
0.23769 0.02450 -0.20401
-0.07782 0.09802 -0.19315
-0.20235 -0.05325 -0.17972
-0.10267 0.08760 0.37208
-0.00488 0.08760 -0.29356
-0.17565 0.09802 0.25674
0.11600 0.08760 -0.35153
0.07150 0.09802 -0.04288
-0.16985 0.09802 0.06712
0.05851 0.08760 -0.32968
-0.00924 0.05154 0.40015
0.07637 0.08760 -0.40811
-0.00901 -0.03955 0.40077
-0.02988 0.09802 0.10360
-0.04655 0.09802 0.40496
0.20613 0.08760 -0.11856
-0.22468 -0.09556 -0.18579
-0.14202 0.09802 -0.10656
0.20866 0.04067 -0.17611
0.01131 -0.09126 0.21026
-0.24037 0.09527 0.11971
0.00017 -0.08418 0.42651
0.17962 0.08760 -0.01611
0.18006 0.09802 0.23139
0.14138 0.08760 0.13903
0.01839 0.09802 0.32555
0.00460 -0.00285 0.37974
-0.13887 0.09802 0.27186
0.01180 0.07437 0.18883
-0.14523 0.08760 -0.06074
-0.02714 0.08760 -0.16248
-0.01853 0.08760 0.09915
0.13776 0.08760 -0.32608
-0.07055 0.08760 0.21877
-0.20350 0.09802 -0.18471
0.00495 -0.00390 -0.21238
0.06055 0.09802 -0.29727
-0.04824 0.09802 0.03810
-0.13625 0.08760 0.28763
0.05019 0.09802 -0.32731
0.22383 0.08760 0.20471
-0.09841 0.09802 0.00408
-0.10060 0.08760 -0.02351
-0.24037 0.09622 -0.04386
0.14163 0.08760 0.27226
-0.07003 0.08760 -0.09912
-0.11305 0.08760 -0.34453
-0.12496 0.08760 0.02522
0.06443 0.08760 0.40707
0.03844 0.09802 -0.11100
0.05664 0.08760 -0.22759
0.02203 0.08760 -0.07200
0.01787 0.09802 -0.25110
0.13623 0.09802 0.06205
-0.00773 0.03591 -0.41104
0.09763 0.09802 0.37896
-0.03355 0.09802 0.03592
0.21503 -0.03904 -0.17875
0.06376 0.09802 -0.37998
0.17409 0.09802 0.31102
-0.23530 0.09614 0.21367
-0.19260 0.09354 0.32875
-0.03401 0.08760 0.17565
0.13812 0.08760 -0.24819
0.07632 0.08760 0.07096
-0.08048 0.09090 -0.21367
0.13216 0.09802 0.19192
-0.03067 0.07265 0.17639
0.04526 0.09802 -0.29317
0.00597 0.08447 0.41690
0.03320 0.02544 -0.19138
-0.00207 -0.01218 0.21305
0.01528 0.08760 0.31258
-0.22054 0.00905 0.18185
0.00962 0.03609 -0.19131
-0.20973 0.04121 0.17640
0.12712 0.08760 0.13118
-0.09533 0.09802 -0.06509
-0.00613 -0.03436 0.38308
0.03874 0.08760 -0.39013
0.14712 0.09802 -0.35646
-0.00432 -0.05723 -0.41991
-0.00852 0.08627 0.18074
0.03474 0.09802 -0.00011
0.13409 0.09802 -0.14472
-0.00394 -0.09802 0.39204
0.22583 0.09802 -0.14857
0.12356 0.08760 -0.21810
0.08805 0.09802 0.30009
-0.20050 0.08760 -0.05504
0.05598 0.08760 0.16017
0.22643 0.09802 -0.01861
0.17566 0.09132 0.35130
-0.00318 -0.08732 -0.37708
-0.07662 0.08760 0.13323
-0.17390 0.08760 -0.09690
0.19808 0.09802 -0.14481
-0.14345 0.09802 0.10467
0.02098 0.08760 0.19333
0.16039 0.09802 -0.18736
-0.21231 0.09762 0.29971
0.12286 0.09802 0.35770
0.00278 -0.04541 -0.42322
0.22406 -0.09802 0.20108
0.07710 0.08760 -0.33649
0.02793 0.09802 -0.27999
-0.20226 0.05347 0.18034
0.05436 0.09802 0.10336
0.01093 0.08760 -0.26702
-0.23056 0.08496 0.19109
-0.15990 0.08760 -0.35902
0.05972 0.08760 0.24447
0.21208 0.09802 0.25007
0.03129 0.09802 0.00560
0.11634 0.09802 -0.05992
0.06395 0.08760 0.00024
0.16390 0.08760 0.32757
-0.05275 0.09802 -0.04119
0.23626 0.09802 -0.11954
-0.21471 -0.07652 -0.20074
-0.02988 0.06736 0.17668
0.23180 0.09802 0.05924
0.00989 0.06421 0.21089
0.06289 0.08760 0.22666
-0.23591 0.09802 0.10601
-0.05795 0.08760 0.35465
0.01507 0.08760 -0.42043
0.06651 0.08765 0.21367
0.00000 0.09100 0.11178
0.05460 0.09802 0.18251
0.01146 -0.05132 0.21029
0.09689 0.09802 0.18330
0.17385 0.09802 0.14148
0.18276 0.08760 0.04251
0.00469 0.08760 -0.22531
0.08662 0.08760 -0.29886
-0.21747 -0.08421 -0.18021
0.04118 0.08760 0.00542
-0.06066 0.08760 0.05001
0.04597 0.08760 -0.29653
-0.06687 0.08760 0.17438
-0.04386 0.08760 -0.06324
0.14509 0.08760 0.04675
-0.15745 0.08760 0.31285
0.12189 0.08760 0.16694
0.22428 0.08011 -0.20806
-0.06102 0.09802 0.03754
0.00000 0.09467 -0.00233
-0.09916 0.09802 -0.29935
0.12449 0.08760 0.06906
-0.03082 0.09802 -0.30785
0.06241 0.08760 0.19544
-0.07748 0.09802 -0.29027
-0.03812 0.06753 -0.18030
0.12366 0.09802 0.28752
0.14035 0.08760 0.11227
0.22904 0.09051 -0.21367
-0.02240 -0.02102 0.18051
0.09976 0.09802 0.23852
-0.08382 0.09802 -0.33988
0.12601 0.09802 0.01022
0.08159 0.09802 0.37827
0.05742 0.09802 0.29019
0.07136 0.08760 -0.34742
-0.21344 0.08760 -0.19378
-0.17092 0.08760 0.27962
0.02181 0.08760 0.16656
0.03150 0.09802 -0.19373
0.13217 0.08760 0.30447
0.08721 0.09802 -0.11856
-0.19746 0.09802 -0.12058
-0.03787 0.09802 0.06810
-0.23516 -0.08379 -0.19862
0.16027 0.09802 0.27486
-0.01121 0.05662 0.18967
0.15251 0.08760 -0.09263
0.04277 0.08760 -0.37218
0.03694 0.02892 0.18389
0.23237 0.08760 -0.17432
0.23852 -0.08816 -0.20632
0.12186 0.08760 0.25663
0.02896 -0.04140 -0.19745
-0.08479 0.08760 -0.02851
-0.02297 0.01794 -0.20343
0.20908 -0.04444 -0.19436
-0.16698 0.08760 -0.31173
-0.06756 0.09802 0.25118
0.09043 0.08760 -0.29295
-0.20698 0.08760 0.11161
0.03643 0.09802 -0.34473
-0.12253 0.08760 -0.29874
0.20679 0.09802 -0.13209
-0.13768 0.08760 -0.27754
-0.12636 0.08760 -0.09971
-0.06036 0.09163 0.21367
-0.17491 0.08760 -0.02552
-0.21674 0.08760 -0.23574
0.18365 0.09802 -0.31252
-0.16068 0.09802 0.33390
0.06901 0.08760 0.37983
-0.04834 0.08760 0.37687
0.01893 0.08760 0.13429
-0.00830 -0.02212 0.40822
0.10195 0.09802 -0.37100
0.17047 0.08760 -0.30512
-0.02148 0.09802 -0.08466
-0.08288 0.08760 -0.37470
-0.22803 0.08760 0.17884
0.23689 -0.07577 -0.20189
-0.01560 0.01623 -0.20812
0.15226 0.09802 -0.00519
-0.20824 0.06285 0.17593
0.00693 -0.01912 -0.21191
0.07168 0.08760 0.05339
-0.00873 0.08760 0.41289
-0.22172 0.00015 0.20639
-0.22318 -0.07607 -0.20716
0.06789 0.09802 -0.22906
0.18932 0.08760 0.15256
0.20167 0.09802 -0.23636
0.00004 -0.09802 0.38708
-0.00058 0.08760 -0.41794
0.03772 0.09802 0.35920
0.01294 -0.01836 0.20972
-0.20899 -0.07939 0.17643
0.21981 0.08760 0.21359
0.22208 0.08760 0.26119
-0.00724 0.09802 -0.08142
0.00346 0.09802 -0.06762
-0.01126 0.03051 -0.21038
0.23655 0.09802 0.05015
-0.07248 0.08760 0.29019
-0.02193 0.02998 0.20432
-0.06746 0.09802 -0.02776
0.24037 0.09582 0.00519
0.06486 0.09802 -0.28559
-0.13400 0.08760 0.04522
-0.14439 0.08760 -0.23016
-0.08772 0.09802 0.08154
0.04964 0.09802 0.00486
-0.03812 0.03100 -0.18030
-0.00815 0.05206 0.21154
0.05382 0.08760 -0.34495
-0.04831 0.08760 -0.30774
-0.10990 0.08760 0.16903
0.06606 0.08760 -0.41476
0.03364 0.08760 -0.09351
0.13318 0.09802 -0.20482
0.11039 0.09802 0.20665
0.06942 0.09802 -0.08285
-0.07845 0.09802 0.15273
-0.09313 0.09802 0.08127
-0.14324 0.08760 -0.01588
0.01288 0.09802 0.07231
-0.00792 0.06990 -0.38876
0.00284 0.05653 0.37654
0.08880 0.09802 -0.12505
0.02073 0.08760 -0.21503
-0.05356 0.08760 -0.25686
0.21409 0.08760 -0.29259
-0.03417 0.03945 0.18963
-0.00632 0.01767 0.38350
0.10701 0.09802 0.37163
-0.11425 0.09802 -0.00775
0.19958 0.09802 0.16209
-0.13254 0.09802 -0.04848
0.17453 0.09802 -0.10603
0.13492 0.08760 -0.07073
-0.21791 0.02566 0.20394
0.18305 0.08760 -0.13967
0.00520 0.08760 0.19680
0.11212 0.08760 0.22855
0.04707 0.08760 -0.34547
-0.09828 0.08760 -0.05491
0.08952 0.09802 -0.08268
0.23523 0.08770 0.21367
-0.07539 0.09802 0.31078
0.12002 0.09802 -0.05189
-0.14427 0.08760 -0.10744
-0.14959 0.09802 -0.19865
0.12784 0.09802 0.17267
0.00226 -0.09802 -0.38121
0.14248 0.09802 0.13996
0.14480 0.09802 0.02826
-0.12700 0.08760 -0.16691
-0.21527 0.09802 -0.28029
0.09032 0.09802 0.09151
-0.00133 0.08760 0.35152
-0.07018 0.08760 -0.39813
-0.05435 0.09802 -0.20536
-0.03605 0.04970 0.18628
-0.01960 0.09802 -0.32536
0.15169 0.09802 -0.18191
0.18022 0.08760 -0.27116
0.16594 0.09802 0.34876
-0.00170 0.09802 0.33863
0.01468 0.02191 -0.18594
0.19207 0.08760 0.32131
0.01646 0.08760 0.06528
0.15920 0.09802 0.03361
0.20125 0.08760 0.00712
-0.01610 -0.02337 -0.18483
-0.01333 0.08760 -0.04734
-0.22138 -0.01519 -0.18256
0.00045 0.09802 -0.15061
0.04946 0.08760 0.14921
-0.22397 0.09802 0.20813
0.04596 0.09802 -0.18528
-0.03104 0.08760 -0.15410
0.02414 0.04055 0.20226
0.21616 0.08760 0.19747
0.03979 0.08760 -0.37613
0.00000 0.09118 0.10376
0.21438 0.05465 0.20078
-0.12654 0.09802 -0.24555
0.18072 0.09802 -0.34254
0.01561 0.08760 0.27341
0.03856 0.09802 -0.01515
-0.13194 0.08760 0.31220
0.03576 0.08760 -0.40865
0.22205 -0.09481 0.20621
0.10138 0.09802 -0.09844
-0.10935 0.09802 -0.07165
0.20937 0.08627 -0.20544
-0.07363 0.08760 0.01491
0.23005 0.08627 0.18877
0.22028 0.07166 -0.20562
0.00952 0.01411 0.19145
-0.10113 0.08760 -0.01796
0.21927 0.09802 0.20499
0.04413 0.08760 -0.26574
-0.23655 0.08760 0.05767
0.17806 0.08760 0.31765
0.01972 0.08760 -0.35227
0.18094 0.09802 -0.13661
0.03873 -0.05057 -0.17740
-0.16813 0.08760 -0.28463
0.20355 -0.06986 -0.18419
0.10917 0.08760 0.15082
-0.01910 0.06624 -0.18235
-0.19141 0.08760 0.20079
-0.01887 0.08760 -0.07541
0.02286 0.09802 0.39467
0.07972 0.09802 -0.01971
0.20250 -0.05187 0.18022
-0.13574 0.08760 -0.03190
-0.09263 0.08760 -0.37089
0.22721 0.08760 0.24953
0.19630 0.09802 0.23507
-0.12997 0.09802 0.25988
0.09582 0.08760 0.29024
0.03569 0.04464 0.17511
-0.02625 0.09802 0.40859
-0.22860 -0.06502 -0.21019
0.23883 -0.06042 0.21299
0.12203 0.08760 0.27943
-0.02033 0.09802 0.07836
-0.22467 0.08760 0.23511
0.20150 0.09802 -0.17460
0.01714 0.03245 -0.20740
0.18931 0.09802 0.27496
-0.01020 0.08760 0.04352
0.22243 0.09802 0.03596
-0.18731 0.08760 0.31010
-0.07718 0.08760 0.28835
-0.07134 0.08760 -0.32122
-0.07296 0.09802 -0.10462
-0.20806 0.08760 -0.19642
0.11360 0.09802 -0.07750
-0.11090 0.08760 0.34931
0.18019 0.08760 -0.26013
-0.05562 0.08760 -0.17123
-0.11468 0.09802 0.34657
0.09328 0.08760 0.07917
-0.11674 0.09802 -0.19283
-0.06591 0.09802 0.21626
0.05146 0.09802 -0.30688
-0.03229 0.09802 0.40835
0.23348 0.07778 -0.21188
0.20760 0.08760 0.10630
-0.09213 0.08760 -0.06233
-0.10890 0.08760 0.06408
-0.20311 0.06357 0.18301
-0.12143 0.08760 -0.04368
0.08355 0.08760 -0.02655
0.23370 -0.01457 -0.19619
0.18782 0.08760 -0.15196
0.05232 0.08760 -0.04033
0.11506 0.09802 0.01766
0.22083 0.09624 -0.28158
0.14230 0.08760 0.00452
0.00000 0.09379 0.07708
-0.21928 0.08760 0.18305
-0.06082 0.09802 -0.06829
-0.02501 0.08760 -0.00090
-0.00088 0.00124 -0.42619
-0.18423 0.08760 -0.11951
0.19869 0.09802 -0.22026
0.09024 0.09802 0.32025
0.22180 0.08760 -0.18970
-0.05363 0.08760 -0.26951
-0.06087 0.09802 -0.24720
-0.00060 0.05087 0.21176
0.07941 0.09802 0.35003
-0.15949 0.08760 -0.02640
0.11400 0.08760 0.30151
-0.17612 0.09802 -0.22767
0.01959 0.09802 -0.10533
0.01341 0.08507 0.18706
0.19310 0.08760 -0.31079
0.07608 0.09802 0.14544
0.14025 0.08760 -0.06262
-0.03794 0.09802 -0.01890
0.09709 0.09802 -0.16594
-0.10040 0.09802 0.22515
-0.05378 0.09802 -0.23448
-0.02303 0.06517 -0.20337
0.21618 0.05096 -0.20225
-0.08659 0.09802 -0.25971
-0.03587 0.08760 0.24329
-0.15945 0.08760 0.01058
-0.03244 -0.00941 -0.19245
0.03001 0.09802 -0.18807
0.13292 0.08760 -0.30064
-0.24037 0.08772 0.13664
-0.00633 0.09802 -0.12790
-0.20108 0.09802 0.13115
-0.06626 0.09802 0.32887
0.20358 0.04973 -0.18430
0.08695 0.09802 0.39107
-0.20615 -0.06077 -0.18948
0.11488 0.09802 -0.22679
-0.10936 0.08760 -0.30633
-0.19964 0.08760 -0.29899
0.06193 0.09802 -0.02917
0.05396 0.08760 -0.07702
0.10796 0.08760 0.39632
-0.16646 0.08760 0.11964
