ply
format ascii 1.0
comment VCGLIB generated
element vertex 1901
property float x
property float y
property float z
element face 0
property list uchar int vertex_indices
end_header
0.12681 0.08912 0.32025
0.30164 0.16368 -0.06235
0.05995 0.08912 -0.09746
-0.03231 0.12851 -0.33341
0.03184 0.08912 -0.09442
0.17255 0.08912 0.00665
0.32127 -0.03396 0.31239
0.16662 0.12851 0.01874
-0.17878 0.12851 0.14532
0.01013 0.07784 -0.34268
0.19977 0.12851 -0.03084
0.23992 0.12851 -0.34015
0.32127 -0.10039 -0.30144
0.29639 -0.04633 0.31799
0.08332 0.12851 0.06190
0.15082 0.12851 -0.26162
0.09312 0.12851 0.34129
-0.19385 0.12851 0.01200
-0.17866 0.08912 -0.21238
-0.30095 0.08912 -0.06015
0.03727 -0.12496 0.34268
0.10800 0.08912 0.29984
0.32127 -0.16458 0.32828
0.32127 0.10922 -0.32666
0.09774 0.08912 -0.01201
-0.17854 0.08912 -0.25049
0.32127 -0.15971 -0.33120
0.24011 0.08912 0.23364
0.32082 -0.08693 -0.34268
-0.28080 0.17134 0.03003
0.01425 0.12851 0.02011
-0.32127 -0.00923 -0.31413
0.23761 0.14818 -0.19884
-0.30464 0.12851 -0.27428
-0.21420 0.08912 -0.27688
-0.18097 0.12851 0.28434
0.29114 -0.02916 0.34268
-0.10676 0.08912 0.27483
0.14745 0.12851 0.29046
-0.02878 0.12851 0.31112
0.23761 0.13642 -0.16149
0.08831 0.12851 0.26764
-0.32127 -0.12482 -0.30290
0.18885 0.12851 -0.03811
-0.22667 0.08912 -0.05196
0.30078 -0.13112 -0.32052
0.27497 0.01312 -0.32204
-0.26727 0.08912 -0.28745
-0.09454 0.10681 0.34268
0.15682 0.08912 -0.13917
-0.07196 0.11284 0.34268
0.17740 0.08912 0.29807
-0.32127 -0.14543 -0.31446
0.14641 0.12851 -0.00085
0.31752 0.12851 -0.07631
0.06639 0.08912 -0.24589
0.09507 0.12851 -0.20197
0.23468 0.12851 -0.32842
0.12704 0.08912 -0.14725
-0.11744 -0.05105 0.34268
0.04154 0.08912 0.10411
-0.24244 0.14308 0.09432
0.32127 0.00959 -0.27141
0.13526 0.12851 -0.11332
0.29575 -0.02923 -0.30659
0.07868 0.12851 0.00898
-0.05448 0.12851 0.30123
-0.14969 0.12851 -0.16140
0.31094 0.08912 -0.24041
0.23761 0.16108 -0.14869
-0.00654 0.08912 -0.08438
0.23761 0.16681 -0.12412
0.19434 0.08912 0.25869
0.11083 -0.10305 0.34268
-0.05549 -0.03189 0.34268
0.12625 0.12851 0.23312
0.23761 0.14614 0.26597
-0.32127 0.11685 -0.10168
-0.29582 0.08912 -0.17452
-0.14258 0.12851 0.16353
-0.20658 0.08912 -0.15005
-0.15416 0.08912 -0.21453
0.24590 0.17134 0.13152
-0.32127 -0.02433 -0.30047
-0.28426 0.16100 0.12807
-0.15233 0.08912 0.28069
0.31620 0.12851 -0.18342
0.24220 0.12851 0.27267
0.22495 0.08912 -0.13870
-0.17658 0.08912 -0.28391
-0.08853 0.08912 -0.01942
0.31738 -0.09335 -0.29443
0.16026 0.08912 -0.26900
-0.30509 0.12851 -0.30009
-0.29730 0.00119 0.30995
0.22547 0.12851 -0.17769
0.20453 0.12851 -0.18352
-0.12049 0.08912 0.30389
-0.26411 0.08912 0.11962
-0.07379 0.08912 -0.02695
0.25215 0.12851 -0.20759
-0.16931 0.12851 0.29922
-0.32127 0.09653 0.18063
0.24834 0.15298 -0.21570
-0.29964 0.11599 -0.34268
0.32127 0.08942 -0.14030
-0.04117 0.08912 -0.11933
-0.32127 0.10719 -0.21078
-0.08289 0.08912 0.24696
0.25248 0.13314 -0.20379
-0.07567 -0.08824 0.34268
0.28739 0.12851 0.33036
-0.24244 0.16046 -0.10167
-0.31680 0.17134 -0.01613
0.31916 0.08912 -0.16821
0.18142 0.12851 -0.00428
-0.30263 0.15237 0.06157
-0.15221 0.08912 -0.27204
-0.04474 0.12028 -0.34268
0.13226 0.08912 -0.11254
-0.08130 -0.10515 0.34268
0.16811 0.08912 -0.14904
-0.29551 0.00355 0.34268
-0.32127 0.10259 0.12675
-0.20095 0.12851 -0.21322
-0.30247 -0.17134 -0.34157
0.23389 0.08912 -0.27078
-0.26332 0.06711 -0.32663
-0.10250 0.08912 -0.23935
-0.12901 0.12851 0.21449
-0.03258 0.12851 -0.13273
-0.14219 0.08912 0.33458
0.01646 0.07309 0.34268
-0.13525 0.08912 0.10775
0.24692 0.12887 0.24770
-0.07196 0.03719 0.34268
0.03572 -0.02490 0.34268
0.03018 0.06724 -0.34268
-0.29657 0.17134 0.03698
-0.04098 0.08912 0.04329
0.15191 0.12851 -0.28035
0.27000 0.08912 0.08711
0.25708 0.17134 -0.03456
0.28574 0.12851 -0.32801
0.24999 0.08912 -0.34035
-0.27505 0.15725 0.16140
-0.24244 0.14630 0.24201
0.08912 0.12851 0.18501
-0.22682 0.12851 -0.34219
-0.27969 0.17134 0.08241
0.31129 0.08221 0.34268
0.26076 0.08912 -0.16217
-0.03909 0.12851 0.27487
0.32127 -0.04524 -0.31041
-0.15340 0.10815 0.34268
-0.18546 0.12851 0.06534
0.13261 0.12851 -0.14585
0.32127 -0.01892 -0.28911
0.32127 -0.07904 -0.30595
0.20117 0.12851 0.08125
-0.27236 -0.04299 -0.34268
0.23761 0.14837 -0.21040
-0.30581 0.08912 0.30524
-0.31789 0.08912 0.18754
-0.01380 0.12851 -0.32480
-0.10566 0.08912 -0.03031
-0.05010 0.08912 -0.21120
-0.32127 0.12309 -0.18788
0.27980 0.08912 -0.10400
-0.28970 0.08912 -0.19705
-0.27492 0.06305 -0.31337
0.29160 0.12851 0.17903
-0.05317 0.12851 0.01284
0.26106 0.11995 -0.34268
0.06966 0.08912 -0.25093
0.29988 0.17134 0.06547
-0.12210 0.08912 0.25174
-0.17328 0.12851 -0.32835
-0.21667 0.12851 0.11585
0.30825 0.07844 -0.34268
-0.23860 0.12851 0.15998
0.25367 0.08832 0.34268
0.32127 0.10815 -0.33380
0.23761 0.17105 0.02284
0.10768 0.00148 -0.34268
-0.18052 0.12851 0.24350
0.06168 0.12851 0.11246
-0.32127 0.09784 -0.33196
0.06351 0.12851 0.33042
0.03591 0.12851 0.24460
-0.19749 0.12851 0.12260
0.01072 0.00881 -0.34268
0.29869 0.14872 0.07111
0.10686 0.12851 0.03369
0.29237 -0.12478 0.32954
0.12764 0.12851 0.17967
0.11701 0.12851 0.27414
-0.02095 -0.04632 0.34268
-0.01474 0.08912 0.02545
-0.29435 0.08912 -0.30847
-0.24244 0.15213 0.02007
0.02899 -0.03918 0.34268
0.23394 0.11133 0.34268
-0.10462 0.12851 0.02400
-0.31228 0.14576 -0.03331
0.04973 -0.06815 0.34268
0.18248 0.12851 0.25101
0.09771 0.08912 0.14019
-0.26752 0.12851 -0.32274
-0.32127 -0.07750 -0.29785
-0.25453 0.17134 0.17644
0.27490 0.06626 0.34268
0.00054 0.12851 0.13872
-0.00311 0.08912 -0.23656
0.29511 0.08912 -0.28649
0.13110 0.08912 0.27240
0.27659 0.08912 0.14360
0.21642 0.12851 0.13679
0.27937 0.02028 -0.31561
-0.26973 0.08912 -0.19264
-0.28863 0.08912 -0.08598
-0.04112 -0.10527 -0.34268
0.29059 -0.07985 0.34268
-0.32127 -0.04848 -0.34046
0.05069 0.08912 -0.24831
-0.04112 0.08912 -0.09289
-0.29769 -0.12955 -0.34268
0.01835 0.08912 0.04236
-0.26185 0.17134 0.14137
-0.30000 0.08912 -0.13578
-0.22844 0.08912 -0.21394
-0.02520 0.01963 0.34268
0.15384 0.12851 0.08084
0.00439 0.12851 -0.17883
-0.17051 0.12851 0.20075
0.23761 0.15476 -0.01192
-0.15020 0.05076 -0.34268
0.14145 0.08912 -0.00380
-0.04125 0.08912 0.12359
0.29284 0.08912 -0.19778
0.09098 0.08912 -0.32672
-0.07559 0.08912 -0.06985
-0.24244 0.14068 -0.00709
0.31222 0.08912 0.18117
-0.31949 0.12851 -0.30987
0.25915 0.12851 -0.19733
-0.29093 0.01131 -0.34268
0.27617 0.08912 -0.06052
0.01172 0.08912 0.23470
-0.16247 0.08912 -0.25665
0.09948 0.05037 0.34268
-0.08608 0.08912 0.03397
-0.13142 0.08912 -0.21259
-0.14970 0.08912 -0.18310
-0.26036 0.15705 0.21458
-0.29426 0.08912 0.03401
-0.03302 -0.12015 -0.34268
-0.27734 0.08912 0.04132
0.06209 0.12851 -0.13568
-0.08192 -0.09919 -0.34268
-0.03628 0.12851 -0.18834
0.15672 0.12851 0.33775
0.28484 -0.04278 -0.34268
-0.32127 0.10854 -0.12074
-0.05847 0.08912 -0.16693
-0.28254 0.07017 0.31601
-0.05406 0.12851 -0.09179
-0.32127 -0.06900 0.33820
0.25878 0.16630 -0.18567
-0.28178 0.08896 0.34268
0.24179 0.08912 -0.30674
0.18597 0.08912 0.15173
0.32127 0.09856 -0.05510
0.09012 0.08912 0.30100
-0.13953 0.12851 0.18387
-0.29184 0.02148 -0.34268
-0.21526 0.12851 -0.25363
0.07115 0.08912 -0.09046
-0.05550 0.08912 -0.33786
0.02621 0.08912 -0.10778
-0.28517 -0.06170 0.32654
0.10262 0.12851 -0.05454
0.11718 0.12851 0.29735
0.28518 0.08912 0.23038
-0.22078 0.12851 0.21093
0.29097 0.12851 -0.16848
0.23761 0.16962 -0.09975
0.10254 0.12851 -0.01278
0.03399 0.08912 -0.15715
-0.31063 0.16358 -0.03834
0.09408 0.08912 -0.17713
0.06630 0.08912 -0.22562
-0.15840 0.08912 0.06414
-0.29280 -0.02144 0.34268
0.28137 0.17134 0.11037
0.13283 0.08912 -0.17476
-0.13390 0.08912 0.28917
0.31981 0.12851 0.11922
0.32101 0.03829 0.34268
0.23761 0.15755 0.13537
-0.14998 0.08912 -0.09176
-0.24729 0.08912 -0.31682
-0.29667 0.08912 0.20820
0.13202 0.08912 -0.05333
-0.07144 0.12851 0.10680
0.32043 -0.05571 -0.28357
-0.26002 -0.01097 -0.34187
0.04447 0.12851 0.15460
0.09691 -0.04316 -0.34268
-0.17711 0.08912 -0.29614
0.03212 0.07484 -0.34268
0.09102 0.08912 -0.04299
0.31173 -0.07701 -0.34268
-0.32127 0.11162 -0.18612
0.32127 0.05894 0.29350
-0.10476 0.08912 -0.02344
0.29813 0.08644 -0.34268
-0.26750 0.12851 -0.28522
-0.15570 -0.00832 -0.34268
0.11051 0.12851 -0.04213
-0.32053 -0.06204 0.29674
-0.30083 -0.14863 -0.31981
0.32127 -0.02433 -0.27853
0.08786 0.08912 -0.18876
0.01349 0.12851 -0.28760
0.24283 0.17134 -0.05134
-0.25848 0.12088 -0.34268
0.03353 0.08912 -0.26073
0.11188 0.12851 0.16139
0.01436 0.12851 0.25736
-0.24244 0.13567 0.25735
0.21792 0.08912 -0.17477
-0.30903 -0.12558 0.34268
-0.26981 0.17134 -0.07254
-0.11750 0.04476 0.34268
-0.32127 0.10851 -0.03275
0.31764 0.12851 -0.19311
-0.13400 0.12851 -0.04829
-0.26422 0.17134 -0.09177
-0.24732 0.08912 0.28358
-0.32127 0.12214 0.13503
0.09754 0.08912 0.30321
0.03163 0.08912 0.30001
-0.08402 0.12851 0.03122
0.29889 0.08758 -0.28025
0.25500 0.04365 0.34268
-0.28367 -0.10862 -0.32888
0.06486 0.08912 0.29580
-0.12158 0.12851 0.17656
-0.12730 0.12851 0.25189
0.03801 0.12851 -0.15838
-0.13359 0.12851 0.21062
0.29815 0.12851 -0.23378
-0.30344 0.12851 -0.29413
-0.09777 0.00338 0.34268
-0.08790 0.08912 0.29183
-0.24244 0.16308 0.09330
0.15353 0.08912 0.33393
0.21518 0.08912 -0.30647
0.30214 -0.10784 0.32058
-0.00544 0.08912 0.14229
0.32127 -0.06220 0.32009
0.08471 0.12851 -0.20058
0.00496 0.12851 -0.11946
0.29666 0.08912 0.20322
-0.03816 0.12851 -0.32948
0.25291 0.15294 -0.20254
0.27983 0.15624 -0.12509
-0.11946 0.08912 -0.16020
0.25077 0.08912 0.05677
0.27901 0.12851 0.16281
0.03050 -0.07020 0.34268
-0.07073 0.07018 0.34268
-0.25683 0.08912 -0.07043
-0.31197 0.03611 0.29505
-0.25400 0.08912 -0.31103
-0.16061 0.10337 -0.34268
-0.12633 -0.10448 0.34268
-0.02549 0.08912 0.03676
-0.10571 -0.06768 -0.34268
-0.28143 0.14022 -0.12752
0.03129 0.02678 0.34268
-0.24776 0.12851 -0.27595
0.21740 0.08912 0.31236
0.14349 0.08912 -0.08748
-0.28844 -0.10008 -0.34268
-0.32127 0.10251 0.17266
0.10105 0.08912 0.01625
0.01071 -0.04366 -0.34268
-0.20398 0.08912 -0.06767
0.22874 0.08912 0.04739
0.01771 0.12851 -0.18443
-0.24244 0.15313 0.14012
-0.00307 0.08912 -0.10203
0.20725 0.12851 0.29002
0.26940 0.08912 -0.16679
0.10988 0.12851 0.33912
-0.26238 0.12851 -0.28212
0.01687 -0.05610 0.34268
0.32127 0.01579 -0.32817
0.29230 0.13862 0.09290
0.18894 0.12851 -0.10168
-0.01808 0.12851 0.10534
0.28127 0.08912 0.10322
0.28351 0.12851 -0.14011
0.07731 0.08912 -0.05363
-0.05500 0.12851 0.26876
0.11282 0.12851 0.28727
0.11383 0.12851 -0.26175
-0.23689 0.10744 0.34268
-0.07679 -0.10980 0.34268
-0.29792 0.12851 -0.31179
0.27355 0.00329 0.32935
-0.20230 0.08912 -0.03772
-0.04149 0.12851 -0.24364
0.01465 -0.02588 -0.34268
-0.10030 -0.11444 0.34268
0.02875 0.12851 0.08265
-0.04839 0.12851 -0.32224
-0.23884 0.08912 -0.06851
-0.30162 -0.17134 -0.33103
0.03111 0.12851 0.17861
0.25057 0.08912 -0.01065
-0.13550 0.09815 0.34268
-0.01181 -0.00564 -0.34268
-0.21202 0.12851 -0.29415
0.06235 0.12851 0.22881
0.02740 0.08912 -0.19450
0.09347 0.12851 0.22519
-0.21631 0.08912 0.23234
0.13502 0.08912 -0.09178
0.11431 -0.02034 0.34268
-0.07178 0.08912 -0.10076
0.10969 -0.04491 -0.34268
0.12636 0.08912 -0.29519
0.15347 0.08912 0.29339
0.06848 0.08912 -0.04001
-0.27529 0.03611 0.32520
0.26797 0.12851 0.23809
0.31943 0.08912 0.25633
0.00132 -0.00365 0.34268
-0.03779 0.08912 0.13024
0.16791 0.12851 0.32974
-0.19107 0.08912 0.25278
0.16035 0.12851 0.16496
-0.03870 0.12851 0.03795
-0.32127 0.09976 -0.02831
-0.30029 0.15413 0.07005
-0.32127 -0.10169 -0.29715
-0.32127 -0.04902 -0.33045
-0.15196 0.09938 0.34268
0.28525 0.08912 0.03128
0.06840 -0.09523 -0.34268
0.28299 -0.01794 0.32460
0.15603 0.12851 -0.20629
-0.32127 0.11047 0.31456
-0.14086 0.12851 -0.24874
-0.24937 0.12851 -0.24996
-0.32127 -0.00719 0.33517
0.00145 0.12851 -0.27065
-0.30184 0.08912 -0.14441
-0.19217 0.08912 0.20316
-0.16141 0.08912 -0.02221
0.15330 0.12851 -0.09040
0.21119 0.12851 -0.10055
-0.29455 -0.05074 0.34268
0.25370 0.08912 -0.31020
0.12692 0.12851 0.28415
0.17402 0.08912 -0.14421
0.12899 0.08912 0.05107
0.09469 0.08912 -0.16742
0.24768 0.08912 0.33785
0.28332 -0.00008 -0.31499
-0.26839 0.08764 0.32573
0.30753 -0.13750 0.31993
0.26421 0.08612 -0.34268
0.25880 0.17134 0.01470
0.01129 0.12851 -0.09713
0.02412 -0.05301 -0.34268
-0.27367 0.05726 -0.31571
-0.07341 0.08745 -0.34268
0.25228 0.08912 0.01692
-0.06610 0.12851 -0.27433
-0.21209 0.12851 -0.14978
0.31201 0.07270 -0.26811
-0.32127 -0.07017 -0.30484
-0.19886 0.12851 0.22484
0.27969 0.12851 0.33514
0.01954 0.08912 0.09225
-0.05461 0.12851 -0.22612
-0.14726 0.08912 -0.26495
0.06245 0.12851 -0.26958
-0.08997 -0.10571 -0.34268
-0.07154 0.08912 -0.11568
0.28404 0.17134 0.12019
-0.24244 0.16375 -0.09511
0.02292 0.08912 0.29233
0.28295 -0.13830 0.33788
0.32127 0.00725 0.32749
-0.16559 0.08912 0.13681
0.08363 0.12851 -0.04175
-0.13693 0.08912 0.24970
-0.23796 0.08912 -0.18677
-0.10204 0.08109 -0.34268
-0.28365 -0.14297 0.33570
0.29996 0.12851 0.31050
0.26728 0.08912 0.14253
0.30310 0.12851 -0.32366
-0.19472 0.08912 0.00503
0.23761 0.13932 -0.04453
0.14988 0.08912 0.25351
0.04232 0.08912 -0.12192
-0.20955 0.12851 -0.12654
-0.32127 -0.10265 -0.30295
-0.32127 0.07668 -0.26174
-0.05408 -0.12031 -0.34268
-0.06464 0.12851 0.07641
0.16154 0.12851 -0.12095
0.26687 0.08912 0.05904
-0.07533 0.08912 -0.22165
0.04161 0.04242 0.34268
0.32127 0.10803 -0.21691
0.29367 -0.09463 0.32528
0.30292 -0.09132 0.31819
0.26798 0.08912 -0.21848
-0.31072 0.15740 -0.03808
-0.15116 0.08912 -0.10044
-0.30693 0.00944 -0.28697
0.28170 0.12851 0.15005
0.17136 0.08912 0.06321
0.24086 0.08912 0.03994
0.12130 0.08912 0.16357
0.32127 -0.08113 0.32313
-0.22939 0.12851 0.09699
-0.10026 0.12851 -0.08447
-0.10960 -0.04129 -0.34268
-0.14185 0.08912 -0.33371
0.32127 -0.12871 -0.31259
-0.16419 0.08912 0.01908
-0.25834 0.17134 -0.15292
0.29171 0.08912 -0.10519
0.11199 0.08912 0.26357
0.18669 0.08912 -0.24078
-0.30753 -0.01980 -0.34268
-0.02781 0.12851 -0.02561
0.26557 0.12851 -0.29208
0.20169 0.12851 -0.19465
0.32127 -0.00175 0.30935
0.01828 0.08912 0.12083
-0.00712 0.12851 -0.24771
0.29334 0.15760 0.08938
-0.28597 -0.09761 0.34268
-0.24244 0.16216 -0.00246
-0.17372 0.12851 0.09649
-0.27840 0.12851 -0.30182
0.11794 0.09152 -0.34268
0.18971 0.08912 0.10601
0.29352 0.12851 -0.14204
-0.27435 -0.06736 0.34268
0.08917 0.12851 -0.31649
-0.02543 0.08912 0.01992
0.19711 0.12851 0.27156
-0.03371 0.08912 -0.19798
0.30329 0.15933 -0.05759
-0.11434 0.12851 0.26952
-0.29658 0.17134 0.08259
-0.22484 0.12851 -0.01348
0.24901 0.08912 0.00017
0.20580 0.12851 -0.28553
-0.27795 0.12851 -0.21367
-0.04247 0.12851 0.33493
-0.24415 0.16393 0.27326
0.21369 0.12851 -0.11384
-0.13483 0.12851 0.25088
-0.10582 0.08911 -0.34268
0.29398 0.08912 -0.17448
-0.05412 0.08912 -0.15378
-0.30716 -0.12284 -0.34268
-0.27021 0.08912 0.15296
0.02858 0.12851 0.14019
0.16775 0.12851 -0.04827
0.24154 0.17134 -0.06569
0.20556 0.08912 -0.13816
0.31403 0.06361 -0.26757
-0.02805 0.08912 -0.28010
-0.12203 0.12851 0.25740
0.15868 0.12851 0.05643
-0.17472 0.12851 -0.21822
0.25434 0.12851 -0.22335
0.28863 0.04726 -0.29991
0.02001 0.08912 -0.23388
-0.15078 0.12851 -0.30998
-0.32127 0.09740 0.33949
-0.09985 0.08912 -0.19532
0.23538 0.09470 0.34268
-0.05935 0.12851 0.00250
-0.27941 -0.16033 0.34268
0.02868 0.08912 -0.29425
-0.19320 0.12851 -0.06766
0.13229 0.12851 0.25097
-0.08188 0.12851 -0.07368
0.14146 0.12851 0.21501
-0.22527 0.12851 -0.30121
0.29773 0.08912 -0.16545
0.22078 0.11211 -0.34268
-0.04870 0.12851 0.27668
-0.15495 0.12851 -0.13716
-0.19211 0.08912 -0.29703
0.10737 0.08912 -0.06739
-0.22413 0.12851 0.28410
0.15733 0.12851 -0.04734
-0.28425 0.17134 -0.06399
-0.04837 0.08912 0.09821
-0.08913 0.12851 -0.24771
-0.28558 0.08912 -0.25730
0.14210 0.12851 -0.04929
-0.10053 0.12851 -0.10934
0.31999 0.02795 -0.34268
0.16388 0.08912 0.27583
-0.30469 -0.10574 -0.34268
0.08199 0.12851 -0.07360
0.25497 0.08912 -0.18039
-0.08636 0.12851 -0.33949
-0.08771 0.12851 -0.04547
0.06306 0.08912 0.04254
-0.02738 0.08912 -0.23819
0.04119 -0.01497 -0.34268
0.01206 0.12851 0.06224
0.11682 0.12851 -0.28303
0.27212 0.12851 -0.24065
0.16779 0.08912 0.15085
-0.17931 0.12851 -0.07130
-0.21366 0.08912 -0.14375
-0.00014 -0.04220 -0.34268
-0.13287 -0.07362 0.34268
-0.32127 0.03674 0.32491
-0.00763 0.12851 0.19245
0.08382 0.08912 -0.02448
-0.11171 0.03281 -0.34268
-0.13837 0.08912 0.30586
0.19516 0.12851 0.08197
0.01937 0.12851 0.21179
0.29544 0.08912 -0.29405
0.00082 0.12851 0.33712
-0.30026 -0.05739 0.34268
-0.24244 0.14493 -0.04253
-0.10440 -0.03700 -0.34268
-0.25578 0.12851 0.24305
0.00250 0.12851 -0.02143
0.01815 0.08912 -0.01402
0.06319 0.08912 0.33127
0.26921 0.17037 0.17165
-0.28697 0.08912 -0.32432
0.28154 0.08912 -0.01487
0.23761 0.16687 -0.21606
0.10193 0.08912 0.16956
0.15211 0.12851 -0.32300
0.05425 0.02102 0.34268
-0.30061 0.16893 0.06888
-0.32127 0.09381 0.23774
-0.24040 0.08912 -0.32478
-0.18632 0.12851 -0.23962
-0.00799 0.12851 0.33008
-0.11256 0.08912 0.17391
-0.22441 0.12851 0.21588
0.13809 -0.11205 -0.34268
0.12174 0.12851 0.01899
-0.01164 0.12851 -0.18568
0.31975 -0.06306 0.34268
0.24882 0.08912 -0.13703
-0.17927 0.12234 0.34268
-0.05877 0.09975 0.34268
0.30895 0.12851 -0.17055
0.13828 0.12851 -0.20373
0.24245 0.12851 -0.31204
0.32127 0.10248 0.07849
-0.32127 0.12717 -0.05770
0.29750 -0.03527 -0.34268
0.32127 0.10385 -0.10746
-0.05442 0.08912 0.28877
0.09690 0.12851 -0.19281
-0.10513 0.12851 0.09400
-0.31338 0.08912 0.26588
-0.30163 0.08912 0.16378
-0.15765 0.12851 0.33643
-0.13824 0.08912 -0.11123
-0.32127 -0.11655 0.31968
0.01912 0.08912 -0.03593
-0.09095 0.12851 0.06715
0.00735 0.08912 -0.12072
0.27391 0.09060 -0.34268
-0.02779 0.08912 -0.05059
0.32127 0.05324 -0.31781
-0.24041 0.08912 0.26079
0.26326 0.08912 0.19477
0.27903 0.06595 -0.34268
-0.25594 0.03921 0.34268
-0.30237 0.14170 0.06253
-0.15433 0.05036 0.34268
0.01620 -0.04108 -0.34268
-0.32127 -0.02418 -0.30674
0.05283 0.12851 0.24138
0.29315 0.08912 -0.11404
0.05299 0.08912 -0.18909
-0.32127 0.10602 -0.07009
-0.29430 0.08912 0.18225
0.01355 0.08912 -0.12308
0.10462 -0.00991 -0.34268
-0.12131 0.12851 -0.19545
0.06748 0.08912 -0.01564
-0.15339 -0.07265 0.34268
0.08812 0.12851 -0.24726
-0.02905 0.08356 -0.34268
-0.32127 0.11507 0.14149
0.27957 -0.11167 -0.34268
-0.01991 -0.03178 0.34268
-0.07850 0.12851 0.00272
-0.05937 0.12851 0.07207
-0.13229 0.08912 0.09479
-0.08689 0.10933 0.34268
-0.24518 0.14418 0.26953
-0.01558 0.08912 -0.00679
-0.00467 0.08912 0.28998
-0.17219 0.08912 -0.10007
-0.17169 0.12851 -0.11990
-0.28202 0.12851 -0.33606
0.14641 0.12851 -0.11622
-0.24821 0.16646 0.25859
0.21934 0.12851 0.03805
-0.32127 0.09379 -0.15113
0.11202 -0.05460 -0.34268
0.02617 0.08661 0.34268
0.20811 0.08912 0.16494
-0.11463 0.12851 0.24998
0.04066 0.08912 -0.08858
0.21446 0.12851 -0.23468
-0.24315 0.16243 -0.24440
0.01712 -0.05259 -0.34268
0.29567 -0.11914 0.34268
0.05185 0.12851 -0.15207
0.00206 0.12851 -0.20178
-0.01935 0.12851 -0.28891
-0.27434 0.08912 0.20378
-0.01867 0.12851 -0.33248
-0.20133 0.08912 0.12786
-0.03672 0.12851 -0.20938
-0.27004 0.12851 0.21357
-0.28646 -0.07747 -0.34268
-0.27497 0.08912 0.16843
-0.14275 -0.00937 0.34268
-0.00198 0.08912 -0.31398
-0.32127 -0.03938 -0.29843
-0.13538 0.08912 0.21490
-0.05073 0.12851 0.21662
0.22870 0.12851 0.18070
0.32115 0.12851 0.25721
-0.02824 0.04169 -0.34268
0.25565 0.17134 -0.12836
0.18615 0.08912 -0.17078
0.08321 -0.07444 -0.34268
-0.26224 0.08912 -0.12013
0.25810 0.08912 0.32068
0.23761 0.13135 0.21469
-0.31611 0.04212 -0.26963
0.28201 -0.00460 -0.34268
0.29993 0.08912 0.18749
0.07577 0.12851 0.05875
-0.13669 0.08912 -0.01746
-0.15834 0.08912 0.21622
0.08644 0.08912 0.13953
0.32127 0.12666 -0.27817
0.29339 0.08912 0.25474
0.22412 0.08912 0.20531
-0.03382 0.08912 -0.01026
0.21194 0.08912 -0.17474
-0.25204 0.08912 0.14788
0.12920 -0.01843 -0.34268
0.15617 0.12851 -0.13659
-0.32127 0.04812 -0.27729
-0.23249 0.08978 0.34268
0.12198 0.02905 0.34268
0.16473 0.08912 -0.16514
0.32089 -0.12701 0.30889
0.04778 0.08580 0.34268
0.23761 0.13725 0.26756
-0.24244 0.14783 0.23334
-0.30196 0.12851 0.22596
0.18862 0.11481 0.34268
-0.26241 0.04360 0.33487
-0.28840 0.08912 -0.33321
0.25513 0.12851 -0.24789
-0.29609 0.17134 -0.03373
0.31158 -0.17134 -0.33780
-0.27489 0.10589 -0.34268
-0.26928 0.13481 -0.16462
0.29444 0.08912 -0.00397
-0.10596 0.08912 -0.28405
0.17122 0.12851 -0.06400
0.31490 -0.01349 0.30045
0.28411 0.08912 0.33598
-0.25228 0.08912 -0.17304
0.02005 0.12851 0.28537
-0.13802 0.08912 0.25561
0.07547 0.08912 -0.22041
-0.31369 0.13928 -0.02900
-0.00600 0.12552 0.34268
0.25819 0.08912 -0.05560
-0.30886 0.03804 -0.27907
-0.28568 0.17134 0.00680
-0.29078 -0.05394 -0.31434
-0.28913 0.12014 0.34268
0.13136 -0.06234 0.34268
0.11021 0.12851 -0.22690
-0.24212 0.12851 -0.32174
0.29036 0.12851 0.19710
-0.07590 0.08912 -0.13247
0.01047 0.12851 0.17871
0.17938 0.12851 0.31835
-0.06074 0.12851 0.13266
-0.14542 0.08912 -0.08659
0.13652 0.09266 -0.34268
-0.22882 0.11030 0.34268
-0.30065 0.12851 0.06966
-0.32127 0.11657 -0.01423
0.32127 0.10160 -0.21356
0.32127 -0.11322 0.33519
-0.29586 0.05486 0.34268
-0.28921 0.12851 0.31995
0.30307 0.00813 0.34268
-0.01029 0.08912 -0.13368
0.05015 0.12851 -0.08595
-0.11185 0.11925 -0.34268
-0.06849 0.08912 -0.16153
-0.26286 0.08912 0.29829
-0.16347 0.12851 0.11595
-0.32127 0.11431 0.29480
-0.28623 -0.04439 0.32394
0.12995 0.12851 -0.22757
0.23761 0.16538 -0.05775
-0.06223 0.08912 0.28849
0.22894 0.12488 0.34268
0.23498 0.08912 0.27341
0.31001 0.12851 0.23930
0.02746 0.08912 0.01392
-0.23327 0.12851 -0.25271
-0.13321 0.08912 -0.08107
0.32127 -0.15529 0.31603
0.02696 0.08912 0.18679
-0.03148 0.00239 -0.34268
-0.29533 -0.13207 0.32449
0.20920 0.08912 0.12267
-0.06695 0.08912 0.33111
-0.01285 0.08912 -0.05540
0.22569 0.12851 0.25457
-0.10912 -0.03290 0.34268
-0.13954 0.12851 0.22049
0.26404 0.17134 0.14024
-0.16375 0.12851 0.24972
-0.11428 0.08912 0.31467
0.32127 -0.14607 0.33936
0.17085 0.08912 0.27933
0.23956 0.08912 0.19595
0.32127 0.07303 -0.27458
0.20714 0.08912 0.17260
-0.16793 0.09810 -0.34268
0.28282 0.13861 -0.11650
0.09965 0.08912 0.32259
0.26454 0.15544 -0.16909
0.05957 0.12851 -0.20274
0.32127 0.10064 0.31975
0.31810 0.04500 0.29137
-0.31520 0.12851 0.05683
0.01590 0.08912 -0.30617
-0.18664 0.08912 0.33709
0.12876 0.12851 0.32882
-0.02920 0.12851 -0.15224
0.28201 0.00127 0.34268
0.01653 0.08912 -0.13834
0.05164 0.08912 -0.33412
-0.29468 -0.14568 -0.32478
0.13579 0.12851 -0.08275
-0.03559 -0.08961 -0.34268
-0.00235 0.12851 0.28377
-0.04088 0.08912 -0.26261
0.13340 0.12851 0.30005
0.08478 -0.11242 0.34268
-0.16300 0.12851 -0.31203
-0.07164 0.08912 -0.22932
-0.27937 0.16371 -0.13380
-0.32127 0.10160 -0.22434
-0.05860 0.12851 -0.12818
-0.09294 0.08912 0.02276
-0.14219 0.12851 0.07819
0.05447 0.12851 -0.04638
-0.04063 0.08912 0.32681
0.28211 0.08006 0.34268
0.18482 0.12851 0.27765
0.29585 0.08912 0.14447
-0.25963 0.08912 -0.01702
-0.30884 0.08912 -0.10152
-0.12253 0.12851 -0.16113
-0.26774 0.12851 -0.29796
-0.28791 0.12851 0.16228
0.00029 0.12851 0.01930
0.32015 0.01157 0.29364
0.30048 0.17134 -0.01915
-0.21169 0.08912 -0.11659
0.30551 0.12851 0.17389
-0.14191 0.12851 -0.04302
-0.28693 -0.12003 0.34268
-0.01892 0.08912 0.07098
-0.25421 0.08912 -0.13423
0.05928 0.11952 0.34268
0.06590 -0.03563 -0.34268
-0.31750 0.12851 -0.04552
-0.03454 0.06507 -0.34268
0.28708 -0.00628 0.34268
0.31431 0.12851 0.14126
0.15770 0.08912 -0.15955
0.11865 0.12851 -0.03962
0.19279 0.08912 0.14978
0.11449 0.08912 -0.33468
-0.03447 0.08912 -0.07042
0.22898 0.08912 -0.07549
0.21337 0.08912 -0.23701
-0.20230 0.08912 0.04546
-0.24322 0.17134 0.21309
-0.09652 0.12851 0.12463
-0.32127 -0.09997 0.30838
-0.28513 0.12851 0.29993
0.05269 0.11289 0.34268
0.13676 0.08912 -0.18404
-0.27937 0.17134 -0.06102
0.18062 0.12851 0.01720
-0.26060 0.12851 0.22541
0.23761 0.15318 -0.14368
0.12673 0.08912 0.17808
0.04717 0.03309 -0.34268
0.18621 0.08912 0.06371
0.32127 0.11639 -0.17896
0.27307 -0.07681 0.33853
0.25561 0.17134 0.20481
0.08355 0.12851 0.23689
-0.29224 0.12851 0.26085
0.06657 0.08912 0.12180
0.32127 -0.14603 0.32798
-0.16881 0.08912 0.05641
-0.04888 -0.02826 -0.34268
0.32127 0.12205 -0.11174
0.02062 0.12851 0.07230
-0.28101 0.12851 0.32241
0.11881 0.12851 -0.00877
-0.30063 0.12851 0.24560
0.23761 0.15734 0.22184
-0.28767 0.12851 -0.12073
-0.31644 0.08912 -0.02592
-0.32127 -0.00125 -0.27467
0.30317 0.00169 0.34268
-0.26113 0.17134 0.19886
0.23761 0.14598 0.08391
-0.25507 0.08912 -0.33306
0.03029 0.12851 -0.05682
0.04244 0.12851 -0.19045
-0.21945 0.08912 0.10145
0.27886 0.08912 0.10904
-0.31903 -0.14744 0.30544
0.13627 0.12851 -0.29268
0.24258 0.17134 -0.16078
-0.04036 0.08912 0.07764
-0.32090 0.12851 0.32798
-0.29469 -0.06278 -0.31223
-0.18069 0.12851 0.20941
-0.30570 0.12989 -0.05339
0.01866 0.03753 0.34268
-0.15687 0.12851 -0.26806
-0.32127 -0.06689 0.30951
0.24707 0.08912 -0.29010
-0.24853 0.08912 0.07099
0.28611 0.12851 0.26761
0.31953 -0.13510 -0.30012
-0.17786 0.12851 0.33095
-0.29738 -0.07026 0.31674
0.25209 0.17134 0.02544
-0.08738 -0.05472 -0.34268
-0.25192 0.17134 0.14785
-0.06065 0.08912 0.30849
0.10458 0.12851 0.12886
-0.28500 0.12851 -0.17792
0.31300 0.08912 0.13436
-0.06108 0.12851 -0.16514
-0.11046 0.08912 0.15641
0.19275 0.09947 -0.34268
-0.31418 -0.13666 0.34268
-0.26744 0.05341 -0.32370
0.28671 0.15531 -0.10530
0.01985 0.08912 0.20740
0.27094 0.17134 -0.13429
0.12615 0.09304 0.34268
-0.28640 -0.15407 -0.34268
-0.13316 0.08912 -0.30448
-0.07376 0.08912 -0.19277
-0.23075 0.12851 0.20571
0.27219 0.13961 0.16149
-0.30414 0.17134 -0.01788
-0.30258 -0.13357 0.31833
-0.24838 0.17134 -0.04463
0.17563 0.12851 0.07450
-0.17764 0.09215 0.34268
0.31416 0.15119 0.01836
0.10436 -0.01988 0.34268
0.01099 0.08912 0.08374
0.26428 0.08912 -0.03199
-0.24244 0.15359 -0.02108
-0.04202 0.08912 -0.02486
0.32127 0.12560 -0.20152
0.24363 0.12851 -0.26579
0.32127 0.10071 -0.18148
-0.20740 0.12851 0.12222
0.10849 0.12851 -0.31676
0.25273 0.12851 -0.22905
0.30828 0.08912 -0.15110
-0.12432 0.08912 0.31456
-0.22024 0.12851 -0.08702
0.31959 0.08912 -0.17620
0.14228 0.10802 0.34268
-0.03090 0.08912 0.10524
-0.26312 0.08912 -0.04232
0.24419 0.08912 -0.02821
-0.06562 0.12851 -0.04265
-0.03116 0.08912 -0.24581
0.20383 0.08912 -0.12991
-0.12488 0.08912 -0.07857
0.01795 0.12851 -0.28191
-0.30830 0.02071 -0.34268
-0.31162 0.08912 0.24924
-0.08282 -0.09005 -0.34268
-0.08592 0.12033 -0.34268
-0.06864 0.08912 0.02566
-0.03338 0.08912 -0.33926
0.30468 -0.05100 -0.30072
-0.32127 -0.03998 0.34035
0.23761 0.12904 0.13723
0.28372 0.15554 -0.11391
0.18493 0.12851 -0.26596
0.18046 0.08912 -0.03936
-0.22051 0.12851 0.26742
0.13806 0.08912 -0.02445
0.11391 0.08912 0.30197
-0.26580 0.04050 -0.32752
0.12303 -0.08973 0.34268
-0.30309 -0.03962 -0.34268
-0.32127 0.12635 0.29933
0.13854 0.12851 0.31942
0.27673 0.17134 -0.08626
-0.00931 0.08912 -0.30559
-0.12713 0.08912 0.03860
0.17614 0.08912 0.13961
-0.12474 -0.12363 0.34268
-0.08193 0.08912 0.19903
0.32127 0.11374 -0.31363
-0.25947 0.08912 0.27955
0.18861 0.08912 -0.18265
0.05606 0.12851 -0.29776
-0.01181 0.12851 -0.03079
0.28802 0.08912 0.03909
-0.32127 0.02361 -0.28333
0.00844 0.12851 0.00847
0.06868 0.08912 -0.10359
-0.29729 0.08912 0.15333
0.28508 0.08912 0.17645
-0.15934 -0.02451 0.34268
-0.07490 0.12851 0.17786
-0.07436 0.12851 0.21311
0.27117 0.08513 0.32215
0.08786 0.12851 0.19684
-0.00325 0.12851 -0.02742
-0.12982 0.08912 0.05543
-0.31697 0.12851 0.11077
0.31159 -0.00916 0.30245
0.29918 0.07241 0.34268
-0.30859 0.08912 -0.24893
0.24398 0.08912 -0.25793
-0.13433 0.12851 0.33830
0.14334 0.08912 0.30350
0.07712 0.12851 -0.02678
0.06531 0.12851 0.24962
-0.21509 0.08912 -0.05727
0.02426 0.09425 -0.34268
0.28040 0.08912 0.16044
0.23033 0.08912 -0.24357
-0.13534 0.08912 -0.32690
-0.09805 0.04767 0.34268
0.17620 0.08912 -0.06190
-0.06003 0.12851 0.05768
-0.16970 0.12851 -0.01125
0.30285 0.17134 -0.02783
-0.26868 0.07144 -0.31961
-0.00559 0.02038 0.34268
-0.06510 0.08912 -0.22717
0.19826 0.08912 -0.25381
-0.11239 0.08912 0.27713
-0.02179 -0.00789 0.34268
-0.28634 0.08912 0.05507
0.31144 0.08912 0.08087
0.23761 0.15411 -0.22543
0.32127 -0.11676 -0.29904
0.30816 0.07582 -0.27191
0.25622 0.12851 0.33327
0.19047 0.08912 0.20986
0.09545 0.08912 0.03683
0.06549 0.12851 -0.17247
-0.11997 0.12851 -0.32666
-0.11911 0.08912 0.14741
-0.03283 -0.03384 0.34268
0.04575 0.12851 -0.01611
0.04193 0.12851 0.30332
-0.27890 0.08912 -0.05738
0.28899 0.13360 0.10422
-0.32127 -0.07081 -0.33544
-0.28838 0.13225 -0.10628
-0.02768 0.08912 -0.01672
-0.21477 0.12851 -0.21806
0.07914 0.12851 -0.09099
-0.28569 0.01407 0.31877
0.26601 -0.05178 0.34109
-0.31512 0.07223 -0.26492
0.18035 0.08912 -0.29151
-0.29322 0.17134 -0.00072
-0.07968 0.12851 0.08111
0.01404 0.01119 0.34268
-0.03578 -0.06357 -0.34268
0.32117 -0.09366 0.30487
0.29078 0.12959 0.09808
0.24099 0.16738 -0.23686
-0.06020 0.08912 -0.33069
0.31182 0.08912 -0.07681
0.23761 0.13143 -0.03941
0.24360 0.17134 0.13911
0.22175 0.12851 0.11613
0.00825 -0.03576 0.34268
0.04442 0.12851 -0.25210
-0.27815 -0.04543 -0.32521
-0.06881 0.12851 -0.24509
-0.27629 -0.12924 -0.34268
-0.17683 0.08912 0.23750
0.28974 -0.12141 -0.33107
0.04353 0.00781 0.34268
-0.21909 0.08912 -0.18285
0.31331 -0.06664 0.30772
0.10766 0.12851 0.32304
-0.01558 0.08912 0.08776
0.32127 0.09540 0.01352
-0.25941 0.17134 0.15132
-0.10710 0.12851 -0.01326
-0.22106 0.12851 -0.00320
-0.13451 -0.03120 -0.34268
-0.11638 0.08912 0.01558
0.23619 0.12851 0.06290
-0.20536 0.08912 0.16967
0.22526 0.12851 0.03128
0.08796 0.08912 0.17556
-0.30232 0.08912 0.21715
-0.12394 0.08912 -0.04691
0.06361 0.08498 0.34268
0.08059 0.12851 0.00073
0.26346 0.08912 0.24673
0.03876 -0.04702 0.34268
-0.28466 0.12851 -0.16880
0.25276 0.17134 0.21604
-0.32127 -0.02480 0.32571
-0.27887 0.08912 -0.06510
0.29927 -0.17134 0.33955
-0.07197 0.08912 0.25017
0.27154 0.08912 0.25244
0.04288 0.12851 -0.28715
0.20192 0.08912 0.01728
-0.20883 0.09040 -0.34268
-0.31435 0.05611 -0.34268
-0.14428 0.08912 0.23748
-0.16217 0.08912 -0.04466
0.29669 0.08912 0.06192
0.06604 -0.01166 -0.34268
0.05175 0.12851 -0.02555
-0.06954 0.08912 0.07042
0.23761 0.14199 -0.22402
0.26153 0.12851 0.21335
-0.19687 0.08912 0.01996
0.29551 0.12851 0.32050
0.10066 0.08912 -0.27595
-0.24244 0.15187 0.13002
0.24394 0.17134 -0.08513
-0.30430 0.01443 0.30314
0.06839 0.12851 -0.00898
0.29969 0.14223 -0.06795
0.20497 0.08912 -0.21126
0.23733 0.09421 -0.34268
0.32127 0.09409 0.33254
0.24066 0.15279 0.26906
-0.27591 0.08912 0.09913
0.08629 0.08912 0.21471
0.26726 0.12851 0.32237
-0.10536 0.08912 -0.26272
-0.16598 0.08912 -0.19141
-0.14087 0.12851 0.11075
0.16703 0.12851 -0.12808
0.08588 -0.10590 0.34268
-0.24244 0.15341 0.11245
0.23036 0.12851 0.30455
-0.29035 0.08912 0.24834
0.07827 -0.09687 -0.34268
-0.18470 0.12851 0.29910
-0.21213 0.12686 -0.34268
-0.27071 0.08912 -0.08627
-0.28078 0.12851 0.29524
-0.30875 -0.15002 -0.31303
-0.26858 0.17134 -0.10194
-0.16845 0.12851 0.01132
-0.32127 -0.01226 0.31244
0.15304 0.08912 -0.23529
0.30514 -0.16029 -0.34268
-0.03132 0.12851 -0.06051
0.08173 0.12851 0.03949
-0.04929 0.12851 0.06397
0.06558 0.08912 -0.07404
0.23761 0.14388 0.27610
0.09180 0.08912 -0.12051
-0.08805 0.08912 -0.02780
0.00919 0.05684 0.34268
0.20431 0.11934 -0.34268
0.32127 0.11779 0.17815
0.23761 0.13123 0.16311
0.27389 0.13777 0.15572
-0.10537 0.12851 0.18235
0.24664 0.08912 -0.26757
-0.09841 0.12851 -0.21228
-0.08561 0.12851 0.18236
-0.32127 0.11037 -0.04002
-0.14350 0.08912 -0.05143
0.32127 0.10889 -0.08426
-0.29332 0.12851 -0.15849
0.12426 0.12851 -0.06078
-0.17610 0.10612 0.34268
-0.31482 0.12851 0.13567
0.31571 0.08912 0.16627
0.10157 0.12851 -0.18959
0.30099 0.08912 -0.31100
0.02454 0.08912 -0.01303
-0.26441 0.07135 -0.34268
0.09349 0.12851 0.02356
-0.09889 0.06618 0.34268
0.20379 0.12851 -0.06951
0.32127 0.10898 -0.04565
0.07078 0.01995 -0.34268
0.03453 -0.09792 -0.34268
0.23175 0.08912 -0.25702
0.23761 0.14683 -0.11962
0.00402 0.12851 -0.02961
0.06809 0.12144 0.34268
-0.27485 0.12851 -0.25583
0.26825 0.08912 -0.12245
0.28991 0.03759 -0.30033
0.31274 -0.11261 -0.30352
-0.10252 0.12851 0.21604
0.11257 0.12851 -0.09206
-0.30118 -0.13720 0.34268
-0.09839 0.08912 0.25809
0.14811 0.08912 0.01270
0.03307 0.05124 0.34268
-0.27954 0.06847 0.34268
0.10915 -0.11810 0.34268
-0.08863 0.12851 0.25017
0.27532 0.08912 -0.31833
0.12367 0.12851 0.25006
-0.31495 0.08912 0.18247
-0.00053 0.08912 -0.06017
0.29892 0.12851 0.28908
-0.09684 0.08912 0.20477
-0.09261 0.12851 0.13662
-0.02453 0.08912 -0.18788
0.28592 -0.12114 -0.33533
-0.24244 0.14598 -0.13895
0.02973 0.08912 -0.20218
-0.29710 0.07349 0.30378
-0.31948 0.00254 0.29193
-0.00670 0.12851 0.04648
-0.28228 0.08225 -0.30181
0.20019 0.12851 0.33702
0.23761 0.16906 -0.00992
0.04773 -0.05143 0.34268
0.12163 0.12851 -0.15212
-0.28331 -0.13262 0.33500
0.27007 0.13634 0.16875
-0.13332 0.04300 -0.34268
-0.11887 0.12851 0.00365
-0.04482 0.08912 0.22495
0.00924 -0.02732 0.34268
0.11087 -0.04097 0.34268
-0.00622 -0.06093 -0.34268
-0.16589 0.12851 -0.24186
0.32127 0.11346 -0.24116
0.12635 -0.07704 0.34268
0.22321 0.12851 0.29527
-0.32127 0.11779 -0.02592
-0.09728 0.08912 0.27758
-0.13729 0.12851 0.26339
0.32127 0.12786 -0.32271
0.24802 0.07058 -0.34190
0.09938 0.12851 0.20416
-0.27224 -0.07710 -0.33685
-0.29325 -0.13888 -0.34268
-0.01884 0.08912 -0.19348
0.11580 0.12851 -0.11074
-0.24244 0.16638 0.11068
0.24926 0.17134 -0.00520
0.06984 0.08912 -0.15397
-0.02046 0.08912 -0.27950
0.32127 0.10336 0.09653
0.21757 0.12851 -0.25697
0.30248 0.08912 -0.06453
0.13594 0.06209 0.34268
0.24908 0.08912 0.22545
0.10526 0.08912 0.06153
-0.24849 0.17134 0.17153
0.13492 0.08912 0.30784
0.32127 0.10002 0.04311
0.22021 0.08912 -0.11774
0.27170 0.13953 -0.14850
-0.31130 0.15155 0.03018
-0.23120 0.08912 0.30705
0.30220 0.08912 0.26944
-0.28876 0.10004 -0.34268
-0.27394 0.12851 0.24852
0.16521 0.08912 0.18946
0.04631 -0.03333 -0.34268
-0.12267 0.12851 0.20116
-0.24219 0.08912 0.19224
0.29457 -0.14680 -0.33052
0.28946 -0.08885 -0.34268
-0.00500 0.12851 -0.28186
-0.09103 -0.12130 -0.34268
-0.04535 0.12851 0.01725
0.14040 0.12851 -0.27018
-0.27437 -0.01934 -0.34268
0.29364 0.08912 -0.13201
0.17322 0.12851 0.00246
0.29484 -0.10993 0.34268
0.24437 0.17134 0.07710
0.12715 0.12851 0.07530
0.30626 0.11011 -0.34268
0.06983 0.12851 -0.09901
-0.19549 0.12851 -0.01042
0.13832 0.12851 -0.16870
0.30171 0.12851 0.18237
0.30750 0.16215 0.04109
0.08120 0.02737 -0.34268
0.11502 -0.07219 0.34268
0.15151 0.08912 -0.07289
0.17962 0.12851 0.25798
0.32127 0.11246 -0.00114
-0.01882 0.12851 -0.15162
-0.15160 0.12851 -0.27549
0.29218 -0.07314 0.34268
0.06022 0.12851 0.03250
0.29340 0.00664 -0.30235
0.02392 0.06034 -0.34268
0.30413 0.12851 0.26054
0.12921 0.03243 -0.34268
0.31280 0.08912 -0.21644
-0.09494 0.11979 -0.34268
-0.20162 0.12851 0.19394
-0.32127 0.09326 -0.34247
-0.27787 0.12851 -0.17553
0.27176 0.05599 -0.31746
-0.05010 0.12851 -0.06205
-0.02697 0.08912 -0.21761
0.20022 0.12851 0.09179
-0.04016 0.06364 -0.34268
-0.09231 0.12851 0.12061
-0.26573 0.05363 0.34268
0.03028 0.08912 -0.27620
-0.18976 0.12851 -0.02120
0.25747 0.06672 -0.33179
-0.15377 0.08912 0.25637
-0.17639 0.08912 -0.07000
-0.15353 0.12851 -0.24215
-0.16089 0.08912 0.28925
0.23761 0.13590 0.26024
0.01079 0.08912 0.30804
0.28119 0.08912 -0.14457
-0.32127 0.11825 0.26530
0.32127 0.11845 -0.31948
0.05818 0.08912 0.09062
0.17049 0.12851 0.14470
-0.18250 0.12851 0.05822
0.28702 0.14499 0.11094
-0.05380 0.12851 0.11045
-0.24244 0.13265 -0.22365
-0.29925 0.12851 0.17818
-0.22673 0.12851 -0.05645
0.15169 0.08912 0.31750
-0.17595 0.08912 -0.24163
-0.24226 0.12851 -0.19396
0.31701 0.08912 -0.11485
-0.30779 0.12851 0.26219
-0.13387 0.12851 -0.17215
-0.15706 0.08912 -0.10724
-0.13202 -0.12368 -0.34268
-0.28718 0.12851 -0.12938
0.28073 -0.10574 0.33593
-0.25516 0.06460 0.33866
0.22939 0.12851 -0.09849
0.03271 0.08912 -0.23439
-0.09868 0.08912 0.05569
-0.12853 -0.00189 0.34268
-0.08823 0.08912 -0.13607
0.15069 0.08912 0.06824
-0.04641 0.12851 -0.17574
0.20504 0.12851 -0.17107
-0.28738 0.03842 -0.30337
-0.31850 0.08912 -0.23420
0.03642 -0.12163 -0.34268
0.25457 0.16433 0.22159
0.28466 0.08912 -0.07161
-0.11201 0.12851 0.07394
0.21605 0.08912 0.23122
0.18488 0.08912 0.01758
-0.14267 -0.10161 -0.34268
0.10243 0.01100 -0.34268
-0.29258 0.08912 -0.05816
-0.07495 0.12851 0.30168
-0.32127 0.09846 0.30700
0.11582 0.12851 -0.14784
0.07702 0.08912 0.21087
-0.24834 0.08912 0.31096
0.09815 0.12851 -0.11169
0.29307 0.01920 0.34268
-0.26076 0.08912 0.19944
-0.23817 0.09850 -0.34268
0.01026 -0.01850 0.34268
-0.15654 0.03449 0.34268
-0.09443 0.12851 0.14737
-0.00851 0.12851 -0.27396
0.24797 0.08912 -0.29590
-0.25760 0.17134 0.13291
0.23722 0.08912 0.24280
-0.09900 0.12851 -0.07792
0.32127 0.09554 0.23013
-0.17224 0.12851 0.14353
0.05590 0.08912 0.18647
-0.05297 -0.00830 -0.34268
-0.24244 0.16232 0.01088
0.07778 0.08912 -0.01628
0.04851 0.08912 0.31295
-0.28539 0.09421 0.34268
0.02282 0.12851 -0.33469
-0.25450 0.14103 0.23579
0.14280 0.12851 -0.01100
0.30856 -0.00004 0.34268
-0.30836 0.17134 0.03560
-0.00279 0.12851 0.26866
0.04379 0.08912 0.12299
0.21166 0.12851 0.16631
-0.16244 0.12851 0.05209
0.29352 -0.08765 -0.32033
-0.25511 0.17134 -0.08428
0.19653 0.08912 0.13381
-0.08131 -0.07752 -0.34268
-0.03125 0.12851 0.07220
-0.08927 0.08912 0.09597
0.32127 -0.10142 0.31560
0.08417 0.08912 -0.10816
-0.04903 0.08912 0.11388
0.08423 0.08912 -0.08820
0.00847 0.12851 -0.14641
0.07324 -0.01427 -0.34268
-0.32127 0.11094 -0.29694
-0.03750 0.07277 -0.34268
0.11447 0.08912 0.27285
-0.03613 0.12851 0.14381
-0.17903 0.08912 0.18915
0.32127 0.04633 0.30375
0.30486 0.14514 -0.05308
0.15849 0.12851 -0.14652
0.22152 0.08912 0.12339
0.31718 0.07908 -0.34268
-0.13315 0.09869 -0.34268
0.27509 -0.10634 0.34268
-0.17929 0.08912 0.26139
0.27363 0.08005 0.32086
0.16047 0.08912 0.00296
0.10230 0.08912 -0.14815
-0.31989 0.08912 -0.17993
-0.05312 0.12851 0.07274
0.23954 0.17134 0.04074
0.00318 0.08912 0.15326
0.30165 -0.17134 -0.33558
-0.32127 0.10988 -0.20189
-0.08767 -0.04333 -0.34268
0.23761 0.14265 0.16995
0.09158 0.08912 0.06336
0.24166 0.08912 0.27527
0.14720 0.12851 0.20078
-0.30172 -0.06409 0.34268
-0.08147 0.08912 0.02295
0.16482 0.08912 0.12731
-0.20495 0.12851 -0.00063
0.19271 0.08912 0.30007
0.18537 0.12851 0.29901
0.14861 0.12851 -0.29728
0.16993 0.08912 -0.09917
0.31262 0.12851 -0.34092
0.00545 0.08912 -0.27595
-0.00791 0.08912 0.08292
-0.32127 0.12359 -0.33846
-0.19753 0.08912 0.33077
-0.20541 0.08912 0.12146
0.08591 0.12851 -0.26206
-0.25908 0.08912 -0.22162
-0.32127 0.02536 0.32089
0.29022 -0.07202 -0.32104
0.03844 0.08912 -0.00189
0.06221 0.12851 -0.26151
0.29000 0.12851 -0.18050
-0.29325 -0.13300 0.34268
0.29531 0.14918 -0.08055
-0.04455 0.08912 0.01956
0.17500 0.12851 0.15596
-0.32127 -0.03900 -0.33657
-0.08660 0.12851 -0.19213
-0.11216 0.12851 0.33090
-0.27022 0.15137 -0.16175
0.28666 -0.17134 0.34199
0.10088 0.12851 -0.18268
-0.26528 0.17134 0.08670
-0.30651 0.12851 0.08002
0.06442 0.08912 0.28897
0.11382 0.12851 -0.05528
0.00565 0.12851 0.11728
-0.32127 0.02013 -0.29418
0.29907 0.08912 -0.12691
0.13457 0.08912 -0.14604
0.32127 0.10608 0.20542
0.23761 0.13529 -0.09668
-0.25734 0.08912 0.05829
0.23761 0.16189 -0.04727
0.04746 0.12705 -0.34268
-0.01549 -0.01569 -0.34268
-0.06335 0.08912 0.24390
-0.17154 0.08912 0.27793
-0.32127 0.05295 -0.31282
-0.31581 0.02161 0.34268
-0.02441 0.12851 -0.16914
-0.07515 0.08912 0.14121
-0.09944 0.08912 -0.18825
-0.28116 -0.08628 -0.34268
0.14877 0.12851 0.26982
0.13956 0.12851 -0.10580
0.18858 0.08912 -0.05578
-0.04536 0.08912 -0.00022
-0.00304 0.00049 0.34268
0.12716 0.08912 -0.33072
-0.13829 0.08912 0.23401
-0.01782 0.08912 0.10017
-0.30848 -0.16371 -0.34268
-0.26450 0.08912 0.05329
-0.22077 0.08912 0.06749
-0.20582 0.12851 0.29953
-0.25922 0.08912 0.25789
0.27970 0.08912 0.05476
0.19381 0.12851 -0.16890
0.12857 -0.05629 -0.34268
-0.30613 -0.10508 0.34268
-0.32127 0.09025 -0.01853
-0.29355 -0.10589 -0.31976
-0.02623 -0.03832 0.34268
-0.01934 0.08912 0.14525
0.32127 0.09578 -0.02745
0.32127 -0.05767 -0.31675
0.05259 0.12851 -0.20910
-0.23960 0.08912 0.11302
-0.07206 0.12851 -0.26422
0.13669 -0.07643 -0.34268
-0.24244 0.12941 -0.04752
-0.30687 0.12851 -0.31985
0.10075 0.00483 -0.34268
-0.31102 0.12851 0.28094
0.25619 0.12851 0.29739
0.17344 0.12851 -0.11050
0.02399 0.12851 -0.16045
0.29993 0.15447 -0.06726
-0.27820 0.08912 -0.17639
-0.05880 0.08912 -0.10825
0.25821 0.08912 -0.15616
-0.30995 -0.11075 -0.34268
-0.14396 0.12851 0.02672
-0.02398 0.08912 0.33170
0.32127 -0.08474 -0.32534
-0.27233 0.12851 0.32282
-0.29834 0.08912 0.00845
-0.28127 0.08912 -0.13245
0.00307 0.12851 0.27315
-0.08745 0.07462 -0.34268
-0.32127 0.10036 -0.08639
-0.26648 -0.01800 -0.34268
-0.09008 0.12851 -0.03349
0.23633 0.12851 0.20400
-0.29274 0.14994 0.09737
0.28514 0.17134 -0.02565
0.26349 -0.03671 0.34268
-0.29961 -0.16872 0.34268
0.09868 0.12851 -0.04118
0.01101 0.08912 0.12194
-0.20961 0.12851 0.19491
-0.31364 -0.03243 -0.28716
0.00371 0.12851 0.20392
-0.09760 0.10313 -0.34268
-0.20299 0.12851 -0.14260
0.03684 0.08912 -0.23923
-0.13009 0.12851 0.05115
-0.29819 -0.08411 0.31738
-0.10426 0.12851 -0.07577
-0.10284 0.01437 -0.34268
-0.25755 0.08912 0.18302
0.30673 0.08912 0.05563
0.11799 0.08912 -0.05317
0.13448 0.08912 0.23686
0.08645 0.12851 0.14007
0.12772 0.11956 -0.34268
0.30917 0.14243 -0.04066
0.25419 0.08912 0.09163
0.15613 0.12851 -0.08459
-0.21404 0.08912 0.05080
0.27976 0.14214 -0.12529
-0.13202 0.08912 0.33207
0.06391 0.12851 0.27015
-0.14799 0.08912 0.27519
0.32127 0.12841 -0.05504
-0.31019 -0.12966 -0.30869
-0.23546 0.12851 -0.03558
0.26521 0.04607 -0.32689
0.07185 0.12851 -0.13073
-0.30636 0.04538 0.29877
0.12803 0.08912 0.10191
-0.12280 0.12851 0.05461
0.32127 -0.06983 -0.28660
-0.00516 0.08912 -0.17716
0.21205 0.12851 0.07964
0.26188 0.05801 0.33213
-0.16644 0.12851 -0.08920
0.16149 0.12851 0.12587
-0.04896 0.12851 0.14918
0.14989 0.08912 -0.14529
0.25180 0.15838 -0.20575
0.07862 -0.10604 0.34268
0.23753 0.08912 -0.25596
0.00758 -0.01165 -0.34268
-0.32127 0.04737 0.32359
0.20847 0.08912 -0.12456
-0.14458 0.12851 -0.33869
0.22830 0.12851 -0.12349
-0.18555 0.12851 0.20464
0.32127 -0.09130 -0.32821
0.12453 0.12851 0.11885
0.20366 0.12851 0.17777
-0.10683 0.08912 0.18666
0.26691 0.02016 -0.34268
0.31126 -0.04180 -0.34268
-0.14962 0.12851 -0.14823
-0.01137 0.12851 0.14099
-0.21600 0.12851 0.03053
0.27218 0.08912 0.22251
0.09889 0.12851 -0.07223
-0.24251 0.17134 0.13276
-0.30296 0.12851 0.25578
0.16604 0.12851 0.01090
-0.27650 0.09267 -0.34268
-0.08860 0.08912 0.17510
0.10295 0.01082 0.34268
-0.06869 -0.02169 0.34268
-0.24268 0.15456 -0.24585
-0.12477 0.12851 -0.03072
0.29964 0.12851 -0.19510
-0.31082 0.12851 0.07132
0.24053 0.08912 0.15100
0.08333 -0.07972 0.34268
0.25065 0.17134 0.15013
0.29498 -0.15908 -0.34268
0.18763 0.12851 -0.21967
-0.27102 0.08912 -0.33017
-0.10591 0.08912 0.03312
-0.17171 0.08912 -0.21325
0.06147 0.08912 0.31126
-0.31328 -0.08708 -0.29828
0.27605 0.08912 0.23474
0.09869 -0.05507 0.34268
0.23761 0.15835 0.07022
0.00497 0.12851 -0.19136
0.30185 0.06602 -0.28106
-0.17591 0.08912 -0.26821
0.23160 0.08912 0.23721
-0.08196 -0.12108 -0.34268
0.08929 -0.07955 0.34268
0.24882 0.12851 -0.29076
0.23761 0.12990 -0.16435
0.30254 0.02088 -0.28911
0.24165 0.17134 0.15114
0.09191 0.12851 -0.16069
-0.31749 0.08912 0.30442
-0.06288 -0.02731 -0.34268
-0.26760 0.08912 0.20014
-0.18651 0.12851 0.23951
0.28080 0.08912 -0.19034
0.00000 -0.00513 -0.34268
-0.32127 0.10488 0.24730
-0.25667 0.08390 0.33556
-0.06965 0.08912 0.15450
-0.25513 0.17134 -0.18475
-0.18739 0.08912 0.28421
-0.17283 0.08912 0.12482
0.14459 0.12851 -0.20067
0.20900 0.08912 0.28658
-0.18058 0.08912 -0.00124
-0.08723 0.08912 -0.07870
0.32127 0.09855 0.08578
-0.32127 -0.07741 0.32300
-0.17377 0.11446 0.34268
0.26297 0.17134 -0.09132
-0.30297 0.05715 0.30047
0.21042 0.08912 0.08921
0.04060 0.08912 0.17360
0.21125 0.08912 0.27824
0.27230 0.12735 0.34268
-0.32127 0.12117 -0.07832
-0.19097 0.12851 -0.29745
0.21165 0.12851 0.08545
0.12525 0.11298 0.34268
-0.16558 0.12851 -0.14539
-0.32127 0.05931 -0.29166
-0.27667 -0.01399 0.32899
0.05983 0.08912 -0.08846
-0.06134 0.02130 -0.34268
0.02603 0.08912 -0.23176
0.12926 0.12851 -0.06983
-0.30554 0.08912 0.11386
0.28235 0.17134 -0.09002
-0.00585 0.09480 -0.34268
0.28252 0.05424 -0.30545
-0.09356 0.12851 -0.02540
-0.29163 0.15535 0.10140
-0.08492 0.12851 0.21885
-0.04368 0.08035 0.34268
0.32127 0.06716 -0.31508
-0.15214 0.12851 0.04361
-0.05071 0.03958 0.34268
0.24061 0.08912 -0.13855
0.21545 0.12851 -0.06753
-0.10956 0.12851 -0.05264
0.18332 0.12851 -0.04144
0.16089 0.08912 0.26415
-0.04086 0.08912 -0.00804
-0.06456 0.10017 0.34268
-0.12058 0.12851 0.02465
0.27919 0.17134 0.04158
0.10139 -0.02580 -0.34268
0.06854 -0.00200 -0.34268
-0.32127 -0.11840 -0.31638
0.25723 0.08912 -0.20869
-0.01729 0.12851 -0.08117
0.26663 0.17134 -0.02275
0.32127 0.00295 -0.28386
-0.32127 0.12775 -0.25001
-0.18642 0.12851 -0.25823
0.19687 0.10923 0.34268
0.30213 0.15700 0.05938
0.31349 0.08912 0.06727
0.01858 0.12851 0.20559
-0.32127 -0.11194 0.32446
0.05347 0.12851 0.32333
-0.06128 0.12851 -0.14586
0.24039 0.08912 0.31670
-0.24244 0.14625 0.16423
-0.05167 0.05005 -0.34268
-0.30257 0.02194 -0.28973
-0.27867 0.12851 -0.14390
-0.32127 0.08465 0.31898
-0.28662 0.08133 -0.29716
-0.02506 0.12851 -0.28040
-0.00428 0.03339 0.34268
0.32127 0.10133 0.25453
-0.25906 0.13852 -0.19583
0.31737 -0.01351 -0.27882
0.04194 0.08912 0.21573
-0.00455 -0.10642 -0.34268
-0.18790 0.09218 -0.34268
-0.15260 0.12851 -0.34039
0.07227 0.08912 0.07505
-0.30548 0.08784 0.34268
0.28079 0.08912 -0.33226
0.27365 0.00794 -0.32455
-0.01847 0.12851 -0.23340
0.08966 0.12851 -0.34214
-0.23583 0.08912 0.25275
-0.24041 0.12851 0.22414
0.26672 -0.02469 0.33758
0.29407 -0.05029 0.34268
-0.23756 0.08912 0.01007
0.03508 0.08912 0.07437
-0.24701 0.13368 0.26291
0.07527 0.12851 -0.13558
0.00488 0.12851 0.25376
0.22123 0.12851 0.12922
0.31467 -0.16116 -0.34268
0.10195 0.10587 0.34268
-0.07240 0.01436 0.34268
0.24649 0.12851 0.31085
-0.26001 0.08912 0.21566
-0.30497 0.12851 0.05639
-0.32127 0.08939 0.14334
-0.24244 0.16212 -0.22340
-0.17722 0.08912 -0.30502
-0.26573 0.08912 0.02785
0.32127 0.10755 0.15819
-0.02920 -0.09974 0.34268
0.23761 0.14111 0.19437
0.01733 0.08912 0.01563
0.18162 0.08912 0.28819
-0.28314 0.03741 0.31873
0.14036 0.08912 0.17771
0.20157 0.08912 -0.19519
0.03061 -0.01413 0.34268
-0.32127 -0.16088 -0.32187
-0.01474 0.11875 -0.34268
0.13341 0.08912 0.09081
-0.32127 0.12504 0.24933
-0.03343 0.08912 0.18833
0.27635 0.15047 -0.13512
-0.03494 0.12851 0.04842
0.03837 0.12851 -0.32201
-0.08681 -0.04255 0.34268
-0.28275 0.15929 -0.12349
0.24734 0.17134 0.23649
-0.03800 0.12851 -0.05824
-0.27126 0.08912 -0.23936
0.30055 0.14698 0.06478
0.11274 0.12851 0.07414
0.23761 0.12912 -0.11007
-0.19344 0.12851 0.06071
-0.18689 0.12851 0.26087
0.24902 0.15864 0.24052
-0.27883 0.08912 0.23282
0.23761 0.14376 0.01423
-0.24965 0.08336 0.34127
0.31623 0.08912 -0.20508
0.31733 0.08912 -0.18297
-0.29772 0.17134 0.02075
-0.25895 0.15798 -0.19616
-0.03463 0.02363 0.34268
-0.31148 0.12851 -0.05486
-0.19040 0.08912 0.03556
-0.32127 0.03798 -0.31131
0.14810 0.12851 0.03323
0.21767 0.12851 -0.08160
-0.29343 -0.02341 0.31565
0.29644 0.13012 0.07879
0.31462 -0.02267 0.34268
0.23842 0.08912 0.13274
-0.05498 -0.10013 0.34268
-0.32127 -0.14732 0.31318
0.32127 -0.04457 -0.33346
-0.08577 0.02658 0.34268
-0.30942 0.08912 0.31099
0.12265 -0.11304 -0.34268
0.05523 0.05094 -0.34268
-0.16112 0.12851 -0.21634
-0.18899 0.12851 0.27190
0.08848 0.12851 -0.21279
0.18732 0.12851 -0.24272
0.29608 0.12851 -0.31114
-0.08408 -0.06618 -0.34268
0.32127 -0.03830 -0.29023
-0.14655 0.12851 -0.06095
-0.32127 -0.12216 -0.29657
-0.08492 0.01448 0.34268
0.30317 0.12851 0.29678
-0.26966 0.12851 -0.20101
0.23761 0.16365 0.20392
-0.13832 0.05757 0.34268
0.32127 0.07116 0.34247
0.30825 0.10795 0.34268
-0.07323 0.08912 -0.15615
0.06058 -0.08215 0.34268
0.26424 0.08912 -0.24623
-0.01651 0.12851 0.05900
-0.20099 0.11524 -0.34268
-0.02968 0.12851 -0.32755
-0.32127 -0.03557 -0.32137
-0.22116 0.08912 0.33610
-0.10405 0.12851 0.33015
-0.10872 0.12851 -0.17802
0.16406 0.08912 0.17127
0.32127 -0.04996 0.30455
