0.09247 -0.08555 0.19571
0.17916 -0.20060 0.19962
0.09173 -0.08555 -0.18944
0.08876 -0.06922 -0.18853
-0.19432 0.23722 -0.03354
-0.18555 -0.18085 0.12887
-0.19625 -0.26724 0.13393
-0.15898 0.06014 0.09611
-0.15353 -0.21885 -0.12888
0.17418 -0.28311 0.12887
-0.20157 0.04714 0.15935
-0.16439 0.27441 0.12727
0.00404 0.01147 0.05108
0.06191 0.01147 -0.08031
-0.14839 -0.30473 -0.14420
0.09398 -0.07760 0.19962
0.13730 -0.09788 0.13258
-0.19498 0.15647 -0.10858
0.19035 -0.02367 0.19151
-0.12588 0.03366 -0.05084
-0.20275 0.38700 0.17499
-0.19512 0.15138 0.13017
-0.14839 -0.30065 -0.13657
-0.08115 0.01147 -0.19140
-0.17303 0.05172 0.19962
0.16066 -0.22307 0.12887
-0.07442 0.03366 -0.15475
-0.11953 -0.06750 0.19962
-0.16081 0.22851 -0.14625
0.13730 -0.29692 -0.19009
-0.15816 0.08553 -0.03897
-0.00486 0.03366 0.00985
-0.19512 -0.07630 -0.12888
-0.18529 0.08621 -0.19962
-0.18532 0.05867 -0.19962
0.18327 -0.14761 -0.16480
-0.19429 0.23360 -0.08759
0.03256 0.01147 0.19439
-0.09634 0.03366 -0.06826
-0.16221 0.04624 -0.19962
-0.17659 -0.02750 0.12887
-0.19563 0.13756 -0.15153
-0.09584 0.01147 -0.01391
-0.14839 -0.21268 -0.16884
0.15487 -0.27383 0.19962
0.19408 -0.38546 -0.15302
-0.17047 0.33003 -0.04430
0.15514 0.01147 0.11407
-0.15781 0.10000 -0.01361
-0.04723 0.01147 -0.05622
-0.17160 0.33886 -0.08583
0.16655 -0.18472 0.12887
0.13052 0.01147 -0.07446
0.15628 -0.39123 0.19962
-0.15948 -0.07185 0.10134
-0.14839 -0.29737 -0.14407
0.08869 0.03366 -0.15335
0.07354 0.03366 0.13653
-0.14839 -0.12756 -0.17399
-0.14839 -0.04225 0.13318
0.01235 0.03366 -0.14983
-0.19671 -0.08841 -0.19673
-0.14839 -0.01983 0.19430
0.14124 -0.04119 -0.07324
-0.17323 -0.13602 0.19962
0.13880 -0.03025 -0.19962
-0.20252 -0.35152 0.15341
-0.15759 0.13072 -0.00578
-0.15789 0.15932 -0.12991
-0.17624 -0.04070 0.19962
0.16955 -0.28717 0.12887
-0.17752 0.37991 0.02427
0.18630 0.03366 0.11958
0.11424 0.01997 -0.19962
-0.19600 -0.10334 0.17700
0.13730 -0.07612 0.12334
0.17244 -0.27868 0.19962
0.13023 0.02881 0.19962
-0.19419 0.22328 0.06452
0.05695 0.03366 0.09514
0.13730 -0.38039 -0.18046
-0.18419 0.40666 0.13975
-0.19770 -0.29248 -0.16570
-0.12147 0.03366 0.14153
-0.14839 -0.06066 0.11060
-0.16938 0.32159 -0.01036
-0.19836 0.33426 0.19907
0.08558 0.01724 0.19962
-0.15643 -0.17259 -0.19962
-0.14839 -0.35557 0.17375
-0.15950 0.04939 0.03663
-0.14839 -0.03566 -0.16352
-0.15825 0.17152 -0.14789
-0.15899 0.05987 -0.03139
-0.16216 0.24805 0.07155
-0.17660 0.29137 0.19962
-0.15948 -0.06280 0.02941
-0.16733 -0.35289 -0.12888
0.18243 -0.04865 0.19962
0.15722 -0.40995 -0.18166
-0.20184 -0.02021 0.18863
-0.16655 0.29640 0.11616
0.14370 0.01147 -0.00273
0.16852 -0.40995 0.16054
-0.19527 -0.24604 0.18406
-0.14839 -0.21924 -0.13000
-0.06793 0.01147 0.11843
-0.10648 0.01147 0.16875
0.13730 -0.29528 0.16048
-0.19526 0.27580 -0.10223
-0.19524 0.27511 0.07193
-0.15756 -0.20823 -0.12888
0.16482 -0.29180 0.19962
-0.15109 0.01147 0.00256
-0.20126 0.37132 0.12632
-0.19839 0.08734 -0.07714
-0.09677 -0.08035 0.18853
0.14466 -0.12315 -0.12888
-0.15887 0.06255 -0.01393
-0.15354 -0.35553 0.12887
0.00128 0.03366 -0.14615
-0.19430 -0.15920 0.13359
-0.16181 0.24299 0.19714
0.18559 -0.26792 -0.18535
-0.19894 0.07888 0.08908
-0.19426 0.23077 -0.15836
0.18590 -0.08068 -0.17234
-0.15766 0.13824 0.06719
-0.17459 0.36023 0.01339
-0.19432 0.23742 -0.19550
-0.15767 0.13897 0.14562
0.14426 -0.01445 -0.12888
-0.20297 0.03295 0.02244
-0.19858 0.33765 -0.04706
0.14882 -0.10195 -0.19962
-0.16820 0.31155 -0.00149
0.12386 -0.07818 0.19962
0.01211 0.03366 0.12072
0.18647 -0.07235 0.17959
-0.14839 -0.17688 0.18778
-0.20019 0.35853 -0.12815
-0.19539 -0.24901 -0.14199
-0.15095 -0.04119 0.04755
-0.01436 0.03366 0.19113
-0.16153 0.23892 0.14425
-0.20044 0.06074 -0.14378
-0.15814 0.08619 0.00942
-0.20344 0.39380 -0.15642
-0.13680 0.03366 -0.03388
-0.20512 0.01189 0.11128
0.19315 0.03110 0.08049
-0.19883 -0.30947 0.12966
-0.15160 -0.40995 0.18592
-0.17802 -0.14895 0.19962
-0.16308 -0.15331 -0.12888
0.05367 0.01147 -0.08222
0.05177 0.01147 -0.12668
0.18300 -0.17569 0.18463
-0.15658 -0.13676 -0.19962
0.05734 0.01147 0.03272
0.17011 -0.10736 0.19962
0.18708 -0.06348 -0.14231
-0.10711 0.03366 0.11563
0.07704 0.01147 0.06214
-0.19714 -0.28412 -0.13339
-0.20461 0.01693 0.11210
-0.19690 0.11030 0.15824
0.17324 0.03366 -0.05498
-0.14839 -0.02363 -0.12972
0.14146 -0.03752 0.12887
-0.18969 0.40961 0.06296
-0.14839 -0.28776 -0.13736
-0.13577 0.02449 0.19962
0.16008 -0.10293 0.19962
0.18382 -0.12760 -0.15495
-0.20069 -0.33177 -0.17191
-0.15975 0.20951 0.12654
0.20277 0.01147 -0.02164
-0.14839 -0.04053 -0.18486
0.07040 0.03366 -0.02829
-0.04200 0.03366 -0.00044
-0.18090 0.39995 -0.07687
-0.15811 0.16686 -0.03783
-0.16128 0.23538 -0.08803
-0.19487 0.16019 0.02097
-0.15604 -0.08555 -0.09388
-0.16492 0.28038 -0.09768
-0.17132 0.33669 -0.09945
-0.17391 -0.38522 0.19962
-0.16943 0.32195 -0.03419
-0.11327 0.01147 -0.09160
-0.12273 0.03366 0.19744
-0.14839 -0.26184 -0.15168
-0.19700 0.31340 0.11371
-0.06887 0.01147 -0.07254
0.19408 -0.37726 0.16973
0.19408 -0.38443 0.13370
-0.15788 0.15870 -0.00202
0.17841 -0.01844 -0.12888
-0.09503 0.01147 -0.12579
-0.20438 0.01914 0.08483
0.13730 -0.07289 -0.13143
-0.14839 -0.08108 -0.19671
-0.16875 0.31662 -0.14533
-0.19032 0.14491 -0.19962
0.13730 -0.19395 -0.19237
0.18381 -0.22619 0.16454
0.19408 -0.39252 -0.13010
-0.19774 0.32483 0.05414
0.14839 -0.04939 0.08736
-0.19528 -0.10260 0.12887
-0.09819 0.03366 0.14075
-0.19602 0.12900 0.19913
-0.15883 0.19076 -0.06492
0.03681 0.03366 -0.02530
-0.18046 0.39737 0.08634
-0.19986 0.06763 -0.15945
0.18967 0.01147 0.00115
-0.15818 0.16942 0.04855
-0.14839 -0.06349 -0.07896
0.04923 0.03366 -0.04853
-0.04966 0.01147 0.03415
-0.15843 0.17753 0.04691
-0.19713 0.00753 0.19962
-0.19892 0.34301 0.05972
-0.19496 0.26522 -0.03174
-0.07869 0.03366 -0.02492
-0.10010 0.03366 -0.09085
-0.08832 0.03366 -0.15143
-0.17688 -0.00337 -0.19962
-0.15122 -0.11293 -0.12888
0.18299 -0.17672 -0.17186
-0.01546 0.02753 0.19962
-0.19429 0.23466 -0.05926
0.18703 -0.06418 0.18344
0.14839 -0.04654 0.00107
-0.13597 0.01147 -0.16262
-0.15810 0.08751 -0.01416
-0.19844 0.40812 -0.06160
0.13730 -0.22118 0.13881
0.13730 -0.13224 -0.14977
-0.19581 -0.06321 0.19962
-0.19418 -0.17120 -0.16711
-0.16296 0.25844 0.06631
-0.20039 -0.03696 0.13480
-0.16668 0.29754 -0.12003
-0.16735 0.30376 0.16697
-0.19733 0.31850 0.16576
0.04800 -0.05916 0.18853
-0.14839 -0.36438 -0.15324
0.03590 0.03366 -0.11461
-0.10157 -0.05486 0.19962
0.12137 0.01147 0.15042
-0.17032 -0.09005 0.19962
0.13730 -0.27546 -0.15255
-0.15078 -0.23568 0.12887
0.18514 -0.09539 -0.13469
0.09110 0.03366 0.02888
-0.03266 0.03366 -0.19763
-0.07607 -0.06226 0.19962
-0.19398 -0.29079 -0.19962
-0.14839 -0.10256 -0.15398
0.08849 -0.07428 0.18853
-0.09237 0.01147 -0.17035
0.19160 0.03209 0.02386
-0.05890 0.01147 -0.09715
-0.17189 0.34111 0.15936
0.08716 0.02486 0.19962
-0.14839 -0.09607 -0.15104
0.13730 -0.04450 -0.16969
0.13730 -0.20180 0.17452
-0.16336 -0.19782 0.12887
-0.15794 0.16140 0.19027
-0.19702 0.31370 0.05565
0.03767 0.03366 -0.13367
0.16299 0.03366 -0.14408
-0.10376 -0.07622 0.18853
0.19067 -0.33407 -0.18488
-0.20251 0.38468 0.19325
-0.19427 -0.27794 0.12887
-0.18782 -0.17774 0.19962
-0.14839 -0.04968 -0.15421
-0.19925 0.03886 0.19962
-0.16330 0.26225 0.04427
0.18097 -0.36837 -0.12888
0.17890 -0.34443 -0.12888
0.16817 -0.30190 -0.19962
0.07287 0.01147 -0.19862
-0.19428 0.18893 0.10149
-0.09524 0.03366 0.03073
0.13730 -0.02435 -0.19497
-0.00984 0.01147 0.09788
0.13730 -0.04301 -0.05658
-0.18783 0.38821 0.19962
-0.16608 0.01147 -0.08813
0.13730 -0.08276 0.11163
0.15388 -0.00197 0.19962
-0.17514 0.36397 0.03597
-0.20243 0.38394 0.01835
-0.17820 -0.40995 -0.19937
0.13730 -0.05058 -0.17874
-0.03878 -0.08555 -0.18924
-0.14839 -0.16136 0.15209
-0.14839 -0.38993 -0.17345
-0.19448 0.24790 0.13758
-0.16586 0.29004 -0.01379
-0.19531 -0.11781 0.16915
-0.20257 0.38526 -0.14717
0.02042 0.01147 -0.09946
-0.20152 0.37447 0.03173
-0.11388 0.03366 -0.03066
-0.11050 -0.05464 -0.19962
0.07250 0.01147 -0.11265
-0.19329 -0.34852 0.12887
0.17375 -0.18136 0.12887
-0.19671 0.11425 0.14755
-0.14839 -0.21413 -0.14310
-0.19423 -0.19877 -0.13817
0.19408 -0.38821 0.15205
-0.20081 0.36591 0.03024
0.13730 -0.30453 0.13308
-0.15626 0.03366 0.16580
-0.14839 -0.05341 -0.13966
-0.14839 -0.23038 -0.17488
-0.17510 0.36364 0.15879
-0.14839 -0.15086 -0.14916
-0.19554 -0.09074 0.19962
-0.15948 -0.06847 -0.06963
-0.14839 -0.06703 0.10089
-0.19686 -0.08532 -0.17770
-0.01480 -0.07098 -0.19962
0.06018 0.01147 0.07134
-0.08749 0.01147 0.01743
-0.19977 0.39680 0.19962
-0.18865 -0.03669 -0.12888
-0.19975 0.06898 -0.06567
0.20467 0.01147 -0.15632
-0.12889 0.01438 0.19962
-0.14839 -0.24304 -0.17099
-0.00416 0.01147 0.03337
-0.17260 0.34657 -0.10985
-0.19948 -0.31768 -0.15043
-0.19812 0.09149 -0.07305
0.20114 0.02276 0.07776
-0.15948 -0.06020 -0.02925
0.14839 -0.08458 -0.11486
-0.16817 0.31124 -0.03918
0.08389 0.03366 0.05111
-0.15853 0.18097 -0.08456
-0.10955 0.03366 -0.03604
-0.18045 0.39730 -0.14547
-0.18000 0.39462 0.01371
0.15491 -0.21286 0.19962
-0.16879 0.31695 0.04142
-0.18981 -0.35332 -0.19962
0.17018 -0.26878 0.19962
-0.15983 0.21110 -0.10264
0.13730 -0.39083 0.14167
-0.15765 0.13642 -0.03347
-0.17539 -0.36908 -0.12888
-0.19421 -0.19629 0.13548
-0.20172 -0.40995 0.17786
-0.16784 0.24511 0.19962
-0.19889 -0.31035 -0.19130
0.06902 0.01147 -0.08313
-0.19189 0.01147 -0.04789
-0.14839 -0.08185 0.13570
-0.14839 -0.18469 -0.15158
-0.09987 0.01147 -0.03968
0.14079 0.03366 0.04955
-0.01090 -0.06718 -0.19962
0.04404 0.01147 -0.04806
-0.20298 0.38935 -0.19189
0.19524 0.01147 -0.06356
-0.19658 -0.09105 0.17785
-0.14839 -0.35532 0.14838
-0.14839 -0.23562 0.16018
-0.06226 0.03366 -0.10614
0.18623 -0.27830 0.14287
-0.20150 0.37426 0.14300
0.19142 -0.01310 0.18566
-0.16474 0.27836 0.19835
-0.15032 -0.02692 0.12887
-0.09331 0.03366 -0.13730
-0.20071 0.05742 0.18847
0.12777 -0.04157 0.18853
-0.19429 0.23377 0.15487
0.12059 0.01147 0.16845
-0.18087 -0.28051 0.12887
-0.16706 -0.40995 -0.13874
0.13981 -0.00098 -0.19962
0.12352 0.01147 -0.11110
-0.07359 0.01147 0.17363
-0.17155 0.33842 -0.10564
-0.19417 -0.17283 -0.18200
0.14839 -0.06353 0.01410
-0.18255 -0.29385 -0.19962
-0.14839 -0.35454 -0.18345
-0.16395 0.26954 -0.17038
-0.15018 -0.21392 0.19962
0.18774 -0.30036 0.13475
0.20499 0.01251 -0.09449
-0.18982 0.26608 0.19962
-0.17173 -0.40995 -0.18014
0.13730 -0.39550 0.17737
-0.19932 0.34802 0.01711
0.18302 -0.18060 -0.18062
-0.19017 0.01121 -0.12888
0.11808 0.03366 0.03782
-0.14839 -0.04399 0.04205
0.18324 -0.15161 -0.18399
0.13730 -0.26332 -0.14309
-0.14839 -0.02774 0.19826
-0.19807 0.09237 -0.19560
0.15784 0.02511 -0.19962
0.16400 -0.40995 -0.14795
0.16705 -0.31913 0.19962
-0.15948 -0.07852 -0.05483
-0.15790 0.16011 0.14065
-0.16777 0.30756 0.19548
-0.01480 0.01147 -0.06908
0.14839 -0.07446 -0.02659
0.14429 -0.05277 0.19962
-0.19935 0.40742 0.10246
0.13730 -0.25372 -0.18996
0.13730 -0.40551 0.17183
-0.20196 0.01147 -0.04227
-0.18776 0.40894 -0.13151
-0.19755 0.10031 0.19768
0.17698 -0.12037 0.12887
-0.15061 -0.05712 0.12887
0.10869 0.02117 -0.19962
0.13662 0.01147 -0.08141
-0.19790 0.32731 -0.18257
0.12077 0.01147 -0.13741
0.13398 0.01147 0.12832
-0.15787 0.15804 -0.08290
0.08552 -0.07937 0.18853
-0.19456 -0.14414 0.17224
-0.19606 0.29395 -0.16379
-0.15772 0.11070 -0.12648
0.14262 0.03366 0.09947
-0.16907 0.01147 0.10350
0.19486 0.02984 -0.16669
-0.14839 -0.40529 -0.16303
-0.14839 0.00057 0.18394
0.04343 0.03366 -0.03574
-0.18626 -0.02589 -0.12888
-0.19456 0.17153 -0.18782
-0.19741 0.10254 -0.01251
-0.20517 -0.39247 0.14234
0.10925 0.03366 -0.09968
-0.20324 -0.00684 -0.14404
-0.17469 0.36094 -0.05819
0.11395 -0.05069 0.19962
-0.20004 0.06553 -0.04298
-0.19497 0.26556 -0.17491
0.13730 -0.05484 -0.03277
-0.15789 0.09507 -0.03064
-0.19848 -0.39957 0.19962
-0.19456 -0.22119 0.14347
0.13730 -0.01261 -0.13462
0.06842 0.03366 0.02557
0.12782 -0.05801 0.19962
-0.15791 0.09440 -0.07545
0.03908 0.03366 0.09851
-0.19413 0.21662 0.11202
-0.15777 0.14782 0.08478
-0.13196 0.01147 -0.18133
-0.18524 -0.15203 -0.12888
0.14070 -0.09566 0.12887
0.18647 -0.07230 -0.16051
0.14046 -0.40995 -0.16962
-0.19632 -0.26856 -0.15229
-0.09025 -0.04119 0.19438
-0.19483 0.16175 -0.19127
-0.19560 0.28412 0.03321
-0.14839 -0.36156 -0.19944
-0.17267 -0.37168 0.12887
-0.16059 0.22545 -0.12476
-0.02466 0.01147 0.18778
-0.14839 -0.06597 0.12628
0.13730 -0.15962 -0.13687
-0.19946 0.07241 0.00373
0.18542 -0.08952 -0.18825
-0.20215 0.38118 0.16931
0.16707 -0.38284 -0.12888
-0.10087 0.03366 -0.02989
0.19605 0.02881 0.17771
0.13730 -0.23972 -0.19944
0.10443 -0.05534 0.19962
-0.01299 0.01147 0.01572
-0.17698 0.12809 -0.19962
-0.19426 0.19088 0.19849
-0.19481 0.25975 -0.16458
-0.18171 0.14648 -0.19962
-0.19412 0.21635 0.09075
-0.10261 0.03366 -0.19573
-0.19432 0.23755 0.18284
-0.02110 -0.04119 -0.19261
0.18430 -0.24174 0.19552
-0.15867 0.18546 -0.14110
-0.14839 -0.39524 0.16341
-0.10500 0.01147 -0.11977
-0.19581 -0.10736 0.19625
0.13385 0.03366 0.18076
-0.12863 0.01147 -0.07528
0.11657 0.01147 -0.05515
-0.06974 0.03366 0.17811
0.13730 -0.18355 -0.17854
0.12034 0.01147 -0.03097
0.13979 0.00486 -0.19962
-0.08440 0.02915 0.19962
0.15600 0.03366 0.02921
-0.04051 0.03366 -0.05610
-0.14839 -0.25408 0.15230
-0.19911 0.34551 0.12582
0.13459 0.01147 0.09251
0.19742 0.02749 -0.15082
-0.20148 -0.34095 -0.16305
-0.14839 -0.29095 0.14839
0.04413 0.01147 0.06224
-0.16668 0.29758 -0.14517
-0.19542 0.14205 0.13166
0.14921 0.03366 0.06317
-0.15898 0.19398 -0.05941
-0.17198 0.06417 0.19962
-0.12607 0.03366 -0.08408
-0.19417 0.22130 -0.16120
0.06940 0.03366 0.00056
-0.18567 0.40780 0.01343
-0.20249 -0.35120 -0.14401
0.18322 -0.20121 -0.19464
-0.19925 -0.31493 0.18911
0.02389 0.01147 -0.16861
-0.10550 0.03366 -0.02252
0.02213 0.03366 -0.10736
0.20194 0.02136 0.06924
-0.10833 0.03366 0.13072
0.15459 0.03366 0.19193
-0.12938 0.03366 -0.16791
-0.15334 0.03366 0.06404
-0.18829 -0.16237 0.12887
-0.15948 -0.08519 0.05822
0.13029 0.02074 -0.19962
0.11492 0.02590 0.19962
0.03648 0.01147 -0.19208
-0.19344 0.00228 0.12887
0.13730 -0.07291 -0.16926
0.13730 -0.31502 0.19620
0.10601 0.02783 -0.19962
0.13730 -0.08282 0.14357
0.13730 -0.02984 0.13532
-0.19821 0.33208 -0.16035
-0.20490 -0.37416 -0.17795
0.08319 0.01147 0.05835
0.14839 -0.07468 -0.01844
-0.00658 -0.04480 -0.19962
0.14968 -0.30543 -0.12888
-0.18900 -0.28424 -0.19962
0.20338 0.01833 0.19295
0.14506 0.01147 -0.01280
-0.17529 -0.12097 -0.12888
-0.16340 0.26338 0.13987
-0.14910 -0.08555 -0.05364
0.19704 0.02787 0.14513
-0.15893 0.19315 0.18549
-0.15785 0.15595 -0.01556
0.13730 -0.06560 0.08821
-0.19503 0.15434 -0.17411
-0.15760 0.12420 0.09581
0.18028 0.03366 -0.08873
0.01999 -0.05113 0.18853
0.04655 0.03366 0.11429
-0.15773 0.14429 0.10446
-0.15513 -0.08555 -0.10963
0.14779 -0.14251 0.12887
0.13764 0.01147 0.03065
0.15179 0.01369 0.19962
0.17260 -0.21480 0.19962
-0.09448 0.01147 -0.18827
-0.16752 -0.24256 0.12887
0.19408 -0.40321 -0.19770
0.16336 0.03366 0.00277
0.14170 -0.37186 0.19962
0.20222 0.02086 0.00359
-0.01900 0.01147 0.07860
-0.20517 -0.40319 0.19102
-0.14839 -0.02201 -0.14910
-0.16223 0.24908 0.09628
0.18483 -0.10165 -0.14727
-0.14839 -0.24316 0.17296
0.01885 0.01147 -0.07803
-0.19409 0.20903 0.12067
-0.14839 -0.38994 0.15313
0.05255 0.01147 0.00290
-0.20338 0.39320 -0.14610
0.01665 0.01147 0.01470
0.13927 -0.16156 0.19962
-0.15913 0.05707 -0.08453
-0.17219 0.34341 -0.09860
-0.18619 -0.22595 0.12887
-0.16442 0.27483 -0.04770
-0.19489 0.15950 0.18653
-0.16519 0.28349 -0.01410
0.09414 -0.06395 -0.19962
-0.18669 -0.39798 -0.19962
0.16365 0.03366 -0.11617
-0.16361 0.08794 0.19962
-0.20476 0.01547 0.03429
-0.15939 0.05164 0.17806
-0.18360 0.40598 -0.19667
-0.15983 0.21117 0.06643
-0.15853 0.18091 0.17832
0.01022 0.01147 0.14981
-0.12000 0.01286 -0.19962
0.18399 -0.23216 -0.16501
-0.16600 0.29134 0.07386
-0.15865 0.06838 -0.09165
-0.16323 0.26145 0.15695
0.11041 0.01147 -0.06716
-0.05306 0.03366 0.13822
0.00617 0.03366 -0.01462
0.18120 -0.28118 0.19962
-0.20418 0.02118 0.02099
0.19384 0.03060 -0.19060
0.10762 0.01147 0.08203
0.04345 0.03366 -0.13467
0.14024 0.03366 -0.01210
-0.02699 0.01147 -0.16375
0.16385 -0.17297 0.19962
-0.17152 0.33819 -0.00901
0.13730 -0.25763 0.14875
-0.15369 0.03366 -0.04827
0.18380 -0.12825 0.14592
-0.20283 0.40294 0.00335
0.00296 -0.05583 0.19962
0.13462 0.01147 0.02617
0.19988 0.02462 0.09221
0.03116 0.01147 0.00106
0.18931 -0.31864 0.16076
-0.05267 0.03366 0.07581
-0.20010 -0.04031 -0.17972
-0.19454 0.25013 -0.04692
-0.15788 0.15828 -0.14372
-0.17959 0.19698 -0.19962
0.18857 -0.40995 0.19600
-0.00309 -0.08524 0.18853
0.18708 0.03366 -0.05866
-0.17646 -0.26357 0.12887
-0.20467 0.01636 -0.02567
-0.19408 -0.18336 0.15913
0.13730 -0.07774 0.15821
0.18300 -0.17827 0.16319
0.14736 -0.28129 -0.12888
-0.17715 -0.40121 -0.12888
0.15440 0.00380 -0.12888
-0.14839 -0.36390 0.15013
0.15292 -0.07656 -0.12888
-0.19821 0.09023 -0.09866
0.13730 -0.30361 0.16170
0.07389 0.03366 0.01171
0.06477 0.03366 -0.03001
0.19083 -0.33553 0.13220
0.18441 -0.11030 0.14099
0.13730 -0.37236 -0.13266
0.18502 -0.09771 0.14142
-0.15854 0.07209 0.05914
0.14850 -0.27335 -0.12888
-0.16866 -0.19135 0.12887
0.01110 0.01147 -0.08489
0.01416 0.01147 0.12392
0.01075 -0.07266 -0.19962
0.18581 -0.27214 -0.15899
-0.14839 -0.38356 -0.13354
-0.14839 -0.15599 0.15980
-0.00836 0.03366 0.16790
0.13730 -0.35802 -0.15146
-0.15995 0.21363 -0.13552
-0.00409 0.01147 -0.15651
-0.19436 0.24203 0.09312
0.03604 0.03366 -0.19637
-0.15775 0.10735 -0.10305
-0.15886 0.19165 0.11440
-0.19546 0.28099 -0.11023
0.07099 0.03139 -0.19962
0.14310 -0.10946 0.12887
-0.18341 -0.31482 -0.12888
-0.04680 -0.08555 -0.19440
-0.20420 -0.36752 0.16278
-0.18722 -0.22041 -0.12888
-0.14425 0.01147 -0.11240
0.15770 -0.33158 -0.19962
0.07793 0.01147 -0.13883
-0.19515 0.27196 0.10576
0.14822 -0.01810 0.19962
0.18304 -0.17214 0.16229
-0.14839 -0.27253 -0.17231
0.06729 0.01147 -0.19072
0.13113 0.01147 0.00167
-0.12295 -0.08410 -0.19962
-0.14839 0.01096 -0.13436
0.05543 0.01147 -0.11946
-0.18176 -0.38487 0.19962
-0.15763 0.13458 -0.14747
-0.18214 -0.32223 0.19962
-0.19184 -0.20842 -0.12888
-0.14839 -0.09572 -0.13685
-0.19663 0.30633 -0.09999
-0.15815 0.03366 -0.02844
-0.15937 0.05201 -0.06182
-0.19475 -0.13738 0.14113
-0.08630 0.03366 0.09071
-0.20390 -0.00059 -0.14648
-0.19425 0.19261 0.13825
-0.19897 -0.05358 -0.18552
0.09370 -0.07490 -0.19962
-0.20336 0.00104 -0.19962
-0.17489 0.36226 0.00665
0.18306 -0.18483 -0.18340
-0.15774 0.14557 0.06003
-0.19800 0.32874 0.10149
-0.11443 -0.05222 0.19962
-0.19861 -0.05906 0.14101
0.18886 -0.04061 -0.17346
0.17112 -0.24160 0.19962
-0.15760 0.12343 -0.13010
-0.11171 0.03366 -0.14822
-0.10608 0.01147 0.11183
-0.16402 -0.18059 -0.19962
-0.09384 0.01147 0.05082
-0.14839 -0.10669 -0.13216
-0.14839 -0.26525 0.13217
-0.19714 -0.08111 -0.19276
0.13730 -0.38760 -0.13673
-0.16102 -0.30327 0.12887
0.18331 -0.20903 0.12993
-0.14839 -0.38515 -0.14557
-0.15772 0.14364 0.17993
-0.16346 0.17383 0.19962
0.15124 -0.38367 0.19962
-0.19594 -0.26072 0.13337
-0.13588 0.01147 -0.03161
0.13730 -0.22111 0.16224
-0.15910 0.19644 -0.11883
0.11730 0.01147 0.00398
0.17671 -0.15641 0.12887
0.17353 -0.03223 -0.12888
-0.19440 0.24494 -0.18395
-0.17698 -0.40995 -0.13148
-0.08052 0.03366 0.09366
-0.18669 -0.37504 -0.12888
-0.17475 0.36129 -0.00714
-0.20199 0.40458 0.11209
0.00607 0.03366 -0.06186
-0.14145 0.01147 0.03740
0.18571 -0.08356 0.14272
0.13730 -0.22093 -0.13410
-0.12153 0.01147 0.00617
0.19378 0.03065 0.09689
-0.19438 -0.15102 0.14400
0.19487 0.02984 -0.18174
-0.20028 0.06263 0.03824
0.13730 -0.05156 -0.01779
-0.19850 0.33644 -0.05597
-0.16197 0.24528 0.03104
-0.19437 -0.15140 0.18909
-0.19520 0.14858 0.01567
-0.19517 0.14966 -0.16373
-0.19503 0.26753 0.04604
0.13730 -0.39031 -0.15821
0.13730 -0.24041 0.13690
-0.20431 0.01988 0.16973
-0.15779 0.10288 -0.12457
-0.18831 -0.17240 -0.19962
0.00617 -0.08345 0.18853
0.04427 0.03366 0.14569
-0.19949 -0.31773 -0.15829
-0.09453 0.03366 0.07736
-0.15993 0.21310 -0.07693
0.19268 -0.00143 -0.13925
-0.16777 0.30761 -0.04648
-0.20510 0.01216 0.07872
-0.19839 0.33485 -0.13253
0.18319 -0.15583 -0.13906
-0.14839 -0.01720 -0.13555
-0.16984 0.32514 -0.18133
-0.15221 -0.28919 -0.19962
-0.20078 -0.03241 0.15587
-0.14958 -0.16438 -0.12888
-0.14839 -0.06892 0.02727
-0.15942 0.05114 -0.10967
-0.14839 -0.08930 0.18768
0.16986 -0.27908 -0.19962
0.04702 -0.04301 -0.18853
0.14141 0.01147 0.10075
-0.14839 -0.39187 0.16902
0.18426 -0.24084 -0.15628
0.06410 0.03366 -0.03652
-0.10340 0.03366 0.06239
-0.15784 0.09691 -0.16818
-0.14950 -0.24917 -0.12888
-0.09889 0.01147 -0.09426
-0.19863 0.08367 -0.16471
-0.16255 0.25369 -0.14258
0.19204 -0.34676 -0.14831
-0.20137 0.04961 -0.01599
-0.20445 0.00589 0.12887
0.11010 0.01147 0.02351
-0.14839 -0.04329 -0.08644
-0.20113 -0.02836 0.19491
-0.02733 -0.05057 -0.18853
0.17860 0.03366 -0.06557
-0.00233 0.03366 -0.06376
-0.20479 0.01514 0.13360
-0.01052 0.01147 0.04180
-0.17791 0.38225 0.10381
-0.14839 -0.20286 -0.16243
-0.16462 0.27701 0.08605
-0.15864 0.06870 -0.17547
-0.00276 -0.05089 -0.18853
-0.15763 0.13528 0.02847
0.13730 -0.01480 0.16273
-0.15783 0.09829 -0.05285
-0.05766 -0.08555 0.19806
-0.17275 0.08434 -0.19962
0.13730 -0.04556 0.11652
-0.17686 0.01147 -0.06936
-0.20349 0.40136 0.04412
-0.15810 -0.19829 0.19962
0.13730 -0.11194 0.13629
0.14062 -0.04119 0.09550
-0.19683 0.11167 0.09133
0.13730 -0.17552 0.16253
0.01206 0.01147 0.03835
-0.19466 -0.14050 0.15067
0.10508 0.03366 0.04912
-0.07863 0.03366 -0.05125
-0.05738 0.03366 -0.14631
-0.03417 0.01147 -0.11199
-0.19430 0.18662 0.00364
-0.19283 0.01147 -0.12093
-0.03811 0.01147 0.00656
-0.19606 0.01147 -0.01685
-0.18171 0.22209 0.19962
-0.14839 -0.18077 -0.17302
-0.20063 0.05839 -0.01118
-0.14839 -0.09646 -0.19433
-0.15809 0.16631 0.06648
-0.16493 0.28052 -0.18662
0.12412 0.03366 -0.03276
0.20158 0.02199 0.04507
-0.14839 -0.07830 0.12302
0.04056 0.03366 0.03068
-0.14839 -0.37098 0.14454
-0.20117 -0.02788 0.13104
-0.19703 0.10840 0.05262
0.18917 -0.31707 -0.15599
-0.11296 0.01147 -0.17342
-0.19713 -0.28396 -0.15666
-0.19841 0.40814 -0.10385
0.05922 0.03366 0.12574
-0.15568 -0.34463 0.19962
-0.16632 0.29424 0.00037
0.05406 0.01147 -0.15693
0.08027 0.01147 -0.12002
-0.19806 0.07512 0.19962
0.15124 -0.15257 0.19962
-0.20387 0.01147 0.01986
-0.19689 0.11053 -0.05394
-0.17642 0.37260 -0.01261
0.13730 -0.22282 -0.15353
-0.16639 0.29494 -0.04782
-0.06686 0.01147 -0.03632
0.17722 -0.11911 -0.12888
-0.15780 0.10139 0.11179
-0.17615 0.37074 0.08473
-0.16378 0.26764 -0.05232
0.14218 -0.40995 0.15708
0.13730 -0.23557 -0.16256
-0.19564 0.28481 -0.09398
-0.03711 0.03366 -0.18077
-0.02418 -0.05325 0.19962
-0.15853 0.07247 -0.03085
0.08157 0.01147 0.01979
-0.14927 0.03366 0.16942
0.19043 0.03276 0.05622
-0.18902 0.01607 0.19962
0.07313 -0.08214 -0.19962
-0.16288 0.25750 0.11814
-0.15957 0.04780 0.15304
-0.01336 -0.05545 -0.19962
0.19913 0.01147 -0.15848
-0.15995 0.04011 -0.00064
0.14288 0.03366 0.11112
-0.20248 0.03781 -0.17054
0.13730 -0.25638 0.17849
-0.07689 0.03366 -0.18199
0.18307 -0.18605 0.14611
0.04307 0.03366 -0.16338
-0.15768 0.11521 0.09341
0.14863 -0.33254 -0.19962
-0.19986 0.06760 0.08643
-0.17002 0.32651 0.18506
-0.19440 0.17721 0.10506
-0.14839 -0.07611 0.04896
0.08414 0.03366 0.06893
0.18467 -0.10490 0.19321
-0.00427 0.01147 -0.14458
-0.15933 0.05294 -0.14930
0.18880 -0.04128 0.15439
0.12901 0.01147 0.18351
0.13922 -0.08555 -0.03545
-0.15519 0.01147 -0.10972
-0.19610 0.29479 0.01211
-0.14883 0.03366 -0.05059
0.19171 -0.01042 -0.14292
-0.15839 0.17613 0.07301
-0.15869 0.18611 -0.18994
-0.11351 0.01147 0.15515
0.17100 -0.09065 0.19962
0.07057 0.01147 -0.14845
-0.14839 -0.01800 0.13642
0.13730 -0.05677 -0.05501
0.13730 -0.20457 -0.15413
-0.05483 -0.04687 0.19962
0.08083 0.01147 0.08987
-0.11739 0.03366 -0.12071
-0.17883 0.05461 -0.19962
-0.15948 -0.07715 -0.10228
-0.19459 0.17056 -0.19606
-0.14839 -0.33023 0.13266
-0.14839 -0.20374 -0.17474
0.13730 -0.04863 0.18637
0.15377 -0.39223 -0.12888
-0.20250 0.38455 0.15721
0.14998 -0.40244 -0.12888
-0.16223 0.24902 0.01683
0.13614 0.01147 0.14278
-0.19429 -0.20551 -0.17348
-0.15398 -0.36672 0.12887
0.01868 0.03366 -0.13136
-0.19519 0.14865 -0.11275
0.03687 0.03366 -0.10012
-0.14933 -0.08555 0.06898
0.02569 0.03366 0.16753
0.07067 0.03366 0.14723
0.10569 0.03366 -0.01584
0.11653 0.03366 0.07478
0.18402 -0.12102 0.18393
-0.17728 0.37834 0.00948
0.15426 0.01147 -0.08582
-0.14839 -0.11980 -0.13191
-0.14435 0.03366 0.15229
0.09833 0.01147 -0.03033
-0.18043 0.39717 0.13795
-0.19956 -0.31851 0.14664
-0.15779 0.15045 0.16129
0.07819 0.01147 -0.15906
-0.14839 -0.07677 -0.15371
-0.20498 0.00965 -0.19044
-0.19425 0.19268 0.17763
0.13730 -0.00658 0.17292
0.13730 -0.29332 -0.15787
-0.16530 0.28465 0.05947
0.04179 0.01147 0.04070
-0.20517 -0.38109 -0.17093
-0.15948 -0.08375 -0.08271
0.14391 -0.24935 -0.12888
0.05108 -0.04119 0.19534
-0.15337 -0.05693 -0.19962
0.13773 -0.33079 0.19962
-0.16943 -0.04208 -0.12888
0.17272 -0.26201 0.19962
-0.18919 -0.11328 -0.12888
-0.20100 0.05400 0.04232
0.18974 -0.32347 0.19752
-0.10107 -0.04119 0.19889
0.14731 -0.33449 0.19962
-0.16059 0.22532 0.07047
-0.01427 0.01147 -0.06024
-0.20211 0.38083 0.09694
0.14367 0.01213 0.19962
-0.17353 -0.34258 0.19962
-0.15948 -0.06830 0.06832
-0.17396 0.09073 0.19962
0.15574 -0.23858 0.12887
-0.20116 0.37016 -0.04448
0.14213 -0.09273 -0.19962
-0.14839 -0.30535 0.13880
-0.19755 0.32188 0.15961
-0.05349 0.01147 -0.06342
-0.07325 0.01147 -0.06640
0.03174 0.03366 0.02540
0.13730 -0.18431 -0.16586
-0.14839 -0.26426 0.16676
-0.18247 -0.34292 -0.19962
-0.02878 -0.08555 -0.19832
-0.10460 0.03366 -0.18924
-0.19552 -0.11346 0.19779
-0.19491 0.26350 -0.07605
0.17580 0.01147 0.05941
0.18508 -0.25757 0.18025
0.17683 -0.30385 -0.19962
-0.19881 0.34135 0.03580
-0.20318 0.03092 -0.05714
-0.08354 0.01147 0.05925
-0.14839 -0.20250 -0.14409
-0.16719 -0.03709 -0.12888
-0.03039 0.03366 -0.15978
0.19337 0.00496 0.16688
-0.14275 0.03366 0.11852
-0.14728 -0.06344 -0.19962
-0.19625 0.29796 -0.14456
-0.05092 0.03366 -0.19911
0.10929 0.01147 -0.00588
0.06081 0.03366 -0.13650
0.20080 0.01147 -0.04724
-0.14939 -0.37899 0.19962
-0.20517 -0.39607 0.15307
0.19070 -0.33431 0.16356
-0.15101 -0.03581 -0.12888
-0.14839 -0.02997 -0.18582
-0.10332 -0.06952 0.18853
-0.00551 0.03366 -0.18391
-0.17619 0.37103 -0.12811
0.16320 0.01147 0.06504
-0.12867 -0.05947 0.19962
0.18589 -0.27336 0.18516
0.18627 -0.27883 -0.14539
0.17172 -0.15029 0.19962
-0.18025 0.39610 -0.19893
-0.18728 0.20460 -0.19962
0.17416 0.03366 -0.16013
-0.19505 0.40958 0.06126
-0.14839 -0.18682 0.14382
-0.17003 0.32660 -0.13274
-0.06590 -0.04119 -0.18964
-0.14839 -0.07045 0.00176
-0.19439 0.24439 0.12413
0.13730 -0.13464 -0.16914
-0.15240 0.01147 0.09987
-0.20126 0.37138 0.10725
0.18509 -0.40995 -0.19372
0.13730 -0.32365 0.18364
-0.14839 -0.20863 0.18426
-0.19427 -0.20272 0.19771
-0.15989 0.03366 -0.17302
0.14023 -0.01377 0.19962
-0.16206 -0.38999 -0.12888
-0.19799 0.32869 -0.07940
0.18504 -0.04020 -0.19962
-0.19816 -0.30388 0.12887
-0.16029 0.22031 -0.04364
0.19311 -0.35661 -0.16856
0.13730 -0.04701 -0.12114
0.13730 -0.20311 0.13789
-0.16985 -0.30903 0.12887
-0.15806 0.16537 -0.19403
-0.14959 -0.22637 0.12887
0.18645 -0.40995 0.13700
-0.13185 0.01147 0.08905
-0.17417 -0.40995 0.13813
0.19332 0.00443 0.14394
-0.15924 0.19935 -0.00480
-0.16620 0.01147 0.04983
-0.09854 0.01147 0.08708
-0.18815 -0.27999 -0.12888
0.09323 0.03366 0.17126
0.04093 0.01147 0.04655
0.18901 -0.31529 0.16492
-0.19542 0.28015 0.16592
-0.15948 -0.06091 -0.02226
0.13730 -0.27607 -0.14331
0.19181 0.03196 -0.01860
-0.20337 0.40164 0.12556
-0.16841 -0.06307 0.19962
-0.11621 0.01147 -0.03893
-0.19684 0.31094 -0.12280
-0.12505 0.01147 -0.16497
0.14065 -0.10857 -0.12888
-0.17770 0.38098 -0.03246
0.11811 0.01147 -0.14732
-0.20320 0.03068 0.19747
-0.13771 0.03366 -0.06478
-0.15948 -0.06559 -0.00103
-0.15570 0.01147 -0.02026
-0.20423 0.02068 -0.05200
-0.14839 -0.18565 0.15616
-0.20207 0.04178 -0.11282
0.12264 0.03366 0.00029
0.14759 -0.04119 0.07522
0.14744 -0.37882 -0.12888
0.09237 0.01147 0.08529
0.18392 -0.22994 -0.15129
-0.12036 0.03366 -0.15253
-0.19811 0.09167 -0.16537
0.13730 -0.06385 -0.10010
-0.09140 0.03366 -0.18990
0.13730 -0.38888 0.14635
-0.19749 0.10128 0.15425
-0.14839 -0.33900 0.14677
0.17891 0.01147 0.07395
-0.19682 0.11178 0.11680
-0.15822 0.08349 -0.07864
-0.19421 0.19619 -0.17750
0.18533 -0.26273 -0.14774
0.16728 -0.03911 -0.19962
0.14646 -0.16925 -0.19962
0.03569 -0.07600 0.18853
-0.15845 0.17838 0.05685
-0.15778 0.10409 -0.18971
0.14146 0.01147 0.11194
-0.15791 0.16027 0.07019
0.00167 0.01147 -0.06391
-0.06064 -0.08479 -0.18853
-0.17958 0.39216 -0.18017
-0.15780 0.15071 0.03281
-0.20354 0.39478 -0.07535
-0.06336 0.03366 0.01231
-0.19701 0.10867 -0.04608
-0.14839 -0.08251 0.03724
-0.14839 0.00551 -0.15389
-0.18468 0.23176 -0.19962
-0.17021 0.32803 -0.14963
0.13730 -0.24790 -0.17594
-0.01832 0.03366 -0.11074
-0.15788 0.15877 0.11157
-0.19712 0.31529 0.01520
-0.15948 -0.04211 -0.05635
0.03137 0.01147 -0.11984
0.19244 -0.00369 -0.17152
-0.16516 0.15330 0.19962
-0.14839 -0.33355 -0.16560
0.03066 0.03366 0.19023
-0.19415 0.21922 -0.10310
-0.19596 0.29183 -0.19365
-0.15850 0.07364 0.02719
0.07043 0.03366 -0.16443
-0.15408 -0.08555 0.00743
-0.19142 0.40984 0.04420
-0.12074 0.03366 -0.03675
-0.20041 0.36112 0.00616
-0.17078 0.33249 0.19210
-0.15726 -0.09520 0.19962
-0.11252 0.01147 -0.04879
0.16844 0.01147 0.00590
0.02532 0.03366 0.00957
-0.19430 0.23568 0.19300
0.16281 0.03366 0.07699
0.18549 -0.26597 0.17819
-0.20279 0.38746 0.02957
0.13730 -0.23734 -0.18363
0.13730 -0.06075 -0.18102
0.16396 -0.09907 0.12887
-0.19598 0.12995 0.10677
0.14813 -0.25703 0.12887
-0.15898 0.19404 0.13135
-0.19804 0.09283 -0.10565
-0.10235 0.03366 0.19444
-0.19853 0.33701 -0.18349
-0.16515 -0.37240 -0.19962
-0.18440 0.29885 -0.19962
0.13730 -0.34413 -0.19657
-0.18642 0.24475 -0.19962
-0.20111 -0.33665 -0.15263
-0.19477 0.16386 -0.10132
0.13730 -0.01198 -0.18600
-0.15825 0.17161 -0.02568
0.04919 0.01147 -0.06726
-0.19492 -0.25549 0.19962
-0.08539 0.03366 -0.01858
0.08871 0.01147 -0.01937
0.02156 0.03366 -0.17134
-0.19524 -0.24509 -0.17244
0.16877 -0.09583 -0.12888
-0.15948 -0.07690 0.12440
0.02574 0.03366 0.12804
-0.10656 0.01147 -0.08634
-0.14839 -0.19638 0.13050
-0.14839 -0.29282 0.13012
-0.19936 0.34861 0.19717
-0.15802 0.09053 0.18535
0.14195 -0.12997 0.12887
-0.13098 0.01147 -0.12091
0.01841 -0.08555 0.19045
0.14839 -0.06565 0.06717
0.18795 -0.30326 -0.18598
-0.15856 0.18173 -0.16958
-0.15948 -0.05604 0.00118
-0.19868 0.33921 -0.12935
-0.19994 0.35552 0.04010
0.15185 -0.24434 -0.19962
-0.19707 0.10782 -0.10633
0.03660 0.01147 -0.11924
-0.17408 -0.16210 0.19962
-0.20206 0.38033 -0.12965
-0.15632 -0.07224 0.19962
-0.15948 -0.06185 -0.11120
0.07935 0.01147 0.09712
-0.20027 0.06273 -0.19397
-0.14839 -0.03313 0.16011
-0.16236 0.25096 0.02409
0.03780 -0.08555 -0.19469
0.15842 -0.31237 -0.19962
-0.06945 0.03366 0.05720
-0.18846 -0.21264 -0.19962
0.19227 -0.34884 -0.18450
-0.14839 -0.04121 -0.06716
-0.17360 -0.02652 0.19962
-0.15877 -0.04119 0.01802
-0.06290 0.03366 -0.14922
-0.19703 -0.28246 0.17427
0.13730 -0.09183 0.14824
0.07896 -0.08217 -0.18853
-0.14839 -0.05708 0.06027
-0.17394 0.35583 0.08362
-0.16166 0.24078 0.13175
-0.15985 0.21164 0.09990
0.15953 0.01147 -0.01992
0.14302 -0.30479 -0.12888
0.06139 0.01398 0.19962
-0.14580 0.01147 -0.15554
-0.18522 -0.06538 -0.19962
-0.15589 -0.29406 -0.12888
0.13730 -0.18125 0.13579
0.02371 0.03366 0.09934
-0.18717 0.32456 0.19962
-0.20083 0.01147 -0.12362
0.13730 -0.16789 0.18629
-0.16352 -0.17579 0.19962
0.14839 -0.08122 -0.08904
-0.17054 -0.01090 0.19962
0.10330 0.01147 -0.12058
0.19408 -0.39587 -0.14870
-0.19111 0.01147 -0.02766
-0.19563 -0.25422 0.18787
0.19160 -0.38600 -0.12888
-0.19601 0.12933 0.09891
-0.15783 0.09774 0.09842
0.18670 -0.31005 -0.19962
-0.17453 0.35985 -0.06753
-0.19133 -0.12899 -0.19962
-0.19698 0.10912 0.07949
-0.19412 0.21574 -0.06533
-0.20174 0.37709 -0.14489
-0.07603 0.02523 0.19962
0.14696 -0.40333 -0.19962
-0.16002 0.01147 0.07586
0.12082 0.03366 0.15311
-0.17997 -0.22750 0.12887
0.15902 0.01147 0.09781
0.13730 -0.11282 -0.17047
0.15230 -0.16271 -0.19962
-0.16089 0.22976 0.14988
-0.18787 -0.15715 -0.12888
-0.02415 -0.05475 0.18853
0.06264 0.03366 -0.00573
-0.16176 0.24225 -0.18575
-0.16000 0.21452 0.09265
-0.18089 0.39993 -0.15566
0.05258 -0.05370 0.19962
-0.15948 -0.04668 0.10998
-0.12121 0.03366 0.10825
-0.07690 0.03366 -0.09535
0.13730 -0.11460 -0.14818
-0.14839 -0.31062 -0.15860
0.17437 -0.39906 0.12887
0.13730 -0.13451 0.18058
0.09642 0.01147 0.00427
-0.16036 0.22170 -0.05002
-0.14839 -0.20697 0.12966
-0.19881 0.34132 0.07200
0.01837 0.01147 0.13517
0.00754 0.01147 -0.13822
0.00004 0.01147 0.02009
0.09501 0.01147 0.18703
0.13250 0.01147 0.02141
0.17126 -0.09388 -0.19962
0.16191 0.03366 0.15823
0.15222 0.03366 0.15249
0.13730 -0.16355 0.16133
-0.17919 0.38986 -0.11074
0.15747 0.01147 0.01577
-0.17275 0.11113 -0.19962
0.13730 -0.09571 0.18707
-0.01661 -0.06359 -0.19962
-0.15764 0.11964 -0.11487
-0.19465 -0.14086 -0.15370
0.06640 -0.07737 -0.18853
0.14782 0.03366 -0.19440
-0.18898 -0.09033 -0.19962
0.13535 -0.04119 -0.19137
-0.09192 0.03269 0.19962
-0.14492 0.01147 -0.19539
-0.20173 0.37692 -0.01357
-0.16223 -0.03505 -0.19962
-0.19433 0.18403 0.03899
-0.15843 0.07606 -0.18908
0.16996 -0.18766 -0.19962
0.19023 -0.02505 -0.16865
0.16565 0.01147 0.08685
-0.16312 -0.12882 0.19962
-0.20384 -0.36401 0.14819
-0.17809 -0.07524 -0.19962
-0.18160 -0.28375 -0.12888
-0.20176 -0.34420 0.17314
-0.19875 -0.30823 0.18902
-0.14839 -0.09625 0.17937
-0.14839 -0.21250 0.15102
0.13874 -0.04258 -0.19962
-0.20148 -0.34099 0.15057
-0.20479 0.01516 -0.10081
0.12401 -0.04596 -0.19962
-0.20243 -0.35063 0.19253
-0.15948 -0.04498 0.07438
-0.20105 0.36885 0.07686
-0.15824 -0.08555 -0.02478
-0.16898 0.01147 -0.02225
0.05782 0.03366 -0.02079
0.18665 -0.06967 0.13390
-0.06072 0.01147 -0.18737
-0.14839 -0.26415 -0.16987
-0.15973 0.20905 -0.02881
-0.20240 0.38359 -0.16368
0.18357 -0.00295 -0.12888
-0.20180 -0.02055 0.17012
-0.19959 -0.04629 0.15371
-0.16187 0.24390 0.02474
-0.20166 0.37617 -0.06966
-0.15931 0.20076 -0.10365
0.13730 -0.11355 -0.14128
-0.19510 0.27019 -0.07670
-0.04742 0.03366 -0.18966
0.12324 0.02796 0.19962
-0.05561 0.03366 0.00503
-0.14935 0.03366 0.14853
-0.19417 -0.06980 -0.12888
-0.19511 0.27052 0.16017
0.12268 0.03366 0.12801
-0.14839 -0.03578 0.18308
0.13445 0.03366 0.08462
-0.14839 -0.11523 -0.19590
-0.19412 0.20689 0.15651
-0.19070 0.40974 -0.06252
-0.06276 0.01147 0.07477
-0.14947 -0.03397 -0.19962
-0.16240 -0.34521 0.19962
-0.19659 -0.03522 0.12887
0.13730 -0.22325 -0.17063
-0.12941 0.01147 0.11226
-0.19434 -0.15535 -0.13302
-0.20126 0.05091 -0.16655
-0.19517 0.27257 -0.01535
-0.19160 -0.37003 -0.12888
-0.08567 -0.04845 -0.18853
0.18636 -0.07393 0.15167
-0.20155 0.04737 -0.12928
-0.18880 -0.22414 -0.19962
-0.19489 0.26265 -0.03958
-0.12104 -0.06136 -0.18853
0.15881 0.03366 -0.16017
-0.19873 0.08217 -0.13467
-0.12069 0.01147 0.11420
-0.20517 -0.39498 -0.19315
0.03853 -0.06006 -0.18853
-0.19648 0.30314 -0.15564
0.17856 0.03366 0.18104
-0.20110 0.05280 0.03264
0.16822 -0.24037 0.12887
-0.17905 0.38902 -0.15474
0.18310 -0.18865 -0.13575
-0.16758 -0.16671 -0.12888
-0.19384 0.27348 -0.19962
0.18708 -0.06337 -0.17962
-0.00408 -0.05811 -0.19962
0.13730 -0.15762 -0.16721
0.19156 -0.01176 0.17834
-0.19599 0.10544 0.19962
-0.15973 -0.33061 0.12887
-0.01871 0.03366 -0.17367
0.18793 -0.05111 -0.14291
-0.19562 -0.11119 -0.18122
0.00483 0.01147 -0.19888
-0.14839 -0.09154 -0.15647
-0.19477 -0.22855 -0.19420
-0.17716 0.37753 -0.14854
-0.05242 0.01147 -0.12657
-0.16700 0.30052 -0.19119
-0.19595 0.29167 -0.00990
0.14025 -0.22272 -0.19962
0.02382 0.03366 -0.16582
-0.20168 -0.40995 0.13597
-0.00420 0.01147 0.00516
0.18734 0.01147 0.01338
0.14063 -0.40995 -0.14522
-0.20098 -0.03005 -0.19388
-0.09091 0.01147 -0.11791
-0.19464 0.16855 0.09751
0.16355 -0.35594 0.12887
-0.14839 -0.16175 0.19461
0.19570 0.01147 0.14697
0.13730 -0.18701 0.13318
-0.07181 -0.06028 -0.18853
-0.20363 0.02652 0.07558
-0.19720 0.10580 0.03376
0.08068 0.03366 0.02891
-0.14839 -0.09160 -0.18228
-0.14839 -0.04135 0.05540
-0.11536 0.01147 0.11151
0.09696 0.03342 -0.19962
0.11561 0.03366 -0.02260
-0.19424 0.22906 0.00712
0.16717 -0.15540 -0.19962
-0.16698 0.30034 0.19592
-0.20231 -0.01572 0.13041
-0.19836 -0.30238 0.16319
-0.15535 -0.26335 -0.12888
-0.19351 -0.40995 -0.17227
0.19408 -0.40503 0.19330
0.01943 0.03366 0.12355
0.14729 -0.08555 -0.02410
0.16692 -0.40995 -0.17289
-0.16034 0.22131 -0.15904
-0.14533 0.02512 -0.19962
-0.19664 -0.27527 -0.13156
-0.20131 0.37198 -0.01198
0.14063 -0.29868 -0.19962
-0.19643 -0.40995 0.16278
0.17983 -0.18372 0.19962
-0.02956 0.01147 -0.08335
0.19237 -0.34977 -0.17499
-0.16975 0.32446 0.03080
-0.19116 -0.03879 0.19962
-0.14839 -0.07379 0.07416
-0.04591 0.01147 -0.10487
0.13730 -0.06807 -0.08485
0.14202 0.01095 0.12887
-0.19424 0.19378 -0.14627
0.14325 -0.23755 -0.12888
0.13730 -0.40443 -0.15886
-0.15777 0.10480 0.13793
-0.19668 -0.40549 -0.12888
-0.09175 -0.04889 -0.18853
-0.19431 0.18605 -0.06774
0.17179 -0.40553 -0.12888
-0.14839 -0.29807 -0.18567
-0.20509 0.01224 0.06689
-0.19355 -0.13806 0.19962
0.18717 0.01147 -0.11704
0.08286 0.03366 0.11496
0.00348 0.01147 0.06489
-0.19425 0.22974 0.05444
-0.20135 0.37235 0.01733
0.13730 -0.07519 -0.05594
0.10602 0.03366 -0.03904
-0.19552 0.28226 0.05175
-0.14839 -0.24030 0.16680
-0.10680 0.03366 -0.14205
0.18947 -0.03366 -0.13130
-0.15971 0.04510 0.04968
0.16298 -0.11750 -0.12888
0.16186 0.01147 -0.01327
-0.15768 0.11484 0.14965
-0.01627 0.03366 -0.09353
0.14735 -0.26374 -0.19962
-0.17875 0.38724 -0.06813
-0.17590 -0.00413 0.19962
-0.16089 0.22966 -0.09673
-0.06989 0.03366 0.01613
0.17284 -0.22177 -0.19962
-0.19506 -0.12660 0.19068
-0.10908 -0.04119 -0.19309
0.16658 0.03366 0.02352
-0.15956 0.04805 0.16211
-0.20088 0.36677 0.13635
-0.14839 -0.34789 0.19211
0.18117 0.03366 0.17009
-0.17631 0.37184 -0.15230
-0.19594 0.13079 0.03212
-0.13163 0.03366 0.11377
0.18865 -0.32542 -0.12888
-0.19453 0.24959 -0.16514
-0.14839 -0.06399 -0.05552
0.13730 -0.06795 -0.16390
0.00783 0.03366 0.11335
-0.17539 -0.10064 -0.12888
-0.15783 0.09800 0.00563
0.15080 -0.15238 -0.19962
-0.15885 0.19142 0.04210
-0.19427 0.23170 0.13645
0.16917 0.03366 0.04237
0.14344 0.01147 0.06075
0.10756 0.03366 0.09097
-0.14839 -0.04744 -0.17925
0.14282 -0.08569 0.19962
0.14839 -0.07892 -0.03000
0.13730 -0.36185 0.18209
-0.16703 0.30083 0.06549
-0.15948 -0.07727 0.06815
0.18347 -0.13961 0.17544
-0.15601 -0.09123 -0.19962
0.04708 -0.08555 0.19643
-0.15894 0.06107 -0.05085
-0.20071 -0.02035 -0.12888
0.00290 0.03366 -0.05445
-0.19530 0.14465 -0.00268
0.12888 0.01147 -0.11548
-0.19425 -0.16422 -0.19631
-0.15699 -0.32520 0.12887
-0.16504 0.28180 0.07518
-0.19423 0.19439 0.15276
-0.14738 0.01147 -0.16388
-0.19522 0.27440 0.03134
0.18423 -0.11385 0.19747
0.18722 -0.06139 -0.13486
0.17173 -0.40995 -0.15199
-0.15771 0.14263 -0.11574
-0.19420 0.19808 0.05845
-0.20379 0.39912 0.02681
0.15242 -0.06686 0.12887
-0.06962 -0.06761 -0.18853
0.19242 0.01147 0.01953
-0.20334 -0.00592 -0.15688
-0.09071 0.01147 -0.08579
-0.19417 0.22104 -0.19442
0.13864 -0.25224 0.12887
-0.19741 0.31966 0.19681
-0.16820 0.31151 -0.08347
0.13543 0.03366 -0.18206
-0.14898 0.01147 -0.01231
0.18333 -0.20961 0.17069
0.18413 -0.11714 0.16436
0.18123 -0.24769 0.19962
0.18398 -0.12228 -0.16226
-0.15761 0.12238 -0.13585
-0.19995 -0.04207 -0.14228
0.03149 0.03366 0.10506
-0.19508 0.15285 0.10930
0.13357 0.03366 -0.11442
-0.17748 0.37970 0.06216
-0.09866 0.03366 -0.01037
-0.07003 -0.07624 -0.18853
-0.16449 0.27561 0.13373
0.13730 -0.24643 -0.14670
-0.14839 -0.27999 0.15992
-0.19761 0.32275 -0.13196
-0.00158 -0.06665 0.18853
-0.16501 0.28138 -0.00115
-0.19698 -0.28179 0.17988
-0.16091 0.23007 0.12421
-0.14493 -0.04506 -0.19962
-0.15786 0.15682 -0.12532
-0.19794 -0.29611 0.18236
0.00416 0.01147 0.19481
-0.19641 0.12057 -0.07565
-0.19440 0.24515 0.04263
0.16679 0.03366 -0.14849
-0.14839 -0.37654 -0.14122
0.15662 -0.35145 0.19962
-0.00518 0.03366 -0.09949
0.14585 0.03366 -0.00122
-0.19473 -0.22719 -0.16501
-0.17204 -0.34604 0.12887
0.15837 -0.07964 0.19962
0.18428 -0.07669 -0.12888
-0.16699 0.30040 0.02858
0.14839 -0.04421 -0.06930
-0.11836 0.03366 0.01743
-0.20147 0.37388 0.19190
0.13730 -0.26264 0.19842
-0.14839 -0.13494 0.16756
-0.19408 -0.18302 0.14703
-0.15773 0.10889 0.03899
-0.09436 0.03366 0.12626
0.20206 0.02114 -0.15584
-0.06842 -0.08524 -0.19962
0.05127 0.01147 0.10248
-0.19989 0.06728 0.18191
-0.07422 0.03366 0.18337
-0.19704 0.10827 0.18653
0.18742 0.03366 -0.19468
-0.06738 0.03366 -0.09714
-0.19962 0.35166 0.08643
-0.07979 0.03366 0.13646
0.15146 -0.12653 -0.19962
-0.15850 0.07350 0.13711
0.20480 0.01362 0.05794
-0.19436 -0.32483 -0.19962
-0.08624 0.03366 -0.10772
0.17240 0.03366 0.07372
0.13730 -0.33147 -0.19095
0.18402 -0.12084 -0.17008
-0.19575 0.13501 -0.02036
0.18306 -0.16960 -0.19624
-0.19867 -0.30705 -0.14701
-0.15953 0.20504 -0.08679
0.19941 0.01147 -0.11248
-0.02763 0.03366 -0.10742
0.18529 -0.26186 0.14737
-0.17933 0.13341 -0.19962
-0.03183 0.03366 0.06902
-0.18090 0.39996 0.17508
-0.17877 0.38736 -0.04576
0.04170 0.03366 -0.11686
0.18541 -0.35789 -0.12888
-0.19829 0.33322 -0.02638
0.14780 0.01147 -0.07857
-0.08165 0.01147 0.17066
-0.15771 -0.24078 0.19962
-0.19408 0.21099 -0.13250
0.06089 -0.05924 -0.19962
-0.19413 0.20517 -0.08348
-0.19503 0.15471 0.11938
0.00072 0.01147 0.14996
0.09664 0.01147 -0.06325
0.06114 0.01147 -0.14482
-0.15504 -0.06184 0.12887
-0.15794 0.09323 -0.14707
-0.01298 -0.08555 0.18912
0.18803 -0.04997 -0.13026
-0.20062 0.40637 -0.16212
0.13730 -0.06251 -0.06843
0.04872 0.03366 -0.15860
0.19111 -0.01597 -0.18672
-0.18986 0.40963 0.13583
0.19077 -0.33502 0.18490
-0.17205 -0.23117 0.12887
0.13730 -0.03349 0.18618
-0.17096 0.33388 0.13133
-0.15760 0.13225 -0.16007
-0.19978 0.06866 -0.07764
-0.17241 0.34511 -0.01976
-0.16039 0.22242 -0.13841
-0.15891 0.19270 -0.12473
-0.16459 0.27668 -0.12279
-0.19670 0.11449 -0.19763
-0.15776 -0.14497 -0.19962
-0.15978 0.04354 0.02457
-0.18205 -0.40995 0.18895
0.17695 -0.11698 -0.19962
-0.19541 0.14225 -0.17189
-0.08917 0.03366 -0.05795
0.11599 0.01147 0.04657
-0.19480 0.25945 -0.17768
-0.19717 -0.08056 0.18822
0.16995 -0.04916 0.12887
-0.00471 0.01315 -0.19962
0.03692 0.01147 0.11077
0.20449 0.01485 0.13192
0.18612 -0.27676 0.15151
-0.18111 -0.14303 -0.19962
0.11270 0.03366 -0.16236
-0.20321 -0.40995 0.14109
-0.08864 0.01147 -0.11244
-0.16229 0.24986 -0.04515
0.16063 -0.39708 -0.19962
0.17943 -0.30830 0.12887
0.18604 -0.34670 -0.19962
-0.19649 0.40905 -0.02461
-0.16304 0.01147 0.12173
-0.16326 -0.07736 -0.12888
0.13730 -0.05488 0.09455
0.19278 -0.00056 0.13479
-0.15211 -0.17235 0.12887
-0.19932 0.07407 0.05436
0.14839 -0.07782 -0.00069
-0.15808 0.08841 0.10589
0.08459 -0.04407 -0.18853
0.12187 -0.05171 -0.18853
-0.15866 0.06791 0.03037
-0.20319 0.39131 -0.11074
-0.16193 0.24478 -0.11464
-0.08126 -0.04155 0.19962
0.13730 -0.07175 0.06661
-0.19487 0.16018 0.04795
-0.20050 0.36215 0.06608
-0.10501 -0.08186 0.18853
-0.16901 -0.06653 0.12887
0.19223 -0.34850 -0.16663
-0.19911 0.07662 -0.17734
-0.16556 0.28726 -0.02399
-0.18368 0.20187 0.19962
-0.16224 0.24923 0.00494
-0.19504 0.26792 0.01394
-0.15472 -0.08555 0.11750
-0.17291 0.17636 -0.19962
0.18475 -0.10333 0.18155
-0.19609 -0.08187 0.12887
-0.14839 0.00967 -0.13949
-0.18044 0.32825 0.19962
-0.08412 0.03366 0.17233
-0.19509 0.15237 -0.13333
-0.00601 0.01147 -0.03707
-0.03323 0.03366 -0.07705
-0.19473 0.25668 -0.03736
-0.00748 -0.04119 0.19625
-0.04478 0.03366 -0.02537
-0.15767 0.11557 -0.17655
0.13730 -0.23692 0.16995
0.17166 -0.40995 -0.13205
-0.19435 0.24061 -0.05680
0.10049 -0.07002 0.19962
0.15369 -0.22723 0.19962
-0.19237 0.37308 0.19962
-0.17209 0.34265 -0.05119
-0.03659 -0.06021 0.18853
0.19068 -0.33412 0.17762
-0.15825 0.08227 -0.14125
-0.15786 0.09602 0.15705
0.13315 0.03366 -0.10359
0.08510 0.03366 0.01499
-0.15803 0.09015 -0.18777
-0.15128 -0.25045 0.12887
0.18928 -0.40995 0.18928
-0.01966 -0.07912 0.19962
0.05091 0.03366 -0.19836
0.13730 -0.08193 -0.15657
0.13730 -0.28010 -0.13697
0.16913 -0.24792 0.12887
-0.20362 -0.36198 -0.17971
-0.14839 -0.06907 -0.01144
0.05364 0.03366 0.04703
-0.20189 0.37859 0.10473
0.13730 -0.06618 0.04276
0.14839 -0.05178 -0.05772
0.15311 0.01147 -0.01826
-0.15781 0.10077 -0.17531
-0.19858 0.08454 -0.03256
-0.14839 -0.01008 0.19646
0.13730 -0.05117 0.02144
-0.15999 0.21435 0.01258
0.10519 0.03366 -0.08412
-0.16137 -0.32509 -0.12888
-0.19433 -0.20932 0.19132
0.19269 -0.35274 0.16708
0.08442 0.01147 -0.06083
0.13730 -0.07189 0.02936
-0.07239 0.01147 0.15054
0.16446 0.01147 -0.11793
-0.19722 -0.07094 0.12887
0.18945 -0.03392 0.14309
-0.15773 0.14397 0.04755
0.18559 -0.26798 0.16553
-0.15948 -0.08033 0.00866
-0.14839 -0.15592 0.15412
-0.16337 0.26302 0.08819
-0.11447 0.03366 0.04293
0.20289 0.01943 -0.17629
-0.19810 0.09181 0.07236
-0.07679 0.03366 -0.17452
-0.10841 0.01147 0.18075
-0.13464 -0.08422 -0.18853
0.14116 0.01147 0.07071
-0.19496 0.15712 0.08915
0.07543 0.01147 -0.04440
0.19408 -0.36734 0.17938
-0.15922 0.05522 -0.19504
0.10253 -0.06540 0.18853
0.13730 -0.39709 0.14557
-0.16437 -0.37840 -0.19962
0.00109 0.01147 0.08585
-0.07828 0.01147 0.05663
-0.19439 0.24443 0.00313
-0.19879 -0.05631 0.13119
0.12870 0.03366 -0.01343
0.18340 -0.21207 -0.13479
-0.15335 0.01147 0.10624
0.13730 -0.00627 -0.17662
0.15262 -0.17779 -0.19962
0.10201 0.03366 -0.13111
0.05678 0.01147 -0.19909
-0.16428 -0.33207 -0.12888
0.08193 0.01147 -0.17784
-0.17593 0.36925 -0.03216
-0.19630 0.29913 -0.06415
-0.19430 0.18711 0.07651
-0.15872 -0.04119 0.05891
0.17751 -0.16253 -0.12888
-0.20219 0.04064 0.07036
-0.16926 0.01147 0.07767
-0.17116 -0.09281 0.12887
0.14006 -0.38342 0.12887
-0.18795 0.40901 0.00104
0.12272 0.01147 0.02505
0.17903 -0.24478 0.12887
-0.19421 0.22509 -0.17741
0.18248 -0.01982 0.12887
0.16208 -0.03672 0.19962
-0.19615 0.12620 0.02858
0.05662 -0.08555 -0.19592
-0.06239 0.01147 -0.06240
0.18301 -0.17936 0.14895
0.18743 -0.37249 0.12887
-0.20245 -0.01442 -0.19188
-0.20323 0.03045 0.01177
-0.15538 -0.14536 0.12887
-0.19552 0.13997 0.18255
0.17583 -0.10116 -0.19962
-0.19865 -0.37980 -0.19962
0.00138 0.01147 -0.01845
-0.15780 0.10171 -0.10329
-0.15950 0.04946 -0.12188
0.05440 0.03366 -0.15637
-0.15778 0.14888 -0.09275
