-0.18280 -0.22689 -0.22470
-0.18130 0.13462 0.21222
0.22258 -0.15686 0.21222
-0.18755 0.02497 0.09958
-0.18852 0.28504 -0.00889
0.11737 0.00000 -0.10229
-0.20598 0.00248 -0.00594
-0.23849 0.37450 -0.17086
-0.04346 0.00000 0.14236
-0.18101 0.11954 -0.22198
0.22715 0.02497 -0.10079
-0.22920 0.37450 -0.19765
-0.04125 0.00000 0.09875
-0.18101 -0.34280 0.21331
0.13198 0.00000 0.03265
0.01200 0.00000 0.13551
-0.21369 0.34949 0.22470
-0.19671 0.02497 -0.15002
-0.20075 0.28989 0.22470
0.11478 0.00000 0.20753
-0.19186 0.29999 -0.09342
-0.23813 0.36864 -0.22470
0.16927 0.00000 0.17185
-0.07396 0.02497 0.13936
0.17412 0.02497 -0.11701
-0.19568 -0.01687 -0.22470
0.00187 -0.37450 -0.13729
0.03259 0.02497 0.07908
0.22207 0.00000 -0.13046
0.24343 0.00209 0.01493
-0.18694 0.27670 -0.13003
-0.19499 -0.16228 -0.00120
0.06153 0.02497 -0.14843
-0.13066 0.02497 -0.18734
-0.20041 0.02497 0.08295
0.23985 -0.36039 -0.22470
-0.20250 -0.18725 -0.00147
0.01272 0.00000 0.18934
-0.06196 0.02497 0.08210
0.18190 0.02497 0.03249
0.24343 -0.00720 -0.21768
-0.06678 0.02497 0.00719
-0.20598 0.09996 0.21808
0.10153 0.02497 -0.04917
-0.20482 0.02497 0.10140
-0.05749 0.02497 -0.08521
0.15198 0.02497 0.06238
0.21885 -0.20455 0.22470
-0.13725 0.02497 0.12707
0.07103 0.02497 -0.13505
-0.11093 0.02497 -0.00413
-0.19285 0.22881 0.22470
0.00293 -0.34954 -0.01667
-0.18113 0.02497 0.02420
-0.20983 0.25664 0.16758
0.15934 0.02497 -0.21551
0.07128 -0.37450 0.21319
-0.00624 -0.36198 0.06982
-0.00596 -0.34954 0.22440
0.23116 0.00000 -0.16761
-0.18101 -0.18119 0.16968
-0.19196 0.30041 -0.13431
-0.05658 0.02497 -0.00063
-0.06249 0.02497 0.13430
-0.01165 0.02497 -0.00952
-0.00624 -0.35797 0.03093
0.03217 0.02497 0.01249
0.17838 0.00000 0.14712
-0.18101 -0.16249 0.09304
-0.19976 -0.18725 -0.09146
0.12589 0.02497 0.20993
0.16558 0.02497 0.01049
-0.22342 0.32035 -0.21743
-0.20899 0.24984 -0.06890
0.01089 -0.37450 -0.20077
0.24343 0.00726 -0.01391
-0.15889 0.00000 -0.18003
-0.18127 0.22334 -0.02612
-0.23953 0.36539 -0.03604
-0.03597 0.02497 0.01883
-0.18118 0.21914 -0.07335
0.06730 0.00000 0.12561
-0.20598 0.01200 -0.05305
-0.20663 0.34526 -0.07041
-0.05430 0.00000 -0.01207
0.04365 0.00000 0.15855
-0.18101 -0.10441 -0.21933
-0.20598 -0.17627 0.08195
0.21628 0.02384 -0.22470
-0.20598 0.34466 -0.20426
-0.18101 -0.08215 0.21612
0.09631 0.02497 0.01583
-0.10419 -0.35321 -0.22470
-0.18262 0.24444 -0.02899
-0.19620 0.27156 -0.22470
-0.14057 -0.34954 -0.22385
-0.18304 0.24886 0.06195
-0.20707 0.23014 -0.12432
-0.22425 0.32303 -0.01092
0.17806 0.02497 0.05342
0.04618 -0.35388 -0.22470
-0.15660 0.00000 -0.07143
-0.19894 -0.16228 0.02956
0.04773 0.02497 -0.06940
0.17015 0.02497 0.19057
-0.20838 0.24493 -0.14997
0.11337 0.00000 0.21537
0.01566 -0.34954 0.21928
0.22911 -0.20072 0.22470
0.09833 0.00000 0.03750
-0.19505 0.31223 -0.14861
0.01873 -0.35900 -0.02690
-0.23028 0.34146 -0.22395
-0.18101 0.20856 0.19263
-0.20649 0.21950 -0.05714
-0.01498 0.02497 -0.17390
-0.17868 0.00416 0.22470
-0.19560 0.02497 -0.04928
-0.04041 0.00000 -0.03435
-0.00204 -0.34954 -0.01112
-0.15314 -0.37450 0.21421
-0.18101 0.20185 -0.01126
-0.18565 0.02497 -0.04864
0.09791 0.00000 0.05132
-0.08027 0.00000 -0.15664
0.00501 -0.37450 0.03510
0.17561 0.02497 0.03163
-0.21071 0.26277 0.08949
-0.22969 0.36931 0.22470
-0.20598 -0.18166 0.18842
-0.06252 -0.36538 -0.21222
-0.21519 0.28783 -0.09860
-0.19442 0.02497 0.04043
-0.20750 0.23505 0.01002
-0.20667 0.22285 -0.10270
-0.18101 0.02497 0.19892
-0.01900 -0.36588 0.22470
0.21846 -0.25986 0.22394
-0.05230 0.02497 0.11658
-0.16953 -0.37450 -0.21901
-0.20561 -0.02100 0.22470
0.24343 0.01943 0.01680
-0.23320 0.34957 -0.02272
-0.18421 0.25888 -0.09202
-0.20598 0.06320 0.22323
0.01873 -0.36415 0.09940
0.17539 0.02497 -0.19586
-0.20598 0.01176 0.00906
-0.15742 0.02497 -0.01957
-0.20192 -0.32402 -0.22470
-0.20786 0.34860 0.07901
0.15441 0.02497 -0.11907
0.22664 -0.04990 0.21222
-0.17155 -0.34954 0.22012
0.23136 0.02497 -0.09145
-0.03470 0.00000 -0.21540
0.24343 0.00701 0.11619
-0.22043 0.30960 -0.19717
0.01200 0.02497 -0.01628
-0.18101 0.20497 0.06719
-0.03637 0.02497 0.03764
-0.19270 0.30338 -0.14228
0.01232 0.00000 -0.15782
-0.19677 0.31821 -0.18265
-0.01398 0.02497 0.00010
-0.20598 0.34447 0.20870
-0.20786 0.23907 -0.12689
0.15185 0.02497 0.17968
0.10296 0.02497 -0.11583
-0.00162 -0.34954 0.18141
-0.20598 0.16061 -0.21365
-0.20669 0.22334 -0.13415
0.16097 0.02497 0.12657
-0.13136 0.02497 -0.00711
-0.14051 0.00000 -0.13410
-0.11725 0.02497 -0.20873
0.24111 -0.16181 0.21222
-0.20163 -0.16228 0.09039
-0.22354 0.32074 -0.14711
0.08779 0.00000 -0.15827
-0.20006 0.08467 -0.22470
0.02996 0.02497 -0.21667
0.03451 0.00000 -0.11844
-0.20746 0.23461 0.08277
0.08773 0.02497 0.20594
0.07165 0.02497 -0.03168
-0.20598 -0.27257 -0.21500
0.21846 -0.27116 -0.21588
-0.18870 -0.25356 0.22470
0.16570 0.02497 -0.04631
-0.10442 0.02497 -0.04280
-0.10891 0.00000 -0.19822
0.07418 -0.36242 -0.22470
-0.14036 0.02497 -0.11190
-0.20604 0.20356 -0.01827
0.04596 0.02497 -0.11508
-0.00624 -0.37323 0.04603
-0.19530 0.02497 -0.03801
-0.14614 0.02497 0.04794
-0.10125 0.00000 -0.21572
-0.20598 -0.26360 -0.21771
-0.00624 -0.36064 0.10048
-0.20598 -0.17008 0.11973
0.23123 -0.13765 0.21222
-0.17259 0.02497 -0.04920
-0.14987 0.00000 -0.21447
-0.21475 0.28554 0.08078
0.13009 0.00000 -0.11410
-0.20155 0.33319 0.01105
0.12645 0.00000 -0.03802
-0.12260 0.00000 -0.13340
-0.06678 0.02497 -0.09978
-0.06450 0.02497 0.08740
0.22151 -0.21751 0.22470
0.06673 0.02497 0.09391
-0.22388 0.32185 0.16360
-0.19231 0.30183 -0.03967
0.16849 0.00000 0.19299
-0.13595 0.00000 -0.16543
0.02156 0.02497 -0.11699
0.08874 0.00000 0.22170
-0.10384 0.02497 -0.16430
0.15634 0.02497 -0.16038
-0.18902 0.05420 -0.21222
-0.20598 0.00930 0.05370
-0.00624 -0.36053 0.19581
-0.20406 0.00348 0.22470
0.09809 0.02497 -0.21081
-0.20598 0.34536 -0.03894
0.15053 0.00000 -0.08147
0.04660 0.00000 0.07673
-0.20598 0.34348 0.11286
0.17295 0.02497 -0.10882
-0.18101 -0.20620 -0.21544
0.16980 -0.37136 0.21222
-0.21760 0.29837 -0.09350
0.22367 0.02497 0.02103
0.07206 0.00000 0.18016
0.05830 0.02497 -0.05984
-0.00624 -0.37397 -0.10114
-0.19887 0.32507 -0.22344
-0.23746 0.37450 -0.05245
-0.20265 0.07535 -0.22470
-0.18101 -0.16364 0.16849
0.13958 0.00000 -0.01502
-0.20598 0.01300 -0.13875
0.23623 0.02497 0.02817
-0.08155 0.00000 -0.06881
-0.10355 0.02497 0.12492
-0.00624 -0.36986 -0.18320
0.09309 0.00000 -0.15427
0.06749 0.00000 -0.10932
0.01421 0.02497 -0.07206
0.21889 -0.06519 -0.22470
0.24075 -0.14207 0.22470
-0.21910 0.37450 0.19885
-0.22523 0.32622 0.06100
0.19383 0.00962 0.22470
0.06624 0.00000 0.00649
-0.20497 -0.26844 -0.22470
-0.00624 -0.36816 -0.19847
0.12660 0.00000 -0.12711
-0.24245 0.37222 0.11591
-0.19992 0.32824 0.16321
-0.08330 0.00000 -0.22026
0.12815 0.02497 0.17790
-0.20918 0.25137 0.20047
-0.20616 0.21045 0.18804
-0.19530 0.02497 0.13320
0.01873 -0.35017 -0.19093
0.01873 -0.36376 0.04838
-0.20609 0.20601 0.11581
0.17723 0.02497 0.16648
0.07015 0.02497 0.20804
-0.19931 -0.13318 0.21222
-0.18997 -0.23962 -0.21222
-0.18860 0.28542 -0.07813
-0.14298 0.02497 0.15194
-0.18438 0.17818 0.22470
0.05202 0.00000 -0.06773
0.14578 0.00000 0.00900
0.12829 -0.34954 -0.21435
-0.02595 0.02497 0.03394
0.08719 0.00000 0.17808
-0.23677 0.37450 -0.21432
0.22656 0.00000 -0.06118
-0.09749 0.00000 0.15342
-0.15352 0.02497 -0.22063
0.18237 0.00000 -0.08961
-0.18993 0.00000 0.09828
0.17365 0.00000 0.18764
-0.20598 0.13589 0.22105
-0.18101 -0.16762 -0.08271
0.16321 0.02497 0.10982
-0.18129 0.22427 -0.01496
0.17917 0.02497 -0.04982
0.01121 -0.34954 -0.04537
-0.09338 0.00000 0.13274
0.15559 0.02497 0.11430
-0.00624 -0.36941 0.15837
0.15752 0.02497 -0.10407
-0.19587 0.03499 0.22470
-0.23906 0.36430 -0.13327
0.00906 0.00000 -0.13468
0.07717 0.02497 0.03372
0.23997 -0.07842 0.21222
-0.23720 0.35988 -0.07758
-0.23133 0.34451 0.16346
-0.19532 0.31317 0.12815
-0.18126 -0.14614 0.22470
0.06391 0.00000 0.01614
-0.20087 0.23554 0.22470
0.20700 0.00000 -0.04851
0.16382 0.02497 0.16002
-0.21330 0.27817 0.16420
0.23586 -0.32880 0.21222
-0.22157 0.31382 -0.05747
0.01023 -0.37043 -0.22470
-0.03644 -0.37450 -0.21855
-0.18762 0.28066 -0.17342
-0.10966 0.02497 0.15024
-0.20372 0.00000 -0.01617
0.24343 -0.23455 0.21413
0.16602 0.01462 0.22470
-0.05734 -0.37210 0.21222
-0.22817 0.33539 -0.07249
-0.13300 0.00000 0.00575
0.19206 0.02497 -0.21529
-0.03073 0.00000 0.03823
0.01611 0.00000 0.12079
0.23189 -0.22663 0.21222
0.04102 0.02497 0.06916
-0.21141 0.26715 -0.20778
-0.20671 0.22363 -0.10986
0.12733 0.00000 -0.14958
-0.18327 0.25129 -0.10486
0.18225 0.00000 -0.18051
-0.19591 0.19973 -0.13451
0.05005 0.00000 0.16014
0.19008 0.00000 -0.18768
0.02717 0.00000 -0.11763
-0.19003 0.29225 0.03291
-0.20598 0.01259 -0.05877
0.21846 -0.15418 -0.22426
0.03630 0.00000 0.01637
-0.22156 0.31378 0.05199
-0.02679 0.01598 -0.22470
0.18503 0.00000 -0.19999
-0.16930 0.02497 -0.14735
-0.18490 0.02394 -0.22470
-0.06520 0.00000 0.20159
-0.19200 0.18898 -0.22470
-0.18498 0.26469 -0.08981
-0.07868 0.02497 0.10193
-0.02003 0.02497 0.08305
-0.18101 -0.16967 -0.17821
-0.15620 0.02497 -0.20031
-0.18101 0.20697 0.10214
0.16406 0.02497 0.06049
-0.00497 -0.37450 0.00230
-0.14346 0.00000 0.05775
0.19697 0.02497 -0.13953
0.16517 0.00000 0.01614
0.14118 0.00000 -0.14285
-0.09084 0.02497 0.03933
-0.23286 0.34866 0.14575
-0.20562 0.15374 -0.22470
-0.20253 0.06917 -0.21222
-0.18488 0.00000 -0.17501
0.17305 0.00000 0.20788
-0.19239 0.19973 -0.01664
-0.21444 0.28398 0.00795
-0.18172 0.23231 0.07146
-0.07178 0.00000 0.13243
-0.16852 -0.36056 0.21222
-0.17668 0.00000 0.10630
0.00516 -0.34954 0.14730
0.01267 0.02497 -0.10935
-0.13487 0.00000 -0.06004
0.22351 -0.02715 -0.21222
-0.18101 -0.18113 0.07375
0.16405 0.00000 -0.07787
-0.21022 0.25971 0.18574
-0.20598 0.01404 0.19412
0.04027 -0.36542 -0.22470
0.21535 0.02497 0.18369
0.01873 -0.35349 -0.11317
0.10877 0.00000 0.09920
0.00914 -0.34954 0.17810
0.10394 0.02497 0.20214
-0.17809 0.00238 -0.22470
-0.09495 -0.35787 0.21222
-0.21361 0.27975 -0.18440
0.09595 0.02497 0.11640
0.00050 0.00000 0.17926
0.03147 0.00000 0.18905
-0.00466 -0.37450 0.05517
-0.17166 0.00000 0.19793
-0.18993 0.29176 -0.11349
-0.16521 0.02497 -0.13068
-0.20300 0.33735 0.07652
0.14217 0.02497 -0.16599
0.10731 0.02497 0.14120
-0.19516 -0.03699 -0.22470
-0.22157 0.31379 -0.04424
-0.20172 0.00000 -0.11437
0.24343 -0.21929 0.22430
-0.20690 0.22732 -0.08755
-0.08144 0.00000 0.08607
-0.03826 0.00000 -0.20913
-0.20598 -0.17290 0.08633
-0.03965 0.00000 0.20459
-0.20335 0.13083 -0.21222
-0.19747 0.32063 0.20658
-0.22684 0.33143 0.13007
-0.02456 0.00000 0.08710
-0.19098 0.18248 0.22470
-0.10443 0.00000 -0.07855
0.21873 -0.02986 0.22470
0.23324 -0.34798 0.21222
0.13393 0.00000 -0.12587
-0.24257 0.37250 -0.18517
0.20395 -0.35980 0.21222
-0.21850 0.37450 -0.00584
-0.10130 0.02497 0.01009
-0.20308 -0.36191 0.21222
-0.18449 0.02497 0.04140
0.15438 0.00000 0.17631
0.12017 0.00000 -0.11202
-0.13233 0.01920 -0.22470
-0.20598 0.10435 -0.22383
-0.19403 -0.35943 -0.21222
0.05348 0.00000 -0.10393
-0.01539 0.00000 0.20139
-0.18407 0.25783 -0.09880
-0.01408 0.01917 -0.22470
-0.23286 0.37450 0.16731
-0.00336 -0.37450 0.16258
-0.20877 0.24809 0.03937
0.22500 0.02497 0.16640
-0.21927 0.37450 -0.19157
0.08419 0.02497 -0.03092
-0.24166 0.37450 0.12201
-0.20400 -0.37117 -0.22470
-0.20618 0.22183 0.22470
0.02403 0.02497 -0.13467
-0.00615 -0.37450 0.07948
0.07515 0.02497 -0.17620
0.17866 0.02497 0.20396
-0.00314 -0.34954 0.02040
0.06241 0.00000 0.09836
-0.18101 -0.18437 0.02041
-0.22472 0.32456 0.07568
0.11608 0.02403 0.22470
-0.13803 0.02497 -0.16925
-0.19049 -0.16228 -0.14327
-0.24009 0.36671 0.05565
-0.20039 -0.33769 0.22470
-0.00207 0.02497 -0.19609
0.03451 0.02497 -0.03517
-0.18138 0.22647 -0.17238
-0.00234 0.02497 0.10098
-0.18367 0.25487 -0.06502
-0.00754 0.02497 0.06842
0.14625 -0.35896 0.22470
-0.00456 0.00000 -0.10691
0.07536 0.02497 -0.15207
0.24343 0.00356 -0.17453
-0.06490 -0.35152 -0.21222
-0.23203 0.34651 0.05137
-0.17044 0.02497 -0.17730
-0.09554 0.02497 -0.15624
0.22036 -0.24968 0.21222
-0.23739 0.36038 0.03429
-0.02538 0.00000 -0.06983
-0.19068 -0.18725 -0.16506
-0.21626 0.29263 0.17917
-0.06067 0.00000 0.17803
0.07732 0.00000 0.11668
-0.18101 -0.17059 -0.07682
0.00229 0.02497 0.18976
-0.20447 0.34133 0.09620
-0.18984 0.29133 -0.14743
-0.19299 0.22547 -0.22470
-0.22155 0.37450 0.17348
-0.06623 0.00000 0.05032
0.09414 0.00000 0.11703
0.01873 -0.35419 0.20863
0.23137 0.02497 -0.12342
0.01044 0.02281 -0.22470
-0.18192 -0.17605 0.22470
-0.17933 0.02497 -0.03154
0.24222 -0.06619 0.22470
0.11955 0.02497 0.12602
-0.20754 0.23544 0.06099
-0.17059 0.02497 0.09249
-0.03964 0.02497 -0.09957
-0.00825 0.00000 -0.05911
-0.18101 -0.17160 0.07325
-0.01725 0.02497 0.18309
0.05893 0.00000 0.07627
-0.22058 0.31012 0.13921
0.03441 0.02497 -0.11318
-0.16177 0.02497 0.19022
0.24343 -0.29604 0.21298
-0.12074 0.02497 -0.05900
0.01423 0.00000 -0.07074
0.20066 0.00000 -0.22326
0.05255 0.01849 -0.22470
-0.06841 0.00000 0.05696
-0.00979 0.00000 0.18161
0.04622 0.00000 -0.13579
-0.05723 0.02497 0.05012
0.07344 0.02497 -0.21595
0.05115 0.00000 -0.22380
0.01873 -0.35366 -0.15438
-0.21768 0.37269 0.21827
-0.17865 0.00000 0.04203
0.16567 0.02497 -0.20584
0.13293 0.02497 0.00669
-0.08084 0.00000 0.18568
-0.11754 0.00000 -0.20552
-0.20611 0.20749 0.11092
0.11873 0.02497 -0.02966
-0.18134 0.22587 -0.11868
-0.20555 -0.16228 -0.03414
0.00114 -0.34954 -0.16351
-0.20967 0.35326 0.14220
0.13232 0.00000 -0.17874
0.13922 0.02497 0.09717
-0.19784 0.32191 0.00996
-0.15836 0.02497 -0.07904
-0.20598 0.14160 0.21734
-0.18183 0.00000 -0.18031
0.17814 0.00000 0.16898
0.00935 -0.37450 -0.05941
-0.02795 0.02497 0.00413
0.12716 0.02497 -0.22454
0.22369 -0.26258 -0.22470
0.13083 0.02497 -0.09693
-0.20608 0.20577 -0.14091
0.12990 0.02497 -0.04846
-0.01671 -0.37379 0.22470
0.18056 0.02497 0.19438
0.24343 0.01161 -0.17544
0.24288 -0.28207 -0.21222
0.15408 0.02497 -0.08496
-0.06640 0.02497 0.16876
-0.18264 0.24464 0.02008
-0.06704 0.00000 -0.11529
-0.20241 0.19973 0.09154
-0.00624 -0.35000 -0.03091
0.15021 0.00000 -0.02295
0.07859 0.02497 0.01276
-0.04480 0.02497 -0.17713
-0.19608 0.19973 -0.18038
-0.15738 -0.37378 0.22470
-0.04938 0.00000 -0.09774
-0.09355 0.02497 0.12670
0.17614 0.02497 0.10111
0.23097 -0.15816 -0.22470
0.19846 0.00000 -0.15687
0.15644 0.00000 -0.21968
0.02353 0.02318 0.22470
-0.21962 0.30660 0.02291
-0.12553 0.00000 -0.04682
-0.15203 -0.35212 0.21222
-0.18158 0.23003 0.09152
0.17828 0.02497 -0.15834
0.11375 0.02497 -0.03150
-0.18224 0.02497 -0.00177
0.00417 0.00000 0.01747
0.09931 0.02497 0.10080
0.01678 0.00000 -0.14496
-0.12348 0.00000 0.14973
0.20953 0.02497 0.08427
-0.20770 0.23733 0.11822
-0.18895 -0.17790 -0.22470
-0.03187 0.00000 0.14686
0.04471 0.02497 -0.22057
-0.19952 -0.04129 -0.22470
-0.20598 -0.17611 -0.11584
-0.15835 0.02497 0.08870
0.00417 -0.37450 0.15998
-0.15834 0.02497 0.21500
-0.18289 0.24730 -0.05273
0.18584 0.02497 0.15467
-0.04341 0.02328 0.22470
-0.09710 -0.36941 -0.21222
-0.20235 0.02497 0.00629
-0.17174 0.00000 -0.00659
0.00230 0.00000 0.15312
-0.11063 -0.35835 0.22470
-0.21928 0.37450 0.07165
-0.18821 0.02497 -0.12892
-0.20598 -0.31857 -0.21781
-0.20614 0.20908 0.09604
-0.04447 0.02497 0.04613
-0.18119 0.21948 -0.09888
-0.21573 0.29031 -0.17884
-0.18193 0.23588 0.03694
-0.00537 0.02497 0.16646
0.24343 -0.34923 -0.21779
-0.05262 0.00000 0.06695
-0.02594 -0.36234 0.22470
0.01006 0.02497 0.01032
-0.18421 0.25888 0.04017
0.19902 0.00000 -0.08011
0.10639 0.02497 0.06834
0.12598 0.00000 0.12665
-0.18299 0.24835 -0.01892
0.19917 -0.37450 0.21652
-0.13665 0.02497 -0.19383
0.03502 0.02497 0.09913
-0.14872 0.02497 0.08004
0.23284 0.02497 -0.19352
-0.24342 0.37449 -0.05220
-0.05273 0.00000 -0.00011
0.01873 -0.34964 -0.06835
-0.00430 -0.37450 -0.05180
-0.20598 0.06544 0.21274
-0.18110 0.21555 0.22274
-0.15913 0.02497 -0.16989
0.05161 0.02497 0.10175
-0.23279 0.34849 0.12916
-0.19823 -0.07559 -0.21222
-0.18513 -0.16228 0.14019
0.21846 -0.01612 0.22050
0.10041 0.00000 0.03027
-0.21392 0.36389 0.12277
-0.03914 -0.36529 -0.22470
-0.19384 -0.18725 0.04147
0.22865 0.02497 0.17067
-0.19145 -0.16228 0.04370
0.02610 0.02497 -0.08404
-0.21325 0.27789 -0.16166
-0.01419 0.02497 0.03473
0.00273 -0.37450 0.12308
-0.13560 -0.35580 -0.22470
-0.18482 0.26345 -0.11078
0.07557 0.00000 0.17416
0.21846 -0.13317 0.22043
0.05734 -0.36422 0.22470
0.21846 -0.18125 -0.22042
-0.05537 0.00000 0.05093
0.16650 0.02497 0.11401
-0.06859 0.02497 0.15490
-0.21907 0.30456 0.13630
0.03352 -0.36757 -0.21222
-0.19181 -0.05626 0.21222
-0.18177 0.23322 0.18637
0.23296 -0.17834 -0.22470
-0.19987 0.32809 -0.03441
0.17577 0.02497 0.14400
0.03535 -0.37450 0.21915
-0.18995 -0.14813 -0.21222
-0.20441 -0.11811 -0.21222
0.13282 0.02497 -0.20229
-0.18612 -0.15944 -0.22470
-0.07440 0.02497 -0.17629
0.19970 0.02497 -0.01123
0.19150 -0.36981 0.21222
0.21925 0.02497 -0.21026
0.02504 -0.35890 0.21222
-0.17900 0.02497 -0.11974
0.07171 0.00778 0.22470
-0.18524 0.12907 -0.22470
0.23660 -0.28687 0.21222
-0.05670 0.00000 0.05976
-0.16855 0.00000 -0.21362
-0.21719 0.29661 0.02740
-0.18929 -0.34298 0.21222
-0.21842 0.37442 -0.11448
0.21780 0.02497 -0.06847
-0.18672 0.19973 -0.11589
-0.19110 0.08851 0.21222
0.07725 0.00000 0.05518
0.21846 -0.14683 0.22209
-0.18547 0.26809 0.19156
-0.18101 0.20014 0.16515
-0.16240 0.00000 -0.20577
-0.00547 -0.34954 -0.08682
0.19094 0.00000 -0.02110
0.14582 0.00000 0.21947
-0.20598 0.14793 0.21548
-0.22204 0.31555 0.13353
-0.14499 0.00000 -0.01593
-0.18616 -0.16228 0.12133
0.00196 0.00000 -0.12032
-0.05735 0.02497 0.16759
-0.18101 0.03030 0.22001
-0.02938 -0.37338 0.21222
0.01290 0.00000 -0.10323
0.20915 0.02497 0.17872
-0.18101 -0.26442 0.21273
-0.14525 0.00000 0.02306
-0.16175 -0.36253 0.22470
-0.18914 0.15376 -0.21222
-0.18438 -0.03766 -0.21222
-0.19772 0.32148 -0.13305
-0.11394 0.00000 -0.10993
0.14206 0.02497 -0.14833
-0.20662 0.22189 0.15225
-0.18979 -0.12129 0.21222
0.05908 -0.37450 0.22323
-0.18176 0.23306 -0.07303
0.04946 0.00000 0.14500
-0.19523 0.00000 -0.05667
0.07298 0.00000 -0.15300
-0.06382 0.02497 0.02402
-0.19160 0.19973 -0.00298
-0.18101 -0.33027 0.22385
-0.18454 -0.18725 -0.02463
0.12954 0.00000 -0.15947
-0.21684 0.37071 0.10677
-0.17038 0.02497 0.21392
-0.18913 -0.18725 0.07316
0.23977 -0.35891 0.21222
0.23624 -0.37097 0.22470
-0.20598 -0.19046 -0.21453
0.03569 0.00000 0.05204
-0.19623 0.02497 -0.09194
0.22205 -0.23043 -0.22470
0.21392 0.02497 -0.06140
-0.21297 0.27649 0.01374
-0.21195 0.35916 -0.15299
-0.05048 0.02497 -0.20597
-0.16291 0.02497 -0.05440
-0.19153 -0.23788 0.21222
-0.21794 0.29983 -0.05895
0.13816 0.02497 -0.01894
-0.00745 0.00000 0.11488
0.24083 0.02497 0.12829
-0.20670 0.22343 -0.19708
0.22207 -0.15087 0.22470
-0.00624 -0.35104 0.00421
-0.19992 0.00000 0.07980
-0.19949 0.32693 0.08214
-0.01260 -0.36354 -0.21222
0.12931 -0.34954 0.21702
0.06530 -0.36630 0.21222
-0.18101 -0.03535 0.21281
0.24343 0.00899 -0.12430
-0.06393 -0.37318 -0.22470
0.00429 0.00000 -0.22053
-0.20982 0.25654 -0.10407
-0.09907 0.00000 -0.11156
-0.24289 0.37325 0.05255
-0.00288 -0.34954 -0.06604
-0.03136 0.00000 -0.17511
0.17312 0.02497 0.20729
0.23852 -0.08179 0.22470
-0.20598 -0.16575 0.04277
-0.20598 0.00147 -0.13013
0.06115 0.02497 0.18929
-0.20690 0.22721 0.03552
0.13877 -0.34954 -0.21321
0.03109 0.00000 -0.21004
-0.19886 0.19973 0.08168
-0.11242 0.00000 -0.17880
-0.02927 0.02497 -0.17944
0.24343 0.01273 -0.09361
-0.20159 0.14082 0.22470
0.24343 0.00097 0.12164
-0.22669 0.33096 0.06382
0.22509 -0.35727 -0.21222
0.00254 0.00000 0.16508
-0.23120 0.34412 -0.08996
0.20261 0.02497 -0.03984
0.11013 -0.37039 -0.21222
-0.08541 0.00000 -0.12091
-0.20813 0.34928 0.05684
-0.21597 0.29138 -0.06677
0.04809 0.02497 -0.00770
0.09305 0.00000 0.14944
0.09632 0.00000 -0.11667
0.23473 0.00000 -0.00428
-0.18132 0.22559 -0.15829
-0.07232 0.00000 -0.02426
0.00448 0.00000 -0.14899
0.01500 -0.34954 -0.03474
0.16530 -0.35245 0.22470
0.03023 0.02497 -0.20950
0.00640 -0.37450 0.20939
-0.20767 0.34811 0.16343
0.19113 0.02497 -0.03271
-0.20403 0.34012 -0.16183
-0.18101 -0.18707 -0.12501
0.14055 0.00523 0.22470
0.24343 0.00454 -0.21757
-0.18703 -0.19531 0.22470
-0.02296 0.00000 -0.13877
0.23319 -0.20416 0.21222
-0.07043 0.02497 -0.11055
-0.20214 0.33497 -0.01819
-0.19771 -0.18725 0.16480
0.08490 -0.37450 -0.21915
0.05353 0.02497 0.00284
0.08739 0.00000 0.04593
-0.18101 -0.16662 0.11707
0.12445 0.00000 -0.22269
-0.20598 -0.28440 0.21595
0.06841 -0.37450 -0.22286
-0.03567 0.02497 -0.19025
0.01873 -0.35222 -0.04004
0.22001 -0.01101 -0.22470
-0.23530 0.35498 0.16145
0.19608 -0.34954 -0.21363
-0.18609 0.25261 -0.22470
0.00061 0.02497 -0.18112
-0.18722 0.27831 0.07784
-0.21148 0.26761 -0.21422
0.02581 0.00000 0.05787
0.22626 -0.09757 -0.21222
-0.19464 0.00000 0.16123
0.21586 0.02497 0.16300
-0.18971 -0.18725 0.16259
-0.18790 -0.36860 0.21222
-0.17321 0.00000 0.16795
-0.21446 0.36515 0.20313
-0.21838 0.30173 -0.11260
-0.20321 -0.28400 -0.22470
-0.11416 0.00043 -0.22470
-0.14325 0.02497 -0.08268
0.01317 0.02497 0.20502
0.08258 0.01397 -0.22470
-0.19801 0.32246 0.06892
-0.20667 0.22292 0.03215
0.22351 -0.04816 -0.21222
-0.20623 0.21396 -0.01672
-0.07015 0.00000 -0.20609
0.24037 -0.37450 -0.21946
-0.20598 0.09243 0.22303
-0.02469 0.02497 0.20494
-0.21579 0.36827 -0.05495
-0.17608 -0.34954 -0.21322
-0.12584 0.02497 -0.18954
-0.07940 0.02497 -0.19009
0.17238 0.00000 -0.21093
-0.18517 -0.01779 -0.22470
0.15599 0.02497 0.18498
-0.18512 0.26567 -0.04011
0.23270 0.00000 0.20606
0.12711 0.02497 -0.12593
-0.22856 0.33652 -0.09568
-0.18135 0.02497 0.15867
0.23048 -0.03860 -0.22470
-0.08705 0.01087 -0.22470
-0.18471 0.14477 -0.21222
-0.05071 0.02497 0.20261
-0.20622 0.21335 0.00580
-0.03279 0.02497 0.08152
0.21471 0.00000 -0.06333
0.03045 0.00000 0.21308
-0.19453 0.19973 0.13903
-0.19465 -0.16228 0.17821
-0.20898 0.24976 0.12854
-0.19382 -0.36680 -0.21222
-0.21683 0.37069 -0.02149
0.01949 0.02497 -0.04589
-0.19067 0.07305 0.21222
0.23581 0.00000 0.19805
-0.10758 -0.35841 -0.22470
0.21846 -0.11763 -0.21589
-0.24320 0.37398 -0.20375
-0.02249 0.00934 -0.22470
0.04451 0.00000 -0.08379
0.04398 0.00000 0.04961
0.15538 0.02497 0.07190
0.00322 0.00000 -0.18033
0.22296 -0.16747 -0.22470
-0.16014 0.00000 0.05315
0.01493 0.02497 0.11434
-0.23500 0.35419 -0.17935
-0.16934 0.02497 0.18189
-0.06945 0.02497 -0.13125
-0.22282 0.31841 0.13984
0.12394 0.00000 0.06637
-0.21224 0.27237 -0.14399
0.12523 -0.34954 0.21394
0.22279 -0.07221 -0.22470
-0.00035 -0.37450 0.13074
0.14324 0.02497 0.07786
0.21846 -0.18629 0.22151
-0.20009 0.02497 -0.07965
-0.07331 0.00000 -0.18663
-0.17654 0.00000 0.05947
-0.20396 0.33995 0.18705
-0.10416 0.02497 -0.17255
0.01946 0.02497 0.17334
-0.20120 -0.18467 -0.22470
0.24343 0.01376 0.18035
0.19391 0.00000 -0.19145
-0.20598 0.02395 -0.20765
0.08351 0.00000 -0.09668
0.03261 -0.37425 0.22470
0.21846 -0.21846 -0.22221
-0.08998 0.02497 -0.05094
0.05576 0.02497 0.22177
0.01242 -0.34954 0.07185
-0.18298 0.22258 -0.22470
-0.06046 0.00000 -0.16766
-0.10956 0.00000 -0.15007
-0.06327 0.00000 0.06603
-0.03311 0.00000 -0.05252
-0.11130 0.00000 -0.01679
-0.22929 0.34847 -0.22470
0.17661 -0.37450 0.22142
-0.20598 -0.36305 0.21912
0.20114 0.00000 -0.16819
0.22595 0.02497 0.12808
0.22789 0.02497 0.18980
-0.19072 -0.22102 -0.22470
-0.02689 0.00458 0.22470
-0.18699 0.27701 0.17711
-0.00624 -0.35251 -0.09173
0.02139 0.02497 -0.22427
0.01420 -0.37450 0.13686
-0.00235 0.00000 0.01953
-0.06187 0.00000 0.05535
-0.19179 0.29158 -0.22470
-0.05633 0.00000 -0.04120
0.22321 -0.02250 -0.22470
-0.02741 0.00278 -0.22470
-0.18201 0.23726 -0.08306
0.24343 0.01496 0.03279
-0.21703 0.37116 -0.13735
-0.20598 -0.17027 0.21498
0.19803 0.02497 -0.07689
-0.23959 0.36554 -0.06373
0.21327 0.02497 0.01243
-0.18101 -0.16432 -0.11031
-0.19410 0.19973 -0.14443
0.09498 -0.36357 0.22470
0.05072 0.02497 0.07689
-0.18247 0.00000 0.08738
0.17020 0.02497 -0.08414
-0.00566 -0.34954 0.14524
-0.22176 0.36762 0.22470
0.07938 0.00000 0.19632
0.22805 0.02497 0.05153
-0.12650 0.02497 0.01794
-0.13650 -0.36655 -0.21222
-0.18101 -0.18740 0.21948
-0.14464 0.00000 -0.09297
-0.20598 -0.17597 0.09242
0.15149 0.02497 0.15621
0.06339 0.02497 -0.18074
0.15032 0.00000 0.05260
-0.21182 0.26977 -0.21946
-0.19026 -0.01204 0.21222
-0.19024 -0.05105 -0.21222
0.14910 0.02497 0.11283
-0.18144 0.22764 -0.10278
0.22013 0.02497 0.09229
0.20922 0.00000 -0.10812
-0.18108 0.21471 -0.11043
-0.17923 0.02497 -0.09626
-0.19680 0.31831 0.15385
-0.20797 0.24042 0.13521
-0.20038 -0.16228 -0.15659
0.14880 0.00000 0.16982
-0.09814 0.00467 -0.22470
-0.17326 0.00425 0.22470
-0.20598 0.01628 0.10761
0.05482 0.00000 -0.00401
0.00498 0.02497 0.06823
0.21597 0.02497 0.19648
0.14273 0.02497 -0.04820
-0.21644 0.36979 0.12964
0.01873 -0.35856 0.15817
-0.08598 0.02497 0.00667
-0.02316 -0.35148 0.21222
-0.18101 -0.14845 0.21273
-0.20496 -0.16228 -0.05450
-0.01662 0.00000 -0.06452
-0.20211 0.05739 0.22470
0.10119 0.02497 0.01404
0.04937 0.01113 -0.22470
0.24245 0.00000 -0.16060
-0.10934 0.02497 -0.09091
0.22925 0.02497 -0.00877
-0.18778 0.13573 -0.22470
-0.01479 0.00000 0.17533
-0.05376 0.00000 -0.07589
-0.07316 0.02497 0.16249
0.10884 0.02497 -0.17552
-0.19625 -0.04666 -0.21222
-0.20598 -0.17711 -0.13382
0.01873 -0.36084 0.20299
-0.21586 0.29090 0.11335
-0.19033 0.06406 0.22470
-0.19453 0.24882 -0.22470
0.01873 -0.36804 -0.03231
0.21216 -0.37272 -0.22470
0.24343 0.00674 0.15493
-0.16484 -0.36244 -0.21222
-0.09413 0.00000 0.22230
0.15971 0.02497 0.08165
-0.19570 0.31449 0.08320
0.09824 0.02497 -0.17642
-0.18730 0.08229 -0.21222
0.06932 0.02497 -0.00915
0.18976 0.02497 -0.08727
-0.18101 0.20463 -0.07667
-0.23570 0.35602 0.00492
-0.20598 -0.02178 0.21304
-0.15915 -0.37450 -0.21542
-0.20648 0.34482 0.19349
0.01764 -0.37450 -0.16118
-0.19114 0.05003 0.22470
-0.20223 0.33526 0.14935
0.15388 0.00000 0.14284
-0.08419 0.00000 -0.08106
-0.22506 0.32566 -0.05495
-0.00816 0.02497 -0.10640
0.15808 0.02497 0.13423
-0.20598 -0.17602 -0.02827
0.00283 -0.37450 0.14890
0.04143 0.02497 0.19841
0.10213 0.02497 0.15913
-0.08354 0.02497 0.10719
-0.18723 0.27838 0.21606
-0.20424 0.09535 -0.22470
-0.18101 -0.18344 0.15543
-0.21072 0.26286 -0.18405
-0.18101 -0.16736 0.20860
0.21722 0.01727 -0.22470
-0.20304 0.33746 -0.19517
-0.04247 0.02497 0.07645
0.23776 0.00000 0.11492
-0.19853 0.32401 -0.11652
-0.06126 0.02497 0.01458
0.04400 0.02497 0.02015
0.24184 -0.14482 0.21222
-0.21538 0.28876 -0.14642
-0.21734 0.37189 0.06271
-0.20598 -0.17127 -0.17616
0.18902 0.00000 0.14657
0.04633 0.02497 0.13537
-0.20861 0.35054 -0.07159
-0.04791 0.00000 0.00240
-0.18101 -0.26149 -0.21934
0.23503 -0.28990 0.22470
0.21846 -0.23836 -0.22246
-0.21518 0.28773 0.14682
0.13831 0.02497 -0.17186
-0.23029 0.34151 0.19666
-0.19315 -0.16228 -0.06207
-0.20915 0.25115 0.01987
-0.17543 0.02497 0.11327
-0.18102 0.21158 0.04201
-0.10004 0.02497 -0.06169
-0.18101 -0.16382 -0.08705
0.08372 -0.36151 -0.22470
-0.20620 0.21273 -0.05168
0.24343 -0.08378 0.22116
-0.05536 0.02497 0.22105
-0.22176 0.31450 -0.08388
-0.12381 0.02497 0.00967
-0.21890 0.30390 -0.22411
0.14069 0.00000 -0.04726
-0.21979 0.30721 -0.17794
-0.18889 -0.18725 -0.00359
0.02680 0.00037 -0.22470
-0.01384 0.02497 -0.15459
0.16560 0.02497 -0.12154
0.08628 0.00000 0.20274
-0.05415 0.00000 -0.05749
-0.11006 0.02497 -0.02085
0.01108 0.02497 -0.12219
0.02041 0.00000 -0.03082
-0.20669 0.22330 0.00124
0.14412 0.02497 -0.12009
-0.20196 -0.16228 -0.02922
-0.19295 -0.37450 0.21929
-0.09305 0.02497 0.05200
-0.16361 0.00000 0.07950
0.10037 0.02497 -0.11056
-0.05745 0.02497 -0.09559
-0.20598 -0.18490 -0.03530
0.15746 0.02497 0.20686
0.06378 0.00000 0.02263
-0.18995 0.02497 0.17429
0.22435 -0.36094 0.21222
0.07388 0.00000 0.09442
0.24343 -0.25302 -0.21682
0.16116 -0.36713 0.22470
-0.20598 0.02184 0.02448
-0.16142 0.00273 -0.22470
0.06319 0.02497 -0.00516
0.23880 0.02497 -0.03153
-0.20598 -0.17237 -0.04603
0.21215 -0.37450 0.21397
-0.11153 0.00000 -0.16980
-0.21985 0.37450 0.16834
-0.03583 0.02497 -0.14607
-0.09708 0.00000 0.16834
0.06112 0.02497 0.13111
-0.18544 0.19973 0.10681
-0.10294 0.00000 -0.08371
0.20020 0.00000 -0.02725
-0.22631 0.32973 -0.01692
0.17675 -0.37450 0.21440
-0.22805 0.33506 0.03500
-0.18101 0.21098 -0.12921
-0.20598 0.01729 -0.10466
0.22416 -0.10140 0.22470
0.11919 -0.37450 0.22429
-0.18634 -0.32070 -0.22470
-0.13730 0.02497 0.05025
-0.20543 0.34391 -0.12442
0.24343 0.02006 -0.15783
-0.10900 0.02497 -0.20030
0.11470 0.00000 -0.07478
0.01873 -0.34977 -0.11773
0.21857 -0.16095 -0.21222
-0.20829 0.24394 -0.11579
-0.18101 -0.06163 0.22239
-0.21180 0.26965 0.11901
-0.20598 -0.18081 0.20532
0.08461 0.02497 -0.04692
0.19617 0.02497 -0.03881
0.10009 -0.34954 0.21877
-0.22141 0.33165 -0.22470
-0.19075 -0.16228 0.02487
-0.19401 0.30864 0.04763
-0.16222 0.02497 -0.20279
-0.13099 -0.35477 0.21222
0.15718 -0.37450 -0.22418
-0.06144 0.00000 -0.08848
0.18657 -0.35547 0.22470
-0.17413 -0.36631 0.21222
-0.18945 0.24617 0.22470
-0.20662 0.22186 0.20510
0.21154 0.02497 0.12118
-0.20598 -0.12181 -0.22018
-0.20598 -0.17102 -0.15629
-0.15668 0.00000 0.20758
-0.03171 0.02497 0.03548
-0.22964 0.37450 0.01689
-0.23543 0.37450 0.16238
-0.12546 0.02497 -0.18081
-0.11406 0.00000 0.08554
-0.01256 -0.37450 -0.21811
-0.22500 0.32546 -0.07088
-0.23566 0.35589 -0.19054
0.24343 -0.02850 -0.22468
-0.19384 0.19973 0.18408
-0.23071 0.34270 -0.14964
-0.18915 0.28801 -0.05486
-0.18101 0.17496 -0.22218
0.22105 -0.17341 0.22470
-0.20598 0.01069 -0.07264
-0.05985 0.02497 -0.04184
0.23573 0.02497 -0.15322
-0.19565 -0.35327 -0.21222
0.10923 0.02497 0.16446
-0.20614 0.20934 0.12004
-0.06091 -0.36413 0.22470
0.07551 0.00000 0.06687
0.23828 -0.06423 0.21222
0.05535 0.02497 0.09255
0.15150 -0.36468 -0.22470
-0.18151 0.22872 0.10321
-0.17578 0.00000 -0.18504
-0.21216 0.35969 -0.03488
-0.20741 0.23400 -0.01484
-0.20989 0.25709 0.12897
-0.20514 -0.29601 -0.21222
-0.21398 0.36405 -0.07015
0.10013 0.00178 -0.22470
-0.03506 0.02497 0.04305
0.23694 0.02268 -0.22470
-0.20666 0.22276 0.09155
0.13385 0.02497 -0.19462
0.18402 0.00000 0.19652
0.07452 0.00000 0.12100
-0.17898 0.02497 0.16673
-0.20555 0.00000 -0.04697
0.15897 0.00000 -0.08548
-0.13449 0.02497 -0.09880
-0.18626 0.27274 0.07689
-0.20598 -0.07423 -0.21412
-0.17117 0.00000 -0.14863
-0.00624 -0.37269 0.19182
0.14296 -0.35895 -0.21222
-0.06389 -0.34954 0.22371
-0.20478 -0.01227 0.21222
0.20053 0.02497 0.18252
-0.18986 0.29141 0.14807
-0.20598 -0.17489 0.17969
-0.18101 -0.29042 -0.21407
-0.18101 -0.31578 -0.22143
-0.12395 0.02497 -0.09972
-0.20015 0.32895 0.06908
-0.00624 -0.37130 -0.15894
-0.19510 -0.16228 0.16820
-0.20333 0.19973 0.06110
-0.09779 0.02497 -0.07954
0.22289 -0.11450 0.22470
0.10223 0.02497 -0.10144
-0.19008 -0.16228 0.16093
-0.21488 0.28623 0.11947
-0.20111 -0.31561 0.21222
0.21934 -0.30903 0.21222
0.10360 0.02497 -0.13244
-0.04009 0.00000 -0.19339
-0.19929 -0.18725 0.14124
-0.20425 0.34074 -0.11351
-0.20133 0.32423 0.22470
0.24343 0.01859 -0.20258
0.05968 0.02497 0.16606
-0.11079 0.02497 -0.04989
-0.04022 0.00000 0.02489
-0.15935 0.00000 -0.09456
-0.17254 0.02497 -0.14292
-0.21261 0.27464 -0.03149
-0.18441 0.26042 -0.05185
0.12036 0.00000 0.18128
-0.18101 -0.16482 -0.17127
-0.23143 0.34479 -0.04419
0.01873 -0.35445 0.14236
-0.19093 -0.31351 -0.21222
0.14160 0.00000 -0.15624
0.07988 0.02497 0.20997
0.17272 0.02497 -0.21155
-0.21165 0.26870 0.16927
0.05692 0.00000 0.15093
-0.19274 -0.32835 0.22470
-0.22660 0.33065 0.02837
-0.22760 0.37450 -0.05236
-0.18449 0.26099 0.18672
-0.21601 0.29154 0.15676
-0.12832 0.02497 0.09866
0.07524 0.02497 -0.09083
0.22254 0.00000 0.12059
-0.20598 0.16309 0.21681
-0.06174 0.02497 -0.09905
-0.19859 -0.00740 0.22470
-0.18549 0.25973 -0.22470
-0.13856 0.00000 -0.22385
-0.03437 0.00000 0.19387
-0.19054 -0.18725 0.13500
-0.20629 0.21575 -0.02411
0.22418 -0.09232 -0.22470
-0.20127 0.33235 -0.07622
-0.22857 0.33655 0.07125
-0.18433 -0.16228 0.16072
0.20877 0.00000 0.18653
-0.13296 0.02497 -0.00165
-0.10963 -0.36679 0.21222
-0.18705 0.27733 0.10523
-0.05403 -0.36246 -0.21222
-0.20278 0.05820 -0.22470
-0.15918 0.00000 -0.16053
-0.02661 -0.37450 0.22012
-0.03379 0.02497 -0.20670
-0.18273 0.00000 -0.04875
-0.20592 0.19923 0.21222
0.21286 0.02497 -0.14388
-0.19857 0.03919 0.22470
-0.19008 0.29245 0.12840
-0.13518 0.02497 -0.08197
-0.24093 0.36866 0.20640
0.14586 0.02497 -0.00729
-0.18135 0.22603 -0.07231
-0.18101 -0.04363 -0.21635
0.19477 -0.35810 0.22470
-0.20137 -0.01040 -0.22470
0.05424 0.02497 0.02544
-0.19584 0.31497 0.09406
0.24194 0.00000 0.20361
-0.18467 0.26235 -0.10110
0.24343 -0.15989 -0.22182
-0.20598 -0.31945 0.22036
0.09357 0.00000 0.08221
0.01173 0.00000 -0.08522
-0.17228 0.02497 -0.10873
-0.05784 0.01516 0.22470
0.19204 0.00000 -0.00126
0.23914 -0.19980 0.21222
-0.22396 0.37450 0.21926
0.20625 0.02497 0.15318
-0.14592 0.00000 0.20554
-0.18455 -0.16228 -0.15187
0.11933 0.00000 -0.18898
-0.20612 0.20806 -0.08627
-0.16740 0.00000 0.06639
-0.13765 0.01202 -0.22470
-0.19593 0.19973 0.10183
0.22495 -0.20718 0.22470
0.02127 0.02497 -0.02546
-0.18638 0.27340 -0.05875
-0.02346 0.00000 0.05123
-0.18101 -0.32668 -0.22462
0.19001 0.02497 -0.10505
0.12411 0.02497 0.10904
-0.06894 0.00000 -0.20043
-0.24127 0.37450 -0.12929
0.08359 0.02497 -0.07253
0.13287 -0.34954 -0.22420
0.09947 0.02497 -0.05416
0.04576 0.02497 0.16426
-0.18581 0.27011 0.08586
0.01537 -0.37450 -0.06476
-0.15064 0.02497 -0.07008
0.01873 -0.37080 0.21035
-0.10133 0.00238 0.22470
0.01631 -0.37450 0.14496
0.13411 0.02497 0.01180
-0.00000 0.00000 0.12405
-0.21907 0.30457 0.11222
0.10339 0.00000 0.13969
-0.00910 0.00000 0.15558
-0.18101 -0.10807 0.21568
0.24268 0.02497 0.01491
-0.21795 0.37332 0.02423
-0.02305 0.02497 0.02958
0.01873 -0.35464 -0.14237
0.17196 0.00000 -0.00053
0.24343 -0.17863 -0.22333
0.10143 0.00000 0.18518
0.18422 0.02497 0.12410
-0.04800 0.00000 0.09183
-0.19272 0.30345 -0.09976
0.23860 -0.37036 -0.21222
-0.18189 -0.16228 -0.13470
-0.06403 0.00000 0.11404
-0.19090 0.29616 0.04552
-0.02536 0.00000 -0.03902
-0.20802 0.24098 -0.04840
0.17784 -0.35299 -0.22470
-0.18127 -0.24637 0.22470
-0.08902 0.00000 -0.07507
-0.20598 0.00877 -0.00233
-0.19926 -0.25515 0.22470
-0.20544 0.00000 0.19395
-0.18656 -0.18725 0.20974
-0.08931 0.02497 0.16953
-0.13702 0.00000 -0.12969
-0.20598 0.00778 -0.14149
-0.13611 -0.35800 0.22470
-0.13032 0.00000 -0.06430
-0.09756 0.02497 -0.07235
0.02652 0.00000 -0.01011
-0.18840 -0.18725 0.02606
-0.18761 0.10333 0.22470
-0.20409 -0.18725 -0.17733
-0.18819 0.00000 -0.05014
0.21846 -0.26857 0.21561
-0.15653 0.01672 -0.22470
-0.18673 0.27548 0.06372
-0.18284 -0.10009 -0.22470
-0.19986 0.02497 0.16275
-0.18636 0.00000 -0.10546
0.02395 0.02497 -0.03796
-0.07750 0.02497 0.09406
-0.20637 0.21713 0.13615
-0.19594 -0.37365 -0.21222
0.01649 0.02497 0.15775
0.13354 0.00000 0.01245
-0.06793 0.02497 0.03711
0.13490 0.02497 0.05595
0.21846 -0.19229 -0.22255
-0.02156 0.00000 -0.01152
-0.11828 0.00000 -0.21980
-0.24094 0.36868 0.08463
-0.16371 0.00000 0.16644
-0.18130 0.22496 -0.09050
-0.00607 -0.34954 0.05150
0.04974 -0.36403 -0.22470
-0.19757 0.32096 0.06364
-0.02187 -0.34954 -0.22332
-0.19619 -0.26146 0.22470
0.03272 -0.36235 0.22470
0.01380 -0.34954 -0.21509
-0.20598 0.04611 -0.21781
0.05999 0.02497 -0.13232
-0.18807 0.28289 0.12141
-0.20850 0.35024 0.15083
-0.18101 -0.17338 -0.06804
-0.15477 0.00000 -0.11131
-0.20598 0.00020 0.16899
-0.15909 0.00000 0.14896
-0.18101 0.06067 -0.21473
0.13625 0.02497 0.22190
-0.18741 -0.18725 0.06701
-0.05388 0.00000 -0.19749
-0.18413 0.25829 0.00076
-0.20598 -0.16712 0.05847
-0.18602 0.19973 0.18832
0.23903 -0.19360 -0.21222
0.11277 -0.37431 0.21222
0.13976 0.02497 -0.09749
0.04749 0.00000 0.10835
-0.12073 0.00000 0.21437
-0.04452 0.02497 -0.16588
-0.07662 0.00000 0.12165
-0.20054 -0.17545 0.22470
-0.19586 0.31503 0.17410
-0.20598 -0.18086 0.12065
0.18785 0.00000 -0.17136
-0.21026 0.35479 0.10098
-0.21060 0.26208 0.03392
-0.14060 0.02497 -0.03905
-0.18101 -0.17467 0.15810
-0.23344 0.35018 -0.16734
-0.21390 0.28125 0.02497
-0.20598 -0.32955 0.22032
0.23399 -0.12261 0.22470
-0.20789 0.23950 -0.07749
-0.18548 -0.08514 0.21222
0.01636 -0.34954 -0.14562
-0.20227 -0.12710 0.22470
0.01873 -0.36567 -0.16751
-0.23643 0.37450 -0.20396
0.11890 0.00000 -0.03094
-0.18763 0.19162 0.21222
-0.18101 -0.15657 0.22021
0.11972 0.02497 0.04425
-0.18101 0.20396 0.00234
-0.04198 0.00000 0.10708
-0.18101 0.20385 -0.05765
-0.20598 0.01775 0.14983
0.24343 0.00496 0.14334
0.11404 0.02497 0.02675
0.11054 0.00000 0.04862
-0.19017 0.29287 0.12274
-0.05867 0.00000 -0.15812
-0.19122 -0.34793 0.21222
-0.22318 0.37450 -0.10052
-0.19423 0.30940 0.10033
-0.18830 -0.18725 -0.10000
-0.15653 0.02497 -0.13990
-0.12681 0.02497 0.05650
-0.20476 -0.27618 0.22470
0.04696 0.02497 -0.06227
0.05243 0.02497 -0.17580
-0.00362 -0.34954 -0.18657
-0.19075 -0.09200 -0.21222
0.20421 0.02497 0.22166
0.22894 -0.18294 0.22470
0.11039 0.02497 0.09614
0.00296 -0.34954 0.17325
0.24343 -0.19957 0.22278
-0.09510 0.00000 -0.13722
0.03430 -0.37450 -0.21429
-0.20598 0.00097 -0.02970
-0.13888 0.00000 -0.06897
-0.00624 -0.35815 -0.05242
-0.20363 0.06955 -0.22470
-0.05071 0.02497 0.02250
-0.18189 0.23531 0.03113
-0.20343 0.33850 0.12272
0.07975 0.01825 0.22470
-0.20237 -0.18725 0.09197
-0.18498 0.26468 0.06895
-0.18101 -0.25194 -0.21840
-0.20554 0.19364 0.21222
-0.20598 -0.17686 0.21320
0.20726 0.00000 0.15059
-0.18101 0.06065 0.21660
-0.14644 0.02497 -0.15781
0.22006 0.00000 0.04826
0.23304 0.00000 -0.10150
-0.19727 -0.34006 -0.21222
0.12325 0.00000 0.20109
0.14882 0.00000 0.19980
-0.16408 0.01018 0.22470
-0.20598 -0.01761 -0.22385
0.18930 0.02497 -0.00676
0.01216 -0.34954 -0.06156
0.11923 -0.34954 -0.21892
-0.19123 0.29748 -0.04989
0.24262 -0.03575 -0.22470
-0.22859 0.33661 0.13095
0.01526 -0.34954 0.14421
-0.09722 0.01516 0.22470
0.01498 0.02497 0.06873
0.23646 -0.03242 0.21222
0.00169 0.02497 -0.17115
-0.20068 0.33056 0.02190
0.00429 -0.34954 -0.10442
0.00081 -0.37450 -0.01561
-0.13731 0.00000 0.12469
0.08507 0.00000 -0.11790
-0.00624 -0.36078 -0.18466
-0.21214 0.27174 -0.02244
-0.19027 0.00000 -0.00501
0.14129 0.02497 0.15148
0.24343 -0.11147 -0.21702
-0.21508 0.28726 0.17183
-0.20148 0.16243 0.22470
0.22636 -0.33791 -0.22470
0.09498 0.02497 -0.12465
-0.20598 0.01328 0.22103
0.19501 0.02497 -0.11141
-0.00451 -0.37450 -0.08158
-0.10145 0.00000 0.19342
0.00421 0.00000 0.19516
-0.10969 0.00000 -0.08721
0.17958 0.00000 -0.02445
0.16476 0.00000 -0.17610
0.22065 -0.06596 0.21222
-0.20598 0.11369 -0.22243
-0.24191 0.37097 0.19885
-0.00624 -0.36139 0.15468
-0.21554 0.36769 0.00001
0.07264 -0.36176 -0.21222
0.14856 0.00000 -0.04621
-0.18101 -0.16553 -0.22185
0.22625 0.02497 -0.14369
0.18302 0.02497 0.00180
-0.21734 0.29723 -0.15364
0.24343 0.01770 0.14436
-0.18101 0.21048 0.21449
-0.20318 0.33785 0.19612
0.24343 -0.15548 0.22061
-0.18386 0.19973 -0.13118
-0.18161 -0.18725 -0.07724
-0.08108 0.02497 0.01474
-0.11623 -0.36501 -0.22470
-0.20609 0.20598 -0.10313
-0.17782 0.02497 -0.06806
-0.22165 0.31410 0.00330
0.24315 -0.07734 0.22470
0.01873 -0.35434 -0.13544
-0.18101 -0.18669 0.04334
-0.13697 0.02497 0.15116
0.17099 0.00000 -0.07714
-0.21562 0.28984 -0.07659
0.23326 -0.11379 -0.21222
-0.13823 0.02497 0.21062
0.11850 0.02497 -0.20773
-0.10619 0.02497 0.21011
0.17040 0.02497 -0.09165
0.14914 -0.37450 0.21985
-0.20020 0.32908 -0.07106
-0.23924 0.36473 0.18702
0.22118 -0.04925 0.22470
-0.20598 0.11573 0.21232
-0.23051 0.37450 0.11531
-0.04036 0.00000 -0.18523
0.20176 0.01945 0.22470
0.00873 0.02497 0.09058
-0.19490 0.14854 -0.22470
-0.04550 -0.36431 0.22470
0.18394 0.00000 0.15182
-0.21130 0.26649 -0.10776
-0.19248 0.30248 0.18020
-0.14069 0.00000 -0.21904
-0.19452 0.02497 -0.08397
0.16074 0.00000 -0.09430
-0.19861 -0.00077 -0.21222
-0.09385 0.00000 -0.01341
0.24037 -0.22480 0.22470
0.14977 0.02497 0.13028
-0.15106 0.02497 -0.00235
-0.21486 0.36610 0.08216
-0.19948 0.32692 0.02580
-0.23193 0.34623 0.19202
0.12669 0.02497 -0.14490
0.21542 0.00000 0.15010
-0.20804 0.34905 0.12964
0.23723 -0.24714 -0.21222
0.20520 0.00000 0.18011
-0.15215 0.00000 -0.00460
0.21856 0.02497 -0.15115
0.21846 -0.20485 0.21483
0.03316 0.00000 -0.03233
0.14117 0.02497 0.11642
-0.22395 0.37450 0.16475
0.01629 0.00000 0.04234
-0.20496 0.29203 -0.22470
0.09069 0.02497 -0.07446
-0.01866 0.02497 -0.19861
-0.19625 -0.24145 0.22470
0.07299 0.02497 0.18080
-0.00624 -0.36660 0.13287
-0.19466 0.31090 -0.12570
0.10440 0.00000 0.00924
-0.20176 0.19973 0.07507
-0.18101 -0.34044 0.22219
0.01873 -0.37334 -0.12390
0.01873 -0.37194 -0.15078
-0.20598 0.02204 0.17364
0.00471 0.02497 0.17783
-0.20598 -0.17250 -0.07485
-0.17827 0.01496 0.22470
0.12155 0.00000 -0.06944
-0.10935 -0.34954 0.21680
-0.18604 0.27142 -0.18133
-0.01459 0.00000 0.00055
0.22108 -0.31810 0.22470
0.12642 0.00000 0.02445
-0.20553 0.00000 -0.09835
-0.19836 0.32350 0.13779
0.08184 0.00000 -0.07946
-0.18207 0.23837 0.05906
-0.20706 0.34651 -0.19298
-0.03659 0.00000 0.12400
-0.18166 0.00000 -0.01072
0.11938 0.00000 0.11150
0.08700 -0.36811 0.22470
0.00879 0.02497 0.00457
-0.21134 0.26676 0.01515
-0.19118 -0.00450 -0.21222
0.21846 -0.14923 0.21223
-0.12865 0.02497 0.12595
0.24343 -0.26791 0.21499
0.22189 -0.36764 0.22470
0.24021 0.00000 -0.18209
-0.05869 0.02497 0.09087
-0.18246 -0.16228 -0.18202
0.14298 0.02497 -0.15609
-0.19381 0.16831 0.21222
-0.21366 0.36328 -0.07755
-0.20300 0.33737 0.06109
0.09941 0.00000 -0.01162
0.05616 0.00225 -0.22470
-0.12106 0.02497 0.01872
0.24343 -0.11683 0.21534
-0.04361 0.02497 0.20231
0.03660 -0.37254 -0.22470
-0.21582 0.29073 0.06520
-0.22533 0.32655 0.17720
0.02193 0.02497 -0.20465
-0.20378 -0.18725 0.03741
-0.04254 0.00000 0.01502
-0.18101 -0.18093 0.14079
0.02036 0.00000 -0.09849
-0.02386 0.00000 -0.07588
-0.21741 0.37205 -0.06999
0.02786 0.02497 -0.00090
-0.20518 0.00000 -0.15497
-0.18753 -0.07940 -0.21222
0.12898 0.02497 0.07298
-0.04962 -0.35326 -0.21222
0.24343 0.00102 -0.07411
-0.20806 0.24137 -0.21711
-0.21980 0.30726 -0.14264
-0.06126 0.00000 -0.15292
0.23855 0.00000 0.16267
-0.20906 0.25038 -0.12443
0.22912 -0.14178 -0.21222
-0.14557 0.00000 0.13294
-0.18003 -0.35386 0.21222
-0.17702 0.02497 -0.04061
-0.01044 -0.37450 -0.21330
0.22399 -0.37450 -0.21578
0.03629 0.00000 -0.08832
-0.19117 0.02497 -0.07992
-0.18101 -0.20657 0.22001
-0.18268 0.24505 -0.16877
-0.06949 0.02497 0.05971
0.09686 0.02298 0.22470
-0.18101 -0.17916 0.09202
-0.20635 0.21680 -0.14660
-0.12690 -0.37450 0.21482
-0.17751 0.02497 -0.15916
-0.19801 -0.18725 0.03632
-0.00226 -0.37450 0.15426
-0.19164 0.29912 0.21743
-0.06248 0.00000 0.16425
0.02035 0.00000 -0.17099
0.07948 0.00000 -0.13038
-0.20202 0.33461 0.16427
-0.21630 0.29280 0.10679
-0.18290 0.24742 0.16595
0.03887 -0.36671 -0.21222
-0.14729 0.02497 0.16839
-0.00186 0.02497 0.19374
-0.18351 0.25367 0.17906
-0.21833 0.30149 -0.08068
0.04581 0.00000 0.20662
-0.00624 -0.36514 0.08133
-0.09354 -0.36219 0.22470
0.24343 -0.25727 0.22135
0.16712 0.00000 0.00425
-0.07762 0.00000 0.00147
0.19677 0.02497 0.20761
0.24098 -0.32264 -0.21222
-0.05887 0.02497 0.12916
-0.23758 0.36085 -0.01380
0.21218 0.00000 0.14562
0.05747 0.02497 0.20362
-0.13633 0.00000 -0.09746
0.24231 -0.17558 0.22470
0.24343 -0.00639 0.21844
0.21202 0.00000 -0.07456
-0.18204 0.23786 -0.03771
0.24343 -0.10537 0.22394
-0.00970 0.00000 -0.06662
-0.19750 0.02497 0.15211
-0.22573 0.32784 0.20871
-0.15685 0.02497 0.07344
-0.03362 0.00000 0.22203
-0.18316 0.25010 0.01016
-0.18128 0.22381 -0.05467
-0.18295 0.19973 -0.20365
-0.03215 0.00000 0.08730
0.14800 0.00000 0.08230
-0.11576 0.02497 -0.19211
-0.20598 0.00488 -0.12482
-0.19633 0.02497 -0.03043
-0.08148 0.02497 -0.15069
0.05928 0.00000 0.16495
-0.19656 0.19973 0.06934
-0.20618 0.34395 0.16663
0.15587 0.02497 -0.01664
-0.17725 0.00000 -0.15596
-0.01367 0.02497 -0.19808
-0.19526 -0.37391 0.22470
-0.20486 0.02497 0.18985
0.07413 0.00000 -0.18721
0.20963 0.02497 -0.13032
-0.15010 0.00000 -0.17040
0.21537 -0.34954 0.22316
0.08722 0.00000 -0.00270
0.00700 -0.34954 0.10983
0.18335 0.00000 0.04250
0.08681 -0.35224 0.21222
0.01066 0.02497 0.14675
-0.21832 0.30147 0.08945
-0.02467 0.02497 -0.01782
0.01187 0.00000 0.05985
0.23801 -0.12156 -0.22470
0.06725 0.02497 -0.16633
0.05734 0.00000 -0.08904
0.10529 0.00000 0.11824
-0.10036 0.00000 -0.02148
-0.08955 0.00000 0.21129
-0.19238 -0.18725 -0.15832
-0.04584 -0.37083 -0.21222
-0.00774 0.02497 -0.19931
-0.13623 -0.37450 0.21962
0.20049 0.00000 0.20976
0.01873 -0.35084 0.00803
0.07147 0.00000 0.15830
0.21037 0.02497 0.16142
-0.20553 -0.16228 0.13616
-0.20442 -0.20875 -0.21222
0.24146 -0.16905 -0.21222
0.23108 0.02222 0.22470
-0.02005 -0.34954 -0.21562
-0.20598 -0.05131 -0.22080
0.14100 0.00000 0.03186
-0.20598 0.05155 0.21510
-0.20352 -0.22959 0.21222
-0.08709 0.02497 0.13528
-0.09461 0.02497 0.06669
-0.05412 0.02497 0.14325
-0.14179 0.02497 0.11032
0.07008 0.00000 -0.17834
0.06059 -0.35621 0.22470
0.01873 -0.35668 0.14848
0.01295 -0.34954 -0.11257
0.19033 -0.37450 -0.22161
-0.20026 0.32926 -0.13317
-0.20598 -0.17926 0.17165
0.20133 0.02497 -0.02402
-0.18367 -0.28256 0.21222
-0.14211 -0.34954 0.21343
-0.07922 0.02497 0.20925
-0.18101 -0.05023 0.21546
0.15348 0.02497 -0.20914
-0.02905 0.01171 0.22470
0.07963 -0.37450 0.22049
-0.00325 -0.37450 -0.20904
0.01023 0.00950 -0.22470
-0.07377 0.00000 -0.17104
0.17675 0.00000 0.12348
-0.22798 0.33484 0.17191
-0.19059 0.00000 0.12907
0.19499 0.02497 -0.01827
-0.13315 -0.34954 -0.22399
-0.13949 0.00000 0.09665
0.08464 -0.35066 -0.21222
-0.20598 -0.12507 0.21268
-0.02333 0.00000 0.00004
0.24145 -0.16580 -0.22470
0.19943 0.02497 -0.20512
-0.20088 -0.37159 0.21222
-0.06243 -0.35522 -0.22470
-0.13718 0.02497 -0.05549
0.09774 0.00000 0.20961
0.00137 0.02497 -0.05629
-0.20721 0.23175 0.00541
0.22956 -0.27454 0.22470
-0.20584 0.34501 -0.15472
-0.20598 -0.37256 -0.21531
-0.10173 0.00000 -0.18613
0.24316 -0.13504 0.22470
0.16110 0.02497 -0.09130
-0.18341 0.25268 -0.04412
-0.20598 0.00611 0.04757
-0.20600 0.20101 0.18245
-0.20092 0.02497 0.07462
-0.16959 0.00000 0.07560
0.07790 0.00636 -0.22470
-0.18167 -0.16228 0.03069
-0.14847 0.00000 0.05277
-0.18101 -0.29163 0.21493
-0.08266 0.02497 -0.12887
-0.20598 -0.17856 0.09908
-0.20370 0.33924 -0.14186
0.03460 0.00000 0.14820
0.14169 0.00000 -0.20892
0.22729 0.00000 -0.09419
0.13715 0.00000 -0.20199
-0.15925 0.00000 0.12706
0.05717 0.00000 -0.03490
-0.00160 0.00000 0.17057
0.09816 0.02497 0.03099
0.09881 0.02497 -0.02971
-0.20956 0.25447 0.06838
0.19411 -0.36826 -0.22470
-0.20598 -0.17413 -0.06282
