-0.12190 0.27244 0.03625
-0.10179 -0.02257 0.00712
0.12321 0.00260 -0.05306
-0.00605 -0.01251 -0.11241
0.19753 0.01897 -0.18257
-0.14707 0.20567 0.00032
-0.13144 -0.06842 -0.04195
-0.15333 0.26743 -0.10239
-0.16804 -0.06071 0.01329
-0.16804 -0.07389 -0.00127
-0.06815 0.11811 0.16751
-0.15260 0.24358 0.09656
-0.13029 0.30577 0.01728
-0.11963 -0.03595 0.13075
-0.10504 0.00981 -0.17527
0.14119 -0.39054 -0.14374
-0.15089 0.12592 -0.01070
0.14126 -0.34926 0.16874
-0.06833 0.09911 -0.16130
-0.14707 0.34243 -0.16026
-0.15263 -0.05240 0.01091
-0.01030 -0.02257 -0.04861
-0.16876 -0.09488 0.04195
-0.12190 0.29772 0.08212
0.08135 -0.02163 -0.09903
-0.14707 0.24262 0.03142
-0.18972 -0.16969 -0.04195
0.04322 -0.03557 0.10736
0.05161 -0.06875 0.13140
0.00815 -0.02204 -0.09732
-0.13627 -0.07869 0.03665
-0.14707 0.27419 0.13135
0.14151 0.01938 -0.11392
-0.23010 -0.39782 0.02332
0.09751 0.00612 0.16205
0.15092 -0.39483 -0.12602
-0.15546 0.28239 0.07115
-0.05756 -0.01802 -0.10323
0.08356 -0.18865 0.14382
-0.15321 0.24485 0.08460
-0.16804 0.00703 0.01522
-0.14783 0.30679 -0.06455
0.02803 -0.02257 -0.04006
0.20000 0.01938 0.15392
-0.18479 -0.17617 0.00076
0.05594 0.12856 0.16908
0.17970 0.09821 0.15943
0.07135 -0.02257 -0.02018
0.08250 0.00260 0.02524
-0.20796 -0.18022 -0.00068
0.16025 0.00260 -0.06065
0.14743 -0.38727 0.15266
-0.05826 0.10470 -0.17325
-0.10797 -0.03918 -0.07820
-0.21320 -0.22816 0.04195
-0.10668 0.03384 -0.17578
0.06592 0.00260 -0.09393
0.14678 0.00260 0.13322
-0.15546 0.28030 -0.07759
-0.23668 -0.33991 -0.03604
-0.01548 0.12742 -0.15992
-0.08933 -0.03935 -0.00446
-0.04227 -0.02257 0.04116
-0.14707 0.18547 0.05599
-0.14707 0.16674 -0.01091
-0.12190 0.37128 -0.10922
-0.19634 -0.14949 -0.03781
0.06989 -0.02000 -0.10335
-0.05828 0.00260 0.05531
0.07255 -0.09888 0.12649
0.18221 0.00260 -0.07495
-0.14707 0.34679 0.09115
-0.00423 0.00260 -0.08062
-0.14767 0.14862 0.03101
-0.13180 0.00260 0.03695
-0.14707 0.22229 -0.05153
-0.15714 0.26814 0.03872
-0.21165 -0.27598 0.00168
0.10655 0.00260 0.07090
0.09565 0.12845 0.16790
-0.12190 0.34870 -0.04010
-0.13380 0.29700 0.11720
0.07108 0.01938 -0.14599
-0.01406 -0.02255 0.09290
-0.18125 -0.11661 0.01670
0.07512 0.00260 0.06843
-0.16804 0.00144 -0.01682
-0.15631 -0.00693 0.01562
0.04876 0.00260 0.08533
-0.05947 -0.03935 -0.03186
-0.16768 -0.09091 -0.00333
-0.10711 -0.02257 0.01442
-0.12190 0.20801 -0.15854
-0.12345 0.15742 0.09508
0.12707 -0.29495 -0.16226
-0.16804 0.02185 0.00549
0.16649 0.01938 -0.07348
-0.15744 0.27639 0.04015
0.11200 0.01938 0.01246
0.22623 0.00260 -0.00160
-0.12190 0.24342 0.11321
0.12774 -0.01980 0.01065
0.13971 -0.00650 -0.09675
-0.14707 0.23825 0.03647
-0.16137 -0.12278 0.02511
-0.23682 -0.36208 0.01858
0.06711 0.12884 0.17033
-0.14707 0.17606 0.09424
-0.05873 0.00260 -0.02599
-0.14707 0.26699 0.00204
-0.14815 0.26992 0.04195
-0.15509 0.25096 0.00770
-0.15546 -0.02088 0.01313
0.03704 0.00260 0.15712
-0.14316 0.14673 0.01565
-0.13029 0.27290 0.11039
0.11030 -0.02257 -0.00225
-0.14707 0.26712 0.02940
-0.10065 0.01938 -0.10423
0.18551 0.00260 0.13869
0.10197 -0.00645 0.11576
-0.13029 0.30151 0.08736
0.18521 0.14028 -0.16064
-0.15512 0.29284 -0.01287
-0.12190 0.16168 -0.05020
-0.13222 0.39692 0.02484
-0.14707 0.23465 0.06173
-0.08453 0.01938 -0.04496
-0.14707 0.35995 -0.02613
0.11571 -0.28106 -0.14626
0.06211 0.01938 0.15935
-0.09733 -0.03714 -0.04195
0.14084 -0.00272 -0.09257
0.04285 0.00260 -0.00038
0.09801 0.01938 0.07093
-0.12190 0.23264 0.16703
0.18506 0.06258 0.16060
0.02816 0.01938 0.10612
0.13575 -0.01330 0.10149
0.03652 -0.02257 0.04850
0.10374 0.13454 0.15974
-0.15230 0.13924 0.03712
-0.21923 -0.36278 -0.02220
0.05353 -0.06626 0.12273
0.18867 0.04985 -0.17261
0.10163 0.00260 0.08828
-0.07356 0.01938 -0.00069
0.18297 0.00260 0.12196
-0.15687 0.04555 -0.00764
-0.22071 -0.34185 0.04195
0.06116 -0.08667 0.13975
0.03976 0.00260 0.07435
-0.21027 -0.26793 -0.03329
0.20874 0.01938 -0.10219
0.08002 -0.02257 0.01898
0.04719 0.01408 0.15973
-0.13029 0.26634 0.02725
0.12778 0.01938 -0.00570
-0.14025 0.31186 0.01081
-0.13029 0.30777 -0.00406
0.04276 -0.03545 0.08997
0.05821 -0.03432 0.09178
0.12351 -0.02149 0.08181
0.14255 -0.38904 0.14116
-0.16804 -0.06961 0.03807
-0.03248 -0.02257 0.01826
0.10064 0.01938 0.06390
0.00475 -0.02257 0.03668
-0.02842 0.01938 0.07329
-0.15302 -0.04885 -0.03402
-0.14707 0.25137 -0.02556
-0.15288 0.27248 -0.10336
-0.16804 0.04074 0.01438
-0.10016 -0.03935 0.02649
-0.16804 0.13318 0.00762
-0.23619 -0.37848 0.03739
0.10649 0.01938 -0.06477
-0.18754 -0.18384 0.03330
0.09913 0.00260 0.08456
0.09196 -0.15574 0.14196
-0.16162 -0.12331 -0.00496
-0.01866 -0.02257 -0.01372
-0.13883 0.38668 -0.09875
0.12878 -0.32308 -0.16788
-0.09879 0.03515 0.16710
0.00505 0.00260 0.11308
0.12805 -0.01962 -0.05312
0.18926 0.01938 0.04903
-0.14707 0.31223 -0.18136
0.04002 0.00260 0.02201
-0.11641 -0.02597 0.17492
-0.12995 0.16149 0.11488
-0.07982 -0.02257 0.02376
-0.22685 -0.25129 0.00866
0.14434 0.14487 -0.16543
-0.13781 0.23119 -0.10606
0.11604 -0.02257 -0.04460
-0.10831 -0.03935 -0.00384
-0.16804 -0.00572 0.00851
0.02014 -0.02257 -0.09211
-0.14720 0.27946 0.03780
0.11427 0.00260 0.01700
-0.15530 0.15258 0.03775
-0.13254 -0.03652 -0.02709
0.10665 0.01938 0.12065
0.05922 -0.08632 -0.13840
0.07653 -0.13410 -0.12932
-0.22255 -0.31821 0.04195
-0.04618 0.00260 0.03386
0.14602 -0.38037 0.15801
-0.16804 -0.01332 0.00862
0.01623 0.01938 0.00887
-0.12746 0.14638 -0.00671
0.15720 0.13571 0.15949
0.18198 0.04955 0.15968
-0.14707 0.22770 0.09292
-0.14729 0.15114 -0.01558
-0.16229 -0.08195 -0.01941
0.06090 0.00260 0.09953
0.07163 0.00260 0.10537
-0.23675 -0.35170 0.01990
0.20431 0.00260 -0.11751
0.12107 0.01938 -0.02928
-0.16275 0.18112 -0.03056
0.14084 -0.00273 0.09738
-0.13029 0.29128 -0.10667
-0.02295 0.12596 0.17589
-0.07930 0.09001 -0.16106
-0.05990 -0.02257 -0.03664
0.02343 0.00260 -0.04350
-0.20060 -0.16068 0.02337
0.04678 -0.02257 -0.02180
0.01340 -0.02257 0.06006
0.04979 0.13516 0.17601
0.10588 0.00260 0.08452
0.03787 0.01938 0.12786
0.18440 0.13609 -0.16032
-0.01391 0.01938 0.15413
-0.14707 0.30330 0.01817
-0.09777 0.08489 0.17548
-0.04784 -0.02257 -0.02634
0.17761 0.01938 -0.16932
-0.16804 -0.01669 -0.01738
-0.12190 0.37780 0.07984
0.01423 0.00260 -0.03251
-0.00955 -0.03935 -0.03465
-0.05021 0.00260 0.00924
-0.14707 0.22149 -0.01211
-0.14707 0.35822 0.03156
0.17516 0.04446 0.17567
-0.05807 0.01938 -0.09653
-0.14707 0.21226 0.15045
0.12988 0.13269 0.17509
-0.13029 0.24827 0.07100
-0.15483 -0.02940 -0.04157
-0.13792 0.27899 0.11627
-0.12055 -0.03477 -0.11967
-0.03852 0.00260 -0.08210
0.00739 0.01938 -0.12825
0.17275 0.03401 -0.17475
-0.13036 0.35881 0.18186
-0.17281 -0.10046 -0.00413
0.07796 -0.02257 -0.04002
-0.08378 0.01938 0.14032
-0.10836 -0.02709 0.00230
0.06088 -0.04066 0.11875
-0.00404 0.00260 -0.02763
-0.13453 0.31356 0.10356
0.01997 0.00260 0.01669
-0.11253 -0.03935 -0.00624
-0.14707 0.39190 0.00650
-0.15333 -0.04587 0.03511
-0.07614 0.01938 -0.17358
-0.08149 0.00260 0.06698
-0.16048 0.19762 0.03773
-0.13029 0.26843 -0.07285
0.17707 0.00260 -0.13676
-0.03246 -0.02257 -0.04570
-0.12831 -0.03034 -0.00238
0.18602 0.04121 0.17453
-0.12770 -0.06508 0.00266
-0.15448 -0.10988 -0.03915
-0.09872 0.03435 -0.16727
0.23101 0.00650 0.07077
-0.12190 0.18759 -0.09512
0.04948 -0.03935 -0.01057
-0.10326 0.03263 -0.16112
0.08756 0.00260 0.07325
-0.10490 -0.02354 -0.13319
0.13528 -0.31880 0.16202
0.00069 -0.02257 -0.08590
-0.16643 0.07651 -0.02553
-0.16749 0.02450 -0.02875
0.08370 -0.03241 0.03153
0.13945 0.13857 -0.17600
0.06737 0.01938 0.14883
-0.00479 0.00260 -0.00492
0.08127 -0.02257 0.06227
0.15217 -0.38855 0.10694
-0.12140 0.00260 -0.05255
-0.12190 0.18540 0.01689
-0.16804 0.12220 0.00102
0.02988 -0.02257 -0.01194
0.22601 0.00299 0.09755
-0.03773 0.01938 -0.08935
-0.22159 -0.39782 -0.00281
-0.05791 -0.01779 0.03919
0.01698 0.00260 -0.01709
0.07981 -0.11207 0.13237
-0.12190 0.21837 0.11158
-0.12085 -0.03434 -0.07888
-0.13268 -0.03935 0.01086
-0.15685 0.04679 -0.02382
-0.15495 0.25027 -0.01697
0.20189 0.01938 -0.06716
-0.23295 -0.39782 -0.00273
0.06243 -0.10569 0.13833
-0.14656 0.32231 -0.18656
-0.13438 0.23037 -0.09206
-0.06632 -0.03935 -0.00535
-0.14707 0.25873 0.01544
-0.21759 -0.31895 0.04195
-0.05921 0.10315 0.16332
-0.12190 0.32546 -0.13128
-0.13809 0.01420 -0.03952
0.05370 -0.02340 0.03509
0.16771 0.02404 -0.16881
-0.13762 0.35653 -0.18724
0.14271 -0.35577 0.16974
0.10919 0.13153 -0.17428
-0.23683 -0.36356 -0.01664
-0.15688 -0.11426 0.03533
0.02954 0.00260 0.04257
0.03750 0.00260 -0.08116
-0.05634 -0.01883 0.10103
-0.09320 0.09448 0.16173
-0.12190 0.34826 -0.09563
0.05930 -0.02257 0.02443
0.08680 -0.17299 0.13380
-0.06643 0.01938 0.15966
-0.13029 0.30900 -0.04659
0.00627 -0.02257 -0.01906
0.00424 0.00260 -0.06473
-0.01437 0.00260 -0.07159
-0.02951 0.01938 0.10315
-0.16550 0.01173 0.03135
-0.15456 0.29537 -0.05944
0.15504 -0.39369 0.10623
-0.15064 0.20168 0.04195
-0.13772 0.31280 -0.10343
0.14660 -0.39595 0.17159
-0.12190 0.33154 -0.01017
0.12806 0.00260 0.03571
0.09500 0.01938 0.12658
-0.02614 0.01664 0.16978
-0.10853 0.02005 0.17607
-0.16804 0.02375 -0.01043
0.06187 0.14448 -0.16435
-0.12190 0.27788 0.18328
-0.15033 -0.06248 0.00524
-0.16545 0.16546 0.01477
-0.03346 -0.01653 -0.10865
-0.03638 -0.02257 0.05392
-0.19812 -0.17229 -0.04195
-0.18497 -0.14178 -0.04195
-0.15196 0.19470 -0.04195
0.02454 0.01938 -0.07935
-0.10552 -0.02072 0.17543
0.02036 0.01938 -0.01039
-0.11373 -0.03896 -0.15070
-0.19883 -0.19634 0.04195
-0.03159 -0.00278 -0.11686
-0.22809 -0.25791 -0.02789
0.12917 0.01938 0.16128
-0.15739 0.23572 -0.02621
-0.00921 -0.02257 0.04192
0.13489 -0.31906 0.15535
-0.12190 0.17963 0.08800
0.11658 -0.26682 -0.14527
0.12858 0.00146 -0.11741
0.11581 0.01938 -0.05413
-0.23386 -0.32715 -0.04195
-0.04765 0.01938 0.07708
0.12013 -0.02227 0.04560
-0.14707 0.34690 0.16320
-0.03550 0.13078 0.17369
-0.14707 0.19448 0.09574
-0.14603 0.38894 0.07930
-0.11944 -0.03606 -0.04322
-0.00611 0.00260 -0.11210
-0.13370 0.31368 0.02163
-0.14707 0.25433 0.08317
-0.14065 0.25833 -0.11521
-0.16804 0.07962 0.02285
-0.15546 0.28363 0.05256
-0.13118 -0.07060 -0.01243
-0.23655 -0.33303 0.01304
-0.16830 -0.09195 -0.01552
0.04202 -0.02257 -0.02398
-0.02773 0.00260 -0.07860
-0.12190 0.19351 -0.09967
-0.14707 0.22203 -0.00721
-0.15266 0.26355 -0.04195
-0.16208 -0.12428 0.01489
0.07306 0.00260 -0.04393
-0.08153 0.00260 -0.15837
-0.08448 0.08967 0.17589
-0.15408 0.09915 0.02774
0.01990 0.00260 -0.08518
-0.20508 -0.17249 0.01304
-0.14707 0.18746 -0.01385
-0.17949 -0.16304 0.04184
-0.14707 0.24991 -0.08724
0.15226 -0.38861 0.14183
0.13421 -0.31498 -0.16200
0.14935 0.00260 0.14761
0.03790 -0.00157 -0.11710
-0.11934 0.04708 0.17303
-0.12771 0.15993 -0.10887
0.04213 -0.02806 0.07009
0.06991 -0.02257 -0.05527
-0.15379 -0.06728 0.04195
-0.04767 0.00260 0.16607
-0.14707 0.31224 -0.04296
-0.16143 0.19018 -0.01460
0.23537 0.00600 -0.03512
-0.13452 0.23803 -0.11709
0.14469 0.01938 0.15375
0.08192 -0.02257 -0.02464
-0.00001 0.00260 -0.08975
-0.18538 -0.12511 -0.02789
0.14604 0.00260 -0.01194
0.08899 0.01938 -0.08510
0.13915 0.00653 0.16980
-0.13029 0.29279 0.02418
-0.02607 0.00260 0.15287
-0.06821 0.11082 0.15996
-0.00080 -0.02257 -0.02692
-0.13271 -0.07303 0.00192
0.22458 0.01938 -0.05241
0.07875 0.01938 -0.11802
0.06464 0.00260 0.04084
-0.13029 0.31380 -0.06704
-0.15017 0.27925 0.10769
-0.01877 0.01938 -0.10826
-0.16804 0.05775 0.01405
-0.15993 0.20233 -0.02819
0.03961 0.01938 -0.03660
0.08453 0.01938 0.15225
0.00856 0.00260 -0.09848
0.04179 -0.02983 -0.01115
-0.12190 0.17445 0.07101
-0.01491 0.13940 -0.16866
-0.03387 0.00260 -0.11718
-0.13029 0.24856 0.01110
0.18271 0.00260 -0.03133
-0.12190 0.21194 0.14900
-0.14045 0.36557 0.16591
0.07222 -0.02257 -0.00401
-0.05204 0.00260 -0.11183
0.06142 -0.01045 0.11380
0.10245 -0.02257 -0.05276
0.14571 -0.39622 -0.16447
0.18927 0.13848 0.17183
0.11637 -0.02257 0.04100
-0.14707 0.23265 0.07993
-0.04240 0.01938 0.00149
0.12459 0.00260 -0.04630
0.13104 -0.01777 0.02297
-0.14707 0.25149 0.16472
0.06449 -0.05315 -0.12306
0.05890 -0.02257 -0.05298
-0.14707 0.32553 -0.12045
-0.14707 0.28872 -0.02368
-0.14685 0.29098 0.11123
-0.15704 0.24765 -0.00374
-0.15931 -0.11868 -0.02282
-0.15554 0.15258 0.01481
0.11563 0.00260 0.08832
0.00350 -0.02065 -0.10193
-0.12190 0.19415 0.10836
-0.08150 0.08995 0.16031
-0.08620 0.01938 -0.16120
-0.04159 0.00260 0.03511
-0.12190 0.33597 0.02324
-0.09680 0.01938 0.05316
-0.10627 -0.01480 -0.15993
-0.12190 0.38848 -0.06089
0.13404 -0.35078 0.15431
-0.19094 -0.19392 0.03790
0.10935 0.13214 0.17474
-0.23569 -0.38797 -0.01900
-0.23548 -0.39174 -0.01421
0.11045 -0.25631 -0.14333
-0.12205 0.38377 -0.09759
-0.17975 -0.16369 0.03762
-0.15607 0.06759 0.02152
0.18124 0.08210 -0.17604
-0.02894 0.11715 -0.16631
0.07954 0.01365 0.16021
-0.06595 0.00260 0.00927
0.04267 -0.03485 0.03500
0.04300 0.00260 -0.14781
-0.10820 0.01938 0.12985
0.09644 0.00260 -0.10591
-0.21726 -0.32143 0.02267
-0.13029 0.24546 -0.00700
-0.15684 0.04726 -0.00116
-0.23513 -0.31139 0.00433
0.05086 0.01938 -0.02280
0.06339 0.01938 -0.02166
0.14211 0.14491 0.16554
0.15010 -0.38762 0.15663
-0.15161 0.11999 0.02801
0.11865 0.01938 -0.10412
0.09571 0.00260 0.03179
-0.19157 -0.19580 -0.01290
-0.13029 0.30081 0.06573
-0.12359 0.00595 0.10454
0.21072 0.01938 -0.13902
0.06970 0.01938 0.07777
-0.21619 -0.20652 -0.03821
-0.10892 -0.03349 -0.03042
-0.03687 -0.02257 0.01881
0.18098 0.01938 0.16293
-0.10595 0.08421 0.16936
0.01067 0.01938 0.02203
-0.13020 0.01822 -0.08124
-0.13669 0.18510 0.18173
-0.12848 -0.03935 -0.03771
-0.16627 -0.08856 0.03144
0.03983 0.00260 -0.05474
0.07186 -0.12697 -0.14427
-0.12012 0.02298 0.16335
-0.00195 -0.02206 0.09722
-0.02699 0.00260 0.06743
-0.16804 -0.03272 -0.03601
0.05221 -0.03935 0.03310
-0.14192 0.15048 -0.06128
0.06637 0.00260 0.11602
0.10360 0.00260 -0.09147
-0.06738 -0.02257 -0.00683
0.04520 0.13825 0.15954
-0.14707 0.23193 -0.09535
-0.15285 0.27974 0.10342
-0.15963 -0.07753 0.01603
-0.14707 0.36333 0.11642
0.09412 -0.20818 -0.13839
-0.14707 0.37186 -0.00784
-0.16101 0.11069 -0.02965
-0.15260 0.30039 -0.00045
-0.12612 -0.04121 -0.04195
-0.14707 0.18032 -0.08966
-0.04672 -0.02231 0.04985
0.11457 0.13968 -0.17568
-0.14707 0.16100 -0.01673
-0.06453 0.01938 0.11454
-0.01966 -0.02257 -0.00089
0.00469 0.00260 -0.12833
0.00957 0.14020 -0.16106
0.00615 -0.03935 0.00710
0.06629 -0.03935 -0.01429
-0.11746 0.00260 0.01887
-0.02562 0.01938 0.04642
-0.06753 -0.00360 -0.06509
-0.14707 0.25336 -0.00954
-0.20184 -0.16395 -0.00765
0.17993 0.01938 -0.08420
0.04291 0.00260 -0.01944
-0.08659 -0.03935 0.01873
0.14124 -0.00030 0.10305
0.08147 -0.13767 0.13025
0.10179 0.00260 0.02694
-0.07410 0.00260 0.17255
-0.12190 0.29580 -0.15122
0.07342 -0.12579 -0.12851
-0.15538 0.25334 0.07641
-0.23257 -0.28702 -0.03754
0.07495 0.13592 -0.15946
-0.09969 -0.03427 0.12233
-0.05989 0.01091 -0.17988
0.14719 -0.39583 -0.14607
-0.01435 0.00260 0.02235
0.17920 0.13926 0.17582
-0.04715 -0.01396 -0.11123
-0.02049 0.12508 0.16025
-0.22967 -0.38419 -0.04195
-0.13304 0.17172 0.14802
0.10233 -0.25632 -0.15441
-0.14707 0.20197 -0.17996
-0.15702 0.03789 -0.01755
-0.12190 0.27363 0.09623
0.07107 0.00260 -0.00085
-0.13029 0.28703 0.05550
0.00335 0.00260 -0.04286
0.11324 0.01008 -0.16437
-0.15800 0.22426 0.03421
0.06475 0.00260 -0.10382
-0.05012 0.00260 -0.06101
0.17016 0.01938 -0.14290
0.08746 -0.13953 0.14076
-0.12190 0.33478 0.09669
-0.12190 0.17070 0.09583
-0.06728 0.01938 0.16784
-0.12190 0.17974 -0.03932
-0.05668 0.00260 0.08473
-0.15544 0.07853 -0.00329
-0.12177 -0.03215 0.13013
-0.11489 0.05650 0.17508
-0.14707 0.34705 -0.15383
-0.05558 -0.00487 -0.11631
-0.15297 0.27946 0.03852
-0.10265 -0.02464 -0.11675
-0.04151 0.01938 -0.14426
-0.18999 -0.19110 -0.00751
-0.12922 -0.03935 0.03730
-0.14707 0.35976 0.15656
0.14604 0.00260 -0.05718
-0.15216 0.11514 -0.02710
0.10364 0.00260 -0.01246
-0.14707 0.37286 0.11407
-0.10567 -0.03866 -0.10077
-0.16925 -0.13939 0.01042
-0.22406 -0.28510 0.04195
-0.02231 0.01938 -0.01404
-0.21849 -0.39413 0.00563
-0.18515 -0.12459 -0.00044
-0.22928 -0.35148 0.04195
-0.14707 0.23344 -0.12344
-0.12190 0.30698 -0.16648
0.07976 0.00260 -0.06375
-0.12190 0.21104 -0.12735
0.15958 0.01938 -0.17264
0.03908 -0.02257 0.04083
0.17172 0.00260 -0.17259
-0.12190 0.25225 0.11984
-0.13985 0.27068 0.18877
-0.19180 -0.19648 0.00695
-0.23550 -0.39138 -0.00554
0.05260 -0.02301 0.07600
-0.14707 0.29103 0.14838
-0.15666 0.00266 0.01795
0.05504 0.00260 0.02825
0.15493 -0.39376 -0.13814
0.07007 -0.10602 0.12604
0.14335 -0.39674 -0.08390
-0.01423 0.00260 0.01538
-0.14707 0.35150 -0.13763
0.11457 -0.24296 0.15420
0.05057 -0.01968 0.10399
-0.02128 -0.02257 0.08624
-0.10656 0.01938 -0.06130
0.01677 0.01938 0.08802
0.12006 0.13922 -0.17583
-0.14707 0.37055 -0.11123
-0.19806 -0.21655 0.03797
-0.06556 -0.00886 -0.07946
-0.12190 0.34634 0.11030
0.07466 0.00260 -0.09559
-0.08904 0.00260 -0.05849
-0.09872 -0.03036 -0.10087
0.21643 0.00260 0.00145
-0.01771 -0.02257 -0.05453
-0.13880 0.26395 0.18877
-0.21105 -0.27196 0.00193
-0.04170 0.12312 -0.17605
-0.23667 -0.33890 0.01149
-0.14707 0.30378 -0.07540
-0.14707 0.19373 -0.02867
-0.17786 -0.12139 0.04195
0.05641 0.00260 -0.08059
-0.09749 0.05510 0.16707
-0.02925 0.00260 0.05227
-0.08310 0.01938 0.02041
0.16565 0.01938 -0.10119
-0.11258 0.01938 0.04839
-0.16804 -0.05036 0.03702
-0.09973 0.05521 0.17277
0.01300 0.00260 0.06755
0.05188 0.13865 0.15961
0.05655 -0.02659 0.09456
0.09485 0.01938 0.06174
-0.12190 0.20860 -0.03814
-0.07483 -0.02257 0.03075
-0.23394 -0.29789 0.01676
-0.14523 0.30901 -0.09712
-0.06415 0.01938 0.14539
0.06435 -0.02257 -0.03085
-0.12190 0.27545 -0.00975
-0.16804 0.14835 -0.01620
-0.03582 0.12880 -0.16064
-0.12190 0.33288 0.13844
0.18063 0.01810 0.18302
-0.05272 -0.01616 0.10904
-0.15546 0.25818 -0.07561
-0.14707 0.22662 0.16662
-0.04468 -0.02251 -0.06018
-0.06114 0.00260 -0.01063
-0.12109 -0.02257 -0.03462
-0.07500 0.00260 -0.13339
-0.17190 -0.14497 -0.03201
-0.14707 0.20293 0.01852
0.14994 -0.39509 -0.13869
-0.12190 0.17602 0.10436
0.10726 -0.23609 0.14138
0.18553 0.01938 0.17265
-0.11594 0.00260 0.03033
0.02709 0.14204 0.17413
-0.12190 0.19678 0.16189
-0.03581 0.00260 0.05279
-0.12190 0.37390 0.04226
0.06291 0.00260 -0.10787
0.13692 -0.33051 -0.15496
-0.12190 0.32926 0.09151
-0.16804 0.13698 -0.02221
-0.06666 0.00260 -0.04253
-0.05148 0.00260 -0.00888
0.05543 0.00260 -0.07565
-0.15963 0.09797 -0.02755
-0.20365 -0.16872 -0.00180
-0.12146 -0.03320 0.16789
0.20589 0.01938 0.09798
-0.01269 -0.03935 -0.00574
0.06476 -0.02257 0.00734
-0.11613 -0.02370 0.07846
-0.19631 -0.14944 -0.01167
0.03578 0.01938 -0.14895
-0.12089 -0.03935 0.02870
-0.19629 -0.21005 0.00329
0.12921 0.00260 0.01190
0.02565 -0.02257 -0.05253
-0.13029 0.23456 -0.01335
-0.09951 0.09159 -0.16497
-0.23151 -0.27859 0.03117
-0.14707 0.18334 0.04293
-0.09922 -0.02809 -0.04195
-0.04727 -0.02257 -0.03828
-0.14707 0.17983 -0.14222
0.03138 0.00260 -0.08095
-0.14707 0.17057 -0.03231
-0.11815 0.01938 0.02352
-0.09974 0.00260 0.01389
0.16999 0.10737 -0.16272
0.06374 -0.02257 0.03877
0.20369 0.01938 0.13576
-0.09385 0.09340 0.17409
-0.15019 0.24369 0.10767
-0.15546 0.25763 -0.01259
-0.04016 0.12285 0.17615
-0.13029 0.24222 0.07646
0.08241 -0.12712 -0.14263
0.03636 0.00260 0.03087
-0.15870 0.21483 0.03314
-0.16804 0.08641 -0.00823
0.08742 -0.20058 -0.14805
0.09291 -0.02257 -0.03675
0.16362 0.14366 0.17267
0.05498 0.00260 -0.11475
0.14148 -0.34238 -0.16533
-0.06359 0.00260 -0.13351
0.18689 0.00260 0.12351
-0.02598 -0.02257 0.03961
0.12620 0.00260 0.02943
-0.10035 0.01428 0.17205
-0.11404 0.07140 -0.16957
-0.14707 0.36638 0.04917
-0.15141 0.24155 0.07803
-0.14926 0.30529 0.09033
-0.10455 0.03311 0.17507
-0.10381 -0.02310 0.02189
0.04108 -0.01797 -0.10677
-0.12064 -0.03935 -0.03160
0.02628 0.00260 -0.08819
-0.12190 0.35938 -0.11333
0.13652 -0.01232 0.03599
0.05587 0.00260 -0.03305
-0.14691 0.36321 0.16361
0.15754 0.01938 -0.02437
-0.12190 0.20141 0.05795
-0.02340 -0.02257 -0.05596
0.20203 0.00260 -0.11219
-0.12190 0.20640 0.16876
-0.14707 0.29034 -0.04818
0.20530 0.00260 0.13015
0.04158 -0.02257 0.02253
0.18846 0.00260 -0.05872
0.16429 0.01938 -0.08985
-0.07074 0.01938 -0.15887
-0.03950 0.13009 0.16283
0.13670 -0.01208 0.01416
-0.01705 0.01938 0.12026
0.00946 0.01938 0.14714
-0.11482 0.01248 -0.17550
-0.12190 0.24906 -0.07653
-0.15671 0.00417 -0.01481
-0.01856 -0.02421 -0.04195
-0.03526 -0.02257 -0.02085
0.12608 0.00260 -0.09141
0.06479 0.00260 -0.02544
-0.09873 -0.02930 -0.16712
-0.20306 -0.17298 0.04195
-0.21823 -0.33230 0.02934
0.02385 -0.02257 -0.03543
-0.00428 0.01938 -0.03012
-0.02954 0.00260 0.10509
-0.14572 0.23535 0.09423
0.01459 0.14043 -0.17479
0.00385 -0.01098 -0.11347
0.11933 0.00260 -0.00990
-0.10396 -0.03177 -0.04195
0.04931 0.01938 -0.08145
-0.13828 0.15352 0.07916
-0.13177 -0.06515 0.04195
-0.16804 0.06936 -0.00706
-0.16804 0.01389 -0.02970
-0.10976 0.01938 0.03082
0.01045 0.01938 -0.05874
-0.14086 -0.04866 -0.02161
-0.15147 0.27946 0.00311
0.09675 -0.23480 0.14548
-0.16804 0.14382 0.02484
0.02148 -0.02257 0.01686
-0.13029 0.24566 -0.08625
-0.14707 0.29326 -0.00169
0.10512 0.00260 -0.10664
-0.21216 -0.27943 0.01409
-0.22277 -0.23214 -0.02263
0.03075 -0.02257 0.03047
0.12149 -0.02201 0.07117
0.02870 -0.03651 0.04195
0.08453 -0.17135 0.14979
0.02606 -0.02257 0.02791
-0.01631 -0.02257 0.06951
-0.11956 -0.01376 -0.17278
-0.17582 -0.15396 0.00975
0.03174 -0.00999 0.11406
-0.05902 0.01938 0.01422
-0.14707 0.20157 0.00072
0.21876 0.01938 0.08213
-0.03821 0.00260 -0.15425
0.03788 -0.02257 0.06525
-0.05311 0.00260 0.11331
0.07661 0.01938 0.13968
-0.21730 -0.32191 -0.00648
0.19148 0.00260 -0.16881
-0.10300 -0.02444 -0.09375
0.16787 0.00260 -0.05845
0.09771 -0.02094 0.10116
-0.21112 -0.19033 0.00072
0.07407 0.00260 -0.02531
0.09861 -0.18198 0.14060
0.08107 -0.13890 -0.14651
-0.12190 0.15497 -0.00699
0.13592 0.01938 0.12442
0.12100 -0.26486 -0.15028
-0.00775 0.13748 -0.16111
0.08442 0.00260 -0.06347
-0.14707 0.27209 -0.03887
-0.14063 0.39061 0.07825
-0.02419 0.00260 -0.15131
-0.00895 0.00260 0.00946
-0.13029 0.25891 0.09657
-0.02254 -0.02257 0.02859
0.13563 -0.38283 0.16524
-0.06054 -0.01557 0.06979
-0.16804 -0.06921 -0.02534
0.17918 0.05932 -0.17619
0.14295 -0.38993 -0.17483
-0.21810 -0.30492 0.04195
-0.12190 0.36964 0.03396
0.15396 -0.38995 -0.15398
-0.01825 0.12111 -0.17053
0.17235 0.01938 0.17217
0.07420 -0.09512 -0.12832
-0.20644 -0.17607 -0.01269
0.03890 -0.02257 -0.05484
-0.12087 0.05643 -0.16850
-0.12190 0.24790 0.11013
-0.14357 0.30986 0.11366
0.05737 0.00260 0.08822
0.13933 -0.39572 0.13203
-0.20943 -0.26392 -0.03469
0.12683 0.13801 -0.17609
0.00518 -0.02798 -0.04195
0.04946 0.00260 -0.03003
-0.16804 -0.04311 0.03646
0.17951 0.01938 0.13791
-0.15677 0.18050 0.04195
0.16914 0.01938 0.12495
-0.21235 -0.28072 0.02096
-0.14707 0.20864 0.16142
0.06163 -0.04330 0.11472
-0.16804 0.10779 -0.01761
0.18856 0.03272 0.17266
0.05759 -0.02149 -0.09954
-0.13029 0.29078 0.10008
-0.03825 0.01839 -0.17286
0.14753 0.00260 -0.08816
-0.14999 -0.06198 0.01684
-0.15546 0.25772 0.03972
0.06710 -0.12677 -0.13631
0.22032 0.00260 0.04569
-0.14707 0.38007 0.01679
-0.14707 0.34261 0.16199
0.18628 0.01938 -0.16911
0.16284 0.00260 0.17602
-0.12190 0.27694 0.04812
-0.22477 -0.39782 -0.04057
0.06199 -0.02257 0.04601
-0.04940 -0.02177 -0.05767
0.20947 0.01938 -0.02410
-0.12190 0.24269 -0.17729
0.07905 -0.15797 0.14723
0.02638 0.00260 -0.03833
0.12556 -0.30680 -0.16592
-0.15297 -0.04937 0.02449
-0.01168 -0.02195 -0.09777
-0.01026 -0.02962 -0.04195
-0.15421 -0.03682 -0.01398
-0.02473 -0.03935 0.01706
0.19277 0.00260 0.06943
0.16252 0.01938 0.11550
-0.17449 -0.15067 -0.00918
0.16779 0.12516 0.16949
0.07734 -0.10312 -0.13785
0.05231 -0.00936 -0.11442
-0.21449 -0.29513 -0.02020
0.12421 0.00260 0.13762
-0.00974 0.00260 -0.05799
-0.02844 0.00260 0.03620
0.11497 0.00260 -0.01579
-0.23548 -0.31674 0.01323
-0.01510 0.13792 -0.16312
-0.09894 -0.02947 0.15698
-0.18133 -0.11675 0.04032
-0.11837 -0.03526 -0.17377
-0.16480 -0.08612 0.02812
0.03823 0.00260 0.11239
-0.15531 0.29133 0.05309
-0.15499 -0.04488 -0.04195
0.14647 -0.39598 0.13729
-0.09894 0.01938 0.12492
-0.19449 -0.20448 0.00801
-0.06177 0.01938 0.02860
0.08715 -0.18886 0.15066
-0.12240 0.01938 0.09630
0.10598 -0.02095 0.10111
0.05786 -0.09179 -0.13411
0.13862 0.00260 0.09543
-0.10032 -0.00343 0.16358
0.00127 -0.02257 -0.04598
0.12936 0.00260 0.09478
-0.16804 0.00206 0.00652
-0.14209 0.15907 0.10558
0.04262 -0.03586 0.09909
-0.15707 0.03126 0.02723
-0.10165 -0.03652 0.11955
-0.21903 -0.37583 -0.01895
0.19095 0.01938 0.12371
-0.22621 -0.24787 0.02078
-0.01280 0.01938 -0.13153
-0.03779 -0.03935 0.03271
-0.14707 0.17750 0.10432
-0.14707 0.34673 -0.01390
-0.13112 0.01938 -0.06761
-0.20761 -0.17914 -0.02287
-0.00212 -0.03935 -0.01250
-0.09898 -0.02910 -0.05864
-0.06788 -0.00199 0.05359
-0.00741 0.01938 0.15265
0.13961 0.00260 -0.00005
0.08889 0.00260 -0.10221
-0.19115 -0.13794 0.00725
-0.16804 0.08992 0.00623
0.09759 -0.20993 0.15485
-0.11369 0.01964 -0.15979
-0.21674 -0.31556 0.00275
0.05676 -0.08687 0.13478
-0.14596 -0.09244 0.04195
-0.08675 0.07946 0.16220
0.05621 -0.02257 -0.01394
-0.16804 -0.05458 0.01790
0.15816 0.00260 0.16624
-0.16804 0.09986 0.01611
0.18967 0.01938 0.04200
0.08724 -0.02257 -0.04597
-0.08518 0.00260 0.04902
-0.03634 0.01938 -0.14241
0.16061 0.01938 0.02197
0.07925 0.01938 0.14907
-0.21925 -0.36862 -0.00276
0.10172 -0.19187 -0.14293
-0.12190 0.36154 -0.09269
0.01927 -0.02257 0.08793
0.02381 -0.02257 -0.02026
-0.05607 0.00260 0.06635
-0.14707 0.30080 -0.00148
0.04737 -0.02301 0.06335
-0.14707 0.31594 0.14205
-0.11706 0.05875 0.16225
-0.15285 0.10909 0.00814
-0.14707 0.19598 0.11587
-0.23347 -0.29413 -0.00729
0.00747 -0.03935 0.01759
-0.11984 -0.03935 -0.00825
-0.14895 0.25926 0.10915
-0.14707 0.23044 -0.05262
0.11678 0.01938 -0.15192
0.20449 0.00260 0.00137
-0.23586 -0.38465 0.01835
0.11081 0.00260 0.03605
0.08440 0.00260 0.05259
0.05818 -0.03317 0.01095
0.11420 0.01219 0.16454
-0.13029 0.28180 -0.08111
-0.04193 -0.03935 -0.03940
-0.16804 0.07547 0.00609
0.12093 0.00260 0.10367
-0.13029 0.30634 0.04022
-0.15686 0.27946 0.02794
0.18985 0.03230 -0.17105
-0.01913 -0.02234 0.09555
0.17354 0.01938 -0.08528
-0.05297 0.11979 0.16001
0.12906 -0.30152 0.15165
-0.16101 0.19325 0.00653
0.07745 0.00260 0.02097
0.07678 -0.10517 0.13968
-0.03236 -0.02257 0.07570
0.08371 -0.02257 -0.00498
-0.12252 0.01938 0.01733
0.03954 -0.02257 0.00637
0.07612 -0.14958 -0.13301
-0.20597 -0.24742 -0.04028
0.07600 0.00836 -0.16009
-0.14707 0.29300 0.06776
0.12647 -0.31829 -0.16729
-0.09945 -0.02811 0.14724
-0.08205 0.09752 -0.17611
-0.16311 0.17888 0.00347
-0.14707 0.27663 -0.15337
0.00413 0.01938 0.01643
0.04337 -0.01677 0.10834
0.12428 -0.27656 0.15255
-0.14707 0.26655 0.01625
0.05222 0.01938 0.01595
-0.09954 -0.02793 0.07971
0.22638 0.01938 0.01992
-0.12170 -0.00330 -0.16659
0.12017 -0.32082 0.15469
-0.21704 -0.31891 0.01814
-0.13029 0.26395 -0.06407
-0.23671 -0.34414 0.03156
-0.10643 0.01082 -0.14612
-0.13029 0.29700 -0.04961
0.01946 -0.02257 -0.02320
-0.12190 0.20131 0.08527
-0.12112 -0.03396 0.15859
-0.12187 0.01526 0.10923
-0.09216 0.01938 0.16330
-0.21256 -0.19491 0.02607
-0.19600 -0.14873 0.00590
-0.16752 0.15514 0.00479
-0.11169 0.01086 -0.15948
-0.14707 0.30868 0.13207
-0.12043 -0.02257 -0.02361
-0.15021 0.22661 -0.04195
0.14137 0.00113 0.05741
-0.13584 0.31330 -0.09638
0.09788 0.01938 0.05896
0.14253 0.13619 0.15944
-0.14707 0.26380 0.12609
0.13751 -0.00336 0.11674
-0.11426 0.01708 -0.17566
0.07412 0.01938 0.11120
0.00487 -0.02257 -0.08439
0.12824 -0.35447 -0.16428
-0.16321 -0.01416 -0.03891
-0.06972 0.11567 -0.16377
0.15944 0.01938 -0.07517
-0.12190 0.25876 -0.17395
0.13515 -0.37736 -0.16922
-0.14707 0.29926 0.11097
-0.10680 0.01697 -0.17580
-0.08569 0.01066 -0.18275
0.01692 -0.02257 -0.05498
0.00286 -0.03935 -0.00853
0.03303 -0.03935 -0.02644
-0.15393 0.24663 -0.09090
0.17908 0.07965 0.17619
-0.12190 0.31071 0.09506
0.14011 -0.39211 0.13747
-0.14707 0.24482 -0.04008
0.10943 -0.02257 0.04839
-0.16804 0.14200 -0.02357
0.17753 0.14118 0.16063
0.02432 -0.02257 -0.00053
-0.16689 0.15819 -0.01263
-0.20008 -0.15931 -0.00536
-0.02584 0.00260 -0.00975
-0.15953 0.20594 -0.01793
-0.16493 -0.08633 -0.00897
-0.11081 -0.04145 -0.02743
-0.15375 -0.04169 0.00905
-0.14618 0.17085 -0.14042
0.13085 -0.34449 0.15397
-0.17274 -0.10033 -0.01533
-0.20133 -0.22858 -0.00437
-0.10390 0.00260 -0.01405
-0.12100 0.00066 -0.16470
-0.12190 0.36252 0.02840
-0.12190 0.23195 0.04805
-0.11976 -0.02619 -0.13027
-0.04374 0.00260 0.09535
0.00596 0.12661 0.17039
-0.15546 0.25873 0.04673
0.04134 0.14453 -0.17112
-0.14707 0.20138 0.10635
-0.15234 -0.05497 0.02014
0.12381 0.00260 -0.14563
0.03468 -0.02257 -0.02161
0.21620 0.01938 -0.10261
-0.12190 0.30828 -0.08000
0.03707 -0.03935 0.02110
-0.04757 0.00260 0.15126
-0.14707 0.18966 0.05940
-0.06900 0.09698 -0.17327
0.01776 0.01938 -0.07980
0.04317 -0.02627 -0.05359
-0.17103 -0.09706 -0.03530
0.16463 0.00260 -0.04986
-0.13314 -0.03739 -0.03779
-0.05057 0.01938 0.14748
-0.16804 -0.07788 0.02166
0.06797 0.00260 0.02848
-0.10511 0.00260 0.11890
-0.14707 0.36591 -0.14009
0.04231 0.00260 -0.09725
-0.12190 0.22079 -0.14956
-0.16673 -0.13407 0.00915
0.00413 0.00260 0.13716
0.17474 0.13533 0.15955
-0.03036 0.11677 0.16994
-0.10432 0.00260 0.07261
0.02631 0.01938 0.06340
-0.12190 0.24350 -0.02943
0.01145 0.00260 0.03661
-0.13029 0.23949 0.08847
-0.10653 0.05372 0.17582
-0.21860 -0.39045 0.00018
-0.12005 0.00260 0.03702
-0.10920 -0.02967 -0.00340
-0.12190 0.24335 -0.09232
-0.23539 -0.31544 -0.02859
-0.13823 0.30618 0.11617
-0.15546 0.26421 -0.00195
-0.14707 0.30449 0.14520
-0.01841 -0.02257 -0.08230
0.02177 -0.03935 -0.01964
-0.14707 0.30439 -0.12430
0.09903 -0.01768 -0.10719
-0.14784 0.30679 0.07885
-0.16804 0.10208 -0.00713
0.00263 0.00260 -0.10497
-0.13029 0.29389 -0.09297
-0.10594 -0.02319 -0.04861
-0.12190 0.39131 -0.03409
0.07668 -0.12999 0.14567
0.17961 0.01938 0.16978
-0.14707 0.36778 0.10093
-0.08306 -0.02257 -0.03461
-0.13625 0.31321 -0.09081
-0.05693 0.01938 -0.02891
-0.09247 0.00260 -0.08137
-0.12405 -0.02412 0.04139
0.18121 0.09729 0.17604
0.07245 0.01938 -0.09158
0.03898 -0.03935 0.00713
0.10046 -0.24527 -0.14539
-0.18347 -0.12087 0.03212
-0.14707 0.24116 0.09152
0.11603 -0.26772 -0.16123
-0.15747 0.04965 0.02568
0.07744 -0.02257 0.00363
-0.11101 -0.02989 -0.04195
0.03541 -0.03935 -0.03141
-0.22827 -0.30676 -0.04195
0.12237 -0.27030 -0.15070
0.07592 0.00260 0.05497
-0.13029 0.29676 0.00134
-0.21862 -0.34196 -0.00994
-0.21170 -0.23976 0.04195
0.09875 -0.19308 0.13799
-0.20210 -0.16462 0.03832
0.14633 -0.38738 0.11719
-0.14540 0.23509 -0.03059
0.05448 0.13421 -0.15983
0.00910 0.01938 -0.09135
0.06667 -0.02257 0.02459
-0.07917 0.01938 0.11344
-0.14849 0.14324 -0.00366
0.19187 0.00899 -0.18755
0.20391 0.01938 -0.10735
-0.12190 0.27579 0.03174
-0.13029 0.27115 0.06737
0.04835 0.00260 -0.04452
-0.04078 0.00260 0.00248
0.09356 0.01938 0.02828
0.09496 -0.02257 -0.07069
-0.13331 0.01107 0.06910
-0.12190 0.28673 -0.15979
-0.08331 -0.03935 0.02996
0.01872 -0.02257 -0.03089
0.15327 0.00260 0.02227
-0.15264 0.24364 0.02553
-0.08201 0.01938 0.01317
-0.02617 0.00260 -0.11632
-0.16090 0.19407 0.01717
0.02590 0.13695 0.17616
-0.16062 0.19637 0.03289
0.17315 0.00260 0.05104
-0.13279 0.24139 0.11732
0.16791 0.04629 -0.16595
0.11262 0.14515 -0.16885
-0.15714 0.26853 -0.03757
0.05314 0.00260 0.09596
0.09292 -0.19785 0.13673
-0.12190 0.20941 0.08673
-0.09941 0.04820 -0.17069
-0.14706 0.17677 0.15025
-0.14707 0.36210 -0.15822
-0.15783 0.22692 0.01661
0.09838 0.00260 0.07274
0.17445 0.02602 0.17547
-0.23323 -0.29225 0.02959
0.03446 -0.02249 -0.09428
-0.16804 -0.06692 -0.01683
-0.09047 0.08644 -0.17616
0.09377 -0.22574 0.14594
-0.16182 0.18738 -0.02992
0.12511 -0.28580 -0.15004
-0.12190 0.24094 -0.06782
-0.03997 -0.02257 0.04681
-0.21283 -0.28396 0.01607
-0.12190 0.29180 -0.16112
0.15130 -0.38804 -0.08680
0.03998 -0.03579 0.04195
-0.13029 0.23275 0.06730
-0.10910 -0.03281 -0.00764
-0.15484 -0.02934 -0.00524
-0.13857 0.23145 -0.03899
0.13897 0.01938 0.11626
-0.15177 0.30187 -0.09827
0.08566 0.01938 0.04120
-0.14707 0.26828 -0.04696
-0.12190 0.20446 0.06954
-0.12190 0.25751 -0.01847
-0.15483 0.15258 -0.00647
-0.06134 -0.03935 -0.02056
-0.16770 0.13322 -0.03532
0.23102 0.01938 -0.05167
-0.12190 0.31334 0.07526
-0.10277 0.07319 0.17608
-0.15546 0.26282 -0.07574
-0.05034 -0.02151 -0.03569
-0.20634 -0.24916 0.02601
-0.16581 0.16346 0.03176
0.00043 -0.02257 0.03378
0.14940 0.01938 -0.09303
0.15180 -0.38834 0.12586
0.02236 0.00260 0.14897
-0.14707 0.18355 -0.01466
-0.12190 0.23543 0.14693
-0.22068 -0.22376 -0.03480
-0.06102 -0.01512 0.03299
-0.05285 -0.02062 -0.07453
-0.23350 -0.29443 0.03826
0.14088 -0.39748 0.16185
-0.07939 0.10638 -0.17410
-0.10734 -0.03635 -0.01117
0.06019 -0.04798 -0.12920
-0.03880 -0.02257 -0.03565
-0.03978 0.01938 -0.05994
-0.16804 0.12741 -0.01332
0.18097 0.00260 -0.16403
0.02629 0.00260 -0.01921
-0.04611 0.00260 0.05222
-0.00644 -0.02257 -0.08419
-0.15816 0.22206 0.02668
0.12358 -0.02147 -0.05626
-0.09761 -0.02257 -0.01957
-0.09506 0.00260 -0.05144
0.17510 0.01938 -0.02107
0.21063 0.00260 -0.14816
-0.00645 -0.02257 -0.03371
0.06748 0.00260 0.14470
-0.01430 -0.02257 0.01294
0.00890 0.00260 -0.04827
-0.15206 -0.10548 -0.02844
-0.13029 0.23349 0.09121
-0.14900 -0.09990 0.00328
0.10856 0.00260 0.05437
-0.16998 -0.11960 -0.04195
-0.12165 0.00781 0.16953
-0.09184 -0.02257 0.02221
-0.14707 0.19703 -0.13515
0.00957 0.00260 0.09465
0.12393 -0.29580 -0.14843
0.09156 0.00260 0.08010
-0.07795 0.00260 -0.01772
-0.16804 -0.02808 0.01012
0.08513 -0.02257 -0.08493
0.11964 0.00260 0.05372
-0.19694 -0.21243 0.02911
0.03519 0.00260 0.10066
0.04999 -0.02257 -0.03337
-0.22134 -0.33790 -0.04195
-0.00753 0.00260 0.08749
0.14380 -0.36145 -0.17080
0.01976 0.00260 -0.05123
-0.12190 0.22638 -0.04466
0.18378 0.10631 0.16012
-0.02480 0.00260 0.13624
0.09618 0.12971 -0.16339
-0.16804 0.11232 0.00797
0.13460 -0.35646 -0.15519
-0.14707 0.25047 -0.01674
0.09209 -0.20982 0.13999
-0.12787 0.38264 -0.11424
0.09176 -0.02257 0.06506
0.04854 -0.02272 0.07490
-0.21921 -0.36213 0.01035
0.03783 0.14425 -0.16390
-0.16804 0.03266 -0.01468
-0.03781 0.00260 0.15386
0.12682 -0.02023 0.02032
-0.15854 0.21671 0.01793
-0.07416 -0.02257 -0.03571
-0.14296 0.17624 0.16081
-0.12675 -0.02807 -0.02156
-0.14707 0.21281 0.02968
-0.10225 0.08024 -0.16044
-0.13485 0.23047 -0.11059
0.07985 -0.02257 0.08329
-0.20468 -0.17807 0.04195
-0.14707 0.25592 0.01052
0.08238 -0.03039 0.04195
-0.00412 0.12828 -0.17486
0.05864 -0.06731 0.13815
0.03377 0.00260 -0.02221
0.10858 0.00260 0.08038
-0.04630 0.00260 -0.07762
-0.13029 0.23800 -0.00435
-0.12190 0.19770 0.01250
0.00741 0.00260 0.05566
-0.08892 0.07213 -0.16840
0.13379 -0.01545 0.09500
0.14093 -0.39747 0.11307
0.11067 -0.02257 0.08934
0.21434 0.01938 0.06619
0.22281 0.01938 0.02375
0.09801 -0.02257 -0.02090
-0.14707 0.30547 0.04369
-0.08678 -0.03935 -0.02155
0.05402 0.00685 -0.15949
-0.12248 -0.05778 -0.03130
0.12783 0.00260 0.00321
-0.16804 0.02844 0.01067
-0.13029 0.26616 -0.07738
0.18819 0.05670 0.17300
0.10937 -0.02257 -0.07473
-0.14707 0.22186 -0.03519
-0.12190 0.25156 -0.13966
-0.16521 -0.06731 -0.04195
-0.02806 0.01938 0.10784
-0.03485 0.00260 -0.04325
-0.13029 0.31115 0.11575
-0.12190 0.29892 0.02885
0.14290 0.00260 -0.00468
-0.15192 0.25082 0.04195
0.05745 -0.03502 -0.07700
0.10853 -0.02257 -0.03272
0.11563 -0.29051 -0.14811
-0.21840 -0.33476 -0.01433
0.03491 -0.02257 -0.01462
-0.12190 0.35218 0.16863
-0.05740 0.00260 -0.07054
-0.16804 -0.00856 0.01878
-0.14707 0.27041 -0.14831
0.21008 0.00260 0.10173
-0.13202 0.27159 0.18877
0.13143 0.00260 0.09946
-0.16804 0.04118 0.00954
-0.06297 0.00260 -0.05801
-0.21890 -0.38037 -0.01516
-0.22369 -0.32331 -0.04195
-0.15640 -0.00434 -0.00652
-0.20283 -0.19690 0.04195
-0.14707 0.30538 0.04892
-0.06593 -0.00805 0.05683
-0.12230 0.20202 0.18635
-0.13029 0.31175 0.07468
0.01829 0.01938 0.01690
-0.15546 0.27664 0.03619
-0.13029 0.30655 -0.10049
-0.02168 0.00260 0.04827
-0.23646 -0.37334 0.02926
-0.12190 0.37368 -0.05301
-0.16804 -0.04919 -0.03192
-0.12190 0.24031 0.05157
-0.13784 -0.08120 0.03143
0.10715 -0.00307 -0.11680
0.05262 0.00260 -0.05450
-0.15546 0.25671 -0.06122
0.08862 -0.14921 0.14471
-0.09257 -0.03171 0.01557
-0.15848 -0.07561 -0.00181
0.13961 -0.00678 -0.00445
0.22016 0.01648 0.11996
-0.15431 -0.03989 0.04195
-0.23681 -0.35994 0.01338
-0.07573 0.01938 -0.16522
-0.12829 0.33349 0.18877
-0.13029 0.29844 0.03080
-0.04157 0.00260 -0.06827
0.09122 0.00260 0.04513
-0.09378 0.00260 0.16223
-0.18264 -0.17085 0.00519
-0.09801 0.00260 0.03507
-0.13029 0.23579 -0.08785
0.13649 -0.01236 -0.04172
-0.06470 -0.01039 0.10370
0.11091 0.01938 0.12174
-0.18029 -0.16503 -0.00375
-0.10482 -0.02354 -0.02598
-0.12190 0.31933 -0.17436
-0.11911 0.03700 -0.16240
-0.23125 -0.27653 -0.02907
0.07823 -0.13911 0.14667
0.14256 -0.39707 -0.11094
-0.16460 -0.04527 0.04195
-0.13899 0.23161 0.11080
0.19057 0.12514 -0.16928
0.13969 -0.00657 -0.06332
-0.10411 0.06026 -0.15973
-0.12190 0.32495 -0.03402
0.07065 -0.08296 -0.13747
-0.05165 0.00260 0.06924
-0.12190 0.19095 -0.02254
-0.12190 0.27980 0.17700
-0.12067 -0.02277 -0.17144
0.11366 0.00260 0.05248
-0.15546 0.28427 0.07796
-0.11443 0.01938 0.07692
-0.11306 0.04983 0.15965
0.14046 -0.00425 0.02674
-0.13029 0.31297 0.06167
-0.22793 -0.25710 0.01835
-0.12190 0.24759 -0.17463
-0.14325 0.24690 0.11385
0.16926 0.08201 -0.16350
-0.14707 0.22457 0.00480
-0.16391 -0.08464 -0.03797
0.11976 -0.27715 0.16185
0.08777 -0.19445 0.15055
-0.12190 0.17875 0.05772
0.07101 0.00260 -0.12403
-0.20735 -0.20102 0.04195
0.11954 0.00260 -0.13269
-0.12190 0.35836 0.08367
-0.13490 -0.03996 -0.01347
-0.12190 0.15176 0.01016
-0.21873 -0.38604 -0.00571
-0.12141 0.05482 0.16628
0.01678 0.00260 0.11467
0.14555 -0.39627 -0.11826
-0.03463 -0.01433 0.11089
0.16076 0.00260 -0.13612
0.17093 0.02457 -0.17366
0.14419 -0.38279 -0.17474
0.01916 0.00260 -0.02682
-0.12190 0.26764 0.14614
-0.14707 0.31410 -0.17277
-0.15546 0.27047 0.09196
-0.14707 0.35270 0.05314
0.15642 0.00260 -0.02845
0.07769 0.14521 0.16758
0.15179 0.00260 -0.17173
0.18687 0.01938 0.13807
-0.02931 0.01938 -0.16610
-0.14707 0.36549 0.03945
-0.00301 0.00260 0.09763
0.20784 0.00788 -0.15809
0.10913 0.00260 -0.00618
-0.06560 0.00260 0.09212
-0.23601 -0.38195 0.03128
-0.06403 0.00260 0.05063
-0.14707 0.16054 0.00063
0.05192 -0.02278 0.02643
0.09173 0.00260 -0.03233
-0.16804 0.14227 -0.00912
-0.14707 0.23680 0.13305
-0.00032 0.01938 -0.05519
-0.12190 0.20449 0.04087
-0.14529 -0.09316 0.02489
0.16597 0.14507 -0.16623
-0.11239 0.00225 0.17604
-0.14055 0.00518 -0.00288
-0.13670 0.15031 0.05971
0.05897 -0.03935 -0.01128
-0.10130 0.02899 -0.16250
0.17799 0.06639 -0.15945
-0.14256 0.23325 -0.06604
0.04456 0.00260 0.12128
-0.01005 0.00260 -0.00031
0.06519 -0.07859 -0.12327
0.06281 -0.02257 -0.09163
-0.02213 0.00260 0.00424
0.14132 0.00034 -0.10514
-0.12265 0.38623 -0.09205
0.08371 0.00260 0.01465
0.02479 -0.02257 0.05605
-0.16804 -0.05077 0.02116
-0.14707 0.21104 0.01076
0.07073 -0.02257 0.07392
-0.13252 0.00260 0.00966
0.00065 0.01938 0.04959
-0.15956 -0.10133 0.04195
0.04475 -0.03619 -0.04195
-0.15439 -0.06471 -0.04195
-0.10140 0.01938 -0.08663
0.18227 0.14517 -0.16684
-0.12190 0.26688 -0.11064
-0.10135 -0.02562 -0.07589
-0.12190 0.34664 0.16114
-0.05283 -0.00015 -0.11729
0.04943 -0.02257 0.02121
0.19520 0.01938 0.07807
-0.23220 -0.28403 -0.02150
0.06669 0.00260 -0.03519
-0.11435 -0.00293 0.17565
0.00741 0.00260 -0.07442
0.14652 0.14317 0.16231
-0.14707 0.27465 -0.10568
-0.14464 0.23036 -0.18837
0.14776 0.01938 0.10029
-0.15546 0.27338 0.07456
-0.12057 -0.05510 -0.00188
-0.00392 0.00260 0.04642
-0.21313 -0.28594 -0.03736
-0.12190 0.16201 0.02407
-0.23535 -0.39436 -0.01966
-0.15710 0.24540 -0.03073
0.12878 -0.29664 -0.15236
0.07302 -0.00369 -0.11664
0.08853 0.00260 0.09130
-0.14707 0.15278 0.02300
-0.10850 -0.03456 0.01416
-0.03640 -0.02257 0.08044
0.09456 0.01938 -0.04885
0.05495 -0.04993 -0.13174
0.16909 0.00260 -0.09602
0.15195 0.00260 0.12358
-0.23173 -0.31962 -0.04195
0.14209 0.01938 -0.07782
-0.13029 0.30607 -0.02562
0.23592 0.01200 0.02525
-0.14707 0.19028 0.01426
0.05988 0.13563 0.15951
-0.11610 0.01938 -0.06788
-0.13029 0.28100 0.06766
-0.05354 -0.02031 -0.08949
-0.13029 0.25764 0.03088
-0.03662 -0.03935 -0.02949
-0.10172 -0.03935 -0.02039
0.09758 0.00260 -0.03136
0.17954 0.03727 -0.17617
-0.02039 0.00260 0.04000
-0.12190 0.21627 -0.12363
-0.06939 0.00260 0.11261
-0.06738 -0.00413 0.10968
-0.10033 -0.03527 -0.13881
-0.22361 -0.23554 -0.04135
0.14241 0.01938 -0.12311
-0.10203 0.07912 0.17551
-0.12190 0.19468 -0.10471
-0.04523 -0.03935 0.00028
-0.15914 0.21014 -0.01559
0.14263 0.01938 0.11800
-0.14707 0.17137 0.11175
0.02429 0.01938 0.05894
-0.17734 -0.15772 -0.00616
-0.14707 0.21832 0.10549
0.13999 -0.35269 -0.17060
-0.23591 -0.38370 -0.04072
0.06216 -0.03935 0.02579
0.07299 0.00260 0.09125
0.01671 -0.02257 -0.05907
-0.16804 0.00951 0.02777
-0.14225 -0.08821 0.04137
-0.01170 0.00260 -0.11230
-0.13029 0.26765 0.08408
0.10117 0.00260 0.06593
-0.09871 -0.03056 -0.12054
0.00959 0.00260 -0.03571
-0.07621 0.08772 -0.16579
0.05018 0.01938 -0.06334
0.04177 -0.03182 -0.08376
-0.18693 -0.18188 -0.04195
-0.12190 0.27924 -0.04271
0.03884 0.00260 -0.06075
-0.15721 0.21578 -0.04195
-0.13141 0.31389 0.02989
-0.03540 -0.01860 0.10584
-0.14707 0.19273 -0.06007
0.06411 -0.11154 0.13060
-0.13029 0.24279 0.09576
-0.12190 0.28172 -0.15684
0.12277 -0.02170 -0.01082
0.04846 0.00260 -0.09975
-0.15098 0.27516 -0.10658
-0.10260 -0.03725 -0.05804
0.11822 0.01938 0.01803
-0.10523 -0.02377 0.01041
-0.13758 -0.04387 0.03439
-0.14707 0.27648 -0.14513
0.01446 0.00260 0.09080
-0.17344 -0.10167 0.03366
-0.07050 0.00260 -0.09540
-0.12190 0.16269 0.03650
-0.12190 0.29399 0.16385
0.03003 0.01938 0.08005
0.05834 -0.03027 0.04788
-0.22370 -0.23590 0.01958
0.11808 0.00260 -0.15515
0.15228 -0.39443 0.13049
0.12817 -0.01956 0.10385
-0.04317 -0.01809 -0.10660
0.02242 0.00260 0.07006
0.00469 -0.03606 -0.04195
-0.14075 -0.04850 -0.03426
-0.05241 -0.02257 0.00177
-0.13029 0.26102 0.07923
0.00324 0.00260 -0.08179
-0.00578 0.01938 0.02806
-0.09715 0.08575 0.16012
-0.05081 0.12144 -0.16020
-0.06831 0.00238 -0.03871
-0.15318 0.10563 0.01970
-0.16804 -0.04460 -0.02059
0.08743 -0.19571 -0.14982
-0.14707 0.31225 0.04093
0.06625 0.00260 0.09832
0.06875 -0.09644 -0.12504
-0.21855 -0.33979 -0.02453
0.00513 0.14294 0.16941
-0.23625 -0.32849 -0.01129
0.05489 -0.03935 -0.01934
-0.07783 0.01156 0.18710
-0.01494 -0.02257 0.07357
-0.14411 0.24225 -0.11330
-0.16598 0.15258 -0.03146
0.10140 -0.02257 -0.02844
-0.12285 0.33899 -0.00156
-0.21890 -0.21661 0.00595
0.15156 0.00260 -0.05734
-0.16804 0.15113 0.02581
-0.12379 0.22662 0.00070
0.17741 0.06535 0.15951
-0.01497 0.00260 0.05832
-0.14707 0.20216 -0.11054
0.05233 0.00260 0.07765
0.14216 -0.39718 -0.15082
0.03006 0.00260 -0.04843
-0.12190 0.28681 -0.14662
0.00964 0.00260 -0.01019
-0.14707 0.23949 -0.02295
0.13209 -0.36736 0.16749
-0.12498 0.18394 -0.00016
-0.12265 0.14908 -0.03092
-0.16468 0.16962 0.03208
-0.16804 -0.01840 -0.00395
0.06429 -0.08079 0.13999
-0.14707 0.20758 -0.07136
0.04561 -0.03804 -0.00153
-0.20199 -0.23101 -0.04157
0.12516 -0.02092 0.09137
0.02272 -0.03935 -0.03801
-0.06592 -0.00807 0.01110
-0.11764 -0.02257 0.02405
-0.15345 -0.10801 0.03948
0.16753 0.00260 0.05893
0.05845 -0.03025 0.02271
0.20243 0.01938 0.15019
0.18372 0.00260 0.02094
0.04790 0.01938 0.11230
-0.23029 -0.26973 0.03296
0.03528 -0.02257 0.00469
-0.15444 0.15695 0.04195
0.23649 0.01862 0.00980
-0.18651 -0.12762 -0.01200
-0.15060 0.12810 -0.03064
-0.12060 0.00260 -0.02838
-0.03552 0.00260 -0.00763
0.00762 -0.03935 -0.01004
0.13355 0.00260 0.02327
0.06769 0.01938 -0.04770
-0.21694 -0.31782 -0.04134
-0.14707 0.32473 -0.17715
0.04710 -0.02314 -0.00034
-0.17402 -0.14950 0.02574
-0.14707 0.22565 -0.02549
0.02984 -0.02257 0.04485
-0.14707 0.29612 0.08354
0.04974 0.00260 0.07135
-0.12983 0.28976 0.18877
-0.16262 -0.12541 -0.03207
0.05113 -0.01573 0.10952
0.03577 0.00260 -0.11114
-0.11505 -0.03862 0.07255
-0.14707 0.38704 -0.05528
0.14261 -0.38900 0.09386
-0.14707 0.29504 0.04669
-0.14707 0.15930 -0.07239
-0.08107 0.00260 -0.02326
0.16759 0.08691 0.16732
-0.14707 0.36427 0.00314
-0.20233 -0.16523 -0.03847
0.01058 0.00260 0.02076
-0.21903 -0.37597 0.00843
-0.12190 0.38512 -0.04071
-0.03825 0.00260 0.14708
-0.21052 -0.18840 0.01759
0.17208 0.01938 0.16817
-0.21759 -0.21136 0.02538
0.13836 -0.35816 0.15510
-0.13029 0.23305 0.03677
-0.12190 0.29539 0.01400
-0.14707 0.26710 -0.17349
0.10671 0.00260 0.00700
0.04584 -0.03376 0.04195
-0.15546 0.28714 0.06793
0.17754 0.01938 -0.15702
-0.21504 -0.29879 -0.01557
0.16581 0.13451 -0.15974
-0.14707 0.33461 -0.14262
0.05835 -0.02951 0.04025
0.12471 -0.02109 -0.09600
-0.02569 0.01938 -0.05526
-0.09115 0.01938 0.15532
-0.01499 -0.02257 -0.00284
0.11369 0.00260 -0.05131
0.09455 0.00260 0.15133
0.01682 0.00260 -0.06113
-0.12190 0.36722 0.11822
-0.23107 -0.35845 0.04195
0.02374 0.00260 -0.09352
0.14032 0.01503 -0.17009
0.17582 0.01938 0.16471
0.10611 -0.23172 0.15713
-0.13224 0.31386 -0.04963
0.04523 -0.03573 0.11378
-0.02340 -0.02257 0.02290
-0.10855 -0.02747 0.02325
-0.13029 0.31393 0.08667
0.09870 -0.02257 -0.08302
0.11240 -0.25875 -0.16042
0.06044 0.01938 -0.13803
-0.10620 -0.03881 -0.15004
0.17477 0.00260 -0.02047
0.22510 0.00260 -0.03110
-0.13456 0.36400 -0.16961
-0.15546 0.25733 0.00336
-0.16710 0.15715 0.03681
-0.14707 0.39028 -0.04466
0.00922 0.14306 -0.17070
-0.14248 0.25086 -0.18877
0.04175 0.13330 -0.16020
0.11323 -0.23594 0.15205
-0.12155 -0.01832 0.16579
-0.13029 0.31010 -0.09147
-0.13662 0.23086 0.09189
-0.04687 0.01938 -0.17089
-0.19819 -0.21705 -0.01530
-0.22831 -0.25912 0.03663
-0.12495 -0.06123 -0.01961
-0.12190 0.37738 -0.10534
0.18214 0.10394 -0.15970
0.12161 0.00260 -0.10336
-0.14994 0.15258 -0.02758
-0.05548 -0.03935 -0.00153
-0.07473 -0.02257 -0.04071
-0.13029 0.27523 0.05684
-0.12190 0.23424 -0.09115
-0.10710 0.00199 0.15975
-0.16743 0.12037 0.03182
0.13553 -0.32528 0.15452
-0.12190 0.18755 0.15188
-0.17555 -0.10571 -0.01640
-0.12190 0.29885 -0.07558
0.15302 -0.38908 -0.13460
0.05410 0.00260 0.15210
0.04942 -0.03934 0.05676
-0.21299 -0.28504 0.00353
-0.15674 0.16729 -0.04195
-0.13032 -0.04363 0.04195
-0.12190 0.29528 0.00745
-0.18287 -0.17141 -0.03802
-0.21377 -0.29026 0.03507
-0.16368 -0.08427 0.01623
0.23286 0.00260 0.05396
0.01988 0.14103 -0.17468
