-0.16796 0.30294 0.09211
-0.17147 -0.00070 0.09844
0.08759 -0.09058 -0.01670
0.06189 0.00774 -0.09486
0.11814 0.00774 0.15691
-0.16105 0.12914 -0.10937
-0.15212 0.12277 0.10483
0.07858 -0.09058 -0.15110
-0.07980 0.00774 0.12556
-0.17107 -0.13861 -0.11867
-0.15515 0.27021 0.14499
-0.02678 -0.01212 0.18416
-0.19292 0.09374 0.09027
-0.16067 0.16082 -0.12354
0.09826 0.00774 -0.06625
-0.17253 0.31122 -0.03607
0.17761 -0.09058 -0.05168
-0.16796 0.11961 -0.01753
0.17974 -0.29469 -0.17022
-0.16749 -0.25619 -0.09926
-0.19815 0.27165 -0.04330
0.16335 -0.31304 0.18201
0.13776 -0.09058 0.16105
0.18206 -0.07153 -0.15815
0.17650 -0.21697 -0.18121
-0.15212 0.25111 0.00274
-0.18673 -0.05314 0.08101
-0.20003 0.03403 0.00457
-0.17798 0.05694 0.08101
0.18096 -0.01425 0.15126
-0.15712 -0.35064 -0.12364
-0.17480 -0.05899 0.08101
-0.04958 -0.04295 0.18476
-0.15086 -0.09058 0.02127
-0.18672 -0.05394 -0.07843
-0.12615 -0.09058 0.01663
-0.18870 -0.00764 -0.10984
0.08515 -0.09058 0.14349
-0.16796 0.19286 0.10354
-0.18138 0.06646 0.10933
-0.04004 -0.09058 -0.08732
-0.18072 0.00663 -0.06013
-0.16964 0.21579 -0.06653
-0.17008 0.36455 -0.06311
-0.17425 -0.08450 -0.11508
-0.14559 -0.16574 0.10866
-0.17120 0.21651 0.05602
-0.16357 0.29066 0.10784
-0.17381 -0.11526 -0.10089
0.06818 -0.05947 -0.18540
-0.15077 0.00688 0.10857
-0.16796 0.14883 0.06157
0.15696 -0.01896 0.18602
-0.21286 -0.04860 -0.02429
0.01746 -0.09058 -0.12983
-0.18980 0.38943 0.08490
-0.17236 0.15759 0.04092
0.15883 -0.11890 0.15322
-0.15212 0.13064 0.01929
-0.15212 0.20992 0.12728
-0.08818 0.00774 0.07327
-0.19553 0.15894 -0.06875
-0.16723 0.23332 -0.13186
0.10546 0.00774 -0.11127
-0.18151 -0.09058 0.08890
0.18359 -0.11457 0.16345
-0.10994 0.00774 -0.04000
0.17233 0.00717 0.10665
0.11267 0.00774 0.02622
-0.16796 0.34451 0.05422
0.10299 0.00774 0.06718
0.08564 -0.09058 -0.15367
-0.16302 0.14331 0.11090
-0.17046 0.05588 -0.06019
-0.08116 0.00774 -0.12415
-0.17106 0.39626 -0.05527
-0.09317 0.00362 0.15780
0.21558 -0.07398 0.00894
-0.16095 0.24587 -0.11810
-0.17392 0.23541 0.00172
0.17636 -0.09058 0.13617
0.05268 0.00755 0.15941
-0.04906 -0.09058 -0.12649
-0.17371 0.19647 0.00993
-0.17999 0.00098 0.11242
-0.04055 0.00774 -0.00086
-0.00951 -0.04612 -0.18581
-0.00561 -0.09058 -0.16908
-0.15212 0.22838 -0.08433
-0.16796 0.31597 -0.03798
-0.04487 -0.03321 0.18562
-0.17583 -0.09058 0.10331
-0.17465 -0.23026 -0.11120
-0.16863 -0.06827 0.12353
-0.16796 0.19045 0.08837
0.19742 -0.06356 -0.10864
-0.02939 -0.09058 -0.12248
-0.15399 -0.04947 0.13757
-0.09173 -0.09058 0.07326
-0.05064 -0.09058 -0.17829
0.17960 -0.11817 0.15773
-0.15717 0.09846 0.09066
-0.15212 0.21445 -0.12593
-0.19759 0.30375 -0.05059
-0.01054 -0.09058 -0.18049
-0.17169 -0.19281 -0.12248
-0.01256 0.00774 -0.03701
-0.18256 0.09289 0.13088
-0.19745 0.14783 -0.05247
0.08164 0.00774 -0.15062
-0.05703 -0.09058 -0.06659
-0.03511 0.00774 -0.14131
-0.18738 0.27117 0.11959
-0.17313 0.09794 0.03084
-0.06862 0.00774 0.07935
-0.17385 0.40130 0.00449
-0.13721 -0.07496 -0.15051
0.21101 -0.06643 0.05611
-0.15006 -0.35584 0.13766
0.16180 -0.06881 -0.15025
-0.03189 0.00774 0.04884
-0.17147 -0.08157 -0.07911
-0.15212 0.18735 0.11996
-0.15212 0.34867 0.02076
-0.15692 0.28799 0.13788
-0.15371 0.30934 0.11077
0.18023 -0.28095 0.16969
-0.19840 0.09045 0.04267
-0.19281 -0.09058 -0.02155
-0.16796 0.25404 0.03463
0.10299 -0.09058 -0.06187
0.06895 -0.09058 0.14474
-0.12965 0.00774 0.04382
-0.04026 -0.02856 0.18646
-0.19761 0.34028 0.05297
-0.19453 0.10365 -0.07655
0.04418 -0.00279 0.17862
-0.07410 -0.09058 0.12421
-0.19895 0.07684 -0.03292
-0.13382 -0.13180 0.13117
-0.17212 0.22484 -0.04139
-0.15212 0.08228 0.01036
-0.11039 -0.09058 0.05593
0.17133 -0.09058 0.01498
-0.15212 0.17883 0.01061
0.05877 -0.09058 -0.01165
0.08664 0.00774 -0.10337
-0.16180 0.33234 0.13776
-0.13365 -0.07465 -0.11280
0.21221 -0.06015 0.04798
0.14509 -0.09058 -0.12502
-0.19945 0.37036 -0.02461
-0.19196 0.18434 0.09562
0.15606 -0.09058 -0.18012
0.08534 0.00774 -0.11895
-0.18250 -0.00434 -0.10984
-0.20001 0.29724 -0.00260
-0.16796 0.16862 -0.01088
-0.04244 -0.09058 -0.09596
0.14929 0.00725 0.16166
-0.16796 0.27578 0.11031
0.14820 -0.15934 0.17235
0.00318 -0.09058 0.03955
-0.18976 0.13761 -0.10515
0.15451 -0.14084 -0.17960
0.21360 -0.05608 0.03500
-0.02088 -0.09058 0.03506
-0.08961 0.00774 0.13341
0.17283 -0.06278 0.18749
-0.19958 0.18150 0.02209
0.20420 -0.07965 0.08731
0.01674 -0.09058 -0.09755
-0.15212 0.18844 0.12970
-0.16796 0.12421 -0.02243
-0.19184 0.08186 0.09629
0.15532 -0.06023 0.15025
-0.15212 0.21133 0.09154
-0.16252 0.33498 -0.13366
-0.17334 0.27640 -0.02178
-0.19946 0.17064 -0.02423
0.15161 0.00774 0.09407
-0.19572 0.34779 -0.06732
0.07130 -0.09058 -0.02950
-0.17334 0.38135 -0.02190
-0.07079 -0.00607 0.17526
-0.18331 0.04189 0.07633
0.00070 -0.09058 0.07065
-0.13493 -0.27206 0.11613
0.12456 -0.02666 -0.18581
0.14789 -0.16160 0.16820
-0.04564 -0.09058 -0.06026
-0.17161 0.38551 0.09079
0.21303 -0.01106 0.00159
-0.19193 0.00001 -0.06295
0.21366 -0.08001 -0.03740
-0.17376 0.34234 -0.00537
-0.17371 0.21524 -0.00726
0.16492 -0.09058 0.02454
-0.21345 -0.01477 0.00803
0.18200 -0.08513 0.16352
0.20280 -0.05232 -0.09213
-0.13822 -0.08514 -0.14968
-0.16453 0.32317 -0.09992
0.15112 -0.11088 0.18749
-0.16201 0.21333 -0.16763
0.15466 -0.39376 0.17784
-0.16796 0.24881 -0.02002
-0.07642 0.00774 0.04465
-0.18712 0.26323 -0.11811
-0.13823 -0.33793 0.13705
-0.17290 0.07205 -0.03122
-0.17113 -0.03873 0.12011
-0.15212 0.19318 -0.10790
0.13492 0.00774 -0.11398
-0.15850 -0.16130 0.11434
-0.16796 0.28897 -0.06638
-0.15212 0.23558 0.08425
-0.15212 0.31595 -0.04823
-0.17295 0.28346 0.03319
0.15419 -0.31541 -0.17536
0.06385 0.00774 0.08469
-0.12635 -0.00933 0.15538
0.19398 -0.09058 0.01002
-0.16179 -0.20864 0.12768
-0.13459 -0.09435 -0.11375
0.06213 -0.09058 -0.05700
-0.17783 -0.07632 0.08101
-0.14102 -0.04866 -0.14739
-0.20055 0.00145 0.02425
-0.14159 -0.09058 -0.09635
-0.09437 0.00006 -0.16161
0.01771 0.00774 0.01323
0.16435 -0.15682 0.18689
-0.10682 -0.06054 0.16846
-0.19694 0.15713 0.06037
0.17665 -0.31166 -0.17686
0.17537 -0.00449 -0.17887
-0.15775 0.36001 -0.06364
-0.17292 0.38701 0.03360
-0.19173 0.11649 0.09688
-0.16796 0.09706 0.00467
-0.16351 0.25333 -0.10558
0.18024 -0.27600 -0.17071
-0.16463 0.14870 0.15889
-0.16796 0.32893 -0.01330
-0.20333 -0.00399 0.04434
-0.02068 -0.09058 -0.04005
-0.01597 0.00774 0.05673
-0.15212 0.30111 0.09294
-0.19610 0.18273 -0.06434
-0.18620 0.05839 -0.09805
-0.18681 0.16778 -0.11943
-0.12739 0.00715 0.12767
0.02995 -0.09058 0.17931
-0.18540 0.11396 0.12804
0.15683 -0.37319 -0.16162
-0.16796 0.26195 -0.00299
-0.14282 -0.07209 0.10271
-0.19994 0.31088 -0.00529
-0.13458 -0.10275 0.11095
-0.09068 0.00774 0.09104
-0.18907 0.34556 0.11158
0.16235 -0.11106 0.16649
0.15859 -0.00932 0.18291
-0.00252 -0.09058 -0.01639
-0.08148 -0.04525 -0.17818
-0.02018 -0.09058 0.17189
0.15767 -0.09058 -0.11571
-0.17387 0.19692 0.00377
-0.16796 0.31265 0.06066
-0.15535 -0.02090 0.13614
-0.17895 0.20135 0.15322
-0.15584 -0.09058 -0.01314
-0.15405 -0.09058 -0.07511
0.03486 -0.03266 0.18660
-0.16190 0.24037 -0.11402
-0.16346 0.19183 0.10844
0.04953 0.00774 0.03142
0.00325 0.00774 -0.02826
-0.16047 0.32677 0.12272
-0.17559 0.06190 0.10459
-0.18517 0.27140 0.12902
0.13908 0.00774 -0.14499
-0.16796 0.26318 -0.04048
-0.04625 0.00774 0.13551
-0.16521 -0.38102 -0.09842
-0.13306 -0.30841 0.13231
-0.00339 0.00774 -0.14847
0.17007 0.00319 0.14042
-0.16610 0.00774 0.02466
-0.17329 0.40059 0.05979
0.09490 -0.09058 -0.14543
-0.08896 -0.09058 -0.14833
-0.15370 -0.01228 -0.13397
-0.16796 0.23775 -0.02793
-0.04056 -0.09058 -0.16575
-0.16796 0.21558 0.04372
-0.00736 -0.05398 0.18660
-0.01074 -0.06130 -0.18581
-0.15212 0.31613 0.01772
0.17526 -0.02622 -0.18581
-0.16405 0.14982 -0.10258
-0.16796 0.12993 0.03049
-0.01322 -0.09058 -0.12959
-0.00033 -0.09058 -0.14172
-0.17361 0.10443 -0.01131
-0.19851 0.07714 -0.03862
-0.16411 -0.05951 0.13409
-0.18105 -0.05064 0.11242
-0.16796 0.29528 0.08797
-0.15319 -0.23243 -0.12633
0.16488 -0.09071 0.18749
-0.16796 0.24870 0.01708
-0.06205 -0.09058 0.15593
-0.15212 0.29094 -0.11586
-0.02706 0.00774 -0.05700
0.02829 -0.00027 0.17623
0.15169 -0.28338 0.17021
0.15373 -0.34579 -0.16645
-0.17055 0.27392 -0.05950
-0.16708 0.18862 -0.16578
0.13755 -0.01194 0.18409
-0.15815 0.12146 0.14785
-0.08858 -0.01837 0.17612
-0.16889 0.22395 -0.07236
0.17796 -0.07829 -0.15025
-0.13669 -0.06517 -0.15094
0.12229 0.00084 0.17508
-0.16924 0.29555 0.07225
0.14726 -0.09058 0.09245
-0.14260 0.00774 0.00623
0.15430 -0.33445 0.17410
0.01528 -0.09058 -0.11778
-0.17512 0.11692 0.14523
0.10552 -0.09058 -0.14022
0.03563 0.00774 0.00036
0.17559 -0.10003 -0.15025
-0.16796 0.29951 0.07875
-0.18892 -0.01214 -0.09185
-0.18927 0.37932 0.09892
0.03388 -0.06482 0.18660
0.09184 -0.09058 0.15793
0.16834 0.00774 -0.07101
-0.19423 0.30088 -0.07892
-0.11778 -0.09058 -0.10630
0.02734 -0.02079 -0.18556
0.18512 0.00772 -0.02695
-0.15212 0.10752 0.08207
0.18289 -0.07820 0.17353
-0.21068 -0.04451 -0.04149
-0.15212 0.31091 -0.10066
-0.19975 0.18323 0.01527
-0.17975 0.00750 -0.05078
-0.16765 0.05972 -0.08200
-0.16316 0.34999 -0.10749
-0.00867 -0.05571 -0.18563
0.21476 -0.06040 0.02579
-0.12681 0.00774 0.08333
0.11847 -0.09058 0.13881
-0.15063 0.26829 -0.16154
-0.20904 -0.04452 0.04964
0.08757 -0.05671 -0.18472
-0.16368 0.36047 0.10721
-0.11143 -0.09058 0.14749
0.13040 -0.09058 -0.14880
0.15895 -0.33294 -0.17962
-0.07326 -0.09058 -0.16918
-0.07358 -0.09058 -0.15155
0.15357 0.00766 0.15422
-0.19942 0.19233 0.02829
-0.17292 -0.03260 0.11767
-0.18193 0.00647 0.05913
-0.15212 0.10563 -0.08929
0.14767 -0.15164 -0.16760
0.09978 0.00774 0.01975
0.14889 -0.11076 -0.18498
0.16953 0.00341 -0.14035
0.15554 -0.26340 0.15808
-0.03031 0.00774 0.14748
-0.18449 -0.02200 0.10158
-0.17222 0.23626 0.04272
-0.07498 -0.03681 -0.17936
-0.15212 0.25592 -0.00378
0.03717 -0.09058 -0.18565
-0.19680 0.40759 -0.02805
0.16690 -0.07664 -0.18749
-0.14346 -0.16459 -0.10207
-0.11954 0.00774 0.01664
-0.12990 0.00774 -0.02565
-0.19806 0.19500 -0.04451
-0.15212 0.19875 0.12690
-0.17225 0.14784 -0.03970
-0.18731 0.30258 -0.11731
0.01208 -0.09058 -0.10899
0.06825 -0.01810 0.18587
-0.16796 0.27738 -0.09310
0.03294 -0.09058 -0.02788
-0.14137 -0.07465 0.14670
-0.17330 0.06771 0.02612
-0.12779 -0.09058 -0.03444
0.14924 -0.06929 -0.18581
-0.17363 0.31238 0.01312
-0.18905 0.25616 -0.10912
-0.10352 0.00774 -0.05844
-0.06066 0.00774 0.04318
-0.16796 0.20693 -0.04199
0.02305 0.00774 0.02961
-0.16796 0.16798 -0.01913
-0.16530 -0.11896 -0.09574
0.20658 -0.09058 -0.06065
0.16266 -0.22419 0.15312
-0.16796 0.12354 0.03292
-0.10008 -0.09058 0.10877
-0.19949 0.30230 -0.02299
0.18289 -0.10338 -0.18571
-0.16796 0.32188 0.07992
0.08633 -0.09058 0.11203
-0.16931 0.27019 -0.06912
-0.16856 0.28555 -0.07497
0.14889 -0.09424 -0.18707
-0.16796 0.23397 0.07777
-0.17277 0.01351 -0.10984
-0.15752 0.12333 0.10860
-0.00254 -0.02578 -0.18581
0.13509 -0.09058 0.10597
-0.08033 -0.09058 -0.09315
-0.07555 -0.09058 0.06225
0.05997 -0.09058 0.07643
0.15754 -0.40616 0.16712
0.01420 -0.03725 0.18660
-0.17542 -0.19959 -0.11304
-0.17204 0.30390 -0.04241
-0.17588 0.08028 -0.11827
0.17536 -0.05781 -0.17295
-0.17069 0.29614 -0.05839
-0.15212 0.14998 -0.10597
-0.14191 -0.12793 0.11435
-0.16796 0.17696 -0.05584
-0.16995 0.19907 -0.06409
-0.11929 0.00774 -0.10362
-0.15212 0.28687 -0.03760
0.16394 -0.06094 -0.18749
0.20400 -0.09058 -0.08028
-0.11211 0.00774 -0.00639
-0.01600 -0.09058 -0.15319
0.17796 -0.23005 -0.17919
-0.16690 -0.14941 -0.09512
0.00864 0.00774 -0.12609
-0.16059 0.10842 -0.13775
-0.19629 0.26284 0.06543
-0.15977 -0.09058 -0.04332
0.16773 -0.11106 0.17475
-0.19060 0.15630 0.10312
-0.20321 0.00139 0.00400
-0.11466 0.00757 -0.13349
-0.17593 -0.09058 0.04709
-0.18854 0.10319 -0.11189
-0.05715 0.00774 -0.12263
0.17907 -0.32082 -0.16849
-0.15212 0.32796 0.02713
-0.08774 0.00774 -0.12743
-0.16796 0.27525 0.03598
0.16099 -0.11415 0.15101
-0.19426 0.40973 -0.00483
-0.16458 -0.31206 -0.12357
0.17145 -0.35495 0.17966
-0.15504 0.20456 -0.16697
-0.17332 0.35306 0.02540
-0.04593 0.00774 -0.02141
-0.01537 -0.09058 0.01018
-0.19722 0.18011 0.05801
-0.19644 0.38965 0.06428
-0.13211 -0.38912 0.11743
0.18338 -0.06413 -0.14686
-0.15212 0.31030 0.01847
-0.19964 0.14109 -0.01722
-0.15212 0.20046 -0.04760
0.15195 -0.28970 -0.17077
-0.17376 0.04947 0.00817
-0.15212 0.33830 0.07389
-0.15573 -0.12286 0.13641
-0.08029 -0.01061 0.17602
-0.04507 -0.02321 -0.18468
-0.15212 0.24032 0.13029
-0.16241 0.30324 -0.15017
0.14706 0.00774 0.00608
-0.01123 -0.00856 0.18256
0.06650 0.00774 -0.06897
-0.17622 -0.09058 -0.00772
-0.16796 0.16159 0.08923
-0.02211 0.00710 0.16234
0.01689 -0.09058 -0.09266
-0.09364 0.00774 0.08319
0.13073 0.00774 -0.05610
-0.16936 -0.09058 0.05978
0.18407 -0.14589 0.17173
-0.16796 0.28573 -0.01608
0.17620 -0.37784 0.16245
0.01649 0.00774 0.07434
-0.17325 0.03162 -0.02536
-0.16796 0.13012 0.06401
-0.15212 0.30704 0.10383
-0.15212 0.17883 -0.03546
-0.18892 0.03106 -0.10253
-0.16796 0.30605 -0.02617
-0.06457 0.00774 0.08464
0.14320 -0.09058 0.11610
0.05989 0.00774 0.13022
0.21525 -0.06095 -0.01497
-0.16746 0.18376 -0.12932
0.02554 -0.00943 0.18296
-0.07999 0.00774 0.02214
-0.16796 0.09713 -0.04245
-0.15212 0.08503 0.02902
-0.13574 -0.37017 0.13704
-0.03109 -0.09058 0.00768
-0.15212 0.24304 -0.08822
0.17445 -0.11804 0.15322
0.14996 -0.03338 -0.18581
-0.15527 -0.06467 -0.13443
-0.10337 -0.09058 0.07777
-0.20008 0.05399 0.00240
-0.18755 0.15673 -0.11629
0.08554 -0.06137 0.18660
-0.15867 0.34315 0.13043
-0.19770 0.23740 -0.04917
-0.15212 0.15985 -0.02094
-0.16796 0.22243 0.11239
0.04672 0.00519 0.16832
-0.17696 -0.06638 -0.10984
-0.15131 -0.27454 0.11336
-0.15799 0.00441 -0.10875
-0.18196 0.11492 0.14273
0.07089 -0.09058 -0.18252
-0.10693 -0.09058 -0.13406
-0.15212 0.22989 -0.10740
0.18623 -0.00051 -0.10989
0.09644 -0.09058 -0.00656
-0.17147 0.02947 0.10967
0.18189 -0.02319 0.16240
-0.17141 0.10833 -0.05071
-0.17147 -0.02996 0.10901
-0.15926 0.13117 -0.14944
-0.20002 0.38508 0.00472
-0.19991 0.16510 -0.00652
-0.16796 0.22370 0.06409
-0.09157 -0.09058 0.12005
-0.19343 0.20537 0.08747
0.18561 -0.00417 -0.12124
-0.16685 -0.00175 -0.11022
-0.04425 -0.08330 -0.18494
-0.13554 0.00774 -0.10300
-0.17285 0.23999 -0.03189
0.16177 0.00774 0.03667
-0.19153 -0.09058 0.03763
-0.15699 0.35089 -0.07600
-0.17325 0.27172 0.02817
0.15332 0.00774 0.11474
-0.11795 0.00774 0.01173
-0.15212 0.23783 -0.08600
-0.17386 0.12849 -0.00176
-0.15942 -0.08960 0.13878
-0.16161 -0.18144 0.12071
-0.15212 0.11323 0.08757
-0.16796 0.34687 0.06281
-0.15212 0.26049 0.01330
-0.16796 0.29581 0.02440
-0.11793 0.00774 0.03861
-0.20046 -0.04838 0.07115
-0.13849 -0.31454 0.13814
-0.17814 0.00583 0.07328
-0.14214 0.00774 -0.00613
0.04643 -0.09058 0.12960
-0.06496 -0.09058 0.01497
0.19718 -0.00181 -0.07838
0.16758 -0.09058 0.14878
0.10076 -0.06027 -0.18581
0.15008 -0.11235 0.17715
-0.19534 0.25623 0.07280
0.10782 -0.09058 -0.12850
-0.14472 -0.09058 -0.03396
-0.17285 0.27638 -0.03192
-0.19290 0.17936 -0.08785
0.02410 -0.09058 -0.12644
-0.19853 0.08068 0.04091
-0.15212 0.06469 -0.01237
0.04430 -0.09058 -0.03975
-0.15707 0.18769 0.13722
-0.20217 -0.01017 -0.05714
0.15024 -0.17351 -0.17700
-0.00193 0.00774 -0.05623
0.12993 0.00774 -0.05026
0.21593 -0.04173 -0.00100
-0.19961 0.39933 -0.01830
-0.16982 0.06550 0.06775
-0.14514 -0.09058 -0.00402
-0.18714 0.31011 0.12062
0.17495 -0.15856 0.18462
-0.18893 -0.02620 0.09582
0.15205 -0.05781 -0.17020
-0.16796 0.10600 0.08820
-0.17188 -0.09058 0.01843
-0.15212 0.19550 0.04730
-0.12882 -0.14337 0.13372
-0.08141 0.00774 -0.05678
0.20166 -0.09058 0.08810
-0.11465 -0.08167 0.16484
-0.03474 0.00774 0.11354
-0.17746 0.18690 0.15835
0.04916 -0.09058 0.14152
-0.15212 0.14275 -0.00400
0.17752 -0.30164 -0.16152
-0.17108 0.36041 0.05747
0.00344 -0.01276 -0.18363
0.18399 0.00774 -0.00658
-0.13775 0.00774 -0.01988
-0.15212 0.19771 -0.06913
-0.05174 0.00532 -0.16469
-0.10615 -0.09058 -0.02301
-0.15212 0.21616 0.10879
0.19194 0.00276 -0.07746
0.18200 -0.05464 0.16915
-0.14337 -0.40169 0.11749
-0.18043 0.26783 -0.14550
0.11711 0.00774 0.11738
-0.14826 0.21585 -0.16624
-0.17491 -0.09058 -0.11159
-0.16796 0.28288 -0.09953
-0.16796 0.20364 0.07417
0.13391 -0.06516 -0.18581
-0.12870 -0.07598 0.15826
0.21310 -0.08650 0.04198
-0.15212 0.14163 0.03315
-0.19930 0.27775 0.03092
-0.17044 0.28619 0.06290
-0.17714 -0.01531 0.10954
0.05561 0.00774 -0.14041
0.15274 -0.27388 0.17511
0.08980 0.00774 -0.12212
-0.19968 0.39905 0.01822
-0.19687 0.35856 0.06091
-0.16519 0.15942 0.09886
-0.15541 -0.05781 -0.09343
-0.09872 -0.09058 -0.05251
-0.15906 0.30675 -0.10968
-0.14970 -0.20141 0.14286
0.15743 -0.31902 -0.17899
0.19005 -0.03135 -0.12893
-0.06794 -0.07386 0.18143
-0.16378 0.23153 -0.16699
-0.15212 0.07249 -0.03339
-0.15212 0.18526 0.03902
-0.17274 0.07117 0.03590
-0.05193 0.00774 -0.02827
-0.16796 0.11568 0.02114
-0.17542 0.33378 -0.13435
0.05424 0.00774 -0.12024
-0.15689 -0.11106 0.12001
-0.16875 0.05788 -0.07350
-0.05771 0.00774 -0.14958
0.02901 -0.07137 0.18660
-0.16315 0.24358 0.11015
-0.16796 0.27950 0.06675
-0.19193 0.37703 -0.09320
0.14919 -0.09608 -0.15025
-0.14734 0.00774 -0.07875
-0.13610 -0.05781 0.14080
-0.15212 0.25027 -0.05155
0.16225 -0.35825 -0.15599
0.10222 -0.09058 0.13085
0.17507 -0.34700 0.16057
-0.16796 0.13559 -0.06866
0.21132 -0.05581 0.05214
0.06599 -0.09058 0.14866
-0.15212 0.25739 -0.02581
0.01627 -0.09058 -0.13850
-0.11797 -0.08739 0.16331
-0.17147 -0.07936 0.09716
-0.13756 -0.16982 0.11064
-0.19867 0.09239 -0.03663
-0.16979 0.19656 0.06797
-0.16796 0.11940 -0.09708
-0.15212 0.15728 0.01603
-0.15381 0.35171 0.07764
-0.19809 0.33622 -0.04410
-0.16128 -0.22587 0.12759
-0.15212 0.26000 0.10109
-0.14689 -0.05879 0.15131
-0.15867 0.09589 0.13040
-0.14432 0.00310 0.12667
-0.16876 -0.07742 -0.12549
-0.18660 0.07401 0.11586
0.02963 -0.07604 -0.18581
-0.17331 0.15472 -0.02319
-0.17489 -0.11429 -0.12049
-0.12777 -0.09872 0.13310
0.16601 -0.26492 0.18379
-0.16796 0.29150 0.11116
-0.17165 0.07194 0.05016
-0.09480 -0.09058 0.03265
0.03963 0.00774 -0.01065
0.18032 -0.25198 0.16399
-0.15212 0.21875 -0.08503
-0.19405 0.21859 -0.08032
-0.17412 0.41007 0.00192
-0.17485 0.15444 -0.15845
0.18138 -0.36390 -0.16837
-0.16796 0.34906 -0.04671
-0.19999 0.39126 0.00589
0.14889 -0.09012 -0.15056
-0.10056 -0.05626 -0.16980
0.18289 -0.06380 0.18291
-0.19712 0.16722 -0.05640
-0.16796 0.20757 -0.05670
-0.15512 -0.28210 0.13705
0.20874 -0.01496 0.06118
0.15345 -0.20960 -0.15802
0.04481 -0.09058 -0.14525
-0.01630 -0.09058 -0.16879
0.17244 -0.37800 0.15845
-0.17241 0.15245 0.04024
0.03679 -0.09058 -0.06536
-0.16084 0.21687 0.17048
-0.19871 0.04536 0.03867
-0.13061 0.00774 -0.01652
-0.12292 -0.08074 0.12825
0.09451 -0.09058 0.18423
-0.14063 -0.10756 -0.10554
-0.14618 -0.01397 0.14163
-0.14681 -0.19168 -0.09919
-0.17370 0.13320 -0.00772
-0.18588 0.29766 0.12599
-0.17147 -0.05878 0.09270
-0.15212 0.28933 -0.01465
-0.13577 -0.03733 -0.15169
0.18561 -0.02118 -0.13840
-0.18318 0.21566 -0.13495
-0.12275 -0.09058 -0.15792
-0.19987 0.36287 -0.00820
-0.19440 0.05599 -0.07759
-0.07745 -0.09058 -0.07625
-0.18424 0.32434 -0.13040
-0.17512 0.23379 -0.16387
-0.19514 -0.08482 0.08450
-0.15285 -0.09058 0.01140
0.03494 0.00774 0.12817
-0.16005 0.20122 -0.12192
0.16799 0.00270 0.16320
-0.13536 -0.16548 0.14141
-0.16406 0.30881 0.10509
-0.21386 -0.06696 0.01724
-0.16796 0.16146 0.04443
0.14889 -0.06290 -0.16185
-0.17753 0.24787 -0.15555
0.00199 -0.09058 0.01460
-0.15212 0.20326 -0.09361
0.17201 -0.26171 0.18247
0.20565 -0.00095 0.01404
-0.17355 0.33327 0.01619
-0.18638 0.14600 -0.12129
-0.19923 0.24390 -0.02926
0.12797 0.00774 -0.09018
-0.18789 0.38414 -0.09013
-0.14398 -0.36342 -0.11619
-0.17147 -0.01855 -0.10473
-0.17029 0.29276 0.06409
-0.16796 0.13419 -0.00216
-0.15404 0.06177 -0.00746
-0.16090 0.37195 0.03156
0.03811 -0.09058 0.14499
0.15328 -0.20215 -0.17988
-0.02342 0.00774 0.01521
0.18200 -0.04506 0.18435
0.13343 -0.03197 0.18660
-0.15028 -0.33985 0.11506
0.17729 -0.02613 0.18660
0.15091 -0.39068 -0.16405
-0.18226 0.32075 -0.13885
-0.16799 0.31158 0.14949
-0.19953 0.25988 -0.02133
-0.17387 0.20849 0.00388
0.04051 -0.09058 0.06773
-0.17347 0.09885 -0.01661
0.07048 0.00774 0.06891
-0.14655 -0.00805 0.13803
-0.17371 0.06907 -0.00730
0.16283 -0.16565 -0.15131
0.16763 -0.09058 0.12375
-0.16796 0.20001 -0.11286
-0.02628 -0.09058 0.05918
0.15196 -0.09058 0.12436
0.12021 -0.09058 -0.15443
0.11828 -0.06912 0.18660
-0.19359 0.29971 0.08643
0.08834 0.00774 -0.13110
-0.19794 0.14165 0.04867
-0.12429 -0.08363 0.12125
-0.17231 0.32558 0.14165
-0.16744 0.28229 -0.15835
0.09272 -0.09058 0.08651
-0.10384 -0.05142 0.16983
-0.17320 0.11922 0.02973
-0.17147 -0.00266 -0.07980
-0.15264 0.18414 -0.15109
0.06989 -0.03656 0.18660
0.20373 -0.03939 -0.08838
-0.16853 -0.10665 0.12967
-0.12746 -0.15532 0.12319
0.16468 -0.04032 -0.18581
0.03036 -0.09058 0.09801
-0.15212 0.29141 0.08087
0.11494 -0.09058 0.08820
-0.19965 0.38345 -0.01666
-0.19881 0.15760 -0.03479
-0.15620 0.29480 -0.11602
0.16196 -0.41011 0.17363
-0.15396 0.15023 0.14908
-0.17690 -0.00163 -0.07843
-0.01693 -0.09058 0.15119
-0.15212 0.25592 0.09050
-0.16796 0.25596 0.04775
-0.19177 0.32691 0.09665
-0.15013 -0.09058 -0.05385
-0.19915 0.26659 -0.03037
-0.19868 0.27870 0.03899
-0.15212 0.32485 0.01667
-0.01105 0.00774 -0.05795
-0.19846 0.39916 -0.03931
-0.16976 -0.34812 -0.11695
-0.18628 -0.00409 -0.08690
-0.04223 -0.09058 0.04899
0.16419 -0.35614 -0.18081
0.01879 0.00774 -0.04148
0.17140 -0.05781 0.15738
0.18331 -0.15724 0.17399
-0.20770 -0.09058 0.03206
-0.15212 0.11791 -0.09909
-0.13078 -0.09058 0.13023
-0.16796 0.26049 0.08374
-0.10439 -0.09058 0.03762
0.21157 -0.07265 -0.05153
-0.19952 0.30966 0.02455
-0.17166 -0.28543 -0.10573
-0.15412 0.32315 -0.09987
-0.15212 0.12937 0.07252
-0.15212 0.27269 0.08945
-0.15212 0.22171 0.07626
0.18030 -0.09058 0.01394
-0.20290 0.00060 0.01402
-0.18967 0.09890 0.10824
-0.14560 -0.32120 -0.11058
-0.18379 0.38152 0.09618
-0.16733 0.25729 -0.08449
-0.19949 0.04114 0.02537
-0.05119 -0.09058 0.10258
-0.19129 0.26628 0.09927
-0.14473 -0.07358 -0.14436
0.19257 0.00543 0.05178
-0.15384 0.00774 0.00292
-0.15346 -0.28165 -0.09820
0.20868 -0.00539 0.02783
-0.15568 0.27422 -0.14057
0.14760 -0.09058 0.08665
0.16668 0.00774 -0.07626
-0.17892 -0.04490 0.08101
-0.14384 -0.20750 -0.11888
0.17770 -0.32794 -0.16366
-0.13893 -0.25792 0.14020
-0.16697 0.00774 0.05345
0.15143 -0.09058 -0.09719
-0.19863 0.28104 -0.03710
-0.18766 0.14401 0.11841
-0.19556 0.31439 -0.06852
0.21329 -0.07693 0.04066
-0.17251 -0.02382 -0.07843
-0.17375 0.07181 0.00862
0.08206 0.00683 0.16359
0.14481 -0.09058 0.05186
-0.15253 0.20480 0.15405
0.18190 -0.06611 0.18749
0.14468 0.00774 0.10952
0.02809 0.00774 -0.11660
0.13911 -0.09058 0.18033
-0.11069 -0.01139 0.16363
0.18239 -0.16726 -0.17543
-0.16093 0.20441 -0.11816
0.18046 -0.09058 0.13389
0.13720 -0.09058 0.05582
-0.18210 0.35426 0.12224
-0.01782 -0.09058 0.05739
-0.03952 -0.09058 -0.17159
-0.16796 0.11053 -0.06745
-0.17349 0.33877 -0.01597
0.18090 0.00774 0.02455
-0.09242 0.00774 -0.06368
0.12724 0.00774 0.04635
0.15134 -0.00772 -0.18126
0.15478 -0.14697 0.18350
0.21499 -0.04765 -0.02017
-0.19992 0.22382 0.00871
-0.11610 0.00774 -0.06334
-0.18512 -0.01181 -0.07843
-0.04590 -0.08195 0.18543
0.05316 -0.01777 -0.18502
-0.18892 0.02283 -0.08875
-0.16796 0.17423 -0.00989
-0.15212 0.16434 -0.07004
-0.09302 0.00672 0.15000
-0.12239 -0.11033 0.12314
-0.13140 -0.24812 0.13306
-0.19904 0.22267 0.03434
-0.19609 0.30450 -0.06438
-0.19113 0.11743 -0.09760
-0.15212 0.28432 0.06358
-0.16796 0.10306 0.03956
0.19392 -0.03182 0.11922
-0.09643 -0.09058 -0.08119
0.03776 -0.09058 0.01212
-0.20654 -0.00198 -0.00560
0.20111 -0.08924 0.09908
-0.14421 -0.09058 0.09634
-0.19936 0.15312 -0.02752
-0.19794 -0.01936 -0.07532
0.07126 -0.09058 0.18035
-0.19778 0.18456 0.05066
-0.21371 -0.07372 0.01843
0.09556 0.00769 0.15759
-0.15212 0.30155 -0.08404
-0.01631 -0.01580 0.18536
0.15942 -0.19798 0.18441
0.16896 -0.01697 -0.18488
0.01152 0.00774 0.07793
-0.15520 0.07507 -0.06144
0.16915 -0.33158 0.18135
-0.19960 0.03700 -0.01858
-0.03671 -0.09058 0.11821
-0.16796 0.08464 0.02941
-0.18892 -0.03308 0.10633
-0.16337 -0.07550 0.12062
-0.06918 -0.00666 -0.17513
-0.17279 0.35147 -0.03274
-0.15390 0.28972 0.12060
0.20880 -0.00436 -0.00898
-0.17087 0.22807 0.05954
0.16217 0.00585 0.15493
-0.17147 -0.02676 0.09057
-0.17324 0.22591 0.02841
-0.14414 -0.17969 0.10920
-0.19750 0.17386 0.05434
-0.17338 0.39308 0.02311
-0.15212 0.14589 0.08257
0.15792 -0.09058 -0.10631
-0.03593 -0.09058 0.12376
0.20104 0.00193 0.03490
-0.10403 -0.09058 0.07048
-0.16796 0.34217 0.06161
0.18277 0.00601 0.08871
-0.07965 -0.05147 0.17930
-0.16675 0.28903 0.09023
-0.18892 -0.03484 -0.09560
0.03303 0.00774 0.01740
-0.01119 0.00774 0.03901
0.18222 -0.02246 0.15413
-0.14057 -0.09058 -0.04063
-0.17124 0.21469 -0.05287
-0.18892 0.03029 -0.08042
0.07188 -0.09058 -0.15293
-0.18648 -0.09058 0.09793
0.04006 -0.06992 0.18660
0.00829 -0.09058 -0.03513
-0.16855 0.11594 0.07761
-0.17068 0.03891 0.06106
0.16863 -0.09058 0.16390
0.15835 -0.09058 -0.00123
-0.11898 -0.09058 -0.14055
-0.14458 -0.05781 -0.10672
-0.16954 0.09655 -0.06735
0.15864 -0.09058 0.11571
-0.14587 -0.09058 0.11793
-0.15508 0.20921 0.14521
0.18083 -0.20241 -0.17642
0.21257 -0.01191 -0.01799
0.14889 -0.08336 -0.16129
-0.16005 0.20039 0.16924
-0.15726 0.14714 -0.13384
-0.19936 0.10010 -0.02761
-0.18648 0.01569 -0.07843
0.06217 0.00774 0.14540
-0.16655 0.10546 -0.08876
0.09282 0.00756 -0.15846
0.15375 -0.22286 -0.15828
0.17396 -0.05781 0.17545
-0.19995 0.06406 0.00754
-0.03526 0.00774 0.02076
-0.19644 0.00031 0.05161
-0.15938 0.20883 0.12739
-0.16796 0.12312 0.08984
0.15217 -0.20246 0.17841
0.16857 -0.13298 -0.18111
-0.15883 0.13471 -0.12716
-0.18745 0.14854 -0.11670
-0.19960 0.37423 0.02124
0.17084 -0.13341 0.18040
-0.16431 0.12426 -0.14673
0.02252 -0.03023 0.18660
-0.20583 -0.09058 -0.00239
0.00376 -0.09058 -0.13618
0.18169 -0.21939 -0.17285
0.01886 -0.09058 -0.05177
-0.01979 -0.09058 -0.13385
-0.04107 -0.00813 -0.18115
-0.16596 0.16565 -0.09202
0.02715 -0.06999 -0.18581
-0.18186 -0.09058 -0.00603
-0.08707 -0.09058 0.00742
-0.15212 0.29408 -0.11166
-0.16640 0.24108 -0.08962
-0.15712 -0.23143 0.11601
-0.18093 0.18786 -0.14378
-0.16796 0.35878 -0.06000
-0.15212 0.12783 0.02805
-0.19964 0.05741 0.01945
0.17302 -0.38631 0.18335
-0.11136 -0.09058 0.16066
-0.15741 -0.39613 0.13009
-0.01859 -0.09058 -0.12657
-0.16142 -0.05781 0.12353
-0.16235 0.29991 0.11457
-0.15218 -0.35386 0.11658
-0.16796 0.18968 -0.00885
-0.12660 -0.01117 -0.15538
0.14999 -0.21747 0.17254
0.04750 -0.09058 0.02619
-0.15212 0.17341 -0.11177
-0.16994 0.26175 0.06683
0.13709 0.00774 -0.12531
-0.20739 -0.00586 -0.02224
-0.17539 0.39379 -0.07486
0.07133 -0.09058 0.06943
-0.17770 0.22446 0.15753
-0.19219 0.10970 0.09432
-0.14753 -0.31676 -0.10430
0.04279 -0.09058 0.08697
-0.07147 0.00668 -0.15727
0.20129 -0.05163 -0.09777
0.18010 -0.11106 -0.16132
-0.16796 0.18277 -0.05770
-0.17225 0.04035 0.04231
-0.15212 0.32393 0.03554
0.17920 -0.36140 0.16201
-0.16828 0.37530 0.07973
0.17783 -0.32581 0.17393
0.04958 0.00774 0.05595
-0.16202 0.22792 -0.11354
-0.16312 0.27956 0.11032
-0.17920 0.06968 -0.10191
-0.15212 0.16982 -0.04112
-0.16167 0.28601 0.15951
0.15831 -0.28233 0.15668
-0.14495 -0.09058 -0.01746
-0.17341 0.14180 0.02182
-0.15212 0.34584 0.03278
-0.13400 -0.37254 0.12167
-0.16746 0.18016 0.08606
-0.17358 0.35087 -0.01251
-0.18466 0.36897 0.11017
-0.15743 0.12986 -0.13310
0.20465 -0.03504 -0.08472
-0.15998 -0.36869 0.12829
0.11221 -0.09058 -0.01371
0.02062 0.00774 0.04643
-0.17953 0.15942 0.15121
-0.16109 -0.40834 -0.11933
-0.20005 0.27238 -0.00089
-0.15212 0.18645 0.02882
-0.16971 0.28919 0.06858
-0.17343 0.02825 -0.01830
-0.14088 -0.31469 0.11400
-0.15423 -0.36906 0.11499
0.18755 -0.09058 -0.09061
0.17120 0.00014 0.16773
0.13377 -0.09058 -0.03555
-0.16796 0.28822 -0.08934
0.08467 -0.09058 0.15253
-0.15212 0.13272 -0.01662
-0.11464 0.00774 -0.05698
0.16604 -0.41011 -0.16477
-0.15212 0.11563 0.03823
-0.17185 0.31895 0.04747
-0.19939 0.36430 -0.02697
-0.19860 0.11797 -0.03747
-0.16157 -0.37402 -0.12212
-0.15212 0.17080 -0.05085
-0.17239 0.12278 -0.03794
-0.14260 0.00774 -0.01487
-0.21536 -0.04833 0.00543
0.05080 -0.09058 0.05939
-0.15778 -0.14011 -0.09643
-0.19948 0.03586 0.02591
0.07672 -0.09058 -0.10645
0.12601 0.00774 -0.00713
-0.15793 0.12065 -0.13101
0.18884 -0.01358 -0.12695
-0.15995 0.15244 0.12495
-0.21584 -0.07375 -0.00087
-0.17147 0.01668 -0.08257
-0.15212 0.22913 0.04407
0.20720 -0.01389 -0.06693
-0.16796 0.33993 0.01197
0.11259 0.00774 -0.01273
-0.06874 -0.09058 0.12452
-0.16649 0.33914 -0.08909
-0.17344 0.29255 -0.01792
0.14246 -0.09058 -0.07226
-0.19817 0.34821 0.04568
-0.16796 0.08900 0.02143
0.16300 -0.14222 -0.15240
0.17903 -0.22430 0.15966
-0.16440 0.20214 0.10323
-0.16512 0.08848 0.09925
-0.16992 -0.27877 -0.12053
-0.13296 0.00774 -0.03926
-0.18892 -0.07874 -0.08006
-0.07961 -0.00343 -0.17092
0.17473 -0.27382 0.18041
0.15647 -0.17694 -0.15408
-0.15913 -0.09058 0.05295
0.15018 -0.05781 0.16474
-0.17217 0.34521 0.04334
-0.14524 -0.09058 -0.01168
-0.15585 0.18563 0.16814
-0.16796 0.09779 -0.00803
0.14889 -0.06588 0.18655
-0.15139 0.00774 -0.08629
0.18034 -0.38172 0.17309
-0.15972 0.21902 0.13551
0.05064 -0.09058 -0.16434
-0.13157 -0.09058 0.07262
0.15210 -0.27179 -0.16400
-0.13710 -0.38039 0.11492
-0.00794 0.00774 -0.05394
-0.17354 0.21964 0.01649
0.18670 0.00706 -0.05516
0.14314 0.00774 -0.09781
-0.16796 0.34964 0.05311
-0.05697 0.00774 0.12168
-0.16796 0.20912 0.00237
-0.16027 0.21937 0.12359
-0.16067 -0.23274 0.12250
0.07562 -0.00830 -0.18161
-0.01933 -0.04012 -0.18581
0.18036 -0.27429 0.16749
-0.06968 -0.09058 0.05562
0.00447 -0.09058 -0.02606
-0.15806 -0.17055 -0.09379
-0.12181 0.00774 0.08163
-0.15212 0.12033 -0.01886
-0.15885 0.32001 0.14487
-0.15103 0.24634 -0.15665
-0.19973 0.34942 -0.01354
0.16760 -0.28550 -0.15478
0.16898 -0.07667 0.18749
0.20081 -0.07125 -0.09915
-0.17203 -0.16266 -0.09949
-0.02971 -0.09058 0.14099
-0.00024 0.00774 -0.14203
-0.17386 0.24896 -0.00163
-0.15212 0.11126 0.06573
-0.15212 0.31691 -0.00793
-0.10526 0.00774 0.09314
0.16528 -0.09058 0.04222
0.18268 -0.20245 0.16853
-0.17162 0.35686 0.05054
-0.15942 0.27861 0.16177
-0.19117 0.14259 -0.09741
-0.10323 -0.09058 0.02828
0.10441 -0.09058 -0.00398
-0.16796 0.31492 -0.02105
-0.15212 0.11689 -0.00222
0.05167 0.00589 0.16649
-0.18152 0.27247 0.14433
0.00522 0.00774 -0.07898
-0.03935 -0.09058 0.11206
-0.19579 0.23124 -0.06676
-0.18892 -0.05912 -0.09175
-0.14747 -0.08497 -0.09870
0.16244 -0.14240 0.15232
-0.15212 0.15819 -0.06861
0.16118 -0.09058 0.09414
0.18200 -0.04272 0.16516
-0.08134 -0.09058 0.02482
-0.10338 0.00774 0.02838
-0.18025 -0.07690 -0.10688
-0.07654 -0.09058 0.15965
-0.16796 0.16502 0.06898
0.15176 0.00774 0.01956
-0.17283 -0.38614 -0.10359
-0.16293 0.32759 -0.09633
-0.15964 -0.27975 -0.12588
-0.17333 0.27115 -0.02226
0.04960 -0.09058 -0.06058
0.14689 -0.09058 -0.14573
0.13532 0.00774 0.07383
0.10364 -0.01615 0.18546
0.21133 -0.00804 -0.00596
0.18200 -0.03142 -0.18278
0.15153 0.00774 0.03627
-0.16796 0.08272 0.00635
0.18289 -0.10566 -0.17660
-0.19713 0.00225 0.04254
-0.09041 -0.08311 0.17604
0.18810 -0.03286 0.13387
0.21397 -0.02131 0.03454
-0.14941 -0.38355 0.14181
-0.17247 0.20517 0.03945
-0.13443 -0.11106 0.12979
0.15443 -0.09058 0.04112
-0.15212 0.29859 0.02518
0.18785 0.00700 0.04991
0.17654 -0.23555 -0.15726
0.13399 -0.09058 -0.00255
-0.15212 0.26088 -0.05142
-0.14598 -0.23434 0.11080
-0.00591 0.00774 -0.05982
-0.17188 0.13207 -0.04452
0.16176 -0.14856 -0.18680
-0.16564 0.11005 0.09637
-0.15212 0.13558 -0.02554
-0.17474 -0.09058 -0.02496
-0.16796 0.25402 -0.00199
0.21398 -0.05668 0.01979
0.14142 0.00774 -0.10989
0.08836 -0.09058 0.13828
-0.15058 0.24786 0.16079
0.11737 -0.05231 -0.18581
-0.16322 0.35685 -0.11760
0.19542 -0.08971 -0.11425
-0.14757 -0.05158 0.14282
0.13140 0.00774 -0.03429
0.18289 -0.05822 -0.16163
-0.12582 -0.07089 0.15968
0.12053 -0.05677 0.18545
-0.18620 -0.00189 0.08342
-0.19984 0.37685 0.01192
-0.17858 -0.09860 -0.10507
-0.15896 0.25294 0.13184
-0.16796 0.09518 0.07514
-0.15212 0.33247 0.05828
-0.15212 0.14008 -0.05123
0.16204 -0.09058 0.03838
-0.16506 -0.05781 -0.12493
-0.15090 -0.23417 -0.09771
0.17134 0.00034 0.15373
0.16483 -0.36863 0.15407
-0.19683 0.36800 0.06126
-0.15212 0.24326 -0.12282
-0.15598 0.28614 -0.13930
-0.16796 0.20953 -0.00913
-0.17147 0.02227 -0.10963
0.09635 -0.09058 0.14798
-0.16437 0.11638 0.10343
-0.14995 0.20230 -0.16040
0.17573 -0.26559 0.17996
0.18289 -0.10586 0.17487
-0.19259 0.17353 -0.08951
-0.15862 -0.23717 -0.12729
0.11500 -0.09058 -0.06158
-0.16435 0.31277 -0.14644
-0.13575 -0.03726 0.15249
0.06740 -0.09058 -0.13785
-0.15479 -0.37686 -0.10114
0.17004 -0.29840 -0.15565
-0.16796 0.23415 0.01196
0.17721 -0.09058 0.10899
-0.16184 0.15301 0.11688
-0.17362 0.11716 0.01357
-0.08853 0.00666 -0.15162
-0.13247 -0.19972 0.11572
0.10972 -0.09058 0.04089
-0.18328 0.38540 -0.08837
-0.19953 0.17732 -0.02160
-0.15991 -0.09058 -0.11113
-0.19281 -0.09058 0.06761
-0.15212 0.30442 0.03300
0.16686 -0.35459 -0.15679
-0.03304 -0.09058 0.12803
-0.14566 -0.09058 -0.06610
-0.16859 0.24393 -0.07470
-0.18882 0.32934 0.11292
0.12463 -0.09058 0.08583
-0.04354 -0.09058 -0.15827
0.01172 0.00774 0.05905
-0.17365 0.19084 -0.00960
-0.15212 0.17148 -0.05815
-0.14968 -0.10633 -0.12884
-0.18413 0.22518 0.13345
-0.10112 0.00165 0.15723
0.15087 -0.09058 -0.11540
0.16916 -0.34681 0.15687
-0.06273 -0.09058 -0.08414
-0.17107 0.25121 -0.05506
-0.17236 0.24691 0.04086
-0.19740 0.12041 -0.05314
-0.16780 0.05141 0.09167
-0.15027 -0.23500 0.14152
-0.06114 -0.09058 -0.09566
-0.19784 0.34356 -0.04740
0.11295 0.00037 -0.17478
-0.21151 -0.03613 0.03570
-0.18500 0.27131 -0.12716
0.17994 -0.05783 -0.17939
-0.16579 0.28819 0.15865
-0.17427 -0.06461 -0.10075
-0.17342 0.32851 0.02120
-0.16796 0.20528 0.12381
-0.15212 0.17784 -0.07908
-0.17324 -0.22331 -0.10465
-0.16128 0.32711 -0.11670
-0.02832 0.00771 -0.15637
-0.18977 0.35987 0.10770
-0.16115 -0.09058 0.01647
-0.17387 0.11389 -0.00114
0.17435 -0.20166 0.15429
0.01141 -0.03309 0.18660
0.18932 -0.04062 0.13128
-0.16930 0.00774 0.03439
-0.21304 -0.01699 -0.01546
-0.16796 0.36306 0.00665
0.03434 -0.09058 0.11442
0.18841 -0.09058 -0.11704
-0.18354 0.17773 0.13598
0.19087 -0.03649 0.12780
-0.15212 0.34042 0.02062
-0.16796 0.13444 0.05308
0.13152 -0.09058 -0.18038
-0.19759 0.34488 0.05323
0.20235 -0.05701 0.08908
-0.17378 0.23766 -0.00464
-0.18275 -0.01129 -0.09872
-0.02317 0.00774 -0.00357
-0.17192 0.40045 0.04656
-0.15526 -0.10309 0.11250
-0.15212 0.29326 0.03944
0.16614 0.00774 0.04384
-0.17147 -0.03926 -0.08678
-0.18892 0.03171 0.09629
0.15346 -0.31398 0.16404
0.07893 -0.09058 -0.03851
-0.15051 0.27540 0.16104
0.17611 -0.19614 0.15543
-0.16404 -0.09058 0.00093
0.15962 0.00704 -0.14352
0.04185 0.00774 -0.02263
0.15673 -0.12935 0.16043
-0.19532 0.10728 -0.07043
0.04851 0.00774 0.01826
0.17257 -0.26633 -0.18208
-0.15369 0.30155 0.15002
-0.17001 -0.29403 -0.11966
0.12310 0.00774 0.02805
0.18577 0.00772 -0.01405
-0.20006 0.09093 -0.00068
-0.17964 0.06968 0.09979
-0.14889 0.19279 0.16664
-0.09644 -0.09058 0.04483
0.10051 -0.01182 -0.18324
-0.19001 -0.08553 0.09435
-0.19586 0.05454 -0.06620
-0.16796 0.35073 0.06633
-0.18129 0.40533 0.04250
-0.15788 -0.35840 -0.12492
-0.19453 0.30077 0.07911
-0.19578 0.05046 0.06941
0.02712 0.00774 -0.09501
-0.16440 -0.09058 0.04042
-0.08989 0.00774 0.06373
-0.15530 -0.16379 0.14141
0.17633 -0.13199 0.16218
-0.01978 0.00774 0.10744
-0.18310 0.02672 0.08101
-0.19318 0.05223 0.08888
-0.14225 -0.37967 0.11310
-0.16796 0.26877 0.10853
0.01920 -0.09058 0.02034
-0.15212 0.22574 -0.00568
-0.17512 -0.20003 -0.10779
-0.16796 0.17991 -0.06969
-0.16986 -0.16360 -0.12547
-0.18830 0.14505 -0.11310
-0.16298 -0.01605 0.12871
-0.18892 -0.04350 -0.10438
-0.19871 0.28658 -0.03600
-0.15159 -0.07546 0.13953
0.16352 -0.03532 0.18660
0.17527 -0.22328 -0.18192
-0.13918 -0.18984 0.14253
-0.15728 0.13343 0.13635
-0.15212 0.08948 0.05171
0.16615 -0.39161 -0.15339
-0.16521 0.00757 0.08170
-0.15212 0.28607 0.10347
-0.19497 0.16098 -0.07315
-0.13937 0.00774 -0.00054
0.00156 -0.09058 0.02722
-0.16796 0.06794 0.02030
-0.19925 0.26264 0.03158
-0.18165 0.06156 0.11242
-0.15397 0.00774 0.04977
0.08340 0.00774 -0.08021
0.21338 -0.04033 -0.03929
0.10826 0.00774 -0.04887
0.01993 -0.00214 0.17810
-0.13560 -0.02846 0.15262
-0.15727 0.30632 0.13639
-0.15356 0.20180 -0.14790
-0.15126 -0.19676 0.11080
-0.16581 0.06675 -0.10704
-0.15212 0.07577 0.01455
-0.16796 0.20536 -0.11105
-0.16796 0.19417 0.01279
-0.17267 0.05382 -0.07843
-0.15759 -0.24283 -0.12698
-0.13811 -0.38696 0.14108
-0.15212 0.10114 -0.01473
-0.14440 -0.15504 0.14474
0.18683 0.00765 0.01351
0.15777 0.00749 0.14157
-0.21540 -0.08822 0.00509
0.15278 -0.27589 0.16269
-0.20003 0.32228 0.00460
0.11193 0.00774 -0.06026
-0.18892 0.01833 -0.08460
0.05409 0.00774 -0.00375
-0.14047 -0.09161 -0.10570
-0.16295 -0.11106 -0.09650
-0.18905 0.09058 0.11170
0.11379 -0.09058 0.09653
-0.18892 -0.01134 0.09537
-0.10083 -0.09058 -0.03546
-0.13443 -0.12294 0.11737
-0.16851 -0.37146 -0.12053
-0.16437 0.34120 -0.10080
-0.20431 -0.06034 0.06149
0.09363 -0.09058 -0.09148
-0.17353 0.13998 0.01703
-0.19969 -0.01399 -0.06742
-0.02096 0.00774 0.15116
0.15851 -0.17785 0.18469
-0.18681 0.31471 0.12203
0.14847 -0.18169 0.16848
-0.15212 0.22528 -0.08971
-0.16796 0.32867 0.04595
-0.15212 0.20996 0.06386
0.06400 -0.09058 -0.06772
-0.09976 -0.06973 -0.17093
-0.16796 0.17201 0.03962
-0.15212 0.24245 -0.07684
-0.11267 -0.09058 0.13590
-0.20578 -0.01351 0.05254
-0.10342 -0.09058 0.13726
-0.19472 0.19044 0.07766
-0.15212 0.25515 0.06782
-0.18553 0.22016 -0.12492
-0.17392 0.09723 0.00173
-0.15212 0.23353 0.01180
-0.19758 0.05251 -0.05080
-0.16767 0.09500 -0.12998
-0.15212 0.35671 0.02277
0.14889 -0.06549 0.17149
0.00869 -0.04318 -0.18581
-0.06440 -0.05871 0.18087
-0.17797 0.19517 -0.15401
-0.17126 0.04323 0.05521
-0.14621 -0.39415 -0.10469
-0.09475 -0.09058 -0.02756
-0.17147 0.06021 0.09587
-0.07461 0.00774 -0.04402
-0.19830 0.17220 -0.04139
-0.15212 0.14398 0.08930
-0.16796 0.23673 0.00452
-0.15212 0.21969 -0.03438
-0.19316 0.37413 0.08897
0.08517 0.00774 0.09625
0.15017 -0.16196 0.16000
-0.16832 -0.27039 -0.12259
-0.17403 -0.23878 -0.11454
-0.17203 0.23271 -0.04255
-0.17555 0.02648 0.00614
-0.18616 0.13259 0.12481
-0.17405 0.39741 -0.06697
-0.18746 0.02962 -0.03290
0.07561 -0.08663 0.18660
-0.18875 0.08105 -0.11074
-0.20730 -0.08660 0.05400
-0.16650 -0.09808 0.12375
-0.16796 0.15972 0.06896
0.15560 -0.03285 -0.18581
-0.17532 0.01492 0.08101
-0.17147 0.03456 0.10746
0.14989 -0.11339 -0.15995
0.05815 0.00774 0.07027
-0.21555 -0.02073 -0.00109
0.07330 -0.09058 -0.17442
0.17411 -0.25850 -0.15627
-0.13236 -0.32805 0.12593
-0.00536 -0.09058 -0.07873
-0.14048 0.00774 -0.07501
-0.16796 0.31210 0.01019
-0.16317 0.26410 -0.10746
0.14858 -0.03760 0.18660
-0.18327 0.26566 -0.13456
-0.16850 0.28289 0.07800
0.06036 0.00774 0.08791
0.15507 -0.14773 -0.15405
-0.19234 0.04481 0.08153
-0.17147 0.06281 0.10217
0.18289 -0.08905 -0.16574
-0.15495 0.22550 -0.14308
0.00547 -0.09058 -0.05160
-0.10398 -0.02716 0.16977
-0.16278 0.20947 -0.13233
-0.19873 0.09533 0.03837
-0.12112 -0.09058 -0.00313
-0.17297 0.34094 0.03286
-0.19723 0.08607 0.05794
0.17607 -0.09058 -0.09963
-0.15749 -0.32796 0.12231
-0.16166 -0.30477 -0.09818
0.15936 -0.36296 0.15501
0.13094 -0.09058 0.13487
0.15959 -0.11106 -0.17170
-0.11202 -0.03317 0.16605
-0.14082 -0.11314 -0.11448
0.05920 -0.09058 -0.13875
-0.16654 0.21962 0.09142
0.05542 0.00774 0.06288
-0.17048 0.25274 0.06257
-0.15212 0.13904 -0.09252
-0.21140 -0.05593 0.03350
-0.01337 -0.08717 -0.18581
-0.19003 0.20985 -0.10369
0.18198 -0.21269 -0.16558
-0.15212 0.24563 0.05537
-0.05203 0.00774 0.03771
-0.16796 0.34657 0.07769
-0.08856 -0.02442 0.17685
0.17307 -0.18777 0.15329
0.15565 -0.36444 0.18049
0.17672 -0.37835 -0.17553
0.09824 -0.09058 -0.05330
-0.18892 0.01632 0.08510
-0.14562 -0.27776 -0.10539
-0.16796 0.30929 -0.05818
-0.16409 0.31173 -0.10235
-0.18762 0.13474 0.11858
0.11714 0.00774 0.11273
0.18782 -0.05034 0.13447
-0.16682 0.27864 -0.08730
-0.20955 -0.02733 0.04835
-0.17384 0.13911 0.00510
-0.17285 0.20784 -0.03191
-0.12966 -0.14142 0.12238
-0.19694 0.05425 0.06040
-0.19606 0.11019 0.06722
0.02772 -0.01880 0.18599
0.20427 -0.00465 0.05719
-0.15090 -0.37262 -0.12094
0.13801 -0.01960 -0.18535
-0.16796 0.24184 0.03620
-0.16622 0.18636 -0.09061
0.15169 -0.11106 0.17150
-0.16440 0.00774 -0.03305
0.18965 -0.09058 0.09177
-0.15212 0.15420 -0.09415
0.18588 -0.06730 -0.13833
-0.16796 0.11060 0.02809
-0.15118 -0.09058 -0.10023
0.14087 -0.09058 -0.10031
0.17874 -0.10982 0.15025
-0.08580 0.00774 -0.01979
-0.14625 -0.09058 0.05423
0.21522 -0.02622 0.01626
-0.13857 -0.37529 0.13476
-0.16898 -0.32911 -0.10378
-0.05142 0.00774 -0.05319
-0.17370 0.31168 -0.00770
-0.15400 0.25518 0.16711
0.14889 -0.08407 0.17845
-0.16796 0.10786 -0.03882
-0.17362 -0.10443 -0.12064
-0.17509 0.39053 -0.08056
0.07742 0.00774 0.03148
-0.17293 0.37989 -0.09564
-0.18892 -0.00477 0.10184
-0.17871 -0.03818 -0.10984
-0.16963 0.12399 -0.06666
-0.19984 0.18754 -0.00904
-0.17365 0.15206 0.01221
0.08625 -0.08226 0.18660
0.17353 -0.29102 -0.15706
0.10547 -0.09058 0.15679
-0.17155 0.17736 -0.04886
-0.18712 0.25944 0.12069
-0.19156 0.30209 -0.09521
-0.16796 0.22531 -0.05355
-0.17516 -0.11135 -0.11644
0.03241 -0.09058 -0.00950
-0.15212 0.35756 -0.06480
-0.16796 0.36633 -0.02047
0.16190 -0.05781 -0.16687
-0.15311 0.24146 0.15203
-0.20888 -0.01310 0.03996
-0.17852 -0.06253 -0.10501
-0.19233 0.20678 -0.09096
0.06279 -0.02746 0.18660
0.12847 -0.09058 -0.10116
0.11182 -0.09058 -0.15865
0.12721 -0.09058 -0.03496
-0.17147 -0.03273 0.09122
-0.18374 -0.03182 -0.10212
0.15507 -0.26671 -0.17901
-0.18892 0.04219 -0.09406
-0.16796 0.14410 -0.01873
-0.19974 0.27347 0.01575
0.06629 0.00774 -0.10736
-0.07167 -0.09058 0.02094
-0.16516 0.24286 -0.16614
0.03608 0.00774 -0.02359
-0.15679 -0.09058 -0.00670
0.18711 -0.09058 0.11883
-0.17251 0.34762 -0.03630
-0.05950 0.00774 -0.12742
-0.01685 -0.09058 -0.04800
-0.19874 0.10614 0.03822
-0.15212 0.07436 -0.05449
-0.19633 0.32022 -0.06255
0.20280 -0.07883 -0.09214
-0.16687 0.18213 -0.08701
-0.05532 0.00774 0.04853
-0.16145 0.16301 0.11853
-0.21398 -0.04334 0.01632
0.16518 -0.33057 -0.18172
-0.04882 0.00774 -0.13728
0.03464 0.00774 -0.11692
-0.19372 0.18659 -0.08285
-0.00767 -0.09058 0.16522
-0.15212 0.18855 -0.09664
0.17594 -0.35269 0.16199
0.08644 0.00774 0.02850
-0.15212 0.33602 0.06922
-0.19916 0.36918 0.03275
0.18147 -0.11529 -0.17887
-0.16633 0.37477 0.00824
0.17189 -0.14222 -0.15327
-0.15212 0.09921 0.00836
-0.15212 0.17529 0.00732
-0.15212 0.22090 -0.11617
-0.18569 0.02708 -0.01302
0.16593 0.00774 -0.02336
-0.14120 -0.29035 0.14008
-0.15212 0.09575 0.02936
0.14570 0.00425 0.17004
0.21036 -0.01993 -0.05695
-0.16796 0.21381 0.12974
0.09517 0.00774 -0.08850
-0.16796 0.19701 0.12012
-0.04259 0.00280 -0.17087
-0.18892 -0.02991 0.08662
0.19843 -0.09058 0.08220
0.16953 -0.17422 0.18609
-0.15212 0.27408 0.05055
0.11479 -0.05755 -0.18395
0.01793 -0.09058 0.05348
-0.16113 0.31707 -0.11732
-0.16796 0.10143 0.04764
-0.21284 -0.04679 0.02526
-0.19996 -0.01057 0.06396
-0.14372 -0.08125 0.14905
-0.15987 -0.23000 0.13282
-0.16440 0.26434 0.10322
-0.19866 0.24846 -0.03672
-0.15444 -0.20741 0.11275
0.21531 -0.08350 -0.01374
-0.16919 0.28306 0.07260
-0.14945 -0.40674 0.13395
-0.19607 0.34779 0.06716
0.19510 -0.07120 0.11593
-0.16439 0.08972 -0.10074
-0.15998 -0.09058 0.06135
-0.17142 0.38394 0.05314
-0.16732 -0.00288 0.11192
-0.04138 -0.07890 -0.18546
0.11117 -0.09058 -0.09781
-0.07029 -0.09058 0.08979
0.13121 0.00774 0.10026
0.15891 -0.11106 -0.15912
-0.15573 0.13653 0.14295
-0.17350 0.20251 -0.01581
-0.18262 -0.06339 0.10443
-0.21059 -0.08080 -0.04220
-0.17320 0.24142 -0.02730
0.18289 -0.07214 0.17864
-0.17519 0.22257 0.16623
-0.17147 0.02090 -0.08695
-0.16796 0.13120 0.05940
-0.15212 0.29829 0.03871
-0.17435 0.00600 0.08118
-0.19984 0.16358 0.01195
0.15634 -0.35665 0.16153
-0.17378 0.08804 -0.00455
0.18335 -0.09058 0.05804
-0.15658 0.12412 -0.10648
-0.17346 0.26816 0.01981
-0.19198 0.25828 -0.09288
0.17457 -0.34799 0.17771
-0.20333 -0.04563 -0.06316
0.19257 -0.01965 -0.12089
-0.12514 -0.09058 0.04823
-0.16506 0.30642 0.09961
0.21532 -0.04651 -0.01343
0.18383 -0.16207 -0.16979
-0.16796 0.35110 0.04259
-0.10701 0.00774 0.01942
0.18087 -0.01618 -0.16302
-0.16796 0.31937 0.03507
-0.01900 -0.00707 -0.18086
-0.16796 0.25189 0.02105
-0.05734 0.00774 0.00912
-0.03089 -0.09058 0.15919
0.15231 -0.30647 -0.16959
-0.14778 -0.09256 0.10503
-0.17350 -0.01117 0.11205
0.15931 -0.09058 -0.00789
0.02086 -0.09058 -0.04186
0.15993 -0.06166 0.18660
-0.16796 0.24394 0.04307
0.17772 -0.09058 0.07971
-0.15212 0.24047 -0.04645
-0.15212 0.27778 -0.04904
0.16174 -0.35151 0.18035
-0.00297 -0.09058 -0.08601
0.06773 -0.09058 0.09269
-0.16316 0.09423 -0.10751
-0.14848 0.24433 -0.16603
-0.18199 0.39528 0.07462
-0.17844 -0.05492 0.11242
0.17342 -0.18134 0.15323
-0.00918 -0.09058 -0.03210
-0.13558 -0.20729 0.11317
-0.19615 0.04013 0.06656
-0.18587 0.19425 -0.12344
0.13640 0.00774 0.13561
0.05781 -0.09058 -0.17732
-0.14763 -0.09058 0.01743
-0.16813 0.07981 -0.11789
-0.17208 0.06567 -0.04188
-0.15270 0.28222 0.15347
-0.15279 0.14660 0.15316
-0.16147 0.15802 0.16185
0.01230 0.00774 0.06925
0.09546 -0.09058 0.02686
-0.14217 -0.05781 0.13607
-0.20688 -0.06850 -0.05427
0.21098 -0.02182 0.05502
0.13134 -0.09058 -0.14394
0.21367 -0.04615 0.03811
-0.16346 -0.09058 0.07809
0.16154 -0.08905 0.15025
-0.17147 -0.02742 0.08581
0.11731 -0.09058 -0.02744
0.15924 -0.19438 -0.18445
0.12204 -0.07649 -0.18581
0.21182 -0.03298 0.05060
-0.19964 0.17525 0.01973
-0.19828 0.14796 -0.04166
-0.16939 0.10410 -0.13527
-0.18892 0.03172 0.10627
-0.11335 0.00774 0.04646
0.19376 -0.04742 -0.11889
0.01543 0.00774 0.13082
0.08443 -0.02446 -0.18578
0.17950 -0.36050 -0.16357
-0.16796 0.18409 -0.02714
-0.15525 0.22467 0.17008
0.16336 -0.06742 -0.18581
0.18163 -0.22232 0.17260
-0.16796 0.20047 0.01565
0.04779 -0.08056 -0.18581
-0.19099 -0.04700 -0.09222
-0.17994 0.03959 -0.06918
0.02223 -0.06350 -0.18581
0.15216 -0.30144 -0.16813
-0.17096 0.00774 0.04726
-0.14504 -0.25246 -0.10479
0.19853 0.00435 -0.01386
-0.09397 0.00774 0.03247
-0.12908 -0.21240 0.12410
-0.17687 0.16446 0.16040
-0.14284 -0.22070 -0.11473
-0.18096 0.15971 0.14626
0.08390 -0.09058 0.07640
