0.18340 -0.31471 0.06902
-0.16120 -0.38051 -0.16229
0.22592 0.00560 0.16250
0.02902 -0.08541 0.21170
-0.14118 -0.35011 0.17966
-0.16036 -0.36119 -0.15907
-0.15961 -0.34388 0.16573
0.22528 -0.00457 -0.02492
-0.02262 0.09484 0.21170
0.06586 -0.10059 -0.21170
0.05182 -0.17141 0.19302
0.12207 -0.28663 0.21170
0.05234 -0.14056 0.19302
-0.09369 0.01411 -0.11359
-0.01881 0.06283 -0.21170
-0.15644 -0.26938 0.05241
-0.20748 0.34235 0.19302
0.15722 -0.27209 0.15090
-0.13036 0.15125 -0.19302
-0.17362 0.35764 -0.17455
0.11104 -0.19978 0.19302
-0.00140 0.01041 -0.19302
-0.19502 0.34160 -0.21170
-0.15139 0.26095 0.19885
-0.14389 -0.17993 0.15566
-0.10915 -0.00457 -0.13197
0.02868 0.02656 -0.11712
-0.04230 0.15242 0.21011
-0.06320 0.01411 0.07750
-0.11329 0.01622 0.01443
-0.07730 0.22292 0.20430
-0.04878 0.02656 -0.10794
-0.12156 0.09914 -0.19021
-0.14848 -0.38195 -0.15566
-0.04360 0.12175 -0.21170
-0.10469 0.02656 0.02176
0.17069 0.01411 0.14104
0.11626 0.00950 -0.19302
0.19305 -0.34661 0.19302
0.15422 -0.29351 0.00521
0.17029 -0.28387 0.14465
0.20446 0.01411 -0.02984
0.09556 -0.28354 0.19302
0.08025 0.01185 -0.15461
0.08315 0.02656 0.17270
-0.13061 0.02793 -0.19302
0.22395 -0.38394 0.19802
0.11351 0.00737 -0.15461
0.09434 -0.25734 0.19302
-0.15063 -0.13827 -0.15655
-0.19600 0.34613 -0.19302
-0.16333 0.28292 0.11222
-0.04605 0.03127 0.19302
-0.10554 0.02656 -0.11415
0.11374 -0.25013 -0.21170
0.02659 -0.00457 -0.19234
0.17482 -0.38542 0.21170
-0.11927 0.29257 0.19302
-0.10316 0.01411 -0.06560
0.01103 0.02638 0.17463
-0.13076 -0.06266 -0.19302
0.06551 0.01411 0.11317
0.15363 0.01411 -0.15721
0.04106 0.01411 0.01636
-0.15424 -0.22091 0.18097
-0.14319 -0.01741 -0.19302
0.05128 0.02656 0.00214
-0.10052 0.01411 -0.09833
-0.12650 0.01411 0.08288
-0.15238 -0.26471 -0.05927
0.14439 0.01411 -0.18370
0.15603 -0.29717 0.03024
0.01766 -0.04170 0.21170
-0.18392 0.30347 -0.21170
-0.09483 0.02656 0.01620
-0.16142 -0.38540 0.16395
0.18811 0.00854 -0.02669
-0.15494 -0.34952 0.15566
-0.01332 0.08455 -0.19302
-0.21906 0.35122 -0.19302
0.10857 -0.31955 0.19910
-0.13573 -0.22526 0.15673
-0.14905 -0.31483 -0.09419
-0.15432 0.30677 -0.17407
-0.06270 0.01411 -0.11977
0.09958 0.01411 -0.06783
0.06038 0.01444 0.17521
0.18788 0.01411 -0.08817
-0.09420 0.18856 -0.19302
-0.15028 -0.31475 -0.01566
-0.10714 -0.00457 0.14666
-0.13877 -0.28603 0.09568
0.17400 -0.31937 -0.10946
0.17514 -0.31881 0.10898
-0.12713 0.27263 -0.19302
-0.15814 -0.31032 -0.16190
-0.17808 0.34059 -0.13508
-0.05277 0.06774 -0.19302
0.08259 0.02656 -0.02500
-0.11852 0.16878 0.18752
0.17139 0.02656 0.07848
-0.13822 0.14587 0.16430
-0.04718 0.02656 0.05944
0.04474 -0.07069 0.19302
0.17336 -0.28204 -0.19325
0.20092 0.01411 -0.08466
0.22631 -0.00457 0.11123
-0.13704 0.23632 0.19302
0.10918 -0.15701 0.21170
-0.03739 0.01411 -0.01471
-0.15721 0.31800 0.21170
0.21664 -0.00457 -0.05228
0.03354 0.01411 -0.02572
0.18811 0.00703 0.06041
-0.11556 0.01411 -0.09320
-0.16930 0.31926 0.06656
0.19704 0.01411 -0.19095
-0.02803 0.02486 0.17753
0.03137 0.01411 -0.01685
-0.06486 0.02981 0.21115
-0.12725 -0.02345 0.16589
0.18474 0.02656 0.16591
-0.15648 0.27831 -0.19669
0.21554 -0.00457 0.01311
-0.17734 0.33878 -0.02497
0.02579 0.01411 0.13552
0.16714 -0.00297 -0.15461
-0.13845 -0.28097 -0.01523
0.05471 -0.21105 -0.20372
-0.12254 0.07688 -0.15982
-0.09470 0.01411 0.11223
0.03402 -0.00342 -0.19302
-0.16423 0.30526 -0.07691
-0.00265 0.01411 0.00613
-0.01367 -0.06275 0.21170
0.19020 0.02656 -0.05743
0.16095 -0.30707 -0.14609
-0.15260 -0.18342 0.17470
-0.03503 0.00187 0.19302
-0.03331 0.01411 0.04732
-0.15860 -0.30361 -0.02138
-0.11421 0.01761 0.02472
0.09230 0.01411 0.06221
0.15049 -0.27543 0.03932
0.18811 0.00429 0.08550
-0.13814 0.14761 0.15943
0.16214 -0.30413 -0.19302
-0.11817 0.17691 -0.17446
0.15153 0.02656 0.13254
-0.20199 0.35747 0.19302
-0.15313 -0.29793 0.15566
0.16089 0.01411 -0.18570
-0.14663 -0.04678 0.16584
-0.16009 -0.35485 -0.17095
-0.11938 0.14914 0.18267
0.12688 0.02656 -0.15508
-0.07506 0.02656 -0.14831
-0.05757 0.13089 -0.21170
-0.14938 0.25669 0.18835
-0.18506 0.33523 0.04792
0.12372 -0.24811 0.21170
-0.12694 0.01979 0.15566
-0.15633 0.26408 0.08416
0.08577 0.02656 -0.09681
-0.13886 -0.28748 0.08153
-0.02590 0.11938 -0.19473
-0.10510 0.11088 0.19925
-0.13320 -0.16728 0.15791
-0.18123 0.36370 0.08544
0.06143 0.01411 0.06129
-0.03560 0.01411 0.15740
-0.14795 -0.26499 0.07329
0.17634 -0.29606 -0.10048
0.05093 -0.15563 -0.19302
-0.12759 0.30035 -0.21170
-0.13439 0.33792 0.19384
-0.13990 -0.30394 0.11248
0.20676 -0.37602 -0.21170
0.02903 0.01411 -0.05791
-0.02131 -0.02237 0.19302
0.11136 -0.32517 0.19558
-0.15019 -0.28046 -0.15566
-0.10925 0.21099 -0.21170
0.01060 0.01230 0.15461
0.09849 -0.16970 -0.21170
0.18447 0.02656 0.03759
-0.18018 0.38333 0.21170
-0.14163 -0.12854 -0.15566
0.01211 -0.10675 -0.19302
0.19113 0.01411 0.14909
-0.15685 -0.27593 -0.13133
0.15470 -0.30129 -0.21170
-0.17339 0.33585 0.19012
-0.17696 0.35695 0.18421
-0.05700 -0.00457 -0.18107
0.16187 -0.30893 -0.08342
-0.08682 0.13903 -0.21170
-0.05999 0.02656 -0.00505
-0.12351 0.09684 -0.15566
0.20398 -0.00457 0.03648
0.15747 -0.27197 0.13935
0.15651 -0.29813 0.08159
-0.09782 0.01411 -0.00937
0.15314 -0.29133 -0.07285
0.05692 -0.21551 -0.19902
-0.01780 0.04363 0.21170
0.04384 -0.03330 0.21170
0.06780 -0.06939 0.20439
-0.14087 -0.05193 -0.19302
0.21246 0.02278 -0.14490
-0.13000 -0.08993 -0.15566
0.13362 -0.37002 -0.19853
-0.17017 0.28147 -0.00373
0.05790 0.00976 0.15461
-0.14420 -0.31513 -0.03336
-0.16380 0.30587 -0.16952
0.09961 0.02656 0.00617
0.21893 0.01411 -0.03466
-0.05882 -0.00231 0.19310
0.16910 0.01285 -0.19302
-0.04067 0.03934 -0.19302
-0.18204 0.32175 0.01799
0.18356 -0.31060 -0.14937
0.15020 -0.27558 0.01131
-0.07772 -0.00457 -0.17509
-0.15540 -0.24756 0.16585
-0.12208 0.21154 0.18929
-0.14677 0.20650 0.19302
-0.05928 0.01411 0.13297
-0.04366 0.01411 -0.06420
0.10244 0.01411 0.16624
-0.13919 -0.29269 0.05839
-0.06762 0.01411 -0.09677
-0.09595 0.01411 -0.08510
-0.13847 -0.01600 0.15566
0.11388 0.01411 -0.08711
-0.00672 0.06658 0.19302
-0.20858 0.31934 0.21124
0.18735 0.02656 -0.10557
-0.09611 -0.00457 0.17983
-0.13191 -0.13789 -0.16633
-0.10987 0.01411 0.14651
0.13463 -0.22745 -0.19302
0.01916 0.02861 0.19503
-0.08684 0.01411 0.01144
-0.09787 0.02656 0.08836
-0.01004 0.01411 -0.16469
-0.13766 0.07560 -0.15566
0.03733 -0.00457 -0.16641
0.10977 -0.18095 0.21170
-0.05794 0.01411 0.16521
0.11891 0.02656 0.07552
-0.12387 0.04645 -0.18934
0.05109 0.00344 -0.15461
-0.02473 0.02656 0.10912
0.21624 -0.00457 0.07154
0.00627 -0.04544 -0.21170
0.07171 0.01411 -0.16928
0.10163 0.01411 -0.05976
0.20084 0.02656 0.13926
0.06155 -0.05680 -0.20558
-0.14299 0.35525 0.20182
-0.16067 -0.36818 -0.18706
-0.09007 0.10646 -0.19302
-0.05954 0.02656 -0.09965
-0.00720 0.01411 0.04541
0.15034 -0.28570 -0.13355
-0.00291 0.02656 0.05348
-0.06989 0.04698 -0.21170
-0.03680 0.02656 0.14745
-0.15132 -0.15423 -0.17896
0.10919 0.02656 -0.14423
-0.18023 0.26222 -0.20121
-0.17775 0.30985 -0.04012
0.12372 0.02656 -0.11922
-0.01176 -0.05838 -0.21170
0.17947 -0.30236 0.14178
-0.09679 0.02656 0.08156
-0.14772 0.30765 -0.21170
-0.14080 -0.25878 -0.15566
0.14206 0.01411 -0.15942
0.08049 -0.13307 -0.19302
-0.16323 0.32688 -0.13999
-0.16901 0.31030 -0.01078
0.19131 0.01411 -0.17647
-0.06021 0.08749 -0.19302
0.06331 -0.22839 0.20780
-0.06265 0.02110 -0.17942
-0.20606 0.38781 -0.19670
-0.14581 0.32693 -0.21170
-0.13872 -0.28509 0.04259
0.12921 -0.25248 -0.19302
0.15033 0.01411 0.09443
-0.10050 0.25349 0.21170
0.14788 -0.25541 0.19302
0.03671 0.02656 -0.08474
0.07193 0.02656 0.10203
-0.03874 0.05062 0.21170
0.15784 -0.25589 0.19302
0.10774 -0.00457 0.18169
-0.12831 0.01128 -0.18317
0.15255 0.01411 -0.03294
0.09375 0.02656 0.13577
-0.15709 -0.27973 0.01040
-0.09287 0.09340 0.19302
0.12670 -0.35609 -0.20094
0.16956 -0.28241 -0.09610
0.03064 0.02656 -0.07562
0.14137 0.02656 0.03635
-0.14161 -0.31530 -0.02697
-0.00967 -0.03377 0.21170
-0.14404 0.01262 -0.18914
0.18956 0.00782 0.19302
0.15764 0.01411 -0.04914
0.12341 0.01411 -0.16129
0.07607 0.02656 0.09248
-0.12911 -0.07370 -0.15622
0.00914 0.02656 -0.09851
-0.05923 -0.00259 -0.19302
0.01238 -0.05688 -0.21170
0.17079 -0.27685 -0.20229
0.12425 -0.29299 0.21170
0.12462 0.01411 -0.11551
0.16371 -0.27062 -0.12520
0.19955 -0.00457 -0.05963
0.03957 -0.16232 0.19302
-0.13132 -0.12428 -0.17947
-0.01818 0.01411 0.17904
0.17562 0.02656 -0.06015
-0.02553 -0.00457 0.17138
0.19944 -0.00457 0.10895
0.21101 0.01579 0.08890
-0.11429 0.29744 0.19565
-0.16389 0.34009 -0.19302
-0.08998 0.01266 0.08326
-0.14150 0.07081 0.18446
-0.08789 0.02656 0.08616
-0.07732 -0.00457 0.18449
-0.16867 0.27702 -0.01573
-0.01932 0.01411 0.08753
-0.05545 0.01411 -0.18745
0.16858 0.01411 0.03920
-0.12304 0.06533 -0.18767
-0.15945 -0.34019 -0.17378
-0.10841 0.16232 -0.21170
-0.14791 0.27945 -0.14356
0.20929 -0.00457 -0.12545
-0.06461 0.19735 0.20856
-0.00742 0.02656 -0.03253
-0.10338 -0.00457 -0.09303
-0.04081 0.01411 0.16559
0.05087 0.01411 0.15877
-0.15849 -0.30189 -0.13677
0.04538 0.01411 0.05795
-0.17016 0.32658 -0.16537
0.18389 -0.31446 0.09726
0.14164 -0.35358 -0.21170
-0.15777 0.21698 -0.20969
0.19272 0.02136 0.17738
-0.10990 -0.00457 0.07991
-0.10158 0.02656 0.09567
-0.00491 0.04458 -0.19302
0.19431 -0.32424 -0.20448
0.04235 0.02656 -0.02297
-0.01778 0.01411 -0.14094
-0.13896 -0.28897 0.14729
0.16620 -0.26762 -0.19452
-0.05843 0.01411 -0.06049
0.20868 -0.35318 0.21034
0.12400 0.01411 0.02008
-0.07378 0.00362 0.19489
0.10284 -0.28454 0.19302
0.20494 0.02656 -0.15196
-0.12839 0.00972 0.08852
-0.08998 0.00548 0.06148
-0.15278 -0.38981 -0.16652
-0.10075 0.11282 0.21170
0.18811 0.00421 -0.08509
0.14312 0.02450 -0.17787
0.08256 -0.22947 -0.19302
0.08982 0.01411 -0.17066
-0.15892 -0.32808 0.17535
-0.12530 0.14295 0.19302
0.19637 0.01411 0.00371
0.14992 -0.23482 -0.21048
-0.11560 -0.00457 -0.18272
-0.01265 0.09269 -0.19775
0.01868 0.01372 0.15461
0.17566 -0.29469 -0.09151
0.15565 -0.28083 -0.21170
0.12912 0.02656 -0.09952
-0.17033 0.33581 0.21170
-0.17430 0.33669 -0.07048
-0.14039 -0.10001 0.15566
0.00802 -0.10054 -0.19302
0.17631 -0.29600 -0.12254
0.04237 0.01411 0.04899
-0.06675 0.02656 0.02827
0.19957 0.01411 -0.15620
-0.04655 0.02656 0.01338
-0.13484 0.00247 0.15566
-0.12238 0.22322 0.21170
0.14526 0.02656 0.02559
0.17284 -0.31995 -0.13303
0.08944 0.02656 -0.01473
-0.15659 -0.27944 0.15566
0.02976 -0.04276 0.21170
-0.06151 0.09993 -0.21170
-0.13601 0.19655 0.16335
-0.13868 0.13536 0.18542
-0.03272 -0.03494 0.20472
0.19426 0.01411 0.10766
-0.13642 0.20099 -0.21170
0.15818 -0.30150 0.09990
0.09987 -0.13399 0.20826
-0.08247 0.01411 0.03450
0.10293 0.01411 -0.09815
-0.01947 0.02605 0.17562
0.13967 -0.21683 0.19302
-0.17867 0.31076 -0.02390
-0.17217 0.32854 0.06564
-0.13253 0.16950 -0.21170
0.12081 -0.20190 -0.21170
-0.00774 -0.08526 0.19846
-0.15635 -0.38965 -0.16989
0.20300 0.01411 0.09609
0.13443 -0.27665 -0.21170
-0.15570 -0.25435 -0.16190
0.18327 -0.31001 0.16163
-0.03033 -0.00457 0.18552
0.18963 0.02656 0.07904
-0.13906 -0.30150 -0.18324
-0.13853 0.19294 -0.21170
0.15310 -0.29008 0.19302
0.17291 0.02656 0.06164
-0.14959 -0.11440 0.18016
-0.11773 0.18691 -0.18346
0.20135 -0.00457 0.12351
0.18268 -0.30883 0.16777
0.10621 0.01411 -0.17194
-0.13393 -0.18402 -0.15680
0.07859 0.01411 0.17693
0.01800 -0.06574 0.21170
0.04173 0.02656 -0.04879
-0.00716 -0.08643 0.19329
-0.08866 -0.00046 0.15461
0.17631 0.01411 -0.04529
0.05194 0.01411 0.04411
0.06424 -0.07277 -0.19302
-0.13715 -0.12982 -0.19302
-0.16121 0.38080 0.21170
0.07460 0.01411 -0.04955
-0.15777 0.29149 -0.19302
-0.13916 -0.30388 0.17305
-0.11097 0.01411 -0.17668
-0.01841 0.10428 -0.20125
0.11598 -0.00457 0.18117
-0.08025 0.06081 0.19532
0.17341 0.02656 0.12140
-0.12110 0.10968 -0.17887
0.01171 0.01411 0.04302
-0.14400 0.01345 -0.18376
0.20189 -0.35248 0.19302
-0.22207 0.35468 0.19302
-0.12348 0.01411 0.06347
-0.14249 0.04817 0.19283
-0.08486 0.02656 -0.03874
-0.15890 0.37922 -0.19381
-0.15430 -0.33732 0.19302
-0.00070 0.02656 -0.15733
-0.08577 0.07194 0.20413
-0.14156 0.06944 0.17273
0.19886 0.01411 0.08578
0.12168 -0.00127 -0.19302
0.22652 -0.00444 -0.14242
0.14222 -0.36083 0.21170
-0.07756 0.01411 -0.10360
-0.15139 -0.15565 0.17819
-0.04746 0.01411 -0.09348
0.00532 0.02656 -0.00282
0.13546 -0.28298 0.19302
0.06450 -0.06274 0.20197
0.16200 -0.26972 -0.10528
-0.12939 -0.08006 -0.16753
-0.12382 0.01411 0.01417
0.18885 -0.36370 -0.19302
-0.15725 -0.28218 -0.10181
-0.11393 0.02360 0.07790
-0.04017 0.14812 0.20996
-0.15394 0.29989 -0.14565
0.00979 -0.01821 -0.21170
0.14759 -0.35885 -0.21170
-0.13324 -0.16819 0.17733
0.17188 -0.32043 0.17051
0.01156 0.02656 0.16853
0.16149 -0.30815 -0.18055
0.10563 -0.16729 -0.19302
0.20482 0.02656 0.13075
0.05117 0.01411 0.12872
-0.15949 0.31390 0.13787
-0.04176 -0.00447 -0.21170
-0.14845 -0.08833 0.17698
-0.15119 0.27264 0.19302
-0.03649 0.00424 0.21170
0.20003 -0.38967 -0.21170
-0.07828 0.22416 0.19302
-0.10874 0.19591 0.21170
0.16097 -0.32585 0.19302
-0.11775 0.18648 0.19163
0.10973 -0.17110 0.19302
-0.04657 0.01411 0.11094
-0.17593 0.34604 0.08455
-0.11280 -0.00457 -0.05842
0.01436 -0.03031 0.21170
-0.12185 0.25527 0.19302
0.16858 0.02656 -0.12647
0.20669 0.01411 0.09110
-0.15644 -0.26939 -0.12601
0.08997 0.01411 0.08893
-0.15235 0.26534 0.15427
0.05713 -0.20763 -0.21170
-0.11386 0.01697 -0.04180
-0.15709 -0.27965 -0.07264
-0.17178 0.34147 -0.19302
-0.16768 0.27385 -0.01926
-0.10241 0.01411 -0.08398
-0.05691 0.06036 0.19302
-0.14219 0.26389 -0.15429
0.08309 -0.21590 0.19302
0.14507 0.01411 0.16955
-0.16189 0.29151 0.14082
-0.05626 0.09201 -0.19302
0.17417 -0.29168 -0.06088
0.01966 0.01411 0.00903
-0.15351 -0.20436 -0.16305
-0.09729 0.01411 -0.05186
0.20664 0.02656 -0.11026
0.11621 0.01411 0.16101
-0.07269 0.01411 -0.04793
0.22384 -0.00457 0.14538
-0.17888 0.31131 0.02036
0.15178 0.01411 -0.05771
0.02493 -0.03087 -0.21170
0.18811 -0.00236 -0.11245
0.19803 -0.00457 0.01801
0.14657 -0.26172 -0.19302
-0.14077 0.25724 0.21170
0.02424 0.01411 -0.04166
0.00094 0.01411 -0.05830
-0.09942 0.02656 0.03386
-0.11562 0.13761 -0.21170
-0.10252 0.13581 -0.19302
0.06158 -0.20822 -0.19302
0.08092 0.02656 0.15037
-0.14979 -0.11916 -0.17581
-0.15177 0.27804 -0.11438
-0.21743 0.34227 -0.21170
-0.11235 0.02528 -0.05544
0.18325 0.01411 -0.09951
-0.14195 -0.36773 -0.17871
0.19267 0.01411 0.04311
-0.16727 0.28161 -0.21170
-0.11439 0.01803 -0.11621
-0.09830 0.01411 -0.16489
0.16193 -0.30905 -0.06793
-0.16374 0.31553 0.11099
-0.01934 0.10012 0.19302
-0.15441 0.21021 -0.20878
-0.16655 0.29622 -0.11943
-0.14711 -0.05772 0.17856
-0.04632 0.11349 -0.21170
-0.13983 -0.30276 0.13885
-0.18122 0.35248 0.03076
-0.07899 0.02656 -0.05590
0.03971 -0.01281 -0.19576
0.16269 -0.00400 0.15461
-0.14140 -0.26540 -0.05417
-0.13638 -0.24021 0.18365
0.01490 0.01411 0.04776
0.01897 0.01411 0.11021
-0.16614 0.25999 -0.21170
-0.14110 0.07989 -0.19148
-0.01434 0.03575 -0.21170
-0.14801 -0.31489 -0.11480
0.08482 0.02656 -0.14918
-0.15923 0.22732 0.21170
0.04714 0.01411 0.02034
0.13751 0.02656 0.05262
0.09989 -0.25881 0.21170
0.00642 -0.01715 0.19302
0.13431 -0.33451 -0.21170
-0.06672 0.20161 -0.20685
-0.07210 0.21245 -0.20489
-0.16529 0.23213 -0.20238
0.06805 0.01411 0.16004
-0.16459 0.30059 0.05285
-0.17747 0.33907 0.02224
0.15505 0.02656 -0.02109
0.03742 0.01411 0.16427
-0.06057 0.02656 0.09491
0.21226 0.00760 0.18530
-0.13084 -0.11335 0.17231
0.00533 0.01411 -0.14885
-0.15647 -0.26981 -0.13307
0.17689 -0.29716 -0.05312
0.14090 -0.35083 0.21170
-0.14513 -0.11342 0.15566
-0.12280 0.07082 0.17299
-0.15705 0.27232 -0.03313
-0.08839 0.14529 -0.21170
-0.03220 0.10037 0.21170
-0.13923 -0.30554 0.17872
0.13332 0.02656 -0.06436
-0.21414 0.37357 0.19302
0.17856 -0.30053 -0.03309
0.01233 -0.03727 0.21170
-0.14049 -0.28903 0.15566
0.07765 0.01411 0.19217
-0.16134 0.31441 -0.12656
0.14647 -0.27742 -0.07870
0.04510 0.01411 0.09751
-0.06914 0.06881 0.21170
-0.15959 0.26779 0.01930
0.14659 0.02653 -0.17347
-0.08647 0.01411 0.08036
-0.13152 0.00040 0.19302
0.03176 0.02656 0.14735
-0.11115 0.01468 -0.03781
0.10580 0.02656 0.16162
0.19074 -0.34129 -0.19302
0.05028 -0.20213 -0.20392
0.18299 -0.00457 -0.17425
-0.15922 -0.31347 0.13998
-0.11791 0.20040 0.19302
0.16187 -0.30892 -0.02572
-0.01038 0.02715 -0.21170
-0.16889 0.31017 0.01665
0.19967 0.01411 0.13476
0.15798 -0.39077 -0.20750
0.20850 0.01411 0.04133
0.00418 -0.00457 -0.17348
0.05874 -0.05113 -0.19448
0.08764 0.01411 0.03560
0.18479 -0.31372 0.19302
0.02190 -0.00457 0.17777
-0.02881 0.09987 -0.19302
0.11340 -0.17818 -0.19302
0.08173 0.02656 -0.06049
-0.07537 0.05098 -0.20221
-0.13926 -0.14191 0.19302
-0.05482 0.08540 -0.21170
-0.16040 0.32571 -0.18754
-0.15657 -0.27447 0.18871
0.17806 -0.29952 -0.08960
0.00770 -0.00457 0.18221
-0.13468 -0.03803 -0.19302
-0.16089 0.27703 -0.11725
0.01770 -0.02802 0.19302
0.15400 -0.24843 0.19302
-0.13665 -0.24648 0.18502
-0.13523 -0.21394 0.19299
-0.03303 0.02656 -0.03414
0.15266 0.02656 0.08795
-0.15667 -0.27299 0.03319
-0.17034 0.28266 0.01752
-0.11833 0.17320 -0.19126
-0.13072 0.13846 0.19302
0.21679 0.01411 0.05432
-0.03231 0.02656 -0.10123
0.16269 -0.26938 -0.03129
0.14571 -0.34584 -0.19302
-0.15296 0.27561 -0.09856
-0.12385 0.04678 -0.15732
-0.17898 0.37708 0.21170
-0.11471 0.01905 -0.02206
0.16802 0.00758 0.19302
0.04315 -0.17736 -0.19302
0.22222 -0.39077 0.20032
-0.14957 -0.36889 -0.15566
-0.16028 -0.35941 0.17555
0.22294 0.01411 0.02201
0.06283 0.00918 -0.15461
0.15914 -0.28280 0.19302
0.13650 0.01411 0.01749
-0.15823 0.27777 0.13658
0.02433 -0.09361 -0.21170
-0.18250 0.35533 0.01062
0.00743 0.05223 0.20145
-0.13973 -0.30128 -0.05272
-0.12758 -0.03874 -0.19111
-0.14296 0.03741 0.17977
-0.13170 0.00241 -0.19431
-0.03491 0.02656 0.05427
-0.12157 0.09913 0.16351
0.02994 0.01411 0.07503
0.13800 -0.33592 -0.19302
0.13809 0.00140 0.19302
-0.18038 0.31553 0.00270
0.12932 0.01411 0.08639
0.02866 0.02656 -0.14673
-0.16417 0.28080 -0.10001
-0.17105 0.26055 0.21170
-0.13772 -0.26933 0.06506
0.11941 -0.00457 -0.15851
0.01488 0.03455 -0.21170
-0.15195 0.36454 0.21170
-0.15988 0.29477 0.08911
0.15438 0.02656 0.04464
-0.10575 0.02656 0.04586
-0.17493 0.31782 -0.10537
-0.11898 0.23539 -0.19302
-0.14688 0.26621 0.12256
-0.10727 -0.00457 0.10209
-0.13158 -0.08477 -0.15566
-0.15738 0.27560 0.04783
0.09174 0.01411 -0.13725
-0.14736 -0.26240 -0.15566
0.09183 -0.26836 0.19302
0.00044 0.01411 0.07450
0.18616 0.00077 -0.19302
-0.04758 0.12933 -0.19302
-0.18571 0.36656 0.02142
0.13272 -0.28219 0.21170
-0.13018 -0.09811 0.16584
0.04272 -0.00457 -0.16265
-0.12578 0.01411 0.16587
0.11909 0.02656 -0.06829
-0.04146 -0.01733 0.19943
0.17656 0.01411 -0.11236
-0.10380 0.01411 0.13080
-0.17570 0.30203 -0.03284
0.16805 -0.32137 -0.12906
0.04144 0.02656 0.08173
-0.04853 -0.00309 0.20706
0.05496 -0.07621 0.19302
-0.06644 0.03299 0.20612
-0.13901 0.02000 -0.15566
0.19929 -0.00457 0.04894
-0.14157 0.18744 0.19302
0.19083 -0.00457 0.07263
0.16120 -0.38143 0.19302
-0.00082 0.00480 0.19302
-0.13813 -0.28036 -0.17170
0.03216 0.00241 -0.19657
-0.14119 -0.25611 -0.19302
-0.12327 0.19526 -0.16186
-0.03635 0.08041 0.21170
0.15724 -0.29960 0.11636
0.16346 -0.30624 0.19302
0.14047 -0.31019 -0.19302
-0.12807 0.14833 -0.15566
-0.12191 0.09130 0.15812
0.17811 -0.29962 0.16867
0.18276 -0.30899 -0.07026
0.01941 -0.07728 -0.21170
0.01759 -0.04663 -0.21170
-0.13845 -0.28762 -0.18263
0.18327 -0.31001 -0.11552
0.12873 0.01411 -0.18851
0.18587 0.02656 0.07627
0.08023 0.02656 0.05036
-0.16604 0.31346 -0.17250
-0.06587 0.01411 0.12347
-0.06469 -0.00349 0.15461
-0.17455 0.30752 -0.07826
0.08739 -0.13261 -0.19302
0.12245 -0.32301 0.21170
-0.17593 0.25356 0.19834
-0.15615 -0.26467 0.15373
0.04804 -0.02957 -0.20628
0.14777 0.01108 0.19302
0.17076 -0.28483 0.00386
0.09332 0.01411 0.19250
-0.09248 0.01411 0.03507
-0.11287 -0.00457 -0.17627
0.12810 -0.31726 -0.21170
0.00531 -0.10237 0.19302
-0.02576 0.02656 -0.09646
-0.14435 0.00546 -0.16616
0.11019 -0.24787 0.21170
-0.12839 -0.00303 -0.15781
-0.08998 0.00176 -0.10970
0.18811 0.01221 0.07651
-0.15357 0.30170 -0.15514
0.18811 -0.00389 -0.03218
-0.15677 -0.27461 -0.11285
0.18609 0.01411 -0.18019
0.06895 0.02650 0.17373
0.01815 0.01427 -0.17451
0.02763 0.01154 -0.19339
-0.10550 0.16978 0.21170
-0.18678 0.37696 -0.19302
-0.14253 -0.38111 -0.16090
-0.03959 0.01411 0.19120
-0.16857 0.36223 0.21170
-0.12159 0.28640 -0.19302
-0.13754 -0.26636 0.03491
-0.05347 0.01411 -0.16958
0.05860 0.01411 -0.12906
-0.14651 -0.38015 0.15566
-0.15096 -0.24520 0.19302
-0.17061 0.35833 -0.19151
0.20766 -0.00457 0.17042
0.18460 -0.31411 -0.00337
-0.13100 0.19721 0.21170
0.12172 -0.19378 0.19302
-0.04772 0.14052 0.21170
-0.11428 0.19724 -0.21170
-0.17114 0.34149 -0.11587
0.09177 -0.23152 0.19302
-0.12839 0.00728 0.02058
-0.12356 0.05344 0.15784
-0.11912 0.15516 -0.16584
-0.13612 -0.23414 0.17910
-0.12449 0.18031 0.21170
-0.17045 0.32624 0.15892
0.02145 -0.14406 -0.20619
0.10173 -0.20526 -0.21170
-0.11104 0.01411 0.01935
0.13389 0.01411 -0.13849
-0.06428 0.01411 0.09534
-0.05657 0.01411 0.11581
0.02775 -0.01571 -0.21170
-0.07552 0.01411 0.18371
0.15982 -0.30996 -0.21170
-0.17535 0.33727 -0.05762
-0.14956 -0.17007 0.19302
0.17371 0.00431 0.19302
-0.13786 -0.27156 -0.11180
-0.21447 0.37611 -0.21170
-0.17819 0.36308 0.19302
-0.12973 0.31804 0.19302
-0.14743 -0.12557 0.19302
0.10149 -0.17968 -0.21170
-0.14701 -0.19981 -0.15566
-0.14981 -0.11960 0.17621
-0.10241 0.01411 -0.17584
-0.13931 -0.15177 0.15566
0.10133 0.02656 0.07315
0.17862 -0.30065 -0.06332
-0.05577 0.17433 0.19302
0.17328 -0.00457 0.18019
-0.03487 0.11671 -0.21170
0.11878 0.02656 0.08916
0.18811 0.00419 -0.04957
0.06111 -0.10727 0.19302
-0.07426 0.02656 -0.06173
-0.19087 0.36507 -0.07404
0.21274 0.02211 0.13833
0.18485 -0.30815 -0.19302
0.13368 0.01411 -0.01276
-0.18730 0.35302 -0.19302
0.08394 -0.10190 -0.20897
0.17286 -0.39077 0.20599
-0.13403 0.18075 -0.21170
0.10331 0.01411 0.05142
0.12064 0.02656 -0.13260
-0.12247 0.07846 -0.18446
-0.13961 -0.29924 0.13541
-0.03319 -0.03387 0.21170
-0.16987 0.31380 -0.02415
-0.15752 -0.28648 -0.00313
-0.15009 -0.12599 -0.15665
0.18577 0.01411 0.05914
0.11308 0.01411 -0.10027
0.16519 -0.27361 0.18772
-0.14025 -0.30945 0.11276
0.02260 -0.11454 -0.19302
0.11535 -0.20602 -0.21170
0.14908 -0.28316 0.06307
-0.13103 -0.10518 0.15566
0.02495 -0.03073 -0.19302
0.19574 0.02656 0.00552
-0.16577 0.31218 0.16684
0.04508 0.01411 0.18598
0.14459 0.02656 0.13931
-0.13769 -0.26881 0.10564
-0.08259 0.01411 0.15274
0.16515 -0.30453 0.21170
-0.18995 0.39073 -0.20622
-0.20296 0.30894 -0.19302
0.20254 0.02656 -0.00482
-0.12046 0.12443 -0.18943
0.22652 0.00078 -0.14701
0.11446 -0.00457 -0.16706
-0.09986 0.01411 0.07444
0.19136 0.01411 -0.03209
0.19737 0.01411 -0.13524
-0.04787 0.02656 -0.13558
-0.14207 0.01005 0.19302
-0.02435 0.01412 0.21170
-0.02543 -0.00457 -0.18607
0.03278 0.00116 -0.20706
0.03307 0.02656 -0.02097
0.19295 0.01411 0.19184
0.04686 0.02656 0.10324
0.08888 -0.22034 0.19302
0.16462 -0.31446 0.14247
0.04566 -0.06542 0.19302
0.10216 0.02656 0.00138
0.07664 -0.10074 -0.19302
-0.15501 -0.38563 -0.19302
0.12585 -0.34479 0.21170
0.06440 -0.17265 0.21170
0.10384 0.00929 -0.15461
-0.05517 0.11230 0.21170
-0.15680 -0.27507 -0.09999
-0.14221 0.04332 0.19302
0.08144 -0.19876 -0.21170
0.09501 -0.18285 -0.19302
0.10073 -0.27739 0.19302
-0.13913 -0.29172 0.11982
-0.09668 0.02600 -0.17244
-0.16041 -0.36224 -0.16478
0.20463 -0.00457 -0.18827
-0.03807 0.02656 -0.06921
-0.16099 -0.37557 -0.16679
0.03781 -0.00896 0.19616
0.18845 0.01411 0.14367
-0.16704 0.28028 0.06970
0.19128 0.01411 -0.09283
0.06743 0.01411 0.03781
-0.18706 0.34111 -0.04219
0.09415 0.01411 -0.02041
-0.13901 -0.28986 0.02034
-0.14052 0.09319 -0.18677
-0.12176 0.09455 0.18678
0.05321 -0.11395 0.21170
-0.02343 0.11174 0.21170
-0.17669 0.33611 -0.01420
0.00176 -0.06370 0.19302
-0.11271 0.01735 0.15735
-0.09804 0.25303 -0.19302
-0.01812 0.08181 -0.21170
0.21407 -0.00457 0.17877
0.21175 -0.00457 -0.08744
0.08329 -0.16990 -0.21170
-0.06523 0.02656 0.15491
-0.11893 0.15951 0.17051
-0.14928 0.26794 0.20437
-0.05647 0.18096 0.19464
-0.02046 -0.04370 -0.21170
-0.19517 0.36482 -0.00077
-0.05424 0.01411 -0.02777
0.19423 -0.00457 -0.03361
0.07173 -0.19881 -0.21170
0.10513 -0.26398 0.21170
-0.02445 0.11645 -0.20449
-0.20088 0.32648 -0.21170
-0.13753 -0.26660 -0.15688
0.02811 -0.04479 -0.19302
-0.09693 0.12428 -0.19302
0.10422 0.01411 0.17882
0.16462 -0.31445 -0.16462
-0.15044 -0.26483 -0.12341
-0.14633 -0.05500 -0.19302
-0.15588 -0.31440 -0.01783
-0.13943 -0.31004 0.16557
-0.14661 -0.04622 -0.17075
0.14610 0.02656 -0.14690
-0.13836 0.22542 0.21170
-0.15742 0.26229 0.19302
-0.14569 -0.03613 0.15566
0.12116 -0.19284 0.21170
0.14805 0.02656 0.07947
-0.12495 0.11494 -0.19302
0.07914 -0.00457 0.18595
0.06469 0.02656 -0.03289
-0.05530 0.02656 -0.11015
0.18322 -0.38849 -0.19302
0.12615 0.02656 -0.07793
-0.17510 0.34354 0.17913
0.13169 -0.00457 -0.17302
-0.16887 0.30408 0.21170
-0.12839 -0.00326 0.07470
-0.21172 0.37930 0.21170
-0.14458 0.00034 0.16641
-0.15410 0.27572 0.08886
0.00406 0.05902 0.19585
0.09448 0.02656 0.02436
-0.00970 0.01411 -0.02386
-0.01467 0.02656 0.15652
-0.03333 0.01411 0.18623
-0.05874 0.02656 0.17289
0.01254 0.01411 -0.02036
0.13180 -0.28623 -0.19302
0.04019 -0.18090 0.21170
-0.14600 0.26221 0.21170
-0.12790 -0.01866 0.15566
0.01683 0.01411 0.14271
0.21077 -0.00197 0.18633
0.00269 0.02656 -0.01278
0.07680 0.01411 -0.16045
0.18811 0.00536 0.07152
0.05675 -0.13513 0.19302
-0.01025 -0.00685 -0.19302
0.02759 -0.00396 0.15461
-0.14911 -0.10361 -0.18008
0.19137 0.02656 -0.09500
-0.12670 -0.00457 0.11300
-0.02490 0.01411 0.17744
-0.11849 -0.00457 0.04090
0.02766 0.01680 0.17836
-0.16426 0.29484 -0.01886
0.12976 -0.19421 -0.19354
-0.13770 -0.26891 -0.02614
0.18876 -0.31305 0.19620
-0.09631 0.17775 0.19302
0.00629 0.01434 0.17496
-0.03851 0.02656 0.08698
-0.03865 0.02926 -0.21170
0.12066 -0.31114 0.21170
-0.12911 0.13532 0.15566
-0.10836 -0.00457 0.12102
0.06572 0.02656 0.12443
-0.21222 0.34143 0.21170
-0.07600 0.01411 -0.16145
-0.17075 0.28349 0.19302
0.16591 -0.32345 0.21170
0.05081 0.02656 -0.13371
-0.03495 0.01411 -0.11809
-0.09616 0.17747 0.21170
-0.14341 -0.23123 0.19302
0.00554 0.02656 0.10912
-0.12839 0.00154 -0.05162
-0.18121 0.36520 0.10060
0.20825 0.01411 -0.01410
0.17010 0.02656 0.05569
0.12572 -0.00063 -0.15461
-0.05391 0.15100 -0.21170
-0.10445 -0.00457 -0.07808
-0.11796 0.18160 0.17894
-0.18447 0.32967 0.01394
-0.16483 0.28309 0.10040
0.15402 -0.00457 0.18586
-0.15871 -0.34483 0.15566
-0.17589 0.36099 -0.12616
0.01200 -0.00457 -0.15942
-0.13070 -0.11016 -0.15627
-0.11853 0.01411 -0.08610
0.16995 -0.28320 -0.02127
0.14738 -0.27697 -0.12309
-0.10077 -0.00524 -0.19302
0.09500 0.01411 -0.16747
-0.04067 0.01411 0.09515
-0.01467 0.07004 -0.21170
-0.15996 0.30869 0.12389
-0.13946 -0.29701 -0.01531
0.15974 -0.27172 -0.19302
-0.03799 -0.01452 -0.21170
-0.05035 0.01411 -0.07738
-0.12690 0.13633 -0.19302
-0.07309 0.19526 -0.19302
0.12890 -0.27350 -0.19302
-0.11428 0.02288 -0.01035
-0.13605 -0.11862 0.19302
-0.13648 -0.24250 -0.18878
-0.17040 0.31494 -0.01056
-0.01035 0.01411 -0.00843
-0.04781 0.02656 0.06762
-0.15925 -0.31399 -0.01336
0.21103 0.01580 0.09480
0.16468 -0.31458 0.16180
0.15301 0.01411 -0.14300
-0.10279 0.17929 0.21170
-0.15722 -0.28176 -0.11904
0.17318 -0.28970 -0.01045
-0.00906 0.02263 0.19302
-0.18518 0.27220 -0.19570
0.17710 -0.29760 0.06955
-0.13051 0.33012 -0.19860
0.15364 -0.33878 0.19302
-0.15083 0.26237 -0.10924
0.03949 0.01411 -0.18875
-0.15624 -0.26685 0.15971
-0.14450 0.00209 -0.18664
-0.10777 0.01411 -0.12937
0.15313 -0.29132 0.15772
0.16958 -0.36257 -0.19302
0.15914 0.01411 0.08273
-0.20605 0.32859 0.21170
0.10134 -0.29220 0.19302
-0.10370 0.01411 -0.19290
0.02319 -0.09721 0.21170
-0.04515 0.02656 -0.01094
0.02241 0.01411 -0.03552
0.10393 0.02656 0.13453
0.19289 -0.37682 -0.21170
-0.11310 0.02468 0.13206
0.02279 -0.05826 -0.19302
0.20869 0.01444 -0.06647
-0.19784 0.37525 -0.21170
-0.10170 0.21503 -0.21170
0.03907 0.01411 -0.17267
-0.13063 -0.00222 -0.19489
-0.15230 -0.30212 -0.19302
-0.09906 0.01411 -0.14474
-0.15740 -0.28464 0.10643
-0.15638 0.29867 0.20091
0.07220 -0.10029 0.19302
-0.12316 0.24730 0.19302
0.06136 0.02656 -0.07523
-0.13692 0.05846 -0.19302
-0.06188 0.07469 0.19302
0.16572 -0.29695 0.19302
0.00633 -0.11360 -0.21036
0.06355 -0.11250 0.19302
-0.16403 0.31431 -0.10556
-0.16100 0.25540 -0.21170
0.11184 0.01411 -0.00110
-0.14909 -0.10300 -0.15575
-0.14317 -0.26529 0.09756
-0.10662 0.23327 -0.21170
0.15464 0.02656 -0.08120
-0.12839 0.00750 -0.12451
0.15655 0.01411 -0.17066
0.19577 0.01411 0.07813
-0.18604 0.28795 -0.19302
0.16282 -0.31084 -0.18491
0.20206 0.02656 0.01538
-0.01800 -0.01711 0.21170
0.17046 -0.28423 0.05938
-0.13678 -0.24940 0.19052
0.06703 -0.20419 0.21170
-0.14109 0.08014 -0.18631
-0.11324 -0.00457 0.01185
-0.13284 -0.15919 0.15657
-0.12839 0.00011 -0.05998
-0.15544 -0.24855 -0.16953
0.16958 -0.28244 0.13332
0.12375 0.01429 0.17470
-0.12839 -0.00454 -0.15196
-0.13245 -0.15028 -0.15894
0.10450 -0.22215 -0.19302
-0.12717 -0.02607 0.17717
-0.01649 -0.04161 0.21170
-0.12591 -0.00457 -0.05347
-0.12367 0.05082 0.17642
-0.15653 -0.27339 -0.16468
-0.13781 0.15532 0.16025
-0.14917 -0.38996 0.18070
0.19225 -0.00457 0.08029
0.06665 0.01411 0.14396
-0.15529 -0.24496 -0.15866
-0.12137 0.10349 0.18099
-0.17942 0.34300 -0.21170
-0.14839 0.23354 0.21170
-0.19393 0.29238 0.21170
-0.14146 -0.35651 0.18288
0.12714 -0.29274 -0.21170
0.14786 0.01411 0.11359
-0.15419 -0.27320 0.19302
-0.16212 0.30792 0.10503
-0.14033 -0.31384 -0.19302
0.06402 -0.07737 -0.21170
0.03838 -0.07145 0.21170
-0.12746 -0.01637 -0.15707
-0.17109 0.29947 -0.08883
0.03204 0.02656 0.13159
-0.07647 0.05320 0.19870
-0.12350 0.05482 -0.16603
-0.05699 0.01411 0.00904
0.12900 0.01411 -0.16781
0.17756 -0.31761 -0.13897
0.17091 -0.30825 -0.19302
-0.16745 0.28093 -0.06655
-0.06436 0.01411 0.16673
-0.13725 -0.16107 0.15566
0.14678 -0.27853 0.17396
-0.13816 -0.27620 0.01075
-0.16838 0.31380 -0.19302
0.16138 0.02656 0.04471
-0.08998 0.00364 -0.04476
0.04297 0.01411 0.07605
0.18329 0.01411 0.02969
0.05602 -0.05202 -0.21170
0.03116 0.02656 0.10891
0.13114 0.01411 0.10725
0.06046 -0.21063 0.19302
-0.05070 0.01788 -0.19302
-0.05290 0.02253 -0.19302
-0.00249 -0.05731 -0.19302
-0.14581 -0.31503 -0.03909
-0.15169 0.26266 0.10539
0.21646 -0.00457 0.17441
-0.16533 0.34315 0.19302
0.15118 -0.28740 0.13059
-0.09898 0.25908 0.19302
-0.17028 0.32764 0.17547
-0.12727 -0.02272 0.18504
0.19446 0.01411 0.16280
0.06114 -0.12592 -0.19302
-0.14321 0.01512 0.19302
0.13420 -0.31015 -0.19302
-0.13977 -0.19687 -0.19302
0.05124 0.01411 -0.14359
-0.12776 -0.00675 -0.18564
0.17615 -0.31831 -0.01656
0.16314 -0.26948 0.18882
0.16764 -0.37825 0.19302
0.22381 0.00822 -0.16967
-0.07772 0.21139 -0.21170
-0.12839 0.00236 0.08763
-0.09815 0.01411 0.08547
0.09607 -0.16228 -0.21170
0.16208 0.00127 0.15461
0.19358 0.02656 -0.13771
0.14504 0.01411 0.14353
-0.11992 0.13687 -0.19194
-0.02270 0.01411 0.13667
0.12403 -0.18267 -0.21016
-0.08406 0.02656 0.00879
0.18849 0.01411 -0.13731
-0.13718 -0.12519 0.15566
0.00954 -0.06469 0.19302
0.05039 0.02656 -0.17222
0.10605 -0.29926 -0.19302
0.09870 -0.17703 -0.19302
-0.11482 0.02079 0.03132
0.09686 -0.12792 -0.20945
-0.02778 0.02656 -0.12671
-0.19391 0.36216 0.02916
-0.13540 -0.21766 0.17520
0.11637 -0.30001 0.21170
0.05321 -0.04000 0.20527
-0.14522 -0.28277 -0.19302
-0.14252 0.04739 -0.16908
0.19373 -0.00457 0.12302
0.14283 0.01411 -0.01291
-0.04802 0.02656 -0.03746
0.09725 -0.17463 0.21170
0.08612 -0.25970 0.21170
-0.05903 0.18611 -0.19906
0.17969 0.02656 0.04316
-0.17552 0.33963 -0.06568
0.21522 0.01411 0.07399
-0.01539 -0.06985 -0.20591
-0.03810 0.01411 -0.07659
-0.14582 -0.28696 -0.15566
-0.09412 -0.00457 -0.08706
-0.14930 -0.26490 -0.13171
0.11711 0.01411 -0.10450
-0.14293 0.03798 -0.17846
0.17800 0.01411 0.16896
0.14842 -0.28184 0.00045
0.13846 -0.00457 0.18335
0.17430 -0.31922 0.18581
0.11639 0.01411 0.01438
-0.08998 -0.00160 0.04682
0.11853 -0.17158 -0.20083
0.06059 -0.05486 0.20607
-0.03164 0.01411 -0.06869
0.17419 -0.31928 0.09464
-0.16407 0.26837 -0.06053
-0.14383 0.01742 0.17736
0.10669 -0.16617 -0.21170
-0.13449 0.14763 0.19302
0.07356 0.02656 -0.03829
0.17297 -0.28928 0.06980
-0.14795 -0.07702 -0.16289
-0.11345 0.01411 -0.01759
0.16486 0.01411 -0.02282
0.18626 0.02656 0.06430
-0.12439 0.19837 0.19302
0.08477 0.01272 0.15461
0.05443 0.02656 0.07797
-0.02630 0.01411 0.02235
-0.14764 0.28034 -0.14876
-0.00363 -0.06908 0.21170
-0.12946 0.04535 -0.19302
-0.10893 0.01411 -0.08644
0.07649 -0.16341 -0.21170
0.09848 -0.18803 -0.21170
-0.13469 -0.20150 0.18943
0.13607 -0.37496 0.20700
-0.06958 0.01411 -0.02369
0.02820 -0.14538 0.19302
0.02835 -0.00457 -0.18268
-0.19001 0.35829 0.07836
0.03293 -0.11060 0.21170
-0.08301 0.01411 -0.02562
0.00277 -0.01282 -0.21170
-0.09427 0.02656 0.13732
-0.12532 0.17891 0.15595
0.15784 -0.39077 0.20086
-0.17903 0.35087 -0.06393
-0.16922 0.29248 0.08614
-0.13454 0.28550 -0.21170
0.15506 -0.27316 0.06980
-0.01364 0.00592 -0.21170
-0.15590 0.31160 0.18228
0.15489 -0.29486 0.14620
0.15283 0.01411 -0.04064
-0.13808 -0.27499 0.00057
0.13964 -0.26989 0.19302
-0.09266 -0.00457 0.16797
0.03865 -0.06327 -0.19302
0.14659 -0.24737 -0.19302
0.20075 0.02656 -0.11500
0.02679 -0.06758 -0.19302
0.00595 -0.11284 -0.20301
0.11513 -0.19332 -0.21170
0.08223 0.01411 -0.08551
-0.13963 -0.31458 -0.15836
0.20292 0.01411 -0.13976
-0.02659 -0.04728 0.20345
-0.01247 0.01522 -0.19302
0.03116 -0.03995 -0.21170
0.17017 -0.28363 -0.12034
0.02387 -0.14093 0.21170
-0.07718 0.17231 0.21170
-0.16268 0.33467 0.17276
0.15743 -0.00457 -0.17278
0.15018 -0.00457 -0.18632
0.05842 -0.15039 -0.19302
0.10873 0.01411 0.10145
-0.00497 0.07123 -0.19302
0.19622 0.01411 -0.11936
0.21246 0.01789 -0.06731
-0.16538 0.27429 0.06745
-0.13938 -0.29570 -0.05089
0.14300 0.01411 -0.19272
0.02358 0.01379 0.19302
-0.03499 0.01411 -0.19046
-0.02525 0.02656 -0.13869
0.05802 0.01411 -0.15848
0.00661 0.01411 -0.15893
0.16994 -0.32139 -0.14127
-0.00076 0.05429 -0.19302
0.17196 -0.39077 -0.21162
-0.15747 -0.28574 0.14744
-0.04651 0.14389 -0.19302
-0.17576 0.33408 -0.13700
-0.02508 -0.04578 -0.19302
-0.10413 0.01417 0.16349
-0.15860 -0.30371 0.04928
-0.18099 0.35054 -0.01581
-0.01356 0.04165 0.19302
-0.12898 -0.00974 0.19489
-0.07367 0.01411 0.12752
0.00006 -0.00271 0.21170
-0.14910 -0.23420 -0.19302
-0.14670 -0.04833 0.17224
-0.08285 0.02656 0.12414
-0.07039 0.09407 -0.19302
-0.13708 0.17212 0.18311
0.11403 -0.33055 0.19873
-0.01126 0.00537 0.21170
0.19882 -0.00457 -0.04768
-0.03685 0.00873 0.15461
0.12016 -0.17682 0.19302
-0.19137 0.32077 -0.19302
-0.11441 0.01808 0.11548
-0.16130 0.29447 0.07320
0.10671 -0.27567 -0.21170
0.15632 -0.27254 -0.14339
-0.02220 0.01411 -0.09322
0.01198 0.01411 -0.16474
-0.14730 -0.09862 0.15566
0.16513 -0.27348 -0.13873
0.04808 0.02656 0.06169
0.03109 0.02656 -0.15507
-0.17170 0.36183 0.19302
-0.10047 0.26960 0.20889
-0.12040 0.22407 -0.19302
0.11002 0.02656 0.07596
0.15273 -0.27636 -0.19302
0.01257 -0.12618 -0.20245
-0.17953 0.31622 0.04333
-0.16100 -0.37580 -0.15932
-0.05916 0.09655 -0.19302
-0.03660 0.02656 0.04198
-0.02856 0.02656 -0.02468
-0.13033 -0.03613 0.15566
-0.08124 0.22992 0.21170
-0.14382 0.01765 -0.16957
-0.17554 0.32207 0.11107
-0.09506 -0.00457 -0.04649
-0.15790 0.27324 0.12930
-0.17571 0.25312 -0.20584
0.11130 0.01411 -0.00829
-0.14557 -0.02243 -0.16734
0.17340 -0.31967 0.05396
-0.15904 -0.31069 -0.07629
-0.21358 0.32941 -0.20335
0.12273 0.01411 0.16998
-0.10866 -0.00457 0.02161
0.01985 -0.04327 -0.19302
0.06429 -0.18924 0.19302
-0.18519 0.33177 -0.00708
-0.14304 0.03561 -0.18546
-0.02661 0.02656 0.01037
-0.15217 -0.17356 -0.17061
-0.15144 0.27321 0.10495
0.14628 -0.00024 0.15461
-0.14511 -0.01180 0.17338
-0.16235 0.30685 0.10049
-0.09449 -0.00457 0.02321
0.16366 -0.27052 0.10338
0.09203 0.02656 -0.13591
-0.08873 0.01411 -0.09193
-0.04309 0.03001 -0.19302
0.12686 0.01411 0.13683
0.16176 0.01411 -0.16728
0.18182 -0.30710 -0.16822
0.08889 -0.27950 -0.19302
-0.09113 0.12467 0.21170
0.17684 -0.37381 -0.19302
0.15017 -0.28535 -0.03133
-0.18001 0.36405 -0.11179
-0.06878 0.01411 -0.14787
-0.18984 0.33385 -0.21170
-0.20926 0.38364 -0.21170
-0.15558 0.24340 -0.19302
-0.09507 0.01411 -0.12052
0.11683 0.00997 0.15461
0.13027 -0.36328 0.20807
0.21579 -0.36751 0.20110
-0.13260 -0.01277 -0.15566
-0.02618 0.02656 0.12266
-0.18068 0.35553 0.06036
-0.02561 -0.00186 -0.21170
-0.16151 0.29436 -0.19302
-0.14799 -0.07793 0.18780
-0.03267 0.02656 0.16362
0.21117 0.02475 -0.08944
0.09659 -0.00457 0.18329
-0.15551 0.29797 -0.13123
-0.15430 -0.31450 0.08232
-0.11359 -0.00833 0.19383
-0.13711 -0.25683 -0.17483
-0.03394 0.08348 0.19302
0.00467 0.01411 0.10876
0.19189 -0.00457 -0.01788
0.18425 -0.34178 0.21170
0.08954 -0.20441 -0.21170
-0.13671 0.32623 0.19302
-0.02456 0.02656 0.01856
-0.14709 0.28257 0.17646
0.05787 -0.00120 -0.19302
-0.11495 -0.00457 -0.08513
-0.15490 0.27146 -0.14667
0.17394 -0.29019 -0.19302
0.00412 0.02425 -0.17806
0.18091 -0.37364 0.19302
-0.15540 0.30911 0.16098
0.21071 -0.00457 -0.17388
0.07967 0.02656 0.05708
-0.12810 -0.00457 -0.16537
0.08730 -0.27672 0.19907
-0.16838 0.29157 -0.09202
0.06109 0.02656 -0.00198
0.18088 0.01411 -0.02650
0.06023 0.01411 -0.04815
0.04751 -0.02852 -0.19959
0.08562 -0.11099 0.19302
-0.06437 0.16673 0.19302
-0.00051 -0.01766 -0.21170
-0.17681 0.33866 0.03725
-0.18166 0.36035 -0.13323
-0.15235 -0.17782 -0.16678
0.11551 -0.26093 -0.19302
-0.14568 -0.35561 -0.19302
0.17322 0.01411 0.13606
-0.15000 0.31506 -0.21170
0.07076 -0.20724 0.21170
-0.14912 -0.13895 0.19302
-0.16363 0.29698 -0.05102
-0.13957 0.04684 0.15566
-0.15805 0.27463 0.02541
-0.14412 0.29888 0.21170
-0.13209 -0.14188 -0.17460
0.01854 0.02656 -0.03374
-0.14224 0.05380 -0.15610
-0.12006 0.13360 0.16021
0.10399 -0.29980 0.21170
0.18192 -0.30730 0.04121
0.14910 0.02656 -0.05235
-0.02687 0.01411 -0.04774
-0.14656 -0.26508 -0.05593
-0.13566 0.20452 0.18950
0.10049 -0.29487 -0.21170
-0.13829 0.14424 0.19092
-0.12753 -0.03754 0.17634
-0.17719 0.26505 -0.19302
-0.07488 0.01411 0.13468
0.15433 -0.27353 -0.09171
0.18811 0.00167 -0.09575
-0.10642 -0.00457 0.04101
-0.08998 0.00609 0.02689
-0.14707 -0.30250 -0.19302
-0.21922 0.34077 -0.20659
0.15872 -0.36810 0.19302
-0.09600 0.01411 0.09076
-0.16269 0.32193 0.13328
-0.09590 -0.00457 -0.09476
-0.13849 -0.28150 -0.05936
-0.13311 0.16731 0.21095
0.00638 0.03322 -0.19302
0.08247 -0.25707 -0.19302
-0.03791 0.01411 0.02029
-0.13960 0.03852 0.19302
-0.08072 -0.00457 0.15578
-0.08332 0.02656 -0.01901
0.05358 -0.19042 0.21170
-0.13469 0.21658 -0.19302
0.05861 -0.09978 -0.21170
-0.15205 -0.17092 0.18838
0.16604 -0.27269 0.19302
0.10800 0.02656 0.14529
0.03899 -0.15194 0.19302
-0.05354 0.14971 -0.19302
-0.13962 -0.27792 -0.15566
-0.11718 -0.00457 0.01724
-0.19772 0.33145 0.19302
0.16218 -0.32690 -0.21170
0.00537 0.01411 -0.12603
-0.13939 0.11915 -0.16967
0.01251 -0.10970 -0.21170
0.21276 0.01861 0.03463
-0.15727 -0.29035 0.18969
-0.16196 0.28932 -0.03789
-0.03704 0.01913 -0.19302
-0.03032 -0.00457 0.16003
-0.18652 0.34812 0.08249
0.12858 0.01411 0.01669
0.03501 -0.12158 0.21170
-0.06433 0.13384 0.19302
-0.13838 -0.27979 0.03632
-0.13730 -0.04815 0.19302
0.02648 -0.02771 0.21170
-0.02838 0.02656 -0.01881
0.02058 -0.14231 0.20344
0.06325 -0.16022 -0.21170
0.01906 -0.13924 0.19482
-0.15472 0.26051 0.12401
0.00671 0.01411 -0.16849
0.02825 0.01411 0.16187
0.22652 0.00254 -0.07183
-0.06422 0.08291 0.19302
0.05970 -0.22111 0.20943
0.05020 0.02656 0.01659
0.10838 0.02656 0.09325
-0.13133 -0.12452 0.16441
-0.07657 -0.00324 -0.19302
-0.15926 -0.31412 -0.02950
-0.17241 0.35019 -0.12734
0.05390 0.01411 0.00342
-0.13459 -0.19919 -0.17992
-0.14473 -0.24018 0.19302
-0.16258 0.29248 -0.13820
-0.17662 0.36020 0.11825
-0.12839 0.00732 0.12965
0.16069 0.01411 0.13951
-0.15343 0.26541 0.14312
-0.12839 0.01394 0.13804
0.16293 -0.37441 0.19302
-0.15926 -0.33589 0.18200
-0.13464 0.31830 -0.19302
-0.10848 0.27353 0.21170
0.03878 -0.03861 -0.21170
-0.16759 0.29162 0.09934
0.17783 -0.29907 -0.15625
-0.10193 0.02656 -0.09006
-0.03484 0.01411 -0.03390
0.08952 0.02656 -0.03973
-0.14730 -0.06197 -0.17221
-0.12839 0.01184 0.02590
0.13492 0.01411 0.12412
-0.00868 0.02656 0.15514
-0.02515 0.01411 -0.15584
0.06283 -0.17281 0.19302
0.06237 -0.08517 0.19302
0.15449 -0.27344 -0.12175
0.16497 0.02656 0.08340
0.20977 0.01411 0.15333
0.03681 0.02656 0.02940
-0.06783 0.14145 -0.19302
0.16503 0.01411 -0.14650
-0.06081 0.03482 0.21170
0.22315 -0.00457 -0.12374
0.00994 0.01411 0.13659
-0.01797 -0.00457 0.18871
0.16206 0.01921 -0.17937
0.06833 0.01411 0.13760
-0.08998 -0.00385 0.03486
0.14670 -0.33565 -0.21170
0.16106 -0.30729 -0.06251
0.19464 -0.00457 0.00376
-0.16618 0.27424 0.05546
-0.02945 0.00881 0.15461
-0.13979 0.18194 0.19302
0.17701 0.02656 -0.01909
0.07492 0.01411 0.09378
-0.08688 0.17432 0.19302
-0.14329 -0.26528 -0.04481
-0.13950 0.19987 0.19302
0.07381 0.01411 -0.02470
-0.13713 -0.25746 0.16755
-0.03686 -0.02659 0.20835
0.16761 -0.34104 0.19302
0.13292 -0.36861 -0.20841
-0.08435 0.23713 0.20106
0.22652 0.00847 -0.11563
0.09999 -0.14967 0.21170
0.17494 -0.28523 -0.19656
-0.14841 -0.15824 -0.19302
-0.17699 0.35663 0.10619
0.02833 0.01411 0.15668
-0.08998 -0.00272 0.07083
-0.14729 -0.26503 0.00387
-0.10266 0.13375 0.21170
-0.15512 -0.31445 -0.03996
-0.11526 0.13134 -0.20271
0.10683 0.01006 -0.19302
0.16224 -0.37526 -0.21170
0.02535 0.02656 0.14518
0.15387 -0.29281 0.05590
-0.15468 0.30593 -0.15745
-0.14384 -0.11857 -0.19302
-0.13950 -0.29766 0.12160
0.15045 -0.28592 -0.17040
-0.00146 -0.00457 0.17324
-0.07317 0.06639 0.21170
-0.04374 0.02237 -0.17913
-0.11271 0.28991 -0.21170
-0.15205 0.25872 -0.12868
-0.00795 0.01647 0.21170
0.15529 0.02656 -0.06522
0.09851 0.02656 0.12498
-0.17402 0.34402 -0.09815
0.00151 0.02656 -0.03970
0.12373 -0.29775 0.21170
0.15803 -0.30120 -0.05692
0.10423 -0.21393 0.19302
0.17327 -0.28987 0.00994
0.18398 0.01411 -0.02276
0.15609 -0.27265 0.08902
-0.09895 -0.00457 0.10297
0.07440 -0.20832 -0.19302
0.04651 -0.00454 -0.15461
-0.14841 0.27285 -0.12622
-0.14642 0.20357 -0.19302
-0.16480 0.26522 0.21170
0.00746 0.02656 -0.07691
0.18811 0.00265 0.13715
-0.18460 0.34439 -0.09072
-0.08803 0.22326 0.21170
-0.22213 0.36646 -0.19302
-0.13847 0.00738 0.15566
-0.06593 0.10904 0.21170
-0.17760 0.33863 0.00277
-0.12785 -0.00353 -0.17962
0.01436 -0.01257 0.21170
-0.16769 0.34739 0.15305
-0.16959 0.32257 -0.19275
-0.17382 0.27624 0.19302
-0.04131 0.08330 -0.21170
-0.13820 0.29087 0.21170
-0.13771 -0.26907 0.00638
-0.15101 -0.14700 -0.16248
-0.10846 0.26347 -0.19302
-0.06707 0.09594 -0.21170
0.15470 -0.29449 -0.11163
0.09466 -0.25097 -0.21170
0.11635 0.01411 -0.05209
-0.22362 0.37333 -0.21033
0.16852 -0.32209 -0.02535
-0.11841 0.29579 0.21170
0.18261 -0.30068 0.20334
-0.13986 -0.30323 0.07779
-0.12579 -0.00429 0.19302
-0.05222 -0.00457 -0.15550
-0.04741 0.02656 -0.01682
-0.14275 0.04228 -0.16261
0.19816 0.01411 0.12991
-0.16336 0.26968 -0.07474
0.01459 0.02656 -0.12080
0.15464 -0.27337 0.04661
0.07783 0.02656 -0.05034
-0.16045 0.28370 0.03357
0.13692 -0.30645 -0.21170
-0.08728 0.00509 0.19302
-0.08435 0.01411 -0.09698
0.00576 -0.06055 0.19302
-0.15390 -0.37624 0.19302
0.10747 0.01411 -0.16676
0.11848 -0.17148 0.20403
0.02169 0.02656 -0.11345
-0.03231 0.01411 -0.16959
0.20292 0.01411 0.00480
0.01144 0.01411 -0.01054
0.15334 0.01411 0.12653
0.18308 0.02656 -0.12562
-0.13781 -0.27063 0.11208
0.16516 0.01411 -0.17296
-0.13611 0.19041 0.21170
-0.04981 -0.00051 0.19756
-0.15512 -0.24121 0.16176
0.14740 -0.27978 -0.08678
-0.12318 0.01411 0.18105
0.16417 -0.27154 0.14235
0.07783 -0.15412 -0.21170
0.16334 0.02656 0.12005
-0.12988 -0.09128 0.16775
-0.14170 -0.36203 0.17537
-0.13766 0.15879 -0.19201
-0.03410 0.05006 -0.19302
-0.05064 0.01411 -0.18686
-0.19428 0.39055 -0.19308
0.16320 -0.31160 0.07411
-0.09107 -0.00457 -0.17459
-0.13942 -0.29635 -0.08089
0.22652 0.00605 0.09915
-0.14269 -0.16798 -0.15566
0.08122 -0.23377 0.21170
0.18121 -0.31580 -0.16530
0.04049 -0.07839 -0.19302
0.08061 0.02656 -0.12513
-0.16002 0.30295 0.10968
-0.08727 0.02656 -0.13193
0.13299 -0.20070 0.20972
0.17431 -0.29068 0.19302
0.15735 -0.30071 0.19302
-0.15159 0.26114 0.14818
0.10788 -0.20349 -0.19302
0.03101 -0.00072 0.19302
0.17719 -0.29777 0.17931
-0.14832 -0.39000 -0.17946
0.09845 0.02656 -0.08073
-0.15839 -0.30040 0.07585
-0.12404 0.27268 0.19302
-0.12439 0.19094 -0.21170
-0.14975 -0.31478 -0.03542
0.14581 -0.27429 0.21170
-0.03609 0.10298 -0.19302
-0.11120 0.01411 0.08804
0.16924 0.02656 -0.07351
-0.15276 0.20689 -0.19826
0.15002 0.01411 0.08084
0.14682 -0.27860 0.05738
0.18953 -0.00457 -0.02379
0.12954 -0.00457 0.16207
0.15328 -0.36740 -0.19302
-0.18001 0.34656 -0.00043
-0.17492 0.36146 -0.13834
-0.09971 -0.00457 -0.02105
-0.14007 0.10360 0.16030
0.22652 -0.00400 0.10005
-0.11374 0.02386 -0.03670
-0.04831 0.00182 -0.21170
-0.16808 0.32790 -0.19698
-0.14513 -0.39014 0.16366
-0.13011 -0.09665 -0.16528
-0.17098 0.30815 0.11327
-0.00235 -0.00457 -0.17041
-0.00978 0.01411 0.15305
-0.13350 -0.17418 -0.16528
-0.15490 0.27330 -0.15266
-0.15803 0.27740 -0.13711
0.18420 -0.31190 0.17800
-0.13538 0.33992 -0.20539
0.06491 0.02656 0.05337
0.06291 0.01411 -0.00850
0.18929 -0.00457 -0.06841
-0.10595 0.01411 0.10569
-0.14746 -0.30179 -0.15566
0.11050 0.01411 -0.06911
-0.12064 0.01411 -0.09402
-0.13464 0.17037 0.20225
-0.15342 0.26021 0.13204
-0.13779 0.15580 -0.16134
0.15907 -0.38425 0.21170
-0.16703 0.27378 0.03718
0.15975 -0.35350 -0.19302
-0.13942 -0.26552 0.14699
-0.12826 -0.05417 0.15706
0.12288 0.02656 0.04337
-0.07766 0.01411 0.00831
-0.16492 0.28925 0.11522
-0.16627 0.27510 -0.05803
-0.12609 0.01411 0.13324
-0.14736 0.28341 -0.16974
0.15829 0.02656 -0.14404
0.01147 -0.08226 -0.21170
0.14733 -0.32225 0.21170
-0.12177 0.09655 0.15566
-0.12949 -0.08238 0.17797
-0.01635 -0.00457 -0.17677
-0.08089 0.02656 -0.04965
-0.14622 -0.03734 -0.15638
0.13847 -0.00457 -0.16418
-0.00954 0.01008 -0.21170
0.21086 0.02499 0.11792
0.22652 0.00063 0.10273
0.20430 0.02656 -0.09871
0.09661 0.01411 0.10783
-0.00716 0.08161 -0.20294
0.22652 0.00741 -0.00677
0.04090 0.01411 -0.13298
0.10150 0.02656 -0.15646
-0.13091 -0.11492 -0.18354
-0.07449 0.19714 -0.21170
-0.15249 0.21052 0.19302
-0.17197 0.28914 0.02915
-0.12512 0.01776 -0.17363
0.22079 -0.00457 0.10115
0.10763 -0.30736 -0.19302
0.12562 0.01411 0.03343
-0.10102 0.11685 0.19302
0.18391 0.01411 -0.15851
0.05621 0.02656 0.08947
