-0.13969 0.02240 -0.12025
-0.16254 0.22544 -0.01424
-0.14206 0.37255 0.03449
-0.16317 0.25841 -0.01424
-0.14526 -0.26683 0.12350
-0.16611 0.20444 0.05400
-0.15052 0.30006 0.10337
-0.14459 -0.25595 -0.11345
-0.16611 0.26370 0.06091
0.05259 -0.11739 0.02355
0.16611 -0.11530 0.11186
0.14891 -0.11739 -0.08662
-0.06545 -0.11739 -0.05273
0.09232 -0.11739 0.09557
-0.14398 -0.16605 -0.12409
-0.13651 -0.09385 -0.08994
-0.16250 0.13195 0.07119
-0.03843 -0.09385 0.04227
-0.15169 -0.04017 0.07119
0.08016 -0.11739 -0.02089
-0.14586 0.33599 -0.14238
-0.16611 0.27901 0.04575
-0.06313 -0.09385 -0.11372
-0.02886 -0.09385 0.01867
-0.05946 -0.09385 -0.01428
-0.16172 0.32819 -0.11390
-0.15203 0.28677 -0.11390
-0.10640 -0.09385 -0.12069
-0.14657 0.37242 -0.06987
-0.02853 -0.09385 -0.12338
-0.14206 -0.05480 -0.00478
-0.06173 -0.11739 0.06117
0.02274 -0.11739 -0.06521
-0.14690 0.30774 0.14238
-0.11194 -0.11739 -0.09658
-0.13969 0.40437 0.06685
-0.16611 0.34218 0.04155
0.15805 -0.09385 -0.13984
-0.11171 -0.09385 -0.01306
-0.16611 0.25143 -0.00924
-0.16264 0.12610 0.04271
-0.13969 0.18210 0.13149
-0.16204 0.07399 0.01424
-0.14592 -0.01754 -0.04271
-0.16611 0.34428 -0.02547
0.00195 -0.09385 -0.10894
-0.15407 0.40091 -0.10941
-0.16611 -0.06414 -0.02725
-0.16611 0.30708 0.10021
-0.16341 0.17326 0.07119
0.07312 -0.09385 -0.12452
-0.13969 0.12114 0.12666
0.00199 -0.09385 0.00640
0.14698 -0.18491 -0.12192
-0.16611 0.35799 0.01328
0.07033 -0.11739 -0.03207
-0.14314 0.27502 -0.11390
-0.16611 -0.07860 -0.11427
0.05478 -0.09385 0.10839
-0.14206 0.39061 0.00373
-0.14226 0.08705 -0.14238
0.06020 -0.11739 -0.14237
0.04515 -0.09385 -0.08391
-0.16611 0.27626 0.05075
-0.15424 -0.02477 -0.04271
-0.14717 -0.16484 0.11566
-0.13969 0.22146 0.12084
-0.14254 0.30006 -0.09968
-0.03394 -0.11739 0.13928
0.03110 -0.09385 0.05809
0.10730 -0.09385 0.13878
-0.05767 -0.11739 0.02607
-0.16186 0.32379 -0.07407
0.14558 -0.09385 0.07877
0.09169 -0.09385 -0.05608
0.14218 -0.11739 -0.05348
-0.13969 0.18112 0.13842
-0.15136 0.20880 0.11390
0.00674 -0.11739 -0.13727
-0.03854 -0.11739 -0.03858
-0.14206 0.11956 0.00321
0.00182 -0.11080 0.14238
-0.13720 -0.36127 0.12101
-0.03447 -0.09385 0.13812
-0.14206 0.00545 -0.07036
-0.15494 0.11117 0.07119
0.14795 -0.17190 0.11772
0.16471 -0.11739 0.13639
-0.14206 0.17737 0.06792
-0.14141 -0.28731 -0.11308
-0.14711 -0.31362 -0.12175
0.09360 -0.09385 0.03879
-0.15902 0.05749 -0.01424
0.06315 -0.09385 -0.04503
-0.16157 0.35060 -0.02373
-0.16152 0.12044 0.11390
-0.16611 0.40053 0.07151
-0.16216 0.41630 -0.03123
-0.16327 0.19318 -0.11390
0.07524 -0.11739 -0.06736
0.00966 -0.11739 -0.02411
-0.15670 0.43634 -0.06115
-0.14490 -0.09385 -0.10031
-0.14492 0.20690 -0.11390
-0.13992 -0.02578 0.14238
-0.11770 -0.11739 0.06749
-0.13969 0.03164 0.11839
0.09588 -0.11739 0.13064
-0.00646 -0.09385 0.00701
-0.13969 0.41828 -0.08425
0.13361 -0.10125 0.14238
-0.14206 0.31258 0.00541
-0.15019 0.22073 -0.07119
-0.14104 0.41849 0.02291
-0.11425 -0.09385 -0.02323
-0.16189 -0.09856 -0.14238
0.14500 -0.11739 0.10371
0.03757 -0.09385 0.14200
0.08166 -0.09793 -0.14238
0.13739 -0.32961 -0.11593
-0.14206 -0.02606 0.05778
-0.16611 0.01608 -0.11947
-0.01216 -0.11739 -0.06441
-0.16611 0.38183 0.00395
0.11355 -0.09385 -0.12921
-0.11943 -0.11739 -0.06088
-0.14206 -0.05285 -0.01323
-0.16611 0.44122 -0.01270
0.08314 -0.11739 0.11217
0.07675 -0.09385 0.05992
-0.16611 0.40744 0.08662
-0.16611 0.13802 -0.04724
-0.01219 -0.11739 -0.00195
0.14144 -0.19118 0.12422
0.14436 -0.34227 0.12393
0.01906 -0.11739 -0.11045
-0.14629 -0.05588 0.07677
-0.14561 0.37062 -0.09674
-0.16611 0.24562 0.13612
-0.14206 0.10220 0.01051
-0.05437 -0.11739 -0.04092
-0.16611 0.13077 0.05942
0.06997 -0.09385 -0.13852
0.16611 -0.11026 -0.10663
-0.15077 0.31742 0.14238
-0.14557 0.35601 -0.04149
-0.13171 -0.09385 0.07614
0.13716 -0.22999 0.12081
-0.14624 0.14891 0.04271
0.13681 -0.09385 -0.04170
-0.16611 -0.03588 -0.12350
0.05509 -0.11175 -0.14238
0.14506 -0.09385 -0.01618
-0.14206 -0.00637 -0.00543
-0.14805 -0.13806 -0.11877
-0.16611 0.00478 -0.01359
-0.15699 0.40238 -0.00712
-0.14748 -0.25405 0.12108
-0.16130 0.21981 0.14238
-0.16388 -0.00415 -0.11390
-0.15099 0.36425 0.13356
-0.15724 0.02655 -0.04271
0.16611 -0.10065 0.06017
-0.14332 0.14039 -0.07119
0.16611 -0.10902 0.01951
-0.14824 -0.09385 -0.05899
-0.15515 0.05523 -0.14238
-0.14206 0.31946 0.08226
-0.16611 0.05508 0.11618
-0.04414 -0.09385 0.10297
-0.14390 0.29966 0.04271
-0.03447 -0.09385 -0.11858
-0.14206 0.17790 -0.00945
0.06115 -0.11739 -0.08436
-0.16611 -0.01650 -0.07024
0.14568 -0.40835 -0.12323
-0.13969 0.35425 0.11786
-0.16611 0.21570 -0.07052
-0.16611 0.24491 -0.05373
-0.15418 0.34210 0.11191
-0.16611 -0.06245 -0.01550
0.12328 -0.11739 -0.00615
-0.15189 0.25208 0.01424
-0.14206 0.22511 -0.00347
-0.15439 0.36702 0.05656
0.03767 -0.09385 0.00340
-0.13969 0.33463 0.13921
-0.16611 -0.06723 0.10883
0.13221 -0.11739 -0.12418
-0.16611 0.11317 -0.05643
0.14791 -0.35044 -0.11741
-0.14206 0.02535 -0.06351
-0.16611 0.28577 -0.12793
-0.13883 -0.09385 0.04170
-0.16611 0.30319 -0.12250
-0.15876 0.26252 0.04271
0.16611 -0.10706 -0.05437
0.13987 -0.11899 0.11357
0.13708 -0.11739 -0.02699
0.03551 -0.09385 -0.06986
-0.14187 -0.11739 -0.10556
-0.16611 -0.00295 0.12558
-0.13830 -0.09385 -0.06309
0.16287 -0.09385 -0.01201
-0.12505 -0.09385 0.08867
-0.14405 0.15862 0.11390
-0.14206 0.36920 -0.08539
-0.16611 0.21743 -0.00030
-0.13496 -0.11539 0.14238
-0.14206 0.09361 -0.00640
-0.05761 -0.09385 -0.00078
-0.00275 -0.09385 0.06313
0.11477 -0.11739 0.10571
-0.16611 -0.10078 0.11930
-0.13678 -0.39692 0.11777
0.16611 -0.10154 0.11348
0.14591 -0.25884 -0.11424
0.14269 -0.38758 -0.12430
-0.16611 0.14496 -0.06958
-0.14600 0.36796 -0.01712
-0.14710 0.13855 -0.11390
-0.01540 -0.09385 0.13327
0.14739 -0.30722 0.11599
-0.15622 0.11740 0.04271
0.04160 -0.11739 -0.11896
-0.14206 0.39844 0.04518
0.16556 -0.11739 0.04078
-0.14206 0.02604 0.05405
-0.13969 0.11774 0.12209
-0.16201 -0.11739 -0.02568
-0.13969 0.40304 -0.06674
-0.04074 -0.09385 0.00719
0.14362 -0.11739 0.12726
-0.04218 -0.09385 0.14019
-0.14206 0.33190 0.02140
-0.14792 0.00426 0.14238
-0.13969 0.23101 0.12530
-0.13969 0.43096 0.06378
0.03493 -0.11739 0.06082
-0.15448 0.32379 0.10501
0.01779 -0.11739 -0.08579
-0.13969 -0.05516 0.13336
0.07546 -0.09385 -0.00644
0.11851 -0.11739 0.02497
-0.15834 0.22091 0.01424
0.01332 -0.09385 0.00791
-0.15400 0.08693 0.07119
-0.14234 0.39197 -0.03112
-0.05566 -0.09385 0.04869
-0.15005 0.31175 -0.14238
-0.14206 0.06730 0.06695
0.14778 -0.12642 0.12034
-0.07057 -0.09385 0.14108
0.06848 -0.09385 -0.11595
-0.15306 -0.11739 0.07135
-0.11267 -0.11739 0.07721
-0.02734 -0.09385 -0.03696
-0.16611 -0.11453 0.03536
0.15877 -0.09385 0.05436
-0.14206 0.30109 -0.02289
0.16611 -0.10275 0.07978
-0.16611 0.31396 0.07390
-0.15034 -0.07012 -0.07453
0.03833 -0.11739 0.02328
-0.13969 0.43784 -0.01430
-0.13812 -0.41814 -0.12238
0.03476 -0.11739 -0.11468
-0.14574 0.26592 -0.01424
-0.14924 -0.03898 -0.01424
-0.15738 0.37475 0.02102
0.02446 -0.11739 -0.07072
-0.16611 0.34655 0.01437
0.14047 -0.37248 0.12397
-0.16004 0.32379 -0.09678
-0.16611 0.15630 -0.14113
-0.14817 -0.07012 -0.07858
-0.14059 0.39658 -0.07229
-0.13750 -0.35514 -0.12157
-0.02447 -0.11739 -0.01676
-0.16611 0.22627 0.12963
-0.16611 -0.01960 0.05381
-0.14893 0.42031 -0.08838
-0.16611 0.07890 -0.12921
-0.01681 -0.11739 -0.11977
-0.16291 0.00885 0.14238
-0.15282 -0.07012 0.05107
-0.16611 0.17254 -0.06585
-0.13916 -0.11739 0.09462
-0.16335 0.09234 0.11390
-0.14879 -0.08012 -0.14238
-0.16334 0.44624 0.03124
0.13127 -0.11739 0.06324
0.00255 -0.11739 -0.00967
-0.15091 0.30495 -0.11390
0.16611 -0.09996 -0.05750
-0.15363 0.20814 0.01424
0.01643 -0.09385 -0.13811
-0.16611 0.31657 -0.05796
-0.02703 -0.09385 -0.02786
-0.14621 0.10295 -0.07119
-0.16611 0.22414 -0.13159
-0.14206 0.34415 0.01857
-0.16169 -0.05588 -0.09201
-0.14706 0.36384 -0.03139
0.00975 -0.11739 -0.10354
-0.16611 0.05548 0.13684
0.03840 -0.11739 -0.00377
-0.16015 0.36670 0.01635
-0.14206 0.03820 -0.05090
-0.09252 -0.09385 0.13670
-0.15078 0.34991 0.05593
-0.16163 -0.09179 -0.14238
-0.16611 0.18670 -0.13066
0.13997 -0.13478 0.12376
-0.15373 0.36268 -0.00712
-0.12294 -0.11739 -0.13766
-0.16248 -0.00727 0.04271
-0.16314 0.39721 -0.11295
0.14543 -0.11739 0.07000
-0.15322 0.00914 0.01424
-0.16596 0.33392 -0.03818
-0.16611 0.17305 -0.13190
-0.15124 0.18023 -0.07119
-0.02113 -0.11739 -0.03395
-0.13974 0.24918 -0.14238
-0.14161 0.02563 0.11390
-0.16611 -0.11495 -0.05573
-0.14529 0.33582 0.03687
0.16611 -0.10050 -0.11265
-0.06696 -0.11739 -0.01999
-0.06805 -0.09385 -0.07381
-0.16611 -0.06612 -0.00962
-0.16416 -0.09385 0.04118
-0.13969 0.39659 -0.10898
-0.16190 -0.00873 0.01424
-0.04008 -0.09385 0.12212
-0.16012 0.02923 -0.07119
-0.14206 -0.06404 -0.09941
-0.15479 0.15677 0.14238
-0.16611 0.31145 -0.02399
-0.14372 0.25480 -0.11390
-0.15961 0.01694 0.14238
-0.16611 -0.09645 0.10937
-0.08211 -0.09385 0.09534
-0.16611 -0.10966 0.08242
-0.15762 0.08191 -0.11390
-0.09614 -0.09385 0.11640
-0.16611 0.32217 -0.13574
-0.16611 0.29666 -0.11753
0.03207 -0.09385 0.00646
-0.14206 0.32019 -0.02121
-0.06948 -0.11739 -0.03926
-0.16611 -0.02842 -0.12948
-0.13969 0.06364 -0.11429
-0.15406 -0.07012 -0.04792
-0.15115 0.21469 0.01424
-0.01267 -0.09385 0.00671
-0.14927 0.44648 0.02897
0.07071 -0.11739 -0.09073
-0.16611 0.36425 -0.00358
-0.09068 -0.11739 0.13475
-0.16611 0.14624 0.01352
0.09653 -0.11739 0.01203
-0.07859 -0.11739 0.10008
0.16611 -0.10730 -0.03371
-0.16169 -0.09385 0.03617
-0.16611 0.40752 -0.05332
-0.15063 0.03815 -0.04271
-0.15182 -0.05959 -0.11390
0.06451 -0.11739 -0.05944
-0.00367 -0.11739 -0.12282
-0.11580 -0.11739 0.00065
0.07569 -0.11174 0.14238
-0.15720 0.09387 0.07119
-0.15215 -0.05588 0.02243
-0.00153 -0.09990 0.14238
-0.14206 0.00631 -0.05080
0.11529 -0.09385 0.00993
-0.02575 -0.09385 0.02983
0.14085 -0.43629 -0.12413
-0.15898 0.35265 0.02485
-0.13954 -0.11739 -0.01810
-0.16611 0.31439 0.04058
-0.14129 0.22930 0.14238
-0.10632 -0.10023 -0.14238
-0.14206 0.35549 -0.00499
-0.13969 0.01817 -0.13999
-0.14011 -0.30751 -0.12382
-0.06301 -0.09385 0.09115
0.14801 -0.30787 -0.11818
-0.13855 -0.27585 0.11448
-0.16611 0.07197 -0.13014
-0.14244 -0.11739 0.05605
-0.14063 -0.26044 -0.12404
-0.15427 -0.07765 -0.11390
-0.14742 0.38466 0.12165
-0.09843 -0.11739 -0.00496
-0.14206 0.07548 0.01339
0.13314 -0.09385 0.06152
0.15324 -0.09385 0.02513
-0.16611 -0.09431 0.03138
-0.15080 0.19500 -0.07119
-0.14206 0.28928 0.01377
-0.15614 0.03251 -0.07119
-0.13969 0.37859 -0.09243
-0.15008 0.33195 0.11390
-0.15682 0.30006 0.10399
-0.13969 0.43901 0.02629
-0.16002 0.20598 0.14238
-0.13906 -0.14941 -0.11408
0.11149 -0.09385 -0.01148
-0.09855 -0.11739 -0.06315
-0.11090 -0.11739 0.09896
-0.16611 -0.01774 -0.06477
-0.16611 -0.11047 0.04844
-0.15130 -0.05155 -0.04271
-0.14206 0.39104 -0.04102
-0.02987 -0.10404 -0.14238
-0.16611 0.43626 -0.02281
-0.03644 -0.11739 0.01011
-0.15783 0.23549 0.04271
-0.14621 0.41186 0.04254
-0.14206 0.35888 0.04740
-0.14389 0.41266 -0.00712
-0.14206 0.41024 -0.00139
-0.14206 0.34872 -0.03596
-0.14677 0.01799 -0.01424
-0.16611 -0.02024 0.00879
-0.15168 0.06181 0.11390
-0.14206 0.09391 0.05807
-0.15613 0.21104 -0.04271
-0.14671 0.14048 0.04271
0.14784 -0.39748 0.12020
-0.14206 -0.02173 0.06740
-0.00451 -0.09385 0.13535
-0.14689 0.23804 -0.11390
-0.14697 0.30006 0.02265
0.03232 -0.09385 0.13233
-0.16124 -0.09385 -0.09303
-0.14300 0.05050 0.01424
-0.00230 -0.11739 0.03636
-0.11212 -0.09385 -0.05324
-0.16611 0.43698 0.01353
0.05326 -0.11739 0.03979
-0.16611 0.40946 -0.08044
-0.16611 -0.05606 0.12978
-0.16611 0.05776 -0.01301
-0.16611 0.38293 -0.09308
-0.16611 0.15283 -0.05041
0.13716 -0.09530 -0.14238
-0.14707 -0.05588 0.03293
0.11088 -0.11739 -0.03433
-0.16611 -0.09532 -0.12734
-0.14206 -0.03765 0.01099
0.14516 -0.43841 0.11369
-0.12837 -0.11739 0.10998
0.03035 -0.11739 -0.12774
-0.15991 0.42409 -0.08201
-0.07145 -0.11739 0.12381
-0.14052 0.37093 -0.13080
0.07035 -0.11739 -0.04571
-0.16378 0.25761 0.11390
-0.16611 0.30241 0.03779
-0.15847 0.36442 -0.00712
-0.05137 -0.09890 0.14238
0.14660 -0.32189 -0.11488
0.13728 -0.18063 -0.12109
0.16611 -0.11560 0.02430
0.05209 -0.09385 -0.00834
-0.15046 0.29989 0.01424
-0.15086 -0.04444 -0.04271
-0.02699 -0.11739 -0.14126
-0.04706 -0.09385 0.09342
-0.14206 0.10410 -0.07044
-0.14206 0.29463 0.00534
-0.15875 -0.01326 -0.01424
-0.14455 0.32379 0.06992
-0.13969 -0.00596 -0.11470
0.14934 -0.09385 -0.02059
0.13798 -0.20585 -0.12219
-0.04705 -0.11739 -0.08375
-0.16611 0.40184 -0.09572
-0.14206 0.03932 -0.05650
0.04696 -0.09385 -0.01476
-0.08150 -0.09385 -0.02343
-0.03121 -0.11321 0.14238
-0.15108 -0.07012 -0.01287
-0.16611 0.11111 0.05284
-0.06352 -0.09385 0.10538
-0.13752 -0.09385 0.02315
0.02635 -0.11739 0.12522
-0.14802 -0.03098 0.07119
-0.15179 0.08718 -0.14238
-0.16611 -0.10378 0.13622
-0.12522 -0.11739 -0.06164
-0.14206 0.36587 -0.06278
0.00185 -0.11739 -0.03442
-0.00878 -0.11739 0.07149
0.12950 -0.11739 -0.11686
-0.14681 -0.21908 0.12218
0.08287 -0.09385 -0.12476
-0.16611 0.32017 -0.00814
-0.13969 0.12913 0.12022
0.13932 -0.33403 -0.11388
-0.13969 0.31092 0.13782
-0.16611 0.01705 0.12540
-0.14859 0.38316 -0.02598
-0.12184 -0.09385 0.06774
-0.15029 0.36620 0.01606
-0.13969 0.05796 -0.13509
-0.14161 0.05982 0.11390
-0.14206 0.30628 0.07786
0.04651 -0.11739 -0.03993
-0.00938 -0.09385 0.11772
-0.14094 -0.29505 -0.12415
0.01528 -0.09385 0.08415
-0.15902 -0.04654 0.07119
-0.16611 0.05506 -0.11440
-0.16611 0.17269 0.05037
0.08135 -0.09385 -0.11665
-0.13969 0.41309 -0.08839
-0.10638 -0.09385 0.08379
0.08970 -0.09385 -0.01941
-0.16226 0.03098 0.04271
-0.15082 0.18713 -0.11390
-0.14007 -0.07465 0.14238
0.05609 -0.09385 0.08766
-0.15654 -0.09385 -0.04815
-0.15207 0.06565 -0.11390
0.06130 -0.09385 0.05191
-0.13969 0.14299 -0.13853
-0.00061 -0.11739 -0.01812
-0.13693 -0.24154 -0.11705
-0.16611 0.35947 -0.10452
0.06924 -0.09505 0.14238
-0.03991 -0.11739 -0.00749
0.13252 -0.09385 -0.08110
0.16081 -0.09385 0.06527
-0.16313 0.39051 -0.11759
-0.16611 0.15424 0.12685
-0.14094 0.04406 -0.14238
-0.16611 0.22899 -0.13316
-0.13682 -0.42158 -0.11761
-0.14206 0.19736 0.04604
-0.14267 0.00201 -0.14238
-0.14220 0.28400 0.07119
-0.14206 -0.04336 -0.05110
0.16210 -0.09404 0.14238
-0.15851 0.39832 -0.06964
-0.16611 0.29298 0.04415
-0.07707 -0.09385 0.13224
-0.14206 -0.01769 -0.04944
0.07688 -0.11739 0.04347
-0.13969 -0.04823 0.13282
-0.16611 -0.03103 -0.14186
-0.13969 0.38144 -0.12326
-0.15682 0.01330 -0.07119
0.14796 -0.14027 0.11951
-0.16611 0.35126 -0.04447
-0.15200 0.00510 0.04271
-0.10890 -0.09385 -0.08711
-0.03825 -0.11739 -0.11683
-0.15556 -0.10015 0.14238
0.06852 -0.09385 -0.00642
-0.12202 -0.11739 -0.06813
0.05694 -0.11739 -0.08099
-0.16611 0.33259 -0.13933
-0.16276 0.07095 -0.01424
-0.15323 0.37746 -0.00712
0.05673 -0.09385 -0.12648
-0.15374 0.32379 0.06859
-0.11103 -0.11739 -0.11015
0.03306 -0.11739 0.07858
-0.14780 -0.43005 -0.11699
-0.14319 0.12495 0.07119
-0.04876 -0.09385 -0.03870
0.12837 -0.11739 0.08429
-0.15896 0.33658 -0.11390
0.03857 -0.09385 -0.01662
-0.13969 0.17173 -0.11556
0.10155 -0.09385 -0.05393
-0.16611 0.41745 -0.07143
0.07686 -0.11739 0.11894
-0.16611 0.34555 -0.05125
-0.15578 0.41990 -0.00981
-0.16611 0.00980 -0.04525
-0.16611 0.11898 0.12552
-0.16611 0.13101 0.00346
-0.15648 -0.11739 -0.01120
-0.14208 0.19173 -0.14238
-0.16611 -0.06402 0.12024
-0.13969 0.17337 -0.12605
-0.16611 0.08729 -0.04797
-0.14391 0.23746 -0.01424
-0.14416 -0.07012 0.07032
-0.16611 0.08437 0.05027
0.05208 -0.09385 0.08171
-0.14206 0.20975 0.05881
-0.10319 -0.11739 0.02966
-0.13761 -0.17962 0.11560
-0.13969 0.27681 -0.13121
-0.16611 0.02023 -0.01045
-0.08538 -0.11739 -0.02901
-0.14943 0.40268 0.10751
-0.16326 0.20703 -0.14238
-0.14206 -0.06342 -0.05027
-0.14549 0.13855 -0.04271
-0.13887 -0.11739 0.01304
-0.15800 -0.07012 -0.09436
-0.11563 -0.11739 0.05515
-0.15178 0.11585 0.11390
-0.15719 0.38593 0.04403
-0.11042 -0.09385 0.01508
-0.15600 0.01096 -0.04271
-0.16207 -0.09385 -0.04980
-0.14677 -0.01018 -0.14238
-0.14206 -0.06853 -0.10948
-0.14835 0.38940 0.07999
-0.16611 0.30972 0.11073
-0.14206 0.08649 -0.05001
0.14697 -0.32672 0.12193
0.13672 -0.28567 0.11838
-0.09175 -0.11739 0.02667
-0.16611 0.34731 0.00082
-0.16547 -0.09385 0.08289
-0.14557 0.30065 -0.14238
-0.13674 -0.31061 0.11926
0.14275 -0.11739 -0.01685
0.14518 -0.31723 0.11370
-0.16611 0.14508 0.06473
-0.14738 0.25503 0.01424
0.08940 -0.09385 -0.04574
-0.16194 -0.01017 0.14238
-0.15674 -0.00179 -0.14238
-0.16611 0.20797 -0.01059
-0.13745 -0.34996 0.11589
-0.16548 0.40993 0.04142
0.13670 -0.32631 0.11847
-0.02208 -0.11739 0.05082
-0.16331 0.37565 -0.03822
-0.16611 -0.10627 0.00131
-0.16292 -0.07012 -0.03928
-0.16086 0.19408 0.04271
0.06198 -0.11739 -0.09122
-0.16611 0.40583 -0.06666
-0.14043 -0.11739 0.03350
0.13823 -0.11739 -0.04408
-0.16611 0.42265 0.05854
-0.14013 0.38833 -0.11911
-0.16611 -0.02258 -0.04463
-0.16611 0.39770 -0.04342
0.13003 -0.11739 -0.09411
0.14322 -0.28830 -0.11306
0.07914 -0.09385 0.00177
0.14432 -0.33883 -0.12395
0.14212 -0.43010 0.12431
-0.13920 -0.09385 0.00706
-0.16011 0.25078 0.14238
-0.14206 -0.02185 0.05562
-0.13969 0.34932 0.12607
-0.16611 0.18768 -0.05936
-0.04097 -0.11739 0.03825
-0.14206 0.14974 -0.06654
-0.14787 -0.04385 0.01424
-0.08205 -0.11739 0.08766
-0.16611 0.37168 0.02174
-0.14583 0.35251 0.03303
-0.16611 0.07148 0.06173
-0.14206 0.32941 0.03695
-0.13676 -0.23800 0.11785
-0.15179 0.02087 0.14238
-0.14206 0.02313 0.06706
-0.03404 -0.11739 -0.00227
-0.16203 0.12701 -0.14238
-0.16611 0.26668 0.14096
0.02075 -0.09385 0.12722
-0.15038 0.35231 0.05983
-0.16272 0.19456 -0.14238
-0.15408 0.28938 0.04271
0.01170 -0.09385 0.00021
-0.14206 0.10853 0.00736
0.10160 -0.09385 0.09764
-0.14206 0.17736 -0.00411
-0.13969 0.42286 0.01129
-0.15338 0.35853 -0.01162
-0.16611 0.09436 -0.12648
-0.02943 -0.09385 0.12119
-0.02587 -0.11739 0.04172
-0.14768 0.22545 0.07119
-0.15664 0.10355 0.01424
-0.13969 0.00970 -0.13895
-0.16611 0.28608 -0.05249
-0.00084 -0.11739 -0.05590
-0.13969 0.00178 0.13617
-0.16611 0.10666 -0.00049
-0.14206 -0.01243 -0.01192
-0.15599 -0.06071 0.14238
-0.14413 0.02480 0.01424
-0.15585 0.29111 -0.04271
0.03521 -0.10169 -0.14238
-0.15847 0.20866 -0.14238
0.05617 -0.09385 -0.03893
0.16611 -0.10455 0.08568
0.10827 -0.09385 0.10809
-0.13680 -0.30038 -0.11777
-0.11396 -0.09385 -0.01757
-0.11575 -0.11739 -0.06987
-0.12422 -0.11739 -0.05209
-0.15986 0.25065 0.07119
-0.14206 0.13889 -0.00589
-0.13897 -0.21357 0.12320
-0.14973 0.44621 -0.03144
0.01288 -0.09385 0.03715
0.10726 -0.09385 -0.11730
-0.14206 0.11083 0.04839
-0.14788 -0.28951 -0.11720
-0.16334 0.37543 -0.02148
-0.13977 -0.04590 -0.11390
-0.14909 0.02939 0.14238
-0.13345 -0.10281 -0.14238
-0.00386 -0.11739 0.10865
0.07045 -0.09385 0.01841
0.14117 -0.15549 0.11311
-0.03796 -0.11739 0.10043
-0.15658 0.43291 -0.06716
-0.14206 0.17307 0.00121
0.14696 -0.21287 0.12195
0.14580 -0.19337 0.11415
-0.13887 -0.39001 0.11417
0.13847 -0.09385 0.10570
-0.16432 0.28089 0.11390
-0.14206 0.21183 -0.00837
-0.15989 -0.04140 -0.07119
-0.07582 -0.09385 -0.08521
-0.15367 0.21503 0.04271
-0.11428 -0.11739 0.10785
0.13958 -0.14487 0.11369
0.13364 -0.11739 0.04062
-0.13969 0.16100 -0.12513
-0.14570 -0.15403 -0.12321
-0.16139 0.12438 -0.04271
-0.05142 -0.11739 0.05536
-0.15228 0.10017 0.01424
0.14537 -0.11739 0.05454
-0.16611 0.13318 -0.14177
-0.15293 0.26175 0.01424
0.12472 -0.11636 -0.14238
-0.14206 0.04324 -0.04933
-0.13969 -0.03922 -0.11999
0.00215 -0.11739 0.04196
-0.14549 -0.22794 -0.11392
-0.14206 0.04151 0.07089
-0.13969 -0.08627 0.13542
0.14655 -0.43791 -0.11481
-0.00170 -0.09385 0.08637
-0.06938 -0.09385 0.11812
-0.10325 -0.11739 -0.09935
0.00567 -0.09385 -0.12808
-0.07616 -0.11263 -0.14238
-0.15522 0.29240 -0.01424
0.00303 -0.11739 -0.11426
-0.13969 0.44374 -0.00713
-0.15897 -0.01264 0.04271
-0.15989 0.18852 -0.07119
-0.13969 0.21442 -0.13931
-0.13969 0.19184 0.11744
-0.13969 0.33716 0.11429
-0.16611 0.23475 -0.13041
0.03587 -0.09385 0.01742
0.02541 -0.11739 0.00321
-0.13969 -0.00973 -0.12395
-0.16611 0.08539 -0.12039
0.12907 -0.11739 -0.06045
-0.14925 0.27115 0.11390
0.03561 -0.11739 0.04140
-0.14956 0.10322 0.14238
-0.14677 0.29068 0.01424
-0.14235 0.11778 -0.01424
-0.00007 -0.11739 0.12846
-0.15078 -0.11739 0.03393
-0.10014 -0.09385 -0.00678
0.14757 -0.13533 -0.11644
-0.16611 0.34967 0.04073
-0.14584 -0.04446 0.07119
-0.15331 0.33182 0.03941
0.16611 -0.11101 -0.08727
-0.14918 0.39838 0.03472
0.08373 -0.09385 -0.02220
0.10545 -0.11739 -0.01765
-0.14206 -0.06193 -0.00175
-0.16611 0.41063 0.00687
-0.16411 0.15255 -0.07119
-0.15285 0.14999 0.04271
-0.08055 -0.09385 0.12008
0.13942 -0.13860 0.11380
-0.15310 0.37776 0.03932
0.14902 -0.11739 0.10021
0.06470 -0.09385 -0.11197
0.15061 -0.11739 -0.00315
0.05148 -0.11739 -0.05679
-0.07671 -0.11739 -0.13165
0.14379 -0.23935 -0.12415
-0.08442 -0.11739 -0.13026
-0.16611 0.22102 0.06812
-0.14695 0.17951 0.07119
-0.09573 -0.11739 0.04127
-0.14206 0.13453 -0.05860
-0.14566 0.15581 0.04271
-0.15259 0.44849 0.01033
-0.14491 -0.04628 0.14238
-0.13969 0.11426 -0.12953
0.13898 -0.36358 -0.12316
-0.16611 -0.06556 0.05368
-0.16611 -0.10243 0.05770
-0.16611 -0.11393 0.01469
-0.15964 0.14666 -0.01424
0.04053 -0.11739 -0.03867
-0.13983 0.27418 0.11390
-0.15019 -0.07012 -0.06783
-0.16611 0.20010 0.06473
-0.16611 0.36720 -0.02041
-0.14171 -0.30148 -0.12425
-0.14206 0.31422 0.09823
-0.13720 -0.12286 -0.12091
0.12263 -0.09385 -0.00465
-0.16611 0.05413 -0.04751
-0.14890 -0.04569 -0.07119
-0.14419 0.41424 0.00712
-0.14206 0.31424 -0.04699
-0.16611 0.41652 0.06402
-0.15335 0.11408 0.04271
-0.14158 -0.39801 -0.11306
-0.16541 0.36374 0.05124
-0.14206 0.22006 -0.06456
-0.16015 0.25857 0.01424
-0.14476 -0.04007 0.11390
-0.14206 -0.03227 -0.05095
-0.14206 0.13380 0.06404
-0.16299 0.01375 0.11390
0.14321 -0.34833 -0.12423
-0.14184 0.03018 -0.11390
0.02054 -0.09385 0.00276
0.01136 -0.11739 0.13156
-0.13969 0.42741 0.01099
-0.14206 0.18540 0.00905
-0.14263 0.40008 0.00712
0.02743 -0.11739 0.07430
0.02777 -0.09385 -0.13247
-0.14619 -0.05516 0.14238
-0.13969 0.30678 -0.12957
0.14460 -0.21477 -0.11346
-0.01988 -0.09385 0.01724
-0.15147 -0.07012 0.00601
-0.14206 -0.00211 0.06820
-0.16611 0.42974 0.00850
-0.16611 0.30771 -0.01953
-0.14231 -0.05896 0.11390
-0.15299 0.08072 0.01424
-0.13359 -0.11739 0.04017
-0.16611 -0.05277 0.05892
-0.15050 0.10001 -0.01424
0.14214 -0.38050 -0.11298
0.09380 -0.09385 -0.02547
0.14705 -0.33110 0.11546
-0.16611 0.07377 0.12769
-0.14206 -0.06415 -0.06078
-0.07008 -0.11739 -0.11075
-0.16611 -0.10549 0.11379
-0.16126 0.36307 0.13405
-0.01915 -0.11739 0.10906
-0.14086 -0.09385 0.05739
-0.16611 0.39128 0.10497
0.11651 -0.11739 0.05394
0.05132 -0.11739 -0.12322
-0.14206 0.32188 -0.01569
0.14746 -0.38273 -0.11617
-0.14206 0.24123 -0.01286
-0.16611 0.26605 -0.00228
0.10015 -0.11739 -0.02222
-0.14994 0.42959 0.07275
-0.15695 0.24633 -0.11390
-0.13969 0.43584 -0.03748
-0.13969 0.42616 0.06305
-0.13969 0.29565 0.13330
-0.14375 0.09303 -0.11390
-0.02447 -0.11739 -0.12400
-0.13984 -0.31077 -0.11359
-0.14242 -0.36300 0.11300
-0.16611 0.02562 0.13139
-0.14788 0.21589 0.11390
-0.14206 0.26685 -0.00567
0.12352 -0.11739 -0.06503
-0.13969 0.42167 0.05469
-0.16611 0.31512 0.01114
-0.16611 0.23347 0.12700
0.00926 -0.11739 0.07536
-0.13697 -0.40670 -0.12034
-0.12048 -0.11739 -0.09079
-0.15137 0.01043 0.14238
-0.14206 0.05656 -0.00495
-0.14206 -0.01565 0.06185
-0.15987 0.02841 -0.11390
-0.16018 0.40196 -0.06352
-0.16611 0.28705 -0.11908
0.13821 -0.30488 0.12249
-0.16611 0.13021 -0.05990
0.07051 -0.09385 0.09406
-0.16611 0.08010 0.06575
-0.16441 0.29209 0.07119
-0.13820 -0.15295 -0.12249
0.14803 -0.14516 -0.11897
-0.16611 0.23395 -0.04433
-0.14800 -0.11739 -0.05085
-0.16611 0.23977 -0.05164
-0.14482 -0.08667 0.14238
-0.16611 0.19241 -0.12783
-0.15120 0.08391 0.11390
-0.15525 0.04413 -0.14238
0.15841 -0.11739 -0.07586
-0.14206 0.29048 -0.04923
-0.16611 0.03257 -0.04853
-0.16611 0.38078 -0.09955
-0.15008 -0.00931 -0.07119
-0.16114 0.19981 -0.07119
-0.14237 -0.05588 -0.08107
-0.10056 -0.09385 -0.03670
-0.13969 -0.08730 -0.13429
-0.14592 -0.27121 0.12310
-0.11535 -0.11739 -0.13188
-0.15614 0.07560 0.11390
-0.16539 0.38635 0.08326
-0.10174 -0.11739 0.06993
-0.16381 0.15043 -0.04271
-0.15988 -0.05588 0.07750
-0.16611 0.32084 -0.00265
0.05977 -0.09767 0.14238
0.11645 -0.09385 0.11479
-0.14206 0.31630 0.06183
-0.15872 -0.03144 0.01424
0.04014 -0.09385 -0.12314
-0.14206 0.26386 0.01158
-0.14206 0.11938 0.06274
0.14774 -0.23200 -0.12044
0.10876 -0.09385 -0.05036
0.13743 -0.09385 0.01012
-0.16295 0.03158 -0.01424
-0.16611 0.29682 -0.05483
-0.16043 -0.07012 0.00497
0.08788 -0.11739 -0.14053
-0.16611 0.10096 0.06886
0.14390 -0.19173 -0.11317
-0.15624 0.14026 -0.11390
-0.16611 -0.06683 0.07781
-0.14258 -0.11854 -0.11298
-0.16611 0.02012 0.11592
-0.14720 0.22941 -0.01424
-0.08252 -0.11739 -0.01463
-0.15340 0.32379 -0.05089
-0.00180 -0.11739 0.13696
0.01475 -0.09385 0.02580
-0.15234 0.32379 0.11231
0.13680 -0.33548 -0.11775
-0.14206 0.18594 0.04333
-0.13813 -0.31911 0.11492
-0.01281 -0.11739 0.12530
-0.04671 -0.09385 -0.13481
0.10221 -0.11739 -0.03366
-0.13992 0.13032 0.11390
-0.15122 -0.04381 0.04271
-0.14906 0.14572 0.14238
-0.15561 0.32349 -0.11390
0.13721 -0.33188 -0.12094
-0.14174 -0.42618 -0.12426
-0.16339 -0.03842 -0.04271
-0.16339 0.32379 -0.10364
0.05821 -0.10098 -0.14238
0.14803 -0.19069 0.11835
-0.16611 0.41864 -0.03559
-0.15196 0.20387 -0.07119
-0.16065 0.02520 -0.14238
0.06861 -0.09385 0.04965
0.15749 -0.09385 -0.04275
-0.02289 -0.11739 -0.13773
-0.14497 -0.11739 0.08062
0.02727 -0.09385 -0.12678
-0.16611 -0.11437 0.08603
-0.13969 0.34707 -0.12723
-0.14463 -0.35764 0.11344
-0.13676 -0.21937 -0.11806
-0.14206 0.04619 -0.06004
-0.16196 0.01111 -0.04271
0.14085 -0.28824 -0.12412
-0.06812 -0.11739 -0.05644
-0.14693 -0.33804 -0.11530
-0.16611 0.21320 -0.05979
-0.15354 -0.09385 -0.10673
-0.15518 -0.11739 0.10722
-0.16611 0.36939 0.12808
-0.14215 -0.01084 -0.11390
0.03826 -0.09385 0.03283
-0.16331 -0.11739 0.00303
0.15240 -0.09385 0.00588
-0.16611 0.08246 0.13080
-0.16095 0.38881 0.00712
-0.16093 0.14641 0.14238
0.09039 -0.09385 0.05221
-0.14261 0.44821 -0.01292
-0.13969 0.14264 -0.11797
-0.16611 0.13936 -0.13522
0.01706 -0.11739 0.00168
-0.14206 0.36627 0.06973
0.14764 -0.33752 0.11660
-0.16211 -0.03620 0.14238
-0.14206 0.17960 0.00037
-0.14206 0.33812 -0.00805
0.13913 -0.17858 -0.11402
-0.13693 -0.12406 0.11716
0.13678 -0.19765 -0.11785
0.16420 -0.11739 -0.14008
-0.13969 0.27065 0.13152
0.13468 -0.11739 0.09254
-0.13969 0.18368 -0.13237
-0.11081 -0.11739 0.05594
-0.16531 0.30006 -0.01694
-0.15284 0.02798 0.07119
-0.16611 -0.03869 0.06464
-0.14229 0.40904 0.00712
-0.16611 0.08078 -0.05680
-0.06715 -0.09385 0.06393
-0.14206 -0.01340 0.00796
0.11156 -0.11739 -0.09814
-0.13969 -0.05496 -0.12886
0.04275 -0.11739 -0.07591
0.04927 -0.11739 0.09599
-0.14206 -0.05831 -0.08939
-0.13969 0.43584 0.00280
0.07287 -0.09385 0.11893
-0.13969 0.32403 0.12192
-0.16611 -0.09522 -0.11199
0.15171 -0.09385 0.07089
-0.15249 -0.02157 0.04271
0.02333 -0.11739 0.03123
-0.13969 0.33503 -0.13810
-0.16098 0.27240 0.11390
0.03211 -0.11739 -0.00730
-0.10697 -0.11739 -0.03729
-0.16432 0.36832 -0.03398
0.13908 -0.44248 0.11406
-0.07930 -0.10416 0.14238
-0.15581 0.20163 -0.04271
0.14393 -0.29700 -0.12412
0.13283 -0.11739 -0.00368
0.13930 -0.28974 0.12340
-0.13952 -0.30811 0.11378
-0.14206 0.27779 -0.00325
-0.14206 0.03999 -0.04343
0.13706 -0.09385 0.05389
-0.16611 0.40630 0.08233
-0.16611 0.27441 0.06585
0.05754 -0.11739 -0.03191
0.16084 -0.11739 -0.04646
-0.14232 -0.17028 0.11300
-0.13969 -0.04074 -0.14113
-0.14206 0.20580 -0.06725
-0.16611 0.30573 0.12885
-0.14699 -0.09385 -0.06603
-0.10234 -0.11739 0.11824
0.08627 -0.09385 0.00294
-0.16611 -0.03232 0.12855
0.13745 -0.32074 0.11579
-0.13749 -0.33785 0.12148
-0.14080 0.01977 0.11390
-0.15011 -0.07012 0.02001
-0.14808 0.37230 0.06512
-0.15533 0.30006 0.03616
-0.13969 -0.08209 0.14106
-0.02343 -0.09385 0.11609
-0.14844 -0.04073 -0.04271
-0.16611 0.11353 -0.13728
-0.16127 0.44582 -0.03272
0.14359 -0.37357 0.11311
0.08582 -0.09385 0.01208
0.05642 -0.09385 -0.08472
-0.16611 0.19330 0.05734
-0.16611 0.16080 -0.04379
-0.16611 -0.04344 0.12687
-0.01867 -0.09385 0.11902
-0.16247 0.23909 -0.14238
-0.14205 -0.16938 -0.11299
0.16611 -0.10399 -0.04501
0.02645 -0.11739 -0.03578
-0.08657 -0.11595 -0.14238
-0.16483 0.38618 -0.08344
-0.16611 0.42379 -0.04273
-0.16611 0.04132 -0.06742
0.00234 -0.09385 -0.04100
-0.16291 0.40686 -0.10302
-0.01266 -0.11739 0.09784
0.13810 -0.11739 -0.12964
-0.02022 -0.11739 0.07412
-0.15920 0.30006 0.08554
-0.00059 -0.11739 0.10110
-0.16611 -0.08504 -0.13206
-0.16611 0.18487 0.13706
-0.14868 0.14038 -0.14238
-0.14686 -0.28408 0.11516
-0.16611 0.19913 0.12534
-0.14206 -0.04929 0.05229
-0.12694 -0.09385 -0.13217
-0.14584 -0.11739 0.03264
0.14310 -0.28503 0.12425
-0.15363 0.03062 0.01424
0.01356 -0.09385 0.04382
-0.15726 0.31840 0.11390
-0.16611 -0.11079 -0.09850
-0.16611 0.19098 -0.00241
-0.15475 0.40235 0.10786
-0.14360 0.09195 -0.01424
-0.16611 0.29405 -0.04496
-0.14343 0.41175 0.09778
-0.16611 0.22077 0.05216
-0.15322 0.01226 0.11390
-0.15712 0.07407 0.07119
-0.14206 -0.05844 -0.03727
0.10039 -0.09385 -0.05835
-0.14126 -0.18238 -0.12419
0.10515 -0.11739 -0.06674
-0.15413 -0.09385 0.07643
0.00553 -0.09385 0.06271
-0.16611 -0.00709 -0.01198
-0.16611 0.03886 0.04966
-0.16127 0.06183 -0.04271
-0.16359 0.21250 -0.01424
-0.15378 -0.05588 -0.08464
-0.09209 -0.09385 0.04921
-0.16611 0.42016 0.03273
-0.13969 0.00750 -0.13052
0.06835 -0.09385 -0.12399
-0.16473 0.44718 -0.02251
-0.13727 -0.09385 -0.10876
-0.15381 -0.02669 -0.07119
-0.14330 -0.29093 0.11306
-0.14985 0.19696 0.01424
-0.13099 -0.09385 0.03923
-0.13969 0.41710 0.08738
0.14545 -0.21804 0.11389
-0.14154 0.23668 -0.14238
-0.14663 0.32379 -0.10232
-0.16145 0.19073 0.14238
-0.16245 -0.08018 0.11390
-0.14789 0.10833 0.11390
0.14770 -0.10655 -0.14238
-0.14206 0.29132 -0.00221
-0.16611 0.23810 0.13566
-0.11030 -0.11739 0.02271
-0.16579 -0.08044 -0.14238
-0.14206 0.29055 0.05345
-0.15448 0.20966 -0.01424
-0.15275 0.41674 -0.02991
-0.16580 0.08236 -0.11390
-0.15180 0.23779 -0.14238
-0.14286 0.30006 -0.08698
-0.13969 0.43138 -0.05108
-0.14206 0.14440 0.06037
-0.14745 -0.03641 0.07119
-0.14206 0.20519 -0.04626
-0.16611 0.08092 0.00452
-0.13969 0.36201 -0.13199
-0.15685 0.15145 0.01424
-0.16611 -0.10686 0.04496
0.16611 -0.09489 0.12992
-0.14242 -0.05453 -0.07119
-0.09852 -0.11739 -0.07295
-0.16575 0.05361 -0.07119
-0.13622 -0.11739 0.00847
-0.04864 -0.09385 0.07909
-0.16611 0.35157 -0.03643
-0.14804 -0.22221 0.11920
-0.03599 -0.11193 0.14238
-0.15258 0.04370 -0.07119
-0.16611 0.22536 0.13648
-0.13933 -0.09385 -0.08312
-0.16611 0.16799 0.12816
-0.14206 0.36843 0.06339
-0.13728 -0.38255 0.11620
-0.16611 0.12051 0.14091
-0.16611 0.11639 -0.00992
-0.11721 -0.11739 -0.07641
-0.16611 0.25833 -0.00846
-0.16611 0.06818 0.14212
0.07668 -0.09385 -0.07376
0.14315 -0.29993 -0.11305
-0.15527 0.24579 -0.14238
0.00114 -0.11739 -0.08177
-0.13969 0.27109 -0.12980
-0.16500 0.21764 -0.11390
-0.16606 0.03169 0.11390
-0.06085 -0.11739 -0.08211
-0.14206 -0.05470 0.05847
-0.14716 -0.21368 -0.11561
0.09722 -0.11739 -0.13071
-0.13969 0.30460 0.12830
-0.14217 -0.34705 0.11300
-0.14206 -0.02430 0.05092
-0.07742 -0.11739 -0.01568
-0.05686 -0.09385 0.03143
0.14589 -0.11739 -0.10217
-0.16515 0.04806 -0.14238
-0.12747 -0.09385 -0.07855
-0.14206 -0.02709 -0.04809
-0.14206 0.25139 -0.04403
-0.16207 0.40344 0.00712
-0.14206 0.00812 0.04772
-0.16611 0.02886 0.04862
0.00835 -0.11739 -0.11265
-0.14406 0.40311 -0.05410
-0.14394 -0.22874 0.12407
-0.16408 -0.07012 0.01704
-0.16611 0.42051 0.08262
-0.16558 0.11640 -0.07119
-0.14206 0.20439 0.00728
-0.15648 -0.11739 0.03412
-0.14338 0.35443 0.13762
-0.16265 -0.11739 -0.13756
-0.01667 -0.09385 -0.08137
-0.13969 0.18566 -0.12314
-0.13963 -0.38762 -0.11367
-0.13969 0.00130 0.12580
-0.14206 0.20517 0.05697
-0.13866 -0.16918 0.12291
0.11752 -0.09385 -0.05890
-0.14206 0.14398 -0.06536
-0.16611 0.16752 0.12096
-0.08516 -0.11739 -0.07997
-0.14038 0.11971 0.14238
-0.14206 0.22914 0.00139
-0.14445 -0.09385 0.03069
-0.16404 -0.06496 0.11390
-0.04548 -0.09385 -0.04384
0.02559 -0.10371 0.14238
-0.16611 -0.00894 0.00447
-0.14613 -0.11739 0.08588
-0.14481 0.10310 -0.01424
-0.16379 -0.11739 0.07178
-0.14206 0.15193 0.04784
-0.16530 0.17209 -0.01424
0.11994 -0.09385 0.02153
-0.00992 -0.09385 0.07272
0.04730 -0.09385 0.01851
-0.11356 -0.09385 0.07453
-0.15053 0.23011 -0.11390
-0.15441 0.30006 0.09393
-0.15554 0.25097 -0.04271
-0.16565 0.19112 0.07119
-0.14825 0.14502 -0.11390
-0.12308 -0.09385 -0.12415
-0.14206 -0.02759 0.00352
-0.15351 0.44021 0.04954
-0.08048 -0.10705 -0.14238
-0.14304 -0.13024 -0.12425
0.10510 -0.11739 0.13107
-0.14206 0.18729 -0.01185
-0.16130 0.33792 0.03649
-0.05741 -0.09385 0.06828
-0.00612 -0.09963 0.14238
-0.16611 -0.02632 0.04275
-0.16611 -0.10746 0.12873
0.08967 -0.09385 0.02545
-0.13969 -0.01548 -0.12360
-0.03182 -0.11739 0.09998
-0.08671 -0.11739 0.06176
-0.15182 0.04561 -0.04271
-0.15291 0.00272 0.11390
0.00660 -0.09385 -0.07404
-0.10628 -0.09385 0.11482
-0.15616 0.02409 -0.01424
-0.14762 0.30006 -0.09285
-0.14206 0.34141 -0.04060
0.00287 -0.11739 -0.10855
-0.13969 0.10738 0.14067
-0.16611 0.42359 0.04478
-0.14206 0.03199 -0.05187
-0.11172 -0.11739 0.04981
-0.13106 -0.11739 -0.09911
-0.14206 0.39984 -0.04637
-0.13969 0.41758 0.05302
-0.14514 -0.07012 -0.06004
-0.15597 0.32071 0.14238
0.14278 -0.23673 0.11300
-0.14092 0.26109 -0.11390
-0.16522 -0.07538 0.11390
-0.14206 0.06291 0.01289
-0.14206 0.20084 0.05604
-0.16611 0.31597 -0.11891
0.13672 -0.09385 0.11350
0.10611 -0.09385 -0.00926
-0.15386 -0.09385 -0.10176
-0.14206 0.30152 0.09821
0.15720 -0.11739 0.12064
-0.13859 -0.14197 -0.12286
0.00021 -0.09385 -0.13623
0.10851 -0.10112 -0.14238
-0.15378 -0.02697 -0.01424
-0.14206 0.26879 -0.04876
0.08119 -0.09385 -0.05793
-0.14894 0.23108 0.11390
0.14402 -0.35806 0.12408
-0.15042 0.13243 0.14238
0.02497 -0.09385 -0.00993
0.03222 -0.09385 -0.08640
-0.14470 -0.32030 0.11348
0.05339 -0.11739 0.08024
-0.14920 0.28224 0.04271
-0.14272 -0.00004 0.04271
-0.14206 0.17447 -0.06733
0.05019 -0.09385 0.11996
-0.04686 -0.09385 0.06297
-0.15158 -0.09385 -0.00947
0.11418 -0.11739 -0.08128
0.14498 -0.25419 0.11361
-0.15783 0.37715 -0.07804
-0.09726 -0.09385 0.08003
-0.14206 0.13771 0.06121
0.11168 -0.09385 0.02329
-0.14777 0.41026 -0.09937
-0.13969 0.44131 0.03700
0.15939 -0.11739 -0.09722
0.13362 -0.11739 0.10174
0.04726 -0.09385 -0.04688
-0.14373 0.16401 0.04271
-0.15721 0.26080 -0.11390
-0.14206 -0.02195 -0.05433
-0.15166 0.04977 -0.11390
-0.14206 0.12342 -0.06049
-0.16611 0.30491 0.06838
-0.11586 -0.10974 0.14238
0.10926 -0.09385 -0.03524
-0.15156 0.16731 -0.04271
0.07372 -0.11739 -0.11218
0.00679 -0.11739 0.06831
-0.15641 0.08303 0.14238
0.08502 -0.11600 0.14238
-0.16611 0.33510 -0.03115
0.02155 -0.09385 0.01157
-0.14676 -0.11739 -0.01150
-0.01596 -0.09385 -0.04577
-0.15363 0.14231 -0.04271
-0.13969 0.41089 0.09481
-0.16611 0.06815 0.13245
0.13889 -0.33594 0.11420
-0.00552 -0.11739 0.05712
-0.14239 -0.25168 -0.11295
-0.10563 -0.11739 -0.01022
-0.16432 0.30006 -0.07468
-0.16611 0.20583 0.12579
-0.14856 -0.11739 0.10129
0.13631 -0.09385 -0.11259
-0.14431 -0.07012 0.00603
-0.15686 0.32873 0.14238
-0.01573 -0.11739 0.07235
-0.08505 -0.09385 0.04217
-0.16611 0.32728 -0.01105
-0.14482 -0.41257 -0.12374
0.04108 -0.11739 0.00141
-0.14240 0.27574 -0.01424
0.11893 -0.09385 0.04835
-0.16184 0.37213 0.09198
-0.14206 -0.05994 -0.10500
-0.15480 0.11677 0.14238
0.10471 -0.11739 0.13646
0.05536 -0.09385 0.03835
-0.14206 -0.04623 0.00468
0.14217 -0.11739 0.05982
0.04489 -0.11739 0.00739
0.10138 -0.09385 -0.08284
-0.16611 0.04158 -0.05321
-0.16611 -0.03535 -0.05127
-0.13969 0.34463 -0.11897
-0.15296 0.40086 0.05263
-0.15321 0.08901 -0.11390
0.12762 -0.11739 0.12960
-0.16013 0.27166 -0.01424
-0.14206 0.11361 0.05832
-0.15278 0.32379 0.09217
-0.13969 -0.08012 -0.13150
-0.13969 0.25520 0.11934
-0.14206 0.16538 0.04883
0.14802 -0.37256 0.11828
-0.15663 0.08575 0.11390
-0.14206 0.29687 -0.04717
-0.15004 -0.05588 0.10957
-0.14269 0.11770 -0.11390
0.16611 -0.09783 0.08596
-0.16311 0.03205 -0.14238
-0.16611 -0.06596 -0.04517
-0.11758 -0.09385 0.01137
-0.13969 -0.06278 -0.11650
-0.16611 0.28624 -0.04604
-0.13969 0.13382 -0.11622
-0.16611 -0.06966 0.13761
0.02586 -0.11739 -0.13958
-0.16603 -0.02543 0.11390
-0.16056 0.04237 -0.04271
-0.10186 -0.09385 -0.01295
-0.15688 0.36718 -0.13235
-0.09745 -0.09624 0.14238
-0.15193 0.28290 0.14238
0.08348 -0.09385 -0.00277
0.09567 -0.11739 0.07705
0.06563 -0.09385 0.06446
0.12530 -0.09712 0.14238
-0.16611 0.34130 0.13530
0.15693 -0.09385 0.04356
0.16570 -0.09385 0.09797
-0.10321 -0.11739 0.11068
0.08429 -0.11739 0.00002
-0.15369 0.32379 -0.10039
-0.13969 -0.07962 0.13162
-0.16611 0.02731 0.00609
0.01935 -0.09385 0.07294
-0.15141 0.41993 -0.00956
-0.14694 -0.11739 -0.12418
-0.16611 0.16661 0.01421
0.09358 -0.09385 0.08769
-0.16611 0.35663 0.00618
-0.15206 0.29405 -0.07119
0.01122 -0.09385 -0.07744
-0.13969 0.03284 -0.12011
-0.16611 0.17719 0.12293
-0.14206 0.06013 -0.04317
-0.16611 0.36672 0.05926
-0.16611 -0.01248 -0.05137
-0.12308 -0.09385 -0.11502
-0.14051 -0.13013 0.12400
0.11209 -0.11739 -0.04696
-0.15601 0.24184 0.14238
-0.14922 0.10784 0.14238
-0.14813 -0.09385 -0.01391
-0.15563 0.27568 -0.04271
-0.13969 0.25532 -0.11895
0.02015 -0.11739 0.08574
-0.16224 0.31688 0.14238
-0.10842 -0.09385 -0.06330
-0.16561 0.04453 -0.11390
-0.14238 0.06012 -0.07119
-0.04462 -0.09385 0.08154
-0.15483 0.34330 -0.14222
0.07903 -0.11739 -0.01636
-0.15438 0.22974 -0.04271
-0.14505 -0.08723 -0.11390
-0.13969 0.39323 -0.08650
-0.16611 0.33252 0.01397
-0.15595 -0.00825 -0.11390
-0.13969 0.14991 0.11456
-0.16611 -0.07131 0.13222
0.16611 -0.11634 -0.06270
-0.05800 -0.09385 -0.03769
-0.14402 -0.40744 0.12405
-0.06506 -0.11739 -0.03689
-0.14507 0.06694 0.11390
-0.16529 0.32793 0.11390
-0.16102 0.13573 0.04271
-0.00490 -0.09385 0.07928
-0.14206 0.17272 0.04452
0.09168 -0.11739 0.05871
-0.14206 0.35362 0.05932
0.06361 -0.11739 -0.05293
-0.15147 0.27830 0.14238
-0.13969 0.13698 -0.14200
0.05636 -0.11739 0.06338
0.04345 -0.11739 0.14124
-0.16306 0.37383 -0.12916
-0.14991 0.28950 -0.04271
-0.14593 0.20394 0.14238
-0.14408 0.39901 0.03509
-0.14386 -0.37967 -0.11315
0.09652 -0.09385 -0.05022
-0.15802 -0.02924 -0.11390
0.08706 -0.09385 0.04658
-0.16347 0.32379 -0.06768
-0.11600 -0.11739 0.09282
0.08297 -0.11739 -0.03018
-0.15387 -0.07012 0.03302
-0.15507 0.24098 0.07119
-0.13095 -0.11739 0.06599
0.15846 -0.09385 -0.08315
-0.16611 -0.00264 -0.01322
-0.14314 -0.05588 -0.02253
-0.14877 0.18999 0.14238
0.10232 -0.11739 -0.04932
0.10887 -0.09385 0.05812
-0.13969 0.27188 -0.12394
-0.16489 0.37516 0.06977
-0.16611 0.09492 -0.06030
-0.16611 -0.05808 0.10556
-0.14247 -0.02380 0.11390
-0.15242 -0.05588 0.07366
-0.16611 -0.00189 0.06167
-0.16372 0.32379 0.06828
-0.16606 0.32652 -0.14238
-0.15813 0.35358 0.03475
-0.15126 0.20455 0.01424
-0.14758 -0.40691 -0.11645
-0.14206 0.27942 -0.06312
-0.15904 0.27187 -0.04271
-0.14783 -0.07603 -0.11390
-0.16611 0.32232 0.14026
0.15956 -0.11739 0.06932
-0.15055 0.18119 -0.11390
0.01287 -0.11739 -0.06038
-0.01883 -0.11042 0.14238
-0.14257 -0.24129 -0.11298
-0.15392 0.08359 -0.01424
-0.16407 0.04215 0.14238
-0.16611 0.35258 0.11719
-0.14543 -0.11150 -0.14238
-0.11244 -0.09385 -0.04377
-0.13969 -0.07327 0.13698
-0.16611 0.30359 -0.13933
0.00574 -0.11739 0.01859
0.05202 -0.09385 -0.04283
0.14199 -0.39950 0.11300
-0.02914 -0.09385 -0.06367
-0.11634 -0.11739 0.09836
-0.11388 -0.11739 0.03526
-0.03362 -0.09385 -0.00352
-0.15020 0.09539 0.14238
-0.15797 0.36677 -0.06010
-0.16210 0.20307 -0.11390
-0.14469 0.25305 -0.07119
0.14638 -0.39122 -0.12269
-0.16611 0.19086 -0.11688
-0.16611 0.34400 -0.03805
-0.16409 0.04033 0.01424
-0.11499 -0.11739 -0.04167
-0.09399 -0.11739 0.05948
-0.15096 0.36957 -0.09338
0.00650 -0.11739 0.07999
-0.16611 0.18225 0.12802
-0.13969 0.02826 0.13245
-0.15764 -0.09385 -0.07390
-0.14062 0.18422 -0.11390
-0.16611 -0.03606 0.11716
-0.14206 -0.06665 0.10320
-0.16230 -0.10331 -0.14238
-0.14206 0.00137 -0.04516
-0.16492 -0.09385 -0.08970
0.14734 -0.09385 -0.07068
-0.16476 0.39065 0.04675
-0.15093 0.08478 -0.11390
-0.16305 -0.01636 -0.14238
0.09249 -0.11739 -0.02702
0.14904 -0.09385 0.05898
-0.16514 0.44820 -0.01301
-0.16611 0.30866 -0.11662
-0.16611 0.02969 -0.05599
-0.16389 -0.07012 -0.03207
0.06163 -0.09385 -0.01005
0.01176 -0.09385 -0.11224
-0.16611 0.23120 -0.01087
-0.13969 0.19394 -0.13675
-0.16611 0.22244 0.00055
-0.16611 0.20953 0.04557
-0.14355 0.07848 0.11390
0.04491 -0.11739 -0.06603
-0.14206 0.08669 -0.00712
-0.16266 -0.05588 0.02615
-0.14310 0.01143 -0.07119
-0.04834 -0.11739 -0.12013
-0.13969 0.11117 0.11948
-0.14789 0.05074 -0.01424
-0.13969 -0.07217 0.12666
0.07831 -0.10289 0.14238
0.15599 -0.11739 -0.10854
-0.16611 0.00950 0.12543
0.01064 -0.09385 0.08601
-0.16611 0.25183 0.00247
-0.14976 0.16049 -0.04271
-0.16186 0.00494 0.01424
-0.14695 0.26658 -0.14238
0.14794 -0.15655 -0.11762
-0.03875 -0.10130 0.14238
0.05505 -0.09385 -0.06828
-0.14989 0.08194 -0.14238
-0.06993 -0.11739 0.11517
-0.09838 -0.09385 0.12314
-0.14843 0.14120 0.11390
-0.09989 -0.11739 0.13374
-0.15268 0.40683 -0.00712
-0.16611 0.32173 -0.11277
-0.14206 0.35419 -0.05869
-0.16611 -0.04064 -0.13794
0.14757 -0.35738 0.12086
0.10299 -0.11739 -0.12372
-0.13969 0.25101 0.13037
-0.15724 0.40069 0.06566
-0.06576 -0.11739 0.00237
-0.16611 0.35158 -0.13267
0.16611 -0.10513 0.13255
-0.16611 0.41227 0.05027
-0.06246 -0.11739 -0.03041
0.02252 -0.11739 -0.12749
0.06366 -0.11739 0.12754
0.08716 -0.09385 0.11316
-0.14701 -0.43052 0.11540
-0.10591 -0.11739 -0.09393
-0.16611 0.39010 -0.04179
-0.12748 -0.09385 -0.00388
-0.16611 0.03563 0.06358
-0.16611 -0.05874 0.05899
-0.14206 0.03931 -0.06873
-0.04271 -0.11739 -0.09575
-0.14378 -0.02148 -0.04271
-0.16611 0.32293 0.12681
-0.16611 0.20431 0.13193
-0.14231 0.23357 0.14238
-0.14206 0.09847 0.06057
-0.14206 0.21841 0.04648
-0.13969 0.15707 0.13083
0.13304 -0.09385 0.02955
0.05956 -0.11739 -0.07558
-0.13969 0.33926 0.12456
-0.14372 -0.27068 -0.12416
-0.16611 -0.08843 0.12317
-0.05510 -0.09385 -0.14023
-0.06977 -0.09385 -0.04246
-0.16611 0.28193 0.05262
-0.14414 0.17613 -0.11390
-0.14206 0.39649 -0.03564
-0.16611 -0.04943 0.13147
0.15540 -0.09385 -0.09891
0.04743 -0.09385 -0.12390
0.09678 -0.09385 0.11214
-0.15215 0.33721 0.11390
-0.16611 0.37764 -0.09298
-0.14245 -0.17555 0.12429
0.12866 -0.09385 0.13981
-0.06409 -0.11739 -0.06751
-0.16611 0.01424 0.05450
-0.15747 0.06921 -0.14238
-0.16611 0.43750 -0.05588
-0.16611 -0.06173 -0.02161
-0.14206 0.01793 0.05105
-0.14206 0.18989 -0.05945
-0.16611 0.30013 0.02690
-0.16611 0.30665 -0.09034
-0.16302 0.34213 -0.11190
-0.13969 0.42928 -0.04673
0.08686 -0.11739 -0.04239
0.02074 -0.11739 0.07776
-0.14206 0.21017 0.00513
-0.16611 0.11783 -0.11889
-0.14206 0.40629 -0.04282
0.13349 -0.11739 0.11061
-0.14206 0.18234 0.05511
0.05611 -0.11739 0.12802
-0.16438 0.03532 0.14238
-0.15517 0.34977 -0.03071
-0.16504 -0.05588 0.03779
-0.15699 -0.01024 0.07119
-0.16323 0.24941 -0.11390
0.03772 -0.09385 -0.08714
-0.04704 -0.09385 -0.12304
-0.16299 0.01916 -0.11390
-0.16611 0.13395 -0.00891
0.14566 -0.37450 -0.12325
0.02209 -0.09385 0.09448
-0.16611 -0.05977 0.00317
-0.14206 0.07677 -0.07033
-0.15445 0.35163 0.03160
-0.14684 -0.34059 -0.12210
-0.15553 0.41860 -0.02193
-0.16611 -0.11586 -0.04556
-0.09320 -0.09385 0.09566
-0.16611 -0.11286 0.10294
0.13879 -0.19729 0.11428
-0.13107 -0.11739 0.01736
0.16611 -0.10093 -0.12670
0.15974 -0.09385 -0.06374
0.02699 -0.11739 -0.05244
-0.14508 0.07281 -0.11390
-0.10758 -0.09385 0.07518
-0.14206 0.37367 0.08637
0.06859 -0.11739 -0.14047
-0.14188 0.38122 -0.08876
-0.14271 -0.09385 -0.02758
-0.05490 -0.09385 0.09238
-0.14206 0.40346 0.00112
-0.14226 -0.02873 -0.07119
0.14070 -0.09385 0.08591
-0.13855 -0.21952 -0.12283
-0.02670 -0.11739 0.06880
-0.14206 0.09914 0.00061
-0.15534 0.44373 0.03898
-0.14206 -0.02636 0.04445
-0.15667 0.05770 0.04271
-0.14206 0.38072 0.02845
-0.15762 0.02536 0.11390
-0.16611 0.10338 -0.12932
-0.14206 0.07259 0.00481
-0.14206 -0.04155 0.05586
-0.14206 0.34322 -0.00623
-0.07440 -0.11739 -0.09458
-0.14206 -0.06283 -0.02305
-0.00390 -0.10510 -0.14238
-0.04965 -0.11739 0.01526
-0.14772 -0.16762 -0.11679
-0.14977 0.36472 -0.05656
0.10341 -0.09385 0.04248
-0.14206 0.33427 0.03275
-0.07954 -0.09385 0.10767
-0.16068 -0.07012 -0.07077
-0.16419 0.26340 0.11390
-0.16611 0.12051 -0.06779
0.03524 -0.11739 -0.04994
-0.12432 -0.11739 0.06736
-0.16611 0.38512 -0.11036
0.14316 -0.21109 0.12424
0.16555 -0.10819 -0.14238
-0.15145 -0.01756 0.07119
0.05141 -0.11739 -0.10519
-0.10498 -0.11739 -0.05833
-0.14206 0.15287 0.06224
-0.08084 -0.09385 0.07875
-0.16611 0.24258 -0.06055
-0.14779 0.32518 -0.14238
-0.03392 -0.09385 0.07073
-0.14360 0.05990 -0.14238
-0.16287 -0.07695 0.14238
0.14505 -0.11739 -0.07531
0.06000 -0.11739 0.05058
-0.13761 -0.30252 0.12168
-0.16611 0.26382 0.12593
-0.08218 -0.11739 0.13862
-0.14353 0.06519 0.04271
-0.16611 0.07889 -0.06744
-0.16611 0.11493 0.13748
-0.00647 -0.11739 -0.11122
-0.04573 -0.09385 0.05791
-0.13643 -0.11739 -0.11975
-0.14031 -0.21055 0.11337
0.02390 -0.11739 0.14199
-0.16314 -0.05588 -0.02766
-0.16611 0.43277 -0.00442
0.02004 -0.09385 0.06264
-0.06551 -0.09385 -0.13609
-0.16611 -0.05650 -0.04512
0.14644 -0.12671 -0.11467
-0.13677 -0.15152 -0.11794
0.12691 -0.11739 0.04914
-0.13969 0.03745 -0.11592
0.13773 -0.30382 -0.11543
-0.15851 -0.05588 -0.11170
-0.06262 -0.09385 0.07427
-0.16611 -0.11319 -0.02442
0.14636 -0.31148 0.12270
-0.04900 -0.09385 -0.05562
-0.14583 -0.25427 -0.12311
-0.14206 0.27067 -0.00249
-0.14925 0.44324 0.04044
-0.06964 -0.09385 0.09176
-0.11663 -0.11739 -0.10387
-0.10211 -0.11739 -0.07723
-0.16372 0.38923 0.11848
-0.16570 0.38422 0.04305
-0.13680 -0.15810 0.11969
-0.07464 -0.11739 0.06998
0.16611 -0.11019 0.13596
-0.16263 0.35731 -0.02761
-0.16611 -0.05394 0.06555
-0.14717 0.37591 0.00712
-0.16164 0.00170 -0.14238
0.14668 -0.12736 0.11499
0.16547 -0.09385 0.02800
-0.16611 0.30208 -0.13454
-0.14474 -0.09385 -0.05222
0.16611 -0.10628 -0.11516
-0.00570 -0.11739 0.11267
-0.15455 0.41260 0.04232
-0.16611 0.10852 -0.04646
0.08868 -0.11739 -0.11095
0.15591 -0.11739 0.11312
-0.05738 -0.11739 -0.07542
-0.14997 -0.03508 0.01424
-0.14250 -0.44220 0.12429
-0.03673 -0.09385 -0.02783
0.03276 -0.11739 0.11005
-0.14206 0.20090 -0.06675
0.02446 -0.09385 -0.04564
