-0.18239 0.41710 0.07725
-0.16541 0.12690 0.03635
-0.06132 -0.01909 0.06518
0.19971 -0.07530 -0.13815
0.19971 -0.06173 -0.17569
0.14028 -0.03557 -0.16931
-0.15972 -0.01335 0.10797
-0.17579 0.31724 -0.06761
-0.18705 0.26471 -0.11550
0.15827 -0.20447 0.17311
-0.16414 0.09829 0.14081
0.18239 -0.23322 0.17311
-0.07854 -0.01909 0.10657
0.17540 -0.32558 0.17311
0.18435 -0.21760 -0.17311
0.18092 -0.19970 0.17311
-0.15771 -0.07511 0.11580
0.19263 -0.31661 -0.15999
0.02011 -0.01909 0.09761
-0.19931 0.41449 -0.08354
-0.16454 0.10737 -0.09963
-0.16407 -0.35750 -0.05263
-0.17877 0.03952 -0.07569
-0.17904 0.04671 0.14185
-0.17395 -0.10575 -0.06193
-0.07450 -0.01909 0.09343
-0.17266 -0.15690 -0.10714
-0.19019 0.27339 0.11052
-0.17638 0.05174 0.14329
-0.16717 -0.35759 0.06028
-0.16051 0.00896 0.11805
-0.16985 0.21569 -0.08874
-0.16978 0.21439 0.11770
0.17823 -0.37825 0.15615
-0.15268 -0.35360 0.10119
0.16563 -0.34879 0.16198
0.19263 -0.19726 -0.15841
0.19919 -0.01909 0.16529
-0.17611 -0.03402 -0.07290
-0.17020 -0.30432 0.09048
0.18802 -0.21126 0.17311
0.19263 -0.18851 -0.15494
-0.17001 0.02561 0.14329
-0.17449 -0.08584 0.11529
-0.17348 0.28007 0.13010
-0.09526 -0.01909 0.14620
0.17146 -0.22544 0.17311
-0.17997 0.07043 -0.07312
-0.19722 0.38378 0.10786
0.19971 -0.05244 -0.17344
-0.17452 -0.08461 -0.09189
0.19971 -0.03740 0.17439
0.18822 -0.27138 0.17311
-0.15253 -0.39353 -0.07140
-0.15592 -0.14154 0.13847
-0.17700 0.33682 -0.06825
-0.17299 0.27138 -0.07572
-0.01696 -0.01909 0.09271
-0.03228 -0.01909 0.06990
-0.15415 -0.22955 -0.08410
0.03647 -0.01909 -0.10960
-0.10090 -0.01909 -0.12318
-0.17411 -0.09963 -0.06947
0.06910 -0.05862 -0.15619
-0.17916 0.04981 -0.09192
-0.16287 0.03128 -0.05263
0.18891 -0.06519 -0.17827
-0.18680 0.42117 0.07498
-0.17958 0.06057 -0.09945
-0.15398 -0.24082 -0.10301
-0.16971 0.21329 -0.09982
0.10195 -0.03114 -0.16224
0.01182 -0.01909 -0.01172
-0.15311 -0.31783 -0.11550
-0.15981 -0.01046 0.08394
-0.17463 -0.08078 -0.07946
-0.18221 0.41443 0.06783
0.12325 -0.01909 -0.13741
-0.02113 -0.01909 0.14545
-0.14135 -0.02723 -0.11740
-0.18086 0.09028 -0.07535
-0.16994 -0.33128 0.11712
0.18253 -0.40203 0.17311
-0.17194 -0.19056 0.11623
-0.16222 -0.14728 -0.05263
-0.15518 -0.17643 -0.10862
-0.16930 0.20541 -0.09093
-0.18515 0.31071 0.07307
0.19865 -0.02242 -0.18006
-0.17119 -0.23158 0.08845
0.19263 -0.31019 -0.17176
0.19971 -0.08017 0.17214
-0.16973 -0.35613 0.10885
-0.15641 -0.12324 -0.09054
-0.19939 0.41556 0.08536
-0.15368 -0.26055 0.11685
0.04135 -0.01909 0.05383
-0.15172 -0.06120 0.13512
-0.18321 0.14271 0.02195
-0.15672 -0.11170 -0.03161
-0.02847 -0.01909 0.04994
0.15597 -0.01909 -0.03309
-0.18072 0.39254 0.02152
0.12035 -0.01909 0.08744
-0.15293 -0.32565 -0.06595
-0.17436 -0.09040 0.08299
-0.17940 0.37320 -0.07328
0.15434 -0.01909 0.01640
-0.18490 0.17606 0.09279
-0.16971 -0.36182 -0.03484
0.01757 -0.04197 0.16110
-0.17520 -0.06143 0.10860
0.19217 -0.01909 -0.09618
-0.17541 -0.05508 -0.09634
0.17056 -0.25891 -0.16869
-0.17962 0.37641 0.11038
-0.15419 -0.22715 -0.09507
-0.16741 -0.08146 0.07307
-0.18259 0.42001 -0.02238
-0.18601 0.19800 -0.07711
-0.15335 -0.28195 0.10194
-0.18007 0.38302 0.04152
0.17131 -0.27587 -0.14106
-0.17421 -0.09608 0.08294
0.10503 -0.01909 -0.04058
0.16604 -0.15681 -0.16395
-0.15292 -0.32687 0.10276
0.04874 -0.01909 0.09663
-0.15569 -0.15208 -0.05616
-0.16957 -0.40048 0.05179
0.19971 -0.08110 -0.11332
0.07156 -0.07270 0.16678
-0.15264 -0.36383 0.13991
-0.17009 0.22003 -0.11010
-0.15410 -0.23307 -0.07996
-0.17819 0.26671 -0.05263
0.19971 -0.06261 0.07649
0.18111 -0.17958 -0.13456
0.14774 -0.01909 -0.06603
-0.18014 0.38406 -0.03513
-0.18158 0.40527 -0.02044
0.13913 -0.01909 -0.05123
-0.15166 -0.03935 0.01495
-0.15611 -0.13414 -0.06432
-0.16960 -0.39206 -0.04260
-0.18014 0.38410 0.13074
-0.15246 -0.41145 0.08800
-0.17305 0.27257 -0.11119
-0.19366 0.32974 0.11494
-0.16511 0.12011 -0.09085
0.09087 -0.01909 0.09570
-0.19664 0.37523 0.09182
-0.15912 -0.03135 0.10327
-0.17236 0.26020 -0.07111
-0.19059 0.28037 -0.08517
-0.15246 -0.41133 0.00075
-0.01995 -0.01909 0.14033
-0.10729 -0.01909 -0.00716
-0.15456 -0.33806 -0.05263
-0.17149 -0.21171 -0.11172
-0.15432 -0.21857 -0.11325
-0.16142 -0.35759 0.07132
-0.18158 0.40523 -0.09091
0.19971 -0.02550 0.12942
-0.08822 -0.01909 -0.10437
-0.05587 -0.04408 -0.13315
-0.17511 -0.06415 0.13005
-0.17305 -0.13884 -0.07449
-0.15441 -0.21302 0.13964
-0.16950 -0.41755 0.03075
-0.17095 -0.16589 -0.11550
0.15070 -0.12249 0.16633
0.17283 -0.31035 -0.15012
-0.16237 -0.14317 -0.04388
0.19263 -0.33594 0.15512
0.14903 -0.01909 -0.09225
0.19263 -0.31464 0.17244
-0.18896 0.25153 0.10092
0.13254 -0.01909 -0.04930
-0.18774 0.23003 0.12426
-0.15939 -0.23286 -0.11550
0.19263 -0.37940 0.15839
-0.17623 -0.03033 0.08354
0.16345 -0.09814 -0.14407
-0.16952 -0.41264 -0.01678
-0.15257 -0.38282 -0.10230
0.15788 -0.01909 0.12586
-0.17178 -0.19793 -0.08769
0.16079 -0.27536 0.16579
-0.17493 0.20037 -0.11550
-0.05113 -0.01909 -0.12105
-0.19563 0.36041 0.12917
-0.16526 -0.09236 -0.00268
-0.18622 0.29818 -0.11550
-0.18352 0.14876 -0.06680
0.16829 -0.30469 0.15286
0.13813 -0.01909 0.07498
-0.18533 0.33464 0.07307
-0.19325 0.32314 0.09301
-0.15824 -0.09236 0.01424
0.19971 -0.07254 0.06298
-0.18422 0.23458 -0.11550
-0.15814 -0.21663 0.07307
-0.19414 0.33741 0.09782
-0.15319 -0.29926 -0.07175
-0.09156 -0.01909 -0.00643
-0.19101 0.28712 0.09857
-0.19728 0.38472 -0.01394
-0.03183 -0.01909 0.12060
-0.15590 -0.14231 -0.01839
-0.19157 0.42085 -0.02214
-0.18860 0.24522 -0.08343
0.19263 -0.26651 0.15450
0.15609 -0.08403 -0.17222
0.12809 -0.01909 -0.15158
-0.16959 0.10835 0.14329
-0.15269 -0.35081 0.13517
-0.02629 -0.01909 0.15527
-0.06172 -0.01909 0.11587
-0.18138 0.40224 0.01825
-0.16015 -0.00022 0.11758
-0.18272 0.13196 -0.09960
-0.08860 -0.01909 -0.08699
-0.17625 0.16733 0.14329
-0.17966 0.32920 0.14329
0.19971 -0.02635 0.14183
-0.18264 0.13011 0.03670
-0.11031 -0.07067 -0.12312
0.18494 -0.01909 -0.09655
-0.17705 -0.00541 0.10014
-0.17004 -0.32147 -0.05560
0.17242 -0.30107 -0.14939
-0.18168 0.32114 -0.05263
-0.15526 -0.17219 0.13452
0.17597 -0.34130 -0.14534
-0.18401 0.15835 0.08862
-0.18631 0.20398 -0.08486
-0.18343 0.14702 0.13603
-0.16901 0.11926 0.07307
-0.15974 -0.28869 -0.05263
-0.15421 -0.32561 -0.11550
-0.15168 -0.04701 -0.00608
-0.15269 -0.35222 -0.05289
-0.17414 0.19033 0.14329
0.15825 -0.01909 -0.05991
-0.18314 0.14130 0.11540
0.17282 -0.01909 0.13820
0.18937 -0.38588 -0.17311
0.10581 -0.04894 -0.16295
-0.10971 -0.01909 -0.05981
0.04787 -0.01909 -0.00203
-0.15848 -0.05079 0.13448
-0.17559 -0.04984 -0.08413
0.16991 -0.24424 -0.15648
-0.16526 0.12355 -0.06960
-0.15867 -0.04526 0.11184
-0.17824 0.02595 0.11100
-0.15262 -0.36983 -0.04084
-0.12939 -0.02380 -0.11960
-0.16138 -0.29798 0.07307
-0.16071 0.01425 -0.06577
-0.04426 -0.04037 0.15459
0.19971 -0.05893 -0.14816
0.16379 -0.08494 -0.14479
-0.18253 0.12773 -0.05021
0.19971 -0.08011 -0.01681
-0.17369 -0.11511 0.12504
-0.16011 -0.33283 -0.11550
0.19971 -0.04498 -0.07722
-0.17855 0.03389 0.09929
-0.16228 0.05464 0.07953
0.05915 -0.01909 -0.02133
-0.17378 -0.11199 -0.06853
-0.17029 -0.29524 0.07878
-0.17838 0.09966 0.07307
-0.09877 -0.01909 -0.07767
0.17735 -0.06418 -0.17614
-0.15833 -0.20800 0.07307
-0.15534 -0.16851 -0.07554
0.19297 -0.01909 0.12355
0.17456 -0.34938 -0.14891
0.12033 -0.05531 0.17191
-0.18566 0.19107 0.14008
-0.17524 0.30849 -0.05868
0.16499 -0.12585 0.14487
0.16380 -0.08494 -0.16979
-0.17151 -0.21058 0.13022
-0.15713 -0.09654 0.05578
-0.16016 -0.18423 0.07307
0.19263 -0.14962 -0.13697
-0.16307 0.07452 -0.06599
-0.17462 -0.08117 0.10060
-0.16320 0.07742 -0.11452
-0.15347 -0.37959 -0.11550
0.08543 -0.01909 0.14460
-0.19150 0.42085 0.07310
-0.19207 0.30417 -0.07486
-0.15317 -0.30145 0.10107
-0.15294 -0.32551 -0.07535
0.17160 -0.28246 -0.17295
-0.17327 -0.13070 0.06500
0.08903 -0.01909 0.01844
0.19971 -0.04019 0.12634
-0.19943 0.41624 0.09595
-0.16260 0.06302 0.07862
0.18488 -0.17911 0.14725
-0.17696 0.33616 0.09952
-0.17235 -0.17123 0.09169
-0.17330 -0.12967 -0.00536
-0.15611 -0.34828 0.07307
-0.17822 0.29825 -0.05263
-0.17714 -0.00267 -0.08797
-0.15165 -0.02035 -0.09050
-0.17364 -0.11701 0.05366
0.16791 -0.19909 -0.14296
-0.15172 -0.05934 -0.03129
-0.01091 -0.01909 -0.01928
0.18772 -0.05635 0.17900
-0.18681 0.31290 -0.11550
-0.15264 -0.36571 0.04057
0.07971 -0.06414 -0.15814
-0.17628 -0.02868 -0.10728
0.10005 -0.01909 -0.03410
0.19234 -0.01909 0.16250
-0.15634 -0.12576 0.08321
-0.17279 0.26787 0.09040
-0.06465 -0.01909 -0.07747
-0.15782 -0.19127 -0.05263
-0.15165 -0.02115 0.11218
0.06082 -0.01909 -0.11265
-0.01007 -0.01909 0.12698
-0.17642 -0.01141 -0.05263
-0.15727 -0.42145 0.12455
-0.16951 -0.41590 -0.09341
0.16826 -0.20697 -0.17211
-0.18011 0.38364 0.01760
-0.16094 -0.14841 0.07307
0.19263 -0.22445 -0.13981
0.17017 -0.01909 0.06149
0.19971 -0.06559 -0.02859
-0.17263 0.26504 -0.05912
-0.18208 0.41254 0.00351
-0.19456 0.34414 0.09981
-0.16169 0.03941 0.10839
-0.17304 -0.13938 0.10974
0.03592 -0.01909 -0.09003
0.19971 -0.04265 -0.14004
0.19971 -0.02016 -0.05119
0.03707 -0.01909 -0.01239
-0.05243 -0.01909 0.05651
-0.16242 -0.09231 0.14329
0.19263 -0.23153 0.16059
-0.17984 0.15888 -0.11550
0.16065 -0.01909 -0.13539
0.14918 -0.09934 0.15083
-0.16970 -0.36394 0.03264
-0.14554 -0.01909 0.04020
-0.15926 -0.02731 -0.07130
-0.17147 -0.21293 -0.06677
-0.18094 0.09208 0.10351
-0.03470 -0.01909 0.00806
0.17826 -0.01909 0.09603
-0.16035 0.00510 -0.07930
-0.15899 -0.03545 0.12388
0.19971 -0.05458 0.14747
0.07588 -0.01909 -0.03148
0.00775 -0.03945 -0.14488
-0.19082 0.28413 0.07739
-0.15783 -0.07092 0.09685
-0.07293 -0.01909 -0.03635
-0.18117 0.39926 0.03386
0.18245 -0.17939 -0.17311
-0.17733 0.12207 0.03474
-0.17187 -0.19368 -0.06175
0.17383 -0.01909 -0.11075
-0.15165 -0.02172 -0.00738
0.16822 -0.01909 -0.00078
0.19263 -0.13725 0.16493
-0.16825 0.16700 -0.04273
0.16707 -0.01909 -0.03211
-0.17408 -0.10097 0.03587
0.11043 -0.01909 0.06994
-0.18250 0.12698 -0.05655
-0.17055 -0.27279 0.09606
-0.19417 0.33794 0.09267
-0.16417 -0.34984 -0.11550
-0.18035 0.38715 -0.06774
-0.15404 -0.23669 0.12822
0.19263 -0.16368 -0.16203
-0.17709 -0.00417 0.10498
-0.16801 0.17986 0.12236
0.19971 -0.03483 -0.09959
-0.16251 -0.37634 0.14329
0.17874 -0.01909 -0.05815
-0.17259 -0.10250 -0.11550
-0.17679 0.33338 -0.09867
0.05366 -0.01909 -0.12128
-0.18404 0.38142 -0.01214
-0.19877 0.40646 0.03267
-0.18150 0.40402 0.11993
0.19971 -0.03548 0.04990
-0.06562 -0.01909 -0.08679
-0.15335 -0.28200 -0.05792
-0.04386 -0.01909 -0.02054
-0.16469 0.09040 -0.05263
-0.15978 -0.01161 0.08993
-0.16971 -0.36191 0.02496
0.12225 -0.01909 -0.09666
0.17341 -0.29118 -0.14200
0.04101 -0.04589 -0.15101
0.18280 -0.01909 0.11218
-0.19835 0.40038 -0.10029
0.18084 -0.01909 -0.15784
0.19263 -0.27360 -0.15072
-0.15607 -0.13556 -0.05423
-0.16967 -0.37330 -0.05850
-0.16757 0.17121 -0.10933
-0.07500 -0.01909 -0.12615
-0.17074 0.23156 0.11000
0.17666 -0.01909 -0.06306
-0.19020 0.27351 -0.07730
-0.17214 0.24933 0.14329
-0.19906 0.41076 -0.03057
-0.19099 0.28687 -0.05762
-0.16969 -0.36757 -0.09693
-0.17616 -0.03260 0.10484
0.19971 -0.07727 -0.02411
-0.16969 -0.36861 -0.04051
-0.15946 -0.07902 -0.11550
-0.16181 0.04250 -0.09102
-0.17091 -0.24939 -0.08939
-0.04995 -0.02435 -0.13424
0.18713 -0.24544 0.17311
0.17987 -0.01909 0.11668
-0.18518 0.18158 -0.10292
-0.16971 -0.36147 -0.09776
-0.15165 -0.03127 0.10192
-0.10675 -0.01909 -0.09434
0.17102 -0.26934 -0.15540
-0.18221 0.20734 -0.05263
-0.15479 -0.19469 -0.07938
-0.16632 0.14644 0.03056
-0.15943 -0.02217 -0.11533
0.18844 -0.36882 -0.17311
-0.04317 -0.01909 0.04047
-0.16111 -0.27796 -0.05263
-0.18692 0.21538 -0.07754
-0.16937 0.20683 -0.07687
0.19263 -0.19669 0.16417
-0.15262 -0.37052 -0.08078
-0.16731 -0.31836 0.14329
0.17136 -0.01909 -0.10240
0.19099 -0.07905 -0.17865
-0.16686 0.15721 0.06569
0.19188 -0.01909 0.08824
-0.18379 0.15416 0.13653
0.19971 -0.04262 -0.00420
-0.19834 0.42039 -0.03917
0.19971 -0.04702 -0.05403
0.19263 -0.10058 -0.14522
-0.17023 -0.30159 -0.05331
-0.18488 0.42130 0.03252
0.15909 -0.09805 0.14363
-0.01626 -0.06050 0.15754
0.19263 -0.14859 0.16027
0.18919 -0.27409 -0.17311
0.16252 -0.19512 0.17311
-0.17345 -0.12403 0.00167
-0.17321 -0.13291 0.01654
-0.19058 0.42092 0.02349
-0.18832 0.38142 0.00148
0.17102 -0.14463 -0.17311
-0.18631 0.20399 0.10582
0.19971 -0.01940 0.06119
0.05670 -0.01909 0.01719
-0.17298 -0.14151 0.08688
-0.12986 -0.01909 -0.01317
-0.08178 -0.01909 -0.02083
-0.15458 -0.42145 -0.03069
-0.17624 -0.03000 0.13971
0.19141 -0.08494 -0.16561
-0.18589 0.19567 -0.08749
-0.17051 -0.27538 0.13235
-0.19819 0.39799 0.14309
0.19263 -0.14841 -0.16204
-0.16364 -0.05081 0.14329
-0.16951 -0.41658 0.06099
0.16497 -0.13243 -0.15476
-0.18454 0.16894 0.13714
-0.19673 0.37662 0.10522
-0.16978 -0.04617 -0.05263
-0.16569 0.08189 -0.11550
-0.17479 -0.07473 0.12829
0.19025 -0.01909 -0.11502
0.19263 -0.38364 -0.16748
-0.18017 0.07494 -0.09500
-0.19486 0.34907 0.08233
-0.17963 0.37664 0.09636
-0.17878 0.24215 -0.11550
-0.16785 0.12207 -0.02137
-0.18864 0.24591 -0.09741
0.19263 -0.13201 -0.13592
-0.11150 -0.01909 0.02362
-0.17282 0.26844 -0.06490
-0.05417 -0.01909 0.00329
0.19263 -0.37094 0.17223
-0.12455 -0.05640 0.14614
-0.17411 -0.09992 -0.04018
-0.19016 0.27289 0.07968
-0.16887 -0.35759 0.00376
-0.17515 0.22689 0.14329
-0.16952 -0.41187 0.05547
0.18603 -0.16403 -0.13353
-0.17868 0.03737 0.08373
0.16896 -0.11443 0.14436
-0.17578 -0.04390 -0.08334
-0.13599 -0.05107 0.14494
0.18413 -0.26404 -0.14019
-0.18157 0.10624 -0.09678
0.11013 -0.01909 0.14210
0.19218 -0.22735 0.14941
-0.16955 -0.40398 0.06027
-0.19219 0.30607 -0.10553
-0.18537 0.19856 -0.05263
-0.18318 0.14206 -0.07859
-0.00145 -0.01909 -0.11450
-0.18375 0.15325 0.05831
-0.16954 -0.40772 0.07526
-0.17056 -0.27253 -0.06911
-0.15165 -0.01939 -0.05665
0.19263 -0.14187 0.16191
-0.15167 -0.04285 0.03709
-0.16950 -0.41766 -0.00617
-0.18200 0.11591 -0.08333
0.13407 -0.01909 0.03579
-0.18264 0.42075 0.02751
0.19971 -0.05518 0.13002
0.03316 -0.01909 -0.03575
0.17228 -0.09311 0.17311
0.19059 -0.01909 -0.02593
0.19971 -0.04839 -0.04270
-0.15243 -0.42067 -0.08785
-0.15419 -0.22749 0.07681
0.07888 -0.01909 0.04656
0.07319 -0.01909 -0.08442
-0.17093 -0.24826 -0.11349
-0.15601 -0.13797 0.01587
-0.17026 -0.14317 -0.00878
-0.15732 -0.42145 0.01720
-0.11526 -0.04584 0.14712
-0.15789 -0.06876 0.07889
0.19263 -0.24859 -0.16748
-0.17453 -0.08421 -0.06608
-0.17593 -0.03955 0.12019
0.04449 -0.06545 -0.15165
0.02213 -0.01909 -0.09307
0.11965 -0.01909 -0.12709
0.19971 -0.05517 0.01621
0.01651 -0.06197 -0.14649
-0.17169 -0.20207 0.08016
0.17009 -0.41628 0.15843
-0.17047 -0.27774 0.11650
0.19883 -0.01909 -0.02582
-0.16280 -0.34938 0.14329
0.19263 -0.09656 -0.14891
-0.17427 0.29289 -0.11466
-0.18230 0.41571 0.04279
-0.17310 -0.13710 -0.02638
-0.05071 -0.01909 0.03580
-0.16717 -0.14317 0.06277
-0.17016 0.22120 -0.08645
-0.03950 -0.01909 -0.03490
-0.16737 0.06678 0.14329
-0.15323 -0.29454 -0.09106
-0.19382 0.42069 0.09061
-0.05201 -0.01909 0.04993
0.19971 -0.03881 -0.06106
-0.17019 -0.30581 -0.11035
-0.15451 -0.20761 0.09149
-0.16269 0.06530 0.13216
-0.15296 -0.32309 -0.09665
-0.17129 -0.22515 -0.09907
-0.18206 0.11722 0.14174
-0.18493 0.17663 -0.05589
-0.14376 -0.01909 -0.00430
0.19971 -0.07507 0.03668
0.12812 -0.07066 -0.16706
0.18593 -0.23971 0.17311
-0.16965 -0.37846 -0.04343
0.16839 -0.20199 0.17311
0.12434 -0.01909 -0.14394
-0.15576 -0.14905 -0.07175
-0.15534 -0.16868 0.11214
-0.15591 -0.14180 0.08442
-0.17097 -0.24573 -0.06017
-0.16229 0.05484 -0.05324
0.05955 -0.01909 0.00812
-0.17112 -0.23590 0.13348
-0.17707 -0.00475 0.09447
-0.07182 -0.01909 -0.04651
-0.16675 0.15497 0.08681
-0.14715 -0.01909 0.05135
0.19800 -0.02732 0.18008
-0.16983 -0.34357 0.08026
-0.07653 -0.01909 -0.07953
-0.09099 -0.08420 -0.12668
-0.08159 -0.01909 0.05532
0.19971 -0.08348 -0.13368
0.16705 -0.14907 0.14591
-0.15346 -0.27480 -0.09285
-0.15798 -0.09221 0.07307
0.12396 -0.01909 -0.06254
-0.16259 -0.32388 0.07307
0.18562 -0.09465 -0.12890
0.19971 -0.05104 0.02184
-0.03756 -0.04411 -0.13653
-0.10049 -0.01909 -0.07248
-0.19953 0.41774 0.03555
-0.18011 0.38361 0.06651
-0.15343 -0.27648 0.08684
0.19263 -0.35502 -0.16278
-0.15555 -0.15868 -0.06811
0.01791 -0.01909 0.10987
-0.17111 0.23800 -0.09634
0.19136 -0.30612 0.17311
-0.00623 -0.01909 -0.08571
-0.17134 -0.22166 0.10512
-0.17122 0.13081 0.14329
-0.18229 0.12234 -0.08091
-0.12265 -0.01909 -0.03887
0.14608 -0.03318 0.17462
-0.17353 -0.12136 0.02241
-0.08540 -0.01909 0.11034
-0.18088 0.39496 0.04760
-0.16763 0.17230 -0.06396
0.04199 -0.04307 0.16367
-0.15304 -0.31423 0.11877
-0.16159 0.03683 0.08704
-0.17502 0.30489 -0.08473
-0.17363 -0.11734 -0.00526
-0.11136 -0.01909 0.12014
0.19263 -0.24823 -0.17286
0.10107 -0.03068 0.16988
-0.15747 -0.08412 0.11860
-0.16552 0.12932 0.13572
-0.15252 -0.39785 0.10464
0.19971 -0.06003 -0.11348
-0.15244 -0.41659 0.10217
-0.15773 -0.07452 -0.06914
-0.18101 0.39689 -0.02205
-0.18327 0.14376 -0.06434
-0.15647 -0.12097 -0.03662
0.18698 -0.01909 -0.03996
-0.15251 -0.40058 0.04519
-0.05483 -0.01909 -0.05471
0.17199 -0.01909 0.08822
-0.17499 -0.06794 -0.07149
-0.16950 -0.41828 0.02014
0.16371 -0.24084 0.15001
-0.15700 -0.10122 -0.05295
-0.15642 -0.12276 0.13750
-0.18726 0.22148 0.11234
-0.17127 0.05585 -0.05263
0.19971 -0.06597 -0.13100
-0.19871 0.40566 -0.05231
-0.17594 0.07571 0.14329
-0.19946 0.41664 -0.01539
-0.16974 -0.35483 -0.08915
-0.17979 0.06600 0.10174
-0.17721 -0.00050 -0.10941
-0.15255 -0.38918 0.01866
0.18117 -0.01909 0.00592
-0.18107 0.09512 0.11058
0.16698 -0.17809 -0.14303
0.19263 -0.14919 -0.17193
-0.08737 -0.04512 -0.12735
-0.17036 -0.14317 -0.00185
0.15350 -0.16485 0.16251
-0.04391 -0.01909 0.05329
0.17103 -0.19777 -0.17311
-0.15244 -0.41681 0.08093
-0.16329 0.07940 -0.07114
0.19971 -0.04185 0.16047
-0.06011 -0.01909 0.14837
-0.17836 0.04317 -0.11550
-0.15267 -0.35704 0.12631
-0.17033 0.18680 -0.05263
-0.17277 -0.15143 0.13518
0.15680 -0.21488 0.17191
-0.16898 0.19913 -0.09509
-0.19480 0.34804 -0.07027
0.19971 -0.06634 0.12873
0.17823 -0.01909 -0.13806
-0.18383 0.16700 -0.02325
0.15584 -0.01909 0.10489
-0.16960 -0.39132 -0.02558
-0.17456 0.29756 0.12462
0.16457 -0.12342 -0.13241
0.19971 -0.05503 -0.10312
0.19971 -0.02304 0.05637
-0.18233 0.12321 -0.01632
-0.17690 -0.01009 -0.07436
-0.19737 0.38601 -0.09139
-0.16363 -0.42145 0.08555
0.13431 -0.01909 0.11328
-0.17039 -0.28452 0.08483
-0.15444 -0.21136 0.11288
-0.16517 -0.20576 0.14329
-0.17343 0.00206 0.07307
0.09142 -0.02375 0.16886
-0.03237 -0.01909 0.10346
0.19971 -0.02340 -0.13479
0.00894 -0.01909 0.03292
-0.16581 0.13567 0.14279
-0.15362 -0.26433 -0.08076
0.17464 -0.26425 0.17311
0.08780 -0.05246 -0.15963
-0.15531 -0.17021 0.11875
-0.18072 0.39259 -0.03265
-0.04042 -0.01909 -0.09938
0.19263 -0.29915 0.16042
0.18774 -0.39972 0.17311
-0.14485 -0.04029 -0.11675
0.18462 -0.25325 0.15056
-0.15265 -0.36175 0.09630
-0.16023 0.00199 0.09679
-0.17845 0.03133 -0.06292
-0.15515 -0.17775 0.11523
-0.17012 -0.31224 0.09965
-0.12524 -0.01909 0.08612
-0.15777 -0.42145 0.07466
-0.16832 0.18596 -0.08180
-0.15700 -0.10119 -0.06195
-0.17903 0.36775 0.09596
0.10998 -0.07384 -0.16372
0.00580 -0.01909 -0.06456
-0.15141 -0.01909 0.07575
0.19226 -0.01909 0.01742
-0.16951 -0.41468 -0.10629
-0.18497 0.17735 0.10807
-0.16974 0.21377 0.07535
0.06836 -0.01909 -0.10407
-0.17822 0.14502 -0.11550
0.15794 -0.23220 0.15185
-0.17336 -0.12755 0.13456
-0.08947 -0.01909 0.10058
0.18100 -0.01909 0.15378
-0.17008 0.20729 0.07307
-0.18064 0.39143 0.12489
-0.17523 -0.06078 -0.08460
-0.18404 0.15898 -0.05715
-0.17215 0.25650 0.07513
-0.16967 -0.09236 0.06363
-0.16539 0.12635 0.06396
-0.15485 -0.19150 -0.08567
-0.10252 -0.01909 0.00125
0.01226 -0.01909 0.04468
-0.15297 -0.32143 0.12282
-0.10734 -0.01909 -0.04097
0.18528 -0.11294 -0.13012
-0.16509 -0.42145 0.02637
0.19971 -0.04025 -0.16995
-0.15804 -0.06414 -0.07808
0.19971 -0.04856 -0.14837
-0.17798 0.25285 0.07307
0.16535 -0.27138 0.15137
-0.18034 0.38709 -0.11514
-0.15859 -0.04756 -0.10438
-0.18354 0.42140 -0.04982
0.04636 -0.01909 0.15858
0.18912 -0.41805 0.17311
-0.18348 0.20029 0.14329
-0.16627 0.14539 0.05449
0.02274 -0.08327 -0.14764
0.16824 -0.01909 -0.16422
-0.18563 0.19057 -0.11417
0.09061 -0.02604 -0.16015
-0.15316 -0.30230 -0.05399
-0.16694 0.15868 -0.09958
-0.13534 -0.01909 0.14025
-0.19740 0.38639 0.07395
-0.18470 0.17214 0.08229
0.09603 -0.04277 -0.16115
0.15837 -0.12888 0.17311
-0.10945 -0.02531 0.14773
-0.15743 -0.08536 -0.08275
-0.17261 0.18563 -0.11550
-0.17021 0.22213 0.11812
0.08517 -0.01909 0.10218
0.17507 -0.34627 -0.17311
-0.17812 0.35443 0.07584
-0.16599 0.13989 0.09742
-0.15825 -0.05784 -0.10361
-0.18640 0.34454 -0.11550
0.18466 -0.38496 0.17311
-0.02376 -0.01909 0.04679
-0.17002 -0.32311 -0.06259
0.16490 -0.13093 -0.16526
-0.17478 -0.07516 -0.09598
-0.18440 0.22165 -0.05263
-0.17957 0.06029 0.14181
0.19971 -0.03047 -0.14321
-0.16128 0.02880 0.14010
-0.19869 0.40531 -0.06164
0.18131 -0.01909 -0.00775
0.19971 -0.02019 -0.11330
-0.15482 -0.42093 0.14329
-0.10119 -0.01909 -0.06138
-0.06432 -0.01909 -0.02628
-0.18372 0.15265 -0.09512
-0.16957 0.21076 0.07953
-0.15263 -0.36863 -0.11321
-0.17273 -0.15351 -0.08969
0.19263 -0.31800 0.15391
-0.16971 -0.36335 0.08143
-0.15678 -0.10957 0.06545
-0.15252 -0.39769 -0.04968
-0.19968 0.41990 0.02231
0.09041 -0.01909 -0.04933
-0.15806 -0.06378 0.11003
-0.17412 -0.09953 0.02953
0.18273 -0.14677 0.17311
0.15249 -0.14956 0.16404
0.11114 -0.01909 -0.14524
-0.19334 0.32458 -0.09563
-0.15659 -0.11650 0.09154
0.10469 -0.01909 -0.04742
0.04762 -0.01909 -0.08730
-0.16569 0.13317 0.12881
-0.16731 0.16614 0.11248
-0.16786 -0.42145 0.09862
-0.06340 -0.07379 -0.13176
-0.17589 0.31897 0.12694
0.17096 -0.24285 -0.17311
0.19263 -0.16853 -0.15336
-0.15867 -0.42145 -0.00119
-0.17171 0.24877 -0.10636
-0.11895 -0.01909 0.13391
-0.16974 -0.35313 0.09150
0.07425 -0.01909 -0.09111
0.19150 -0.01909 0.06892
-0.15269 -0.35210 -0.08169
0.19971 -0.04238 0.15090
-0.15253 -0.39284 0.01483
0.19404 -0.01909 0.05798
0.15193 -0.01909 0.02580
-0.17143 -0.21566 -0.10629
-0.16961 -0.38797 -0.00238
-0.18827 0.23943 0.11736
-0.17808 0.02176 -0.09703
-0.01881 -0.01909 0.02038
-0.18010 0.38348 -0.09191
-0.01930 -0.04542 -0.13989
0.17983 -0.12217 0.17311
0.19263 -0.28250 -0.15303
-0.16905 0.20036 -0.08641
0.15343 -0.16376 0.15500
-0.15268 -0.35519 0.11675
-0.09566 -0.01909 0.04334
-0.19808 0.39645 -0.00203
-0.09512 -0.01909 0.07746
-0.16717 -0.09236 -0.02091
0.18210 -0.07302 -0.17701
-0.17758 0.34604 -0.07709
-0.16737 0.16731 -0.06668
-0.11114 -0.01909 0.11199
-0.17002 -0.14317 -0.03405
-0.17122 0.24003 0.07352
-0.17070 -0.26347 -0.06551
0.06073 -0.01909 0.10384
-0.17106 -0.24002 0.12061
-0.15539 -0.16621 -0.06786
-0.16804 -0.06974 0.07307
-0.16391 0.09315 0.12066
-0.16314 0.05288 0.14329
-0.18189 0.25757 -0.05263
-0.01482 -0.01909 -0.11019
0.17711 -0.05105 -0.17609
-0.19531 0.35580 -0.06416
-0.17301 -0.14030 -0.10431
-0.16659 -0.09236 0.04797
-0.18344 0.14722 -0.08834
-0.16983 -0.34355 0.12456
-0.07960 -0.01909 -0.05216
-0.16082 0.01711 -0.09998
-0.15265 -0.36165 0.02896
-0.19771 0.39096 0.05084
-0.19428 0.33969 0.13097
0.06961 -0.01909 -0.02221
0.19263 -0.16253 -0.13453
-0.19614 0.42054 0.07489
-0.16817 0.18312 -0.09004
-0.15260 -0.37615 -0.06750
-0.17740 0.34323 0.09338
0.19263 -0.29339 -0.14871
-0.18967 0.42098 -0.01496
-0.15268 -0.35390 -0.09245
-0.19795 0.39455 0.00552
-0.05317 -0.01909 -0.10992
0.12994 -0.01909 -0.08196
-0.16969 -0.36867 -0.03166
-0.15429 -0.22053 0.12169
-0.19023 0.27417 0.11970
-0.15310 -0.30866 -0.08571
-0.17383 -0.11023 -0.09163
0.19971 -0.08021 0.14213
0.17189 -0.31318 0.15324
0.19263 -0.39322 0.16337
0.01309 -0.02605 0.16062
-0.15263 -0.36686 0.05044
-0.01007 -0.01909 0.10824
-0.07207 -0.01909 -0.06536
-0.17785 0.35043 -0.07096
-0.17066 -0.26574 -0.07433
-0.19279 0.31579 0.07375
-0.15169 -0.04893 0.02543
-0.15790 -0.06868 -0.08380
-0.17827 0.32144 0.14329
-0.15285 -0.33502 -0.08489
-0.17121 -0.23027 -0.07388
-0.16394 0.09387 0.12858
-0.01315 -0.01909 -0.11516
-0.17246 0.26208 0.09523
-0.16690 0.15794 -0.03908
-0.17890 0.36583 0.13501
-0.17421 -0.09607 0.09334
0.18652 -0.29059 -0.14196
0.18092 -0.17449 -0.13423
-0.02235 -0.01909 -0.04763
-0.11993 -0.01909 0.14638
-0.17444 -0.08766 -0.07750
-0.16632 0.14641 -0.05961
-0.14458 -0.01909 0.10983
-0.17482 0.09583 -0.11550
-0.16655 -0.18452 0.14329
-0.18527 0.36836 0.07307
-0.16197 0.04664 -0.08306
0.15675 -0.21419 0.16202
0.19952 -0.01909 -0.13939
-0.05395 -0.01909 -0.03074
-0.16188 0.04446 -0.09888
0.19263 -0.37247 -0.15045
-0.16074 0.01494 0.10184
-0.08674 -0.01909 0.09231
-0.18105 0.09469 -0.09083
-0.12764 -0.06518 -0.11992
-0.16463 0.10940 -0.09369
-0.16963 -0.38300 -0.11126
-0.17708 -0.00467 -0.08325
-0.16546 -0.01501 -0.11550
-0.18056 0.39021 0.00780
-0.18033 0.07861 -0.10012
0.19971 -0.06822 0.14792
0.01991 -0.02383 0.16134
0.18238 -0.01909 -0.02892
0.18987 -0.09022 -0.17311
-0.16552 0.12926 0.04423
0.16436 -0.11869 -0.15140
-0.15355 -0.26884 -0.05507
0.17263 -0.30576 -0.16587
-0.15254 -0.39116 -0.08874
-0.15172 -0.05907 0.13984
-0.16957 -0.40061 0.14003
0.15642 -0.08494 0.14786
-0.16551 0.12899 0.14147
-0.17718 0.13770 0.14329
-0.16966 -0.37520 0.09037
-0.06043 -0.01909 0.13708
0.17763 -0.14659 -0.13237
-0.15846 -0.09236 -0.00267
-0.16691 0.15805 -0.04472
0.19971 -0.05207 0.03319
-0.15315 -0.30339 0.10657
0.19263 -0.37240 -0.16055
-0.17046 -0.27901 0.10592
-0.10876 -0.01909 0.04132
-0.15994 -0.00664 0.13609
0.15308 -0.08494 0.17256
-0.16963 -0.38392 -0.08089
0.06567 -0.01909 0.13207
-0.15635 -0.12536 0.12863
-0.15701 -0.10082 0.00431
0.19263 -0.09463 0.15853
-0.17235 0.26006 -0.09751
-0.17348 -0.12314 0.09091
-0.17097 -0.24593 0.11684
0.16883 -0.21985 -0.16088
-0.16687 0.15742 -0.07112
0.11725 -0.01909 -0.16292
-0.18400 0.15831 -0.10796
0.13907 -0.01909 0.15498
0.02530 -0.01909 -0.00596
-0.16500 -0.25892 0.14329
0.01037 -0.01909 -0.04017
-0.16211 -0.38703 -0.11550
-0.15280 -0.33991 -0.09790
-0.19924 0.41340 0.08030
-0.17026 -0.29789 0.09570
-0.17390 -0.10754 0.03329
-0.16962 -0.38615 0.13257
-0.16960 -0.39062 -0.09481
-0.15260 -0.37386 0.00331
-0.15720 -0.09392 0.10903
-0.17291 -0.14517 0.11401
-0.17476 -0.07580 -0.06692
-0.16337 -0.35759 -0.03979
-0.18385 0.15522 -0.05263
-0.17409 0.29004 0.12366
-0.16287 0.06991 0.12068
-0.15166 -0.03863 0.07486
-0.15165 -0.02975 -0.10635
-0.16613 0.14265 0.10411
-0.17571 0.16700 0.01272
-0.14185 -0.05018 0.14432
0.18492 -0.15102 -0.13266
0.19263 -0.33706 -0.16612
-0.17180 -0.19736 -0.05654
-0.16978 -0.09236 0.04159
0.15996 -0.26279 0.16850
-0.15260 -0.37435 -0.09482
-0.16955 -0.02675 0.14329
-0.16233 -0.30134 -0.05263
0.14793 -0.07278 -0.17072
-0.15829 -0.05664 0.10998
0.19971 -0.07689 -0.17289
0.19263 -0.23632 0.16677
-0.15254 -0.39183 0.09559
-0.16490 -0.35759 -0.01863
0.18270 -0.15480 0.17311
0.16753 -0.01909 0.02202
-0.19576 0.36230 -0.05801
0.19263 -0.24733 0.15283
-0.17490 0.30308 0.13594
-0.18021 0.07588 -0.07725
-0.16919 -0.03535 0.14329
-0.17391 -0.10700 0.02036
-0.05810 -0.01909 -0.10248
-0.16106 0.02314 -0.06412
-0.17159 -0.20700 0.08895
-0.19131 0.29196 0.10683
0.15852 -0.24105 0.16050
0.16684 -0.15660 -0.13303
0.08878 -0.01909 0.12436
-0.16459 -0.36427 0.14329
0.05095 -0.01909 -0.10239
-0.16576 0.13456 -0.11250
0.08930 -0.01909 0.06774
-0.16826 0.18487 -0.07228
-0.15421 -0.22574 0.10122
-0.17911 0.36900 -0.11386
0.04109 -0.01909 -0.05738
0.05369 -0.01909 0.14088
-0.15285 -0.33433 -0.06551
-0.15783 -0.07089 -0.09673
-0.16567 -0.42145 0.01397
0.19263 -0.08659 0.15513
-0.17530 -0.05838 -0.08951
0.19263 -0.34177 -0.15485
0.18102 -0.08494 -0.14109
0.11152 -0.01909 -0.08620
-0.18273 0.13222 0.07946
0.14739 -0.01909 0.17061
-0.18028 0.12207 0.04394
-0.09638 -0.05311 -0.12568
-0.10028 -0.05773 -0.12497
-0.16699 0.15970 -0.10573
-0.18157 0.10625 -0.08278
0.19263 -0.37516 0.16282
-0.15406 -0.23545 0.10153
-0.08901 -0.01909 -0.05349
-0.16979 -0.34728 -0.09921
-0.15256 -0.38648 -0.08045
-0.18965 0.26387 -0.08270
-0.16750 -0.41888 -0.11550
-0.00625 -0.01909 0.06803
-0.16936 -0.26219 0.07307
-0.17569 0.31578 0.09053
-0.17286 0.06612 -0.11550
-0.19366 0.38142 -0.00641
-0.15509 -0.18023 -0.08555
-0.18165 0.23104 -0.05263
-0.05348 -0.01909 -0.03910
-0.17857 0.36110 0.09987
0.03445 -0.05669 -0.14980
-0.17517 -0.06259 -0.10819
0.09563 -0.01909 0.16589
-0.15343 -0.27691 -0.11464
-0.17925 0.37104 -0.10428
-0.16350 0.08411 0.12395
-0.15918 -0.42145 -0.10371
0.19263 -0.11009 -0.13803
-0.15527 -0.17200 -0.09592
-0.18251 0.12729 0.13097
-0.19349 0.32699 0.08662
-0.19881 0.40710 0.01662
-0.15619 -0.13126 0.04731
0.02514 -0.05042 -0.14808
0.18177 -0.36594 -0.17311
-0.15961 -0.02205 -0.05263
0.10967 -0.01909 0.01488
-0.17499 0.30452 0.09252
-0.16134 0.03058 0.10776
-0.15651 -0.11932 0.01341
-0.17845 0.35932 0.09503
-0.16966 0.21239 0.09837
-0.15311 -0.30690 0.09116
-0.16966 -0.37529 0.01730
0.17399 -0.22497 0.14930
0.15120 -0.12998 0.14762
-0.19458 0.34451 -0.11398
-0.17075 0.22332 -0.11550
0.06491 -0.02115 -0.15541
0.19971 -0.07009 -0.14689
-0.15165 -0.02926 0.00167
0.18496 -0.36865 -0.14716
-0.16987 0.21613 0.09220
-0.16806 0.18091 0.09359
-0.18555 0.42126 0.06543
0.18571 -0.41264 -0.15010
-0.17235 -0.17111 -0.07942
0.19263 -0.10114 -0.17127
-0.17441 0.29512 -0.10302
-0.15928 -0.02661 -0.08246
-0.15364 -0.26286 0.13298
-0.11925 -0.01909 0.02470
0.07558 -0.01909 0.01215
0.19971 -0.03840 0.14642
-0.16379 -0.05738 -0.11550
-0.17444 -0.08747 0.13924
-0.15630 -0.12729 -0.00411
0.14586 -0.01909 -0.14087
-0.16542 0.12712 0.07728
-0.16151 -0.06607 0.14329
0.19971 -0.04343 -0.09278
-0.19518 0.35383 -0.09566
-0.16507 0.11911 0.11864
-0.16972 -0.36045 0.12371
-0.13215 -0.01909 0.08992
0.02152 -0.01909 -0.11908
-0.17050 -0.27601 -0.08791
0.18053 -0.30213 0.17311
-0.17220 0.25745 -0.10965
0.09135 -0.01909 0.05523
0.19263 -0.28862 -0.14314
0.04876 -0.01909 -0.03241
-0.18119 0.23517 0.07307
-0.17399 -0.10428 0.13094
0.03265 -0.01909 -0.07624
0.18265 -0.23901 -0.13853
0.19971 -0.01964 -0.03786
-0.17963 0.08844 0.07307
-0.15842 -0.05280 0.09426
-0.15635 -0.33653 0.07307
0.19971 -0.06695 0.10077
0.12017 -0.01909 0.14633
-0.15643 -0.12221 -0.06771
-0.16645 -0.42145 -0.08734
-0.16668 0.15360 -0.06344
0.19971 -0.07329 -0.09735
0.11820 -0.01909 0.12884
-0.17951 0.05875 -0.08520
-0.09155 -0.01909 0.11174
-0.14394 -0.02221 -0.11692
0.15488 -0.01909 0.07951
-0.16656 0.15112 -0.09130
-0.16640 0.14801 0.02487
-0.16703 -0.00932 -0.05263
-0.19462 0.34524 0.11464
-0.17205 -0.18519 0.10375
-0.16981 -0.34462 -0.08946
0.13830 -0.05208 -0.16894
-0.17008 -0.31668 0.11976
-0.01599 -0.04549 0.15757
-0.18440 0.16620 0.02187
-0.17693 0.27125 -0.11550
-0.05487 -0.01909 0.11397
-0.16010 -0.19290 -0.11550
0.19843 -0.01909 0.03950
0.17120 -0.03941 -0.17500
-0.17030 -0.29395 -0.08086
-0.17330 -0.12982 0.10785
-0.17323 -0.13232 -0.09575
-0.15461 -0.20309 -0.09036
-0.13765 -0.01909 0.11733
-0.17415 -0.09844 0.05854
-0.17035 0.21862 0.07307
0.19971 -0.08120 0.06220
-0.16282 -0.05071 0.07307
-0.16538 -0.15461 0.14329
0.09922 -0.01909 -0.06831
-0.15654 -0.11828 0.13517
-0.18398 0.15789 -0.09241
-0.17085 -0.25367 0.09364
-0.17472 0.30011 -0.11300
-0.08914 -0.01909 0.03662
-0.15638 -0.12424 -0.08202
-0.07813 -0.01909 0.09987
-0.19521 0.35425 0.10574
0.15781 -0.23015 0.16925
0.19059 -0.12407 -0.17311
-0.18278 0.13342 0.04370
-0.15532 -0.30194 -0.11550
-0.17229 -0.17405 -0.06101
-0.01786 -0.01909 0.04021
0.00429 -0.01909 0.07409
-0.17494 -0.06948 -0.10089
0.18045 -0.08494 -0.13202
0.19263 -0.12580 -0.13632
-0.17425 -0.09468 0.10361
0.19263 -0.21613 -0.15486
0.16519 -0.33364 0.17311
-0.05702 -0.01909 -0.00292
0.05986 -0.01909 -0.00386
0.19971 -0.05634 -0.07047
-0.17745 0.34395 -0.05568
-0.17284 -0.14832 -0.09225
0.19263 -0.14456 0.15511
-0.15299 -0.31938 -0.05388
-0.17799 0.01961 0.10853
0.00723 -0.08174 -0.14478
-0.15266 -0.35868 -0.07369
-0.17611 -0.02195 0.07307
-0.17496 0.30400 0.12279
0.18589 -0.01909 0.07442
-0.15764 -0.07775 0.13518
-0.17238 -0.16966 -0.05263
-0.16149 -0.33103 0.07307
0.17325 -0.31978 -0.16017
-0.19210 0.35967 -0.11550
-0.15684 -0.10713 -0.09511
-0.18872 0.24725 -0.07759
-0.11540 -0.01909 0.04914
0.19263 -0.11027 0.16134
0.01520 -0.01909 -0.05703
-0.17600 -0.03724 0.12656
0.18053 -0.01909 -0.06889
-0.16971 -0.36313 -0.07029
0.15176 -0.05314 -0.17142
-0.16199 0.04722 0.13252
-0.16205 0.04878 -0.09022
-0.19318 0.42074 0.13750
0.19263 -0.17837 -0.14339
0.16048 -0.01909 0.00302
-0.18221 0.12207 0.01960
-0.15325 -0.29237 0.12868
0.19263 -0.17240 -0.14549
-0.17001 -0.32389 0.07741
-0.04180 -0.05025 -0.13575
0.19971 -0.08384 -0.03507
0.13742 -0.01909 -0.12507
0.15612 -0.01909 0.08901
-0.16951 0.20964 0.08595
-0.17583 0.31803 -0.09967
0.01275 -0.01909 -0.04809
-0.15297 -0.32212 0.09463
-0.17085 -0.25318 -0.09799
-0.07052 -0.01909 0.13755
-0.15378 -0.25361 0.12993
0.18085 -0.11324 0.14431
0.19817 -0.01909 -0.10530
0.02098 -0.05279 0.16145
0.00689 -0.01909 0.12004
-0.16402 0.09564 -0.06814
0.03650 -0.01909 0.09058
0.16804 -0.28331 0.17311
0.19971 -0.06625 -0.07553
-0.17393 0.16700 0.03837
0.15644 -0.18159 0.14736
-0.15688 -0.10565 -0.01706
-0.18072 0.39267 0.13732
-0.17251 -0.16384 0.09839
-0.16243 -0.23963 0.14329
-0.15679 -0.11673 -0.11550
-0.17253 -0.16300 0.12315
-0.17071 0.23090 0.13054
0.18799 -0.32269 0.15366
0.01713 -0.01909 0.05951
0.03604 -0.01909 -0.04757
0.18715 -0.09693 -0.17311
0.14697 -0.01909 -0.04527
-0.15165 -0.02484 0.01807
0.09003 -0.01909 -0.10902
-0.17619 0.32372 0.09717
-0.15832 -0.05564 -0.09011
-0.19570 0.37843 0.07307
-0.14802 -0.02378 0.14367
-0.11203 -0.01909 -0.10558
-0.19256 0.31200 -0.08760
0.19971 -0.08192 -0.10721
0.10585 -0.01909 -0.12380
-0.17323 -0.13221 0.13067
0.18598 -0.13217 -0.17311
-0.16955 -0.40429 -0.10894
-0.14189 -0.03476 0.14432
0.19229 -0.01909 0.07473
-0.18288 0.13562 -0.08423
-0.16964 -0.38195 -0.03256
-0.15249 -0.40538 -0.07574
-0.06962 -0.01909 0.01845
-0.16525 -0.34362 0.07307
-0.15960 -0.01693 -0.06298
-0.12670 -0.01909 -0.02963
-0.15407 -0.23527 0.13985
-0.17099 -0.24449 0.07518
-0.07268 -0.01909 -0.03072
0.18203 -0.38335 0.15637
0.18199 -0.01909 -0.11736
0.18171 -0.03901 -0.17694
0.05020 -0.01909 -0.06383
0.19971 -0.06054 0.06009
-0.17025 -0.29892 0.14225
-0.17723 0.16700 0.03349
0.17710 -0.40679 -0.16990
-0.17391 0.28708 -0.10801
0.17995 -0.37196 0.17311
0.19971 -0.03256 -0.12215
-0.01168 -0.05352 -0.14130
0.19971 -0.01921 0.13127
-0.17173 -0.20026 -0.08252
-0.18980 0.26645 0.08644
0.18199 -0.24402 -0.17311
0.18054 -0.31254 -0.17311
0.17615 -0.07418 0.17778
-0.19043 0.27757 -0.09317
-0.13156 -0.01909 -0.08909
-0.05262 -0.05618 0.15371
-0.15243 -0.42055 0.03622
-0.15165 -0.03160 0.03127
-0.16417 -0.42145 0.13758
-0.17197 0.25338 0.13357
-0.18736 0.30337 -0.05263
-0.16659 0.15173 -0.04232
-0.18188 0.40965 -0.04207
-0.15574 -0.14998 0.12338
-0.15261 -0.37295 0.05550
-0.17150 -0.21166 -0.09295
0.00762 -0.01909 -0.12548
0.19263 -0.12424 -0.14499
-0.05737 -0.01909 0.03018
-0.17859 0.36129 -0.08604
-0.16848 -0.34683 0.14329
-0.17537 -0.05654 0.08137
0.16870 -0.21677 -0.13894
0.16943 -0.40626 0.16719
0.16799 -0.35617 0.15516
0.19224 -0.09010 0.14328
-0.15447 -0.30539 0.14329
-0.15705 -0.09961 0.10382
0.19263 -0.34317 -0.14566
-0.17114 -0.23466 0.12016
0.12526 -0.01909 -0.15827
-0.17569 -0.04659 -0.06418
-0.04876 -0.03001 -0.13446
-0.11440 -0.01909 -0.06658
-0.17193 0.25266 -0.11296
0.07225 -0.01909 0.02687
-0.15739 -0.08691 -0.06054
-0.00294 -0.01909 0.06228
-0.17663 -0.01828 0.13505
-0.15264 -0.36484 -0.02453
-0.00835 -0.01909 0.13816
0.19263 -0.32719 -0.14938
-0.15696 -0.10286 -0.04755
-0.19537 0.35662 0.11931
-0.15170 -0.05338 -0.00779
-0.17274 0.26697 0.12907
-0.17819 0.35546 -0.09592
-0.16249 0.06002 -0.06534
-0.11000 -0.05937 -0.12318
0.01981 -0.01909 0.15440
-0.18183 0.11215 -0.10820
-0.16259 0.00365 0.07307
-0.15656 -0.11759 -0.01280
0.06220 -0.05108 0.16579
0.19263 -0.17811 -0.15136
-0.12996 -0.01909 -0.06560
-0.16970 -0.36560 0.05122
-0.00685 -0.01909 0.08050
-0.09624 -0.01909 0.06990
-0.17231 -0.17339 0.13501
0.06316 -0.06599 0.16589
-0.15327 -0.29022 0.11374
0.16149 -0.11627 0.14444
-0.08709 -0.01909 0.07224
-0.19147 0.29463 -0.06438
-0.16658 0.15156 0.09433
-0.17013 -0.31219 -0.07616
0.06845 -0.01909 0.16640
-0.13568 -0.01909 -0.07319
-0.15169 -0.05024 -0.02040
-0.15459 -0.20399 -0.09589
-0.18781 0.23116 -0.08819
-0.18789 0.23264 0.08560
0.16641 -0.16510 -0.15645
-0.15165 -0.02538 0.09922
0.17898 -0.33714 -0.14506
-0.10753 -0.01909 -0.11520
-0.17113 -0.23505 0.10267
-0.16529 0.12405 0.12798
-0.15166 -0.03698 -0.02647
-0.15265 -0.36140 0.07705
-0.16953 0.21003 0.12462
-0.15257 -0.38270 -0.09230
-0.17265 -0.15720 0.09764
0.15402 -0.17283 0.16550
-0.16743 0.16835 0.13227
-0.16970 -0.36568 -0.02445
0.18408 -0.39786 0.15702
-0.15269 -0.35163 -0.11454
0.19971 -0.07444 0.14129
-0.19746 0.38733 -0.06452
-0.16826 0.11436 -0.11550
-0.15667 -0.11341 0.02460
0.19971 -0.04680 -0.01154
-0.17128 0.00463 -0.11550
-0.15246 -0.41343 -0.04015
-0.05374 -0.01909 0.09333
-0.15166 -0.03792 0.11971
-0.16615 0.14308 0.07851
-0.17803 0.02055 -0.06427
0.19971 -0.02588 0.06764
-0.15715 -0.09579 0.07815
-0.15704 -0.09973 0.08734
-0.19330 0.32885 -0.05263
-0.17089 0.23408 0.12520
-0.01665 -0.01909 -0.00180
-0.16406 -0.30785 -0.05263
0.14935 -0.01909 -0.03041
0.16343 -0.09768 -0.13293
-0.18831 0.24011 0.13675
-0.18347 0.14767 0.07753
-0.17046 -0.27896 0.09555
-0.16967 -0.37313 0.11356
0.19971 -0.03244 -0.01487
-0.14687 -0.01909 -0.10054
-0.15169 -0.04942 -0.03421
-0.17614 -0.03297 -0.06290
-0.16935 -0.42145 0.07904
-0.15493 -0.18798 0.08084
0.08111 -0.01909 -0.09943
0.14760 -0.01909 0.06683
-0.16640 0.08000 -0.05263
-0.17166 -0.20371 -0.06178
0.16649 -0.36176 0.16336
-0.19187 0.35048 -0.05263
-0.00996 -0.01909 0.14971
0.19971 -0.03116 0.15080
-0.03543 -0.01909 0.09937
0.19971 -0.04482 -0.15736
0.17439 -0.14019 -0.13194
0.19971 -0.08442 -0.09111
0.15050 -0.01909 -0.11220
-0.17165 -0.20432 0.11803
-0.18071 0.39239 -0.06594
0.19971 -0.07494 0.01555
-0.18742 0.38142 0.05871
-0.18759 0.22718 0.07994
-0.19402 0.33556 -0.08756
-0.11596 -0.01909 -0.03510
0.18389 -0.14215 -0.13207
-0.02187 -0.05799 -0.13942
-0.18393 0.15690 0.04431
-0.15260 -0.37563 0.12207
-0.10087 -0.01909 0.12242
-0.15646 -0.12132 0.07816
-0.16559 0.13088 -0.07311
0.00445 -0.01909 0.10764
-0.18356 0.14954 0.10355
-0.15821 -0.05923 0.08014
-0.15480 -0.19390 -0.05856
0.08394 -0.01909 0.12791
-0.07750 -0.01909 0.00423
-0.18751 0.22588 -0.05582
-0.19147 0.29461 0.12272
-0.15170 -0.05154 0.12272
0.19263 -0.34406 -0.16784
-0.08433 -0.01909 0.02908
-0.16440 -0.12429 0.14329
-0.16121 0.02721 0.08460
0.19215 -0.01909 0.02801
0.19099 -0.01909 -0.12756
-0.18183 0.11216 0.13872
-0.17454 -0.08409 0.07440
-0.08215 -0.01909 -0.00344
-0.14147 -0.01909 0.05738
0.19263 -0.30021 0.16689
-0.17806 0.02140 0.10388
-0.18799 0.42109 0.12373
-0.17974 0.06465 -0.06309
-0.16528 -0.04587 -0.11550
-0.16730 0.16586 0.01484
-0.15165 -0.02171 -0.04863
-0.08274 -0.01909 0.01768
0.05975 -0.01909 0.00261
-0.05219 -0.01909 -0.06693
0.02414 -0.01909 0.02089
-0.00198 -0.01909 0.14897
0.17745 -0.34743 0.17311
0.16512 -0.09051 -0.12863
-0.15056 -0.05563 -0.11570
-0.17764 0.01048 -0.10026
-0.05042 -0.07392 -0.13416
-0.17160 -0.20639 0.14324
0.16118 -0.28129 0.15188
-0.17427 0.29286 0.12810
-0.17884 0.04137 0.09184
0.16780 -0.36518 0.17311
-0.16592 0.13823 0.02541
0.01182 -0.01909 0.01171
0.16557 -0.14611 -0.16115
-0.18908 0.25364 0.10945
0.15823 -0.01909 0.15157
-0.17228 -0.17451 0.12217
0.11722 -0.03591 0.17158
0.13170 -0.02819 0.17311
-0.11648 -0.01909 0.05758
0.15252 -0.01909 0.14749
-0.15165 -0.02166 0.02874
-0.17126 0.21235 -0.05263
-0.15169 -0.05016 -0.02659
-0.01148 -0.02953 -0.14133
0.17616 -0.39885 0.15707
-0.15776 -0.07337 -0.05646
-0.16616 0.14321 -0.02812
-0.16967 -0.37252 0.12682
-0.15665 -0.11421 0.04724
-0.15252 -0.39649 0.06798
-0.03540 -0.01909 -0.11617
-0.16510 0.03510 0.07307
-0.17059 0.22879 -0.06744
-0.19218 0.36047 0.07307
-0.19270 0.31441 0.09190
-0.16666 0.15309 0.10545
-0.18307 0.13990 -0.11263
-0.18510 0.17994 -0.11214
0.18453 -0.01909 -0.14249
0.19971 -0.06499 -0.10445
-0.16103 0.02253 0.10878
0.04150 -0.01909 0.00108
-0.18309 0.14023 -0.04689
-0.15440 -0.21398 -0.06348
-0.13687 -0.01909 -0.04222
-0.15168 -0.04630 0.12443
0.16879 -0.27563 0.17311
-0.16972 -0.35801 0.01152
-0.17023 -0.30115 -0.09710
-0.16145 0.03330 0.08114
-0.15716 -0.09557 0.02354
-0.16955 -0.40585 0.13452
-0.15247 -0.41004 0.10101
-0.17269 -0.15537 -0.07624
-0.17605 -0.03569 0.09770
-0.03038 -0.01909 -0.01848
-0.19850 0.40252 0.11465
-0.17128 -0.22550 0.11399
-0.16951 -0.41471 -0.04626
-0.19121 0.29040 -0.09176
-0.18550 0.18798 -0.10562
-0.04864 -0.01909 -0.09199
-0.17330 -0.12958 0.02772
0.17486 -0.20059 -0.13596
-0.17661 0.33047 0.12617
-0.17536 -0.05663 -0.10121
-0.18692 0.38142 -0.00534
-0.16655 -0.14317 0.01449
-0.17082 -0.25553 -0.10841
-0.18049 0.08203 0.08476
-0.19067 0.28180 -0.06271
-0.15386 -0.24872 0.13239
-0.17108 -0.23822 0.08082
-0.18403 0.15875 -0.03354
-0.17051 -0.27568 -0.10619
-0.16296 0.07193 0.11217
-0.01833 -0.01909 -0.09575
-0.18793 0.23429 0.07307
-0.15737 -0.32295 0.14329
-0.16511 -0.33846 -0.05263
0.18291 -0.15047 -0.17311
0.08789 -0.01909 0.00430
-0.05010 -0.01909 -0.01581
0.07074 -0.01909 0.04359
-0.05016 -0.01909 -0.02561
-0.17775 0.01334 -0.11036
-0.15289 -0.32989 -0.09285
0.19395 -0.01909 -0.00371
-0.17750 0.00685 0.08883
-0.16977 -0.34972 0.12633
0.19971 -0.06356 -0.03621
-0.17109 -0.23772 0.10820
-0.16354 0.08503 -0.07185
0.17957 -0.12016 0.14462
-0.18224 0.41485 0.12657
-0.18685 0.21417 0.08896
0.17239 -0.05272 -0.17522
-0.18718 0.22004 0.09437
-0.17559 -0.03424 -0.11550
-0.17174 0.24917 -0.08785
-0.17402 0.28886 0.14168
0.16681 -0.17402 -0.17060
-0.17191 -0.19206 -0.09893
0.19263 -0.29826 -0.16734
0.17445 -0.34688 -0.16179
0.13600 -0.01909 -0.02196
-0.15172 -0.05901 0.07096
-0.15330 -0.28729 -0.06923
-0.17413 -0.09910 -0.01556
-0.19693 0.37951 0.08607
0.17120 -0.29936 0.17311
-0.18147 0.40368 -0.01342
-0.15985 -0.42145 -0.11084
-0.15698 -0.10213 -0.02805
-0.13013 -0.07523 -0.11946
-0.13975 -0.01909 0.02502
-0.01439 -0.01909 -0.01451
0.18903 -0.01909 -0.13709
-0.16083 0.01738 0.10856
-0.18764 0.42112 -0.08885
-0.09864 -0.01909 0.09029
-0.17013 -0.31139 -0.10872
0.18401 -0.14916 0.14591
-0.18038 0.07973 0.10448
-0.15262 -0.37093 -0.01499
-0.02357 -0.01909 0.09180
-0.17310 0.27337 0.08717
-0.15761 -0.23937 -0.05263
0.17493 -0.35767 -0.16142
0.06311 -0.01909 -0.06429
-0.17338 -0.12666 -0.01854
-0.15697 -0.10253 -0.08138
0.19971 -0.04479 0.16753
-0.15244 -0.41736 0.00833
-0.15250 -0.40287 0.07101
-0.19687 0.41551 0.14329
-0.15520 -0.17511 0.10537
-0.16951 -0.41514 0.07164
-0.17108 -0.23841 0.12679
0.02297 -0.01909 -0.06721
-0.17698 -0.00765 -0.08874
-0.07692 -0.03055 -0.12927
-0.17398 0.25572 -0.05263
-0.15690 -0.10501 0.01264
-0.11855 -0.06072 0.14678
0.19263 -0.22368 0.15532
0.14972 -0.10766 0.16646
0.19971 -0.05541 -0.15905
-0.15474 -0.19668 0.13302
-0.15311 -0.30721 -0.05569
-0.01457 -0.01909 0.02375
-0.09601 -0.01909 -0.02165
-0.15658 -0.11675 -0.10567
-0.15357 -0.26753 0.10071
-0.15472 -0.19796 -0.07413
-0.17316 0.24566 0.07307
-0.17420 0.12207 -0.01647
-0.17201 -0.18731 -0.09633
-0.15821 -0.05912 -0.05554
-0.15378 -0.25395 -0.08270
0.18492 -0.05165 0.17870
-0.19165 0.32442 0.14329
-0.17188 0.25170 0.12531
-0.16873 0.19411 -0.05509
-0.19470 0.34645 -0.06465
0.16441 -0.21707 0.14895
-0.18108 0.39789 -0.05946
0.15732 -0.14117 0.17311
-0.18678 0.34530 -0.05263
-0.15165 -0.02425 0.12101
0.19971 -0.05075 0.12347
-0.16205 0.04881 -0.10425
-0.10235 -0.01909 -0.04819
0.16616 -0.15948 -0.14520
0.06885 -0.01909 0.08852
-0.15171 -0.05594 0.03013
0.15444 -0.13761 0.14540
-0.16963 -0.38363 0.00428
0.16764 -0.37918 0.17122
-0.18638 0.20524 -0.10073
-0.15374 -0.25674 0.09716
-0.15257 -0.38227 0.00790
-0.17971 0.16143 0.14329
-0.17104 -0.24101 -0.06375
-0.17066 -0.26550 0.14241
-0.17178 -0.19809 0.09528
-0.18503 0.41444 -0.11550
-0.18013 0.07415 0.10251
-0.17441 0.01333 -0.11550
-0.19147 0.29456 -0.07095
-0.16976 0.21419 0.13024
-0.19105 0.28786 -0.09998
0.16397 -0.10991 -0.16630
-0.17593 0.02504 -0.05263
-0.18560 0.35420 -0.05263
-0.06971 -0.01925 -0.13060
0.19072 -0.35451 -0.17311
-0.12139 -0.01909 0.11511
0.03825 -0.02965 -0.15050
-0.16496 -0.14317 -0.00321
0.17758 -0.01909 -0.14806
-0.15867 -0.04529 -0.08477
-0.02132 -0.03993 -0.13952
-0.16542 0.12696 -0.04693
-0.04793 -0.01909 -0.11697
0.00493 -0.01909 -0.11488
-0.16767 0.17304 -0.08505
0.00831 -0.01909 0.06676
-0.18541 0.18616 -0.06179
0.17822 -0.29807 -0.17311
-0.17034 -0.28973 -0.05397
-0.17042 0.16700 0.02047
-0.14802 -0.01909 0.08484
-0.15252 -0.39682 -0.08653
-0.15549 -0.16169 0.13866
-0.16596 0.13910 -0.05302
-0.16960 -0.39122 0.04653
-0.18511 0.18029 -0.09809
0.18334 -0.08494 0.17139
-0.15262 -0.37075 0.02875
-0.16080 0.01655 -0.07220
-0.17429 -0.09309 -0.05232
-0.16334 0.07736 0.14329
-0.18637 0.20517 -0.10734
-0.16594 0.13867 -0.00897
0.16016 -0.26579 0.16254
-0.18021 0.07572 -0.11038
-0.16970 -0.36409 -0.05360
0.16059 -0.08494 0.16921
0.17733 -0.41207 -0.16111
-0.15255 -0.38889 0.12042
-0.18614 0.20064 0.07953
-0.01629 -0.01909 0.06568
0.19263 -0.21109 -0.15985
0.17983 -0.26120 0.15092
0.14255 -0.01909 0.01214
0.10254 -0.01909 0.03909
-0.18097 0.09279 0.11846
-0.16972 -0.35933 -0.10660
-0.16969 -0.36747 0.01357
0.15554 -0.19579 0.16871
0.15573 -0.19864 0.15872
-0.15924 -0.02771 0.08976
-0.07115 -0.07810 -0.13034
0.17263 -0.23295 0.14966
0.19971 -0.07919 0.15732
-0.17046 0.07071 -0.05263
-0.17951 0.05876 0.07414
-0.17491 -0.07036 -0.08982
-0.15364 -0.26321 0.12543
-0.17715 0.33920 0.10954
-0.17977 0.32038 0.07307
0.12335 -0.01909 0.10819
0.16047 -0.01909 -0.07684
-0.17473 -0.07704 0.11274
0.17482 -0.35518 -0.15365
0.19334 -0.01909 0.03689
-0.19544 0.42058 0.11253
-0.12072 -0.01909 0.06149
-0.17120 -0.22057 -0.05263
-0.17325 0.27597 0.11383
-0.15331 -0.28632 -0.11268
-0.15267 -0.35708 0.13745
-0.19118 0.28984 0.11173
0.16953 -0.14787 0.17311
-0.15589 -0.14297 0.12666
0.18350 -0.35704 0.15520
-0.17269 -0.15527 0.11862
-0.16476 0.11220 -0.06120
0.19263 -0.22891 -0.15671
-0.16888 0.14367 0.14329
-0.10355 -0.07743 -0.12437
-0.19802 0.39549 0.09430
-0.15923 -0.14317 0.05856
-0.17296 -0.14247 -0.06505
-0.17309 -0.09236 0.00185
-0.15608 -0.13535 -0.02883
-0.19139 0.29335 0.13204
-0.18177 0.25849 0.14329
-0.10837 -0.01909 -0.02371
-0.17761 0.34658 0.10826
0.11413 -0.01909 0.10006
-0.19603 0.36623 0.13274
-0.18679 0.21308 -0.11133
-0.17136 -0.22066 -0.05794
0.19971 -0.02456 -0.12921
