0.16673 0.05322 -0.12073
0.01430 0.16754 -0.17401
0.01684 0.07066 0.13013
0.02986 0.06076 -0.07301
0.08484 0.07292 -0.17042
0.15993 0.07066 -0.12959
-0.08873 0.29377 0.21683
-0.14357 0.16951 -0.01663
0.07815 0.07066 0.14953
-0.12058 0.26406 -0.16027
0.11458 0.20736 -0.23295
0.03266 0.07066 -0.00894
-0.09228 0.22048 -0.14299
-0.09311 0.16141 -0.10772
-0.02728 0.16435 0.14765
0.06703 0.23690 -0.22268
0.03418 0.05886 0.01365
0.06438 0.07066 -0.12512
-0.01322 0.28335 0.24762
0.14523 0.07066 0.13984
0.15594 0.15333 -0.20830
-0.02587 0.06001 -0.12940
-0.10091 0.14706 0.08303
0.09599 0.07066 -0.07489
-0.03455 0.15684 0.14147
-0.06264 0.24124 0.17317
0.03590 0.07066 0.12903
0.09064 0.07066 0.05584
0.07659 0.07066 -0.15178
0.01040 0.21632 0.18949
0.11283 0.09900 0.17426
0.06044 0.22843 -0.21577
0.17702 0.05989 0.16989
0.19303 0.00002 -0.14351
0.06253 0.07066 0.13004
0.02241 0.09486 -0.15605
-0.03560 0.07066 0.07403
0.22688 -0.15237 -0.21260
0.14174 0.07066 0.08319
-0.03631 0.07066 0.07996
0.20067 -0.03458 -0.16029
-0.02355 0.08736 -0.13419
0.04127 0.06659 0.15276
-0.03913 0.27414 0.21227
-0.12918 -0.01851 -0.15615
-0.11555 0.27993 0.17735
-0.02901 0.07066 0.05646
0.12320 0.07066 -0.01228
-0.20061 0.28864 0.11023
-0.04123 0.14559 -0.14022
0.16926 0.06722 0.15679
-0.18545 -0.27679 0.26950
0.09321 0.07066 -0.06888
0.10165 0.07066 0.03129
-0.14757 0.22796 -0.09197
0.15662 0.15198 0.19230
-0.07551 0.06349 -0.09202
-0.08759 0.26325 0.17779
0.13404 0.07066 -0.17257
-0.10778 0.28262 0.18733
0.04690 0.19695 0.18985
-0.08263 0.17347 -0.12165
-0.00924 0.07066 -0.05799
-0.07659 0.06952 0.08228
-0.11076 0.19300 -0.10920
0.09073 0.20563 -0.21086
-0.11897 0.12771 -0.05333
0.06036 0.07066 0.11922
-0.17057 -0.22699 0.24913
0.00726 0.07066 -0.10006
-0.12130 0.27971 0.17273
0.12469 0.16346 -0.19843
0.06409 0.07066 0.13370
-0.06656 0.27796 0.20418
0.08018 0.16086 0.18321
0.11143 0.16535 -0.19811
-0.07086 0.08968 0.09388
0.07727 0.19055 0.19423
-0.11020 0.14834 0.07081
0.22777 -0.15128 -0.21718
-0.00256 0.07066 0.07163
0.01593 0.07066 0.07090
0.16009 0.07066 0.09406
-0.01639 0.21657 0.17772
-0.09092 0.07066 0.00206
0.02359 0.19464 0.18321
-0.21704 0.29900 0.12122
-0.05615 0.07066 -0.06795
-0.23949 0.29884 0.08924
-0.09165 0.21095 -0.13663
-0.20140 0.26388 -0.04405
-0.05460 0.27042 0.20139
-0.02009 0.14534 0.14402
0.17211 0.06453 -0.11856
-0.12007 0.27270 -0.17110
0.02348 0.20644 -0.19509
0.10161 0.15352 -0.19250
-0.13991 0.17531 0.03799
0.18201 0.05518 -0.18655
0.09755 0.07066 0.00440
-0.06624 0.21255 -0.15696
0.01075 0.22959 -0.20409
0.20596 -0.05536 0.17067
0.07113 0.07066 -0.01113
-0.12092 0.26099 -0.15683
-0.06033 0.14833 0.12037
0.25769 -0.29410 0.29425
-0.06593 0.07066 -0.05891
-0.04300 0.11455 0.12135
-0.04623 0.07066 -0.04473
0.06874 0.09158 0.16276
0.07357 0.13957 0.17494
-0.12108 0.12770 0.03748
0.08821 0.16977 -0.19505
0.11566 0.16888 0.19317
-0.07241 0.08073 0.09065
-0.01999 0.28143 0.22875
-0.03514 0.07066 0.11029
-0.08058 0.07943 0.08162
0.09198 0.19175 -0.20484
-0.14574 0.19215 0.04998
-0.13536 -0.06468 -0.17588
0.10600 0.06043 -0.17419
-0.14243 0.26430 -0.14402
0.10667 0.13180 -0.18710
0.06819 0.22031 -0.21321
0.06891 0.14082 -0.18074
0.13930 0.07066 0.13112
0.10604 0.17337 -0.20061
-0.05572 0.19449 -0.15353
0.03554 0.13095 -0.16982
0.24312 -0.22138 0.25407
0.14856 0.16641 0.20863
-0.09995 0.24396 0.14946
-0.02523 0.21619 -0.18011
-0.23499 0.29819 -0.09973
0.05443 0.19243 -0.19615
0.17221 0.04373 0.11935
-0.09171 0.19930 0.12270
-0.02287 0.27792 0.22357
-0.01742 0.20923 -0.17943
0.03802 0.05684 0.02031
0.00096 0.27814 0.23512
-0.12709 0.14849 0.04369
-0.09999 0.05174 0.11896
0.01291 0.07066 0.09702
-0.08359 0.07066 0.01870
-0.05441 0.10001 0.10867
0.16171 0.07066 -0.01113
0.08667 0.07066 0.13841
0.04445 0.06229 -0.15961
0.02573 0.07066 0.02937
0.17564 0.06119 -0.17506
-0.05426 0.27033 -0.20799
-0.18684 0.26405 0.07934
0.01173 0.07066 -0.12838
-0.06637 0.13795 -0.11814
-0.13936 0.18697 0.05731
0.17847 0.09350 -0.19868
-0.09448 0.07066 0.01793
-0.11877 0.12142 -0.04607
-0.15330 -0.12745 -0.20892
-0.07208 0.23094 0.15933
-0.13250 0.16553 -0.05724
-0.04290 0.12504 0.12476
0.17111 0.11912 -0.19992
-0.00491 0.25748 0.21157
-0.15995 -0.17834 0.22560
0.07459 0.24037 -0.23565
-0.17189 0.29354 -0.16532
0.09361 0.07066 -0.10176
0.16424 0.07066 -0.08995
-0.11256 0.14123 -0.06980
0.02422 0.24481 0.21100
-0.15729 -0.15821 -0.22879
-0.01166 0.07066 0.10057
0.11708 0.07066 -0.09820
0.24511 -0.22660 0.25641
-0.17911 0.27661 0.11295
-0.06262 0.15167 0.12000
-0.20339 0.26892 -0.05876
0.19729 0.00071 0.14598
0.06073 0.07301 -0.16464
0.11345 0.07066 0.11779
-0.00533 0.13983 -0.15526
-0.23197 0.28866 0.04330
-0.08362 0.16777 0.11152
-0.05658 0.07066 0.02485
-0.13540 -0.05070 -0.17391
0.08471 0.07066 -0.13026
0.18095 0.06751 -0.21241
0.05696 0.23450 0.21216
-0.13931 0.17577 -0.04809
-0.13287 0.15417 0.02769
-0.25889 0.29912 0.02040
0.17916 0.08848 -0.19532
0.14888 0.16597 -0.23818
0.15641 0.07066 -0.11517
0.10721 0.11003 0.17545
-0.09966 0.07066 -0.01868
0.07732 0.07339 0.16212
0.01157 0.07066 -0.04764
-0.14680 0.26656 0.13654
0.07550 0.07066 -0.07283
0.17900 0.04119 0.12212
0.02530 0.26845 -0.23601
0.05273 0.25428 -0.25197
-0.16778 0.28312 0.14242
0.10243 0.21912 0.23084
0.05035 0.07066 -0.04623
0.06490 0.05815 0.10658
0.20154 -0.02018 0.15308
0.00664 0.19141 -0.18112
0.04591 0.20684 0.19411
-0.16305 -0.17244 -0.23396
0.16019 0.14486 -0.22343
-0.08083 0.29413 0.22108
0.08086 0.05964 0.16153
-0.15008 -0.11279 -0.20320
-0.20740 0.26305 -0.01414
0.06957 0.06912 0.15981
0.07887 0.18793 -0.19996
0.01048 0.11634 0.14903
0.05717 0.07066 0.14791
0.19794 -0.02154 0.15746
-0.00150 0.24197 0.20088
-0.23300 0.28785 0.03316
0.03368 0.05882 0.03308
0.13163 0.07066 0.02915
0.01050 0.17141 0.16738
0.07659 0.23423 0.21669
-0.12387 0.26271 0.14984
-0.08899 0.05826 0.06494
-0.11946 0.29417 -0.20645
0.16285 0.07066 -0.04980
0.17630 0.09498 -0.18497
0.03496 0.05954 -0.06733
-0.23875 0.28792 -0.01487
-0.17405 0.28199 -0.13735
0.02652 0.14507 -0.17119
-0.15393 0.19314 0.01637
0.11543 0.14592 -0.19223
0.11698 0.20504 -0.24881
0.18044 0.05666 0.05855
-0.01990 0.19947 0.16680
-0.00910 0.18927 -0.17305
0.06914 0.15597 -0.18546
0.13904 0.17919 -0.21362
0.25413 -0.26113 0.28031
0.17375 0.10994 0.18144
-0.07335 0.28337 0.20776
-0.21957 0.28516 0.07361
-0.20630 0.27457 0.06928
-0.04996 0.09956 0.11193
0.05643 0.06291 0.15601
0.21843 -0.10089 0.19959
-0.01521 0.28409 -0.25283
0.18148 0.06136 -0.21165
0.17534 0.08053 0.17594
0.13171 0.06318 -0.11129
-0.06757 0.23190 -0.17011
-0.17262 0.24757 0.07467
-0.04157 0.07066 0.10101
-0.18416 0.26662 0.08702
0.10876 0.20567 -0.21415
-0.15767 0.19883 0.01388
-0.00830 0.12026 0.14172
-0.10593 0.22497 -0.13591
0.02167 0.07066 -0.10487
0.06369 0.07066 0.05093
-0.13413 0.22043 0.09629
-0.14344 0.24370 -0.11714
-0.08313 0.20995 0.13580
0.13449 0.07066 -0.07917
-0.22823 0.29832 -0.10964
-0.17091 0.21550 0.00010
0.12434 0.07066 -0.15991
0.14489 0.10527 0.17775
-0.09914 0.28352 -0.20192
-0.01211 0.25317 -0.21118
-0.12739 0.20302 -0.09477
0.12229 0.07066 0.16057
0.07529 0.12755 -0.17854
0.04168 0.19370 0.18712
-0.10644 0.20816 0.11692
0.11643 0.07066 -0.16348
-0.12304 -0.00764 0.14983
0.08912 0.07066 -0.10984
-0.01753 0.25013 0.19961
-0.00179 0.17859 -0.17144
0.02098 0.07066 -0.06561
-0.12927 0.23188 -0.12207
-0.14351 0.21243 0.07473
-0.10832 0.16725 -0.09240
0.02154 0.07066 0.12883
0.06442 0.07066 -0.01274
0.15437 0.07066 0.16886
-0.04403 0.09701 -0.12236
0.11215 0.18155 -0.20405
-0.00050 0.07066 -0.04819
0.17982 0.08077 -0.18323
0.00417 0.25289 -0.21819
-0.21981 0.29099 0.08925
0.22162 -0.12867 0.21213
-0.09226 0.20478 0.12557
-0.14855 0.29654 0.18382
-0.18198 0.24311 0.03976
0.11718 0.12429 -0.18651
-0.06566 0.21940 0.15578
0.15019 0.07066 -0.04625
-0.11814 0.18201 -0.08948
-0.09133 0.07803 0.06630
0.12529 0.07066 0.11421
-0.02840 0.07066 0.09247
0.02855 0.17022 -0.18090
0.02255 0.23452 -0.21046
-0.00485 0.22723 0.18921
0.02394 0.06665 0.14582
-0.10127 0.28704 -0.20630
-0.15256 -0.12384 0.20108
-0.04724 0.08243 0.11005
-0.08314 0.06875 0.07587
0.12364 0.07066 0.06001
-0.14244 0.17417 0.02455
-0.04820 0.20459 0.15677
-0.12932 -0.03898 0.16277
-0.18816 0.26810 0.08411
0.02582 0.12903 0.15920
-0.13235 0.26267 -0.14994
-0.08636 0.29885 0.22833
-0.01207 0.07066 -0.04496
0.09997 0.07530 0.16775
0.14932 0.16539 -0.21657
-0.13082 -0.04027 0.15929
0.07034 0.24341 0.25226
-0.07391 0.18438 0.12717
0.08033 0.22485 0.21205
0.18146 0.06153 -0.20376
0.15602 0.05726 -0.17863
0.02955 0.07066 -0.06155
0.00903 0.24877 0.20993
0.12626 0.17577 0.19648
0.17797 0.09371 0.17834
-0.17958 -0.26679 -0.27867
-0.13815 0.26333 0.13971
0.05291 0.07066 -0.15734
-0.21724 0.28454 -0.08331
0.14464 0.07066 -0.01239
-0.01934 0.09350 0.13069
-0.17954 0.22879 -0.00762
-0.13225 0.13951 0.00606
0.14442 0.07066 -0.06333
-0.05251 0.07066 0.01063
0.07117 0.07066 0.14136
0.00081 0.07066 -0.02097
-0.11818 0.23841 0.13094
0.15240 0.13398 -0.19152
0.17964 0.05741 -0.00573
0.03190 0.07066 -0.02160
-0.16900 0.21915 -0.02576
0.08509 0.07066 -0.04084
0.09735 0.13059 -0.18457
0.06131 0.07066 -0.03604
0.13343 0.18672 -0.22262
0.11566 0.10946 0.17642
-0.02101 0.07066 -0.12261
0.01262 0.07066 -0.12100
0.03889 0.07066 -0.04229
0.01245 0.08989 0.14413
-0.06319 0.07390 0.09660
-0.01640 0.14286 0.14482
-0.08932 0.07066 -0.05269
-0.24638 0.29611 -0.05155
0.17090 0.08760 0.17678
-0.21600 0.27044 -0.01129
0.09666 0.07066 -0.16607
0.02407 0.26363 -0.23163
-0.17265 0.23295 -0.05175
-0.00484 0.06870 -0.13981
0.13262 0.07066 0.04078
-0.00151 0.06251 0.13403
0.05405 0.11356 -0.17008
-0.17383 0.24574 0.07067
-0.09572 0.17914 -0.11460
0.25455 -0.27876 0.28482
-0.15994 -0.15740 -0.22514
-0.08022 0.06906 -0.08373
-0.15662 0.28186 -0.15570
0.06661 0.15357 0.17757
-0.02427 0.25834 0.20370
-0.19015 0.28334 0.11166
-0.09281 0.13799 -0.09548
0.02795 0.05986 -0.15337
0.10991 0.16146 -0.19658
-0.11069 0.06828 0.02422
-0.01986 0.07066 -0.06453
0.04225 0.11231 0.16041
0.02486 0.22915 -0.20762
0.13700 0.18194 0.22875
-0.11968 0.19822 -0.10132
0.13322 0.18174 0.19918
0.09786 0.07066 0.05888
0.03844 0.23285 -0.21319
-0.05045 0.06438 0.10363
0.22410 -0.12478 -0.20455
-0.06622 0.06647 -0.09983
0.07330 0.06255 -0.16656
-0.14124 -0.09200 0.18460
0.18829 0.01782 -0.13313
0.21962 -0.11637 0.20705
-0.05213 0.07066 0.00230
-0.17220 -0.23430 0.25211
0.08244 0.23477 0.22486
0.08412 0.17255 0.18857
-0.10579 0.07066 -0.01812
-0.02723 0.18297 -0.16195
-0.05866 0.15459 0.12418
0.01928 0.26298 -0.22998
-0.14015 0.21482 0.08196
-0.00901 0.09670 -0.14243
-0.08524 0.05752 0.11199
0.08810 0.07066 -0.00860
0.01096 0.12850 -0.15899
-0.01552 0.07066 -0.00870
0.18091 0.06807 0.19355
0.16774 0.12983 0.21071
-0.05625 0.24781 0.18070
0.16806 0.06836 0.04199
0.03256 0.17339 0.17652
0.17430 0.06246 0.16748
0.07344 0.06152 -0.10920
-0.05479 0.05800 -0.11515
0.15677 0.07066 -0.15967
-0.09663 0.07066 -0.05734
0.03400 0.07066 -0.13309
0.01183 0.22707 0.19653
0.19026 0.01348 0.14148
0.24632 -0.24008 0.26461
0.10885 0.05817 -0.11245
0.15366 0.05667 0.11557
-0.02837 0.07066 -0.04212
-0.07540 0.13678 0.10430
0.08440 0.05731 0.10838
0.12945 0.12699 -0.18807
0.17143 0.11802 0.20114
-0.24749 0.29902 -0.07609
0.06800 0.18393 0.18901
-0.15637 0.25071 0.10159
-0.18388 -0.29639 0.27560
0.10389 0.17835 -0.20205
0.05481 0.07066 0.01458
0.10870 0.07066 0.04722
-0.03929 0.11138 0.12314
-0.02169 0.21896 -0.18334
0.06333 0.13529 -0.17770
-0.09678 0.23039 0.14021
-0.11417 0.16653 -0.08369
0.21507 -0.08233 -0.17933
-0.06477 0.18327 -0.14003
0.13438 0.07066 0.13523
-0.08064 0.28687 0.20945
0.12207 0.12765 0.18112
0.10483 0.21679 0.21528
-0.13537 0.29377 -0.19346
-0.06670 0.07066 0.07951
0.07319 0.07066 -0.11079
0.01672 0.16529 0.16761
0.15831 0.07066 0.08694
0.16458 0.05515 0.11346
0.14011 0.07066 -0.00674
-0.05149 0.06621 -0.10939
-0.02194 0.11021 -0.13954
0.01253 0.07066 0.11332
0.10094 0.12226 0.17688
0.01235 0.07066 -0.08106
-0.15238 -0.14026 -0.21350
0.00040 0.16421 -0.16645
0.02767 0.07066 -0.05230
-0.17231 -0.23179 -0.26510
-0.15268 0.18286 -0.00377
0.07403 0.19902 -0.20384
-0.09815 0.17930 0.10630
0.08990 0.07066 -0.12226
0.08934 0.07066 -0.02869
-0.18619 0.24040 0.01172
-0.14340 0.20407 0.06676
0.13475 0.11527 0.17922
-0.15631 0.26730 0.12714
0.17970 0.08216 -0.19930
0.10647 0.07066 -0.02279
-0.19780 0.29795 -0.15089
0.05040 0.07066 -0.10294
-0.08792 0.25147 -0.17184
-0.13332 0.17684 0.05792
-0.00579 0.17831 -0.16954
-0.21000 0.27051 -0.03807
-0.03814 0.18220 -0.15677
-0.01558 0.07066 0.06027
0.10820 0.12445 -0.18570
0.11727 0.07066 -0.06632
-0.00760 0.07066 -0.08399
-0.15101 0.25246 -0.11829
-0.14177 0.16437 0.00754
-0.03765 0.07066 0.06696
0.05740 0.17861 0.18445
-0.18008 0.23622 -0.03052
0.02987 0.07066 -0.09590
0.01867 0.09691 -0.15478
0.10795 0.07066 0.03287
-0.18700 -0.28406 -0.29169
0.02444 0.06070 -0.08241
0.07867 0.07066 0.06215
0.03547 0.05790 0.06671
-0.00463 0.18571 -0.17326
0.01376 0.10807 0.14831
0.07952 0.13428 -0.18128
0.00523 0.07066 -0.02462
0.15395 0.15729 -0.21929
0.15927 0.06897 0.17351
-0.03044 0.27350 -0.22198
-0.12656 0.29818 0.20450
-0.05292 0.07066 -0.05172
0.00634 0.20614 0.18180
0.04037 0.20245 -0.19733
0.04477 0.07066 0.01572
-0.14445 0.17875 -0.03159
-0.09653 0.28472 -0.20589
-0.07787 0.15487 -0.11633
-0.14199 0.17030 0.01864
-0.17790 0.23666 -0.04167
0.10844 0.13880 -0.18959
-0.04400 0.06152 0.11471
0.15825 0.07066 0.13528
-0.18603 -0.28705 -0.28701
-0.06911 0.16952 0.12335
-0.09763 0.21275 -0.13341
0.06354 0.20001 0.19524
-0.13939 0.17643 0.04256
0.05792 0.08261 0.15861
0.16304 0.13919 0.22381
0.03004 0.07066 -0.07182
0.11081 0.07066 -0.07148
0.13483 0.07066 0.11486
0.01129 0.08203 -0.14866
0.08773 0.07066 -0.09140
0.16208 0.07225 -0.18060
-0.04547 0.29131 0.23135
0.01884 0.07066 -0.10921
0.16473 0.07066 -0.14359
-0.01579 0.19499 -0.17293
-0.07903 0.27356 -0.20045
0.22064 -0.10464 0.19725
-0.01406 0.06402 0.12862
-0.08524 0.25905 0.17520
-0.14652 0.18372 -0.03262
0.15918 0.07066 -0.14218
-0.03666 0.07066 0.01909
0.03737 0.06037 0.04255
0.14628 0.16947 -0.23431
0.11684 0.07066 -0.10438
-0.15463 -0.15454 -0.22352
0.03337 0.26440 -0.24145
-0.08077 0.07066 0.03648
-0.17527 0.29368 -0.16311
0.15959 0.14606 0.20896
-0.11744 0.27136 0.16482
-0.15860 0.26015 -0.11942
0.00314 0.27734 0.23997
0.02433 0.08634 -0.15528
-0.15483 0.26813 -0.13732
0.03618 0.14824 -0.17517
0.05492 0.25314 0.24001
0.16019 0.07066 0.03651
0.02046 0.07066 -0.11317
0.09296 0.11244 -0.17915
-0.02699 0.24182 -0.19598
0.00409 0.07066 -0.04919
0.05853 0.23909 0.21552
0.14679 0.16879 -0.22840
0.11523 0.07066 0.16455
0.03353 0.07066 0.01057
0.22737 -0.15552 -0.21709
-0.20095 0.27497 -0.08582
0.08343 0.07066 -0.08466
0.15706 0.07066 0.10904
-0.08089 0.07459 -0.08674
0.07701 0.07066 0.08386
0.11815 0.10920 -0.18310
0.10470 0.15657 -0.19418
0.11069 0.07066 0.16018
0.01956 0.07066 -0.08295
0.10020 0.22128 0.24101
-0.04054 0.07066 -0.05669
-0.01470 0.06202 0.11066
-0.16600 0.25484 -0.10096
-0.13437 0.14062 -0.00512
-0.04599 0.18937 -0.15670
0.00446 0.07066 -0.08368
-0.12499 -0.00011 0.14566
-0.22970 0.28482 0.02669
-0.17372 0.28659 -0.14928
-0.09917 0.16600 -0.10428
-0.13724 0.15652 -0.01889
-0.22197 0.28455 0.05887
-0.25754 0.29728 -0.01425
-0.10828 0.26109 0.15993
-0.15142 -0.11865 -0.20509
0.12374 0.07066 0.08156
-0.05786 0.29027 -0.23092
-0.06989 0.14240 -0.11729
0.10383 0.07066 0.00929
-0.12885 0.19761 -0.08795
-0.13838 -0.05946 0.17173
0.12134 0.14788 -0.19326
-0.18426 -0.27151 -0.28532
-0.14322 0.24959 -0.12487
0.04958 0.10517 0.16053
-0.07623 0.28674 -0.21777
0.04951 0.05725 0.09049
-0.00652 0.17319 -0.16709
0.16367 0.07066 -0.03899
0.23664 -0.17814 0.23697
0.17091 0.06566 0.09897
-0.05520 0.07066 -0.02233
0.01702 0.07066 -0.01939
0.18197 0.05562 0.20707
0.04568 0.17769 -0.18783
0.11163 0.07066 -0.14965
0.06513 0.09427 0.16237
0.10362 0.07066 -0.01376
0.02707 0.05675 0.07772
-0.00346 0.25101 -0.21316
0.13429 0.07066 -0.11412
-0.13772 0.29526 0.18883
-0.00505 0.07066 0.02459
0.12887 0.07066 0.14644
0.01083 0.07066 0.04818
0.07709 0.13604 0.17469
-0.12939 -0.03865 -0.16331
-0.01526 0.28410 -0.24733
-0.02404 0.19084 0.16065
-0.16140 0.27976 -0.14905
0.06340 0.22130 0.20606
-0.11849 0.23572 -0.13494
0.07507 0.07066 0.04164
-0.10508 0.07747 -0.05350
0.08456 0.23326 0.24860
-0.15598 0.24156 0.09037
-0.02289 0.22752 0.18136
0.20346 -0.04719 0.16836
-0.15186 0.21905 0.07003
0.16410 0.13708 -0.19399
0.04862 0.10105 -0.16612
-0.04129 0.27672 -0.22063
-0.04589 0.25962 -0.20174
0.08961 0.07066 -0.13633
0.22512 -0.13106 -0.20774
0.18049 0.05797 -0.18057
0.05830 0.13821 0.17085
-0.07239 0.22767 0.15663
0.17637 0.06050 0.09068
-0.07289 0.24307 -0.17568
0.05155 0.23381 -0.21695
-0.09359 0.07066 0.01161
0.04382 0.07066 -0.04969
-0.09915 0.07044 0.05383
0.13374 0.17458 0.19662
-0.16187 0.20827 0.01868
0.00160 0.20011 0.17667
-0.12120 0.25287 0.14162
0.13017 0.07066 0.11103
-0.03440 0.07066 -0.11557
-0.03340 0.22942 -0.18437
0.16347 0.07066 -0.06886
0.02049 0.13714 0.15929
-0.09881 0.14713 -0.09256
0.06583 0.24662 -0.23547
-0.00832 0.07066 -0.09900
0.14992 0.10275 0.17771
0.17208 0.11575 -0.22470
-0.12687 0.17727 0.06726
0.07501 0.24007 0.24807
-0.12888 0.16440 -0.06155
-0.17281 0.23273 0.04378
-0.08199 0.26186 -0.18712
0.10286 0.19449 -0.20870
-0.04510 0.07677 0.11066
0.14066 0.10860 0.17813
0.04826 0.25662 0.24428
0.10300 0.10500 0.17332
0.06306 0.18812 0.18971
-0.21577 0.28509 0.08018
0.07160 0.07066 -0.03825
0.02725 0.07066 -0.03912
0.15503 0.07066 -0.00291
-0.06714 0.16436 0.12226
0.13932 0.07066 -0.09728
0.18954 0.02317 0.13250
-0.17139 0.25349 -0.09137
-0.10666 0.07072 -0.04986
0.17820 0.05877 0.06628
0.15810 0.09547 -0.18366
0.16335 0.13857 -0.22111
-0.24699 0.29748 0.05617
-0.04471 0.07020 0.11004
-0.16372 0.20908 0.01290
-0.04768 0.21214 -0.16772
-0.01609 0.19716 0.16734
0.02772 0.08634 0.15025
0.01950 0.20242 0.18576
0.18293 0.03149 -0.12557
0.11474 0.15030 0.18693
-0.05062 0.21787 0.16328
-0.03619 0.09712 0.12176
-0.14440 0.27814 0.15324
-0.01686 0.28469 0.23847
-0.15609 0.27893 0.14545
-0.10380 0.15725 0.08507
-0.01688 0.20931 0.17317
-0.05974 0.25731 -0.19359
0.08337 0.07066 -0.02377
-0.15218 0.20246 0.04695
0.21992 -0.10215 -0.18955
-0.19161 0.27261 0.08786
0.05941 0.05977 0.09472
-0.17087 0.21728 0.00548
-0.10951 0.17515 -0.09652
0.09672 0.16623 0.18921
0.17952 0.05752 -0.11855
0.17029 0.06625 -0.00973
-0.15996 0.24980 0.09518
-0.07387 0.07002 -0.09455
-0.03625 0.09756 -0.12836
-0.16336 -0.17373 0.22558
-0.17067 -0.22648 -0.26136
0.11964 0.18702 -0.20682
0.03681 0.07066 0.02520
0.05425 0.07066 -0.08845
-0.13074 0.14843 -0.03408
-0.14982 0.24089 -0.10469
-0.12074 0.01531 -0.13754
0.13173 0.07066 0.01980
-0.04672 0.16525 -0.14466
0.07031 0.07066 -0.12523
0.14773 0.12398 -0.18877
0.17332 0.06338 -0.09623
-0.11164 0.15043 -0.07657
0.08129 0.07066 0.13675
-0.03066 0.14940 0.14069
0.02947 0.22826 -0.20825
-0.06577 0.18060 0.13140
0.16519 0.07066 -0.00677
-0.08799 0.21288 -0.14077
-0.14739 0.28807 -0.17321
-0.11463 0.17715 0.08429
0.09370 0.22674 -0.24759
-0.20076 0.29201 -0.12515
0.00392 0.05716 0.10485
0.25079 -0.26087 -0.26280
0.21508 -0.07963 0.18438
-0.17731 0.29215 0.15123
0.18126 0.05588 -0.05510
-0.04266 0.19833 0.15611
-0.01846 0.07066 -0.11270
0.17618 0.10148 0.18958
0.15784 0.14106 0.18748
0.15690 0.07066 -0.08314
0.20559 -0.04544 -0.16833
0.03005 0.08604 -0.15777
-0.09818 0.13670 -0.08721
-0.00393 0.07066 -0.11306
-0.15203 -0.14141 -0.21851
-0.13022 0.14040 0.01649
0.16876 0.12731 0.19875
0.09720 0.07066 0.12269
-0.06400 0.07066 0.06030
0.23866 -0.19293 -0.22994
0.13122 0.18969 0.21523
-0.15441 0.20678 -0.05429
-0.05334 0.19163 0.14706
-0.09105 0.22286 0.13908
-0.08695 0.25067 0.16519
-0.12195 0.27838 -0.17705
0.00535 0.18974 0.17317
0.08854 0.15196 0.18234
-0.07636 0.26932 0.19053
0.03865 0.16707 -0.18213
-0.12387 0.24337 0.13090
0.07604 0.05873 -0.16682
-0.05324 0.07066 0.04955
-0.18403 0.28128 0.11508
-0.24226 0.29210 -0.02923
-0.02226 0.12520 -0.14336
-0.21108 0.27146 0.03176
-0.16291 0.25006 0.09144
0.13039 0.16098 0.19142
-0.00194 0.05830 -0.13990
-0.11471 0.23189 0.12796
-0.18837 -0.29917 -0.29156
0.13915 0.14272 -0.19309
-0.14838 0.20740 -0.06928
-0.14615 -0.11504 -0.20211
-0.16980 0.22330 -0.03438
0.05544 0.19854 -0.19917
-0.16604 0.21444 0.01843
0.24139 -0.21029 -0.23776
0.10991 0.21188 -0.23527
-0.18419 -0.29574 -0.28901
-0.09546 0.23591 0.14595
0.14637 0.06804 0.17244
-0.03897 0.29055 0.24033
-0.17975 0.26432 -0.09622
-0.24669 0.29400 0.02239
0.16694 0.13143 0.19871
-0.10146 0.06532 0.04955
0.15254 0.06335 -0.17898
-0.20482 0.28840 -0.11029
0.05741 0.17425 0.18281
-0.11076 0.21366 0.11761
0.13289 0.09797 -0.18216
0.06230 0.19256 0.19155
-0.00928 0.07066 -0.11389
0.25385 -0.25778 0.27350
0.15096 0.07066 -0.00278
-0.14236 -0.08877 -0.18666
-0.25404 0.29632 -0.01998
0.15118 0.07066 -0.13583
0.14664 0.07066 0.15797
0.07080 0.07066 0.01766
0.14681 0.07964 -0.18018
-0.06019 0.07066 -0.00967
-0.16586 0.25796 0.09939
-0.09737 0.15459 0.09247
-0.13417 0.16061 0.03332
-0.12604 0.17272 0.06507
-0.00967 0.05647 -0.11244
-0.04676 0.11487 -0.12516
-0.17658 0.28062 0.12412
-0.00605 0.22969 -0.19668
0.12896 0.19272 0.23262
-0.09121 0.19388 0.11981
-0.08905 0.28525 0.20343
0.04294 0.07066 0.00370
-0.03244 0.07066 -0.02144
-0.00187 0.13453 0.14847
0.14437 0.11767 0.18051
-0.03014 0.05592 -0.12561
-0.16458 0.21120 -0.02192
-0.01647 0.16253 0.15171
0.01909 0.22079 0.19515
-0.11038 0.07579 -0.03635
-0.18116 0.29485 -0.16157
-0.02207 0.07066 0.11587
0.11739 0.06617 0.17004
0.16708 0.06929 0.08351
-0.19846 0.26472 -0.06058
0.01813 0.20763 -0.19432
-0.16483 0.27781 -0.14175
-0.15797 0.23277 0.07650
-0.11358 0.12529 -0.05984
-0.06039 0.07066 0.00361
-0.04077 0.07066 -0.01162
0.22521 -0.13806 -0.21123
0.10830 0.06707 0.16889
-0.14164 0.15988 -0.00105
0.14248 0.10126 -0.18344
-0.08420 0.13441 0.09669
0.14440 0.11320 0.17948
0.14140 0.07066 -0.14985
-0.12913 0.12889 0.00361
0.13454 0.07066 0.16060
-0.15024 0.25725 0.12015
-0.16983 0.22392 0.02950
-0.05187 0.19503 -0.15675
0.01726 0.07789 -0.15069
-0.06455 0.07066 -0.03447
0.07094 0.24259 -0.22732
-0.06084 0.18153 0.13559
-0.08010 0.07066 -0.07088
-0.08804 0.07066 -0.00894
0.13309 0.07066 -0.09373
0.15651 0.07066 -0.04012
0.25093 -0.24260 -0.25727
0.17763 0.09644 0.21611
-0.14202 0.25733 0.13055
0.14967 0.06010 0.17189
-0.08009 0.20479 -0.14131
-0.13426 0.22387 -0.10627
0.09424 0.06848 0.16567
-0.00813 0.19852 0.17156
0.00665 0.07066 -0.13626
-0.05495 0.15318 -0.13295
-0.07847 0.05953 0.11005
-0.03106 0.14202 -0.14456
-0.08784 0.07227 0.07001
0.03936 0.11847 0.16120
0.05804 0.05982 -0.10070
0.12931 0.19226 -0.24350
0.02629 0.26121 0.22372
-0.08895 0.07066 -0.00277
-0.10982 0.28405 -0.19476
-0.08423 0.07066 -0.01091
0.06639 0.24622 0.22758
0.25520 -0.29639 -0.28076
0.09832 0.06029 0.10956
0.08439 0.10265 -0.17498
0.12840 0.17254 -0.20202
0.16953 0.04753 0.11618
-0.05074 0.12287 -0.12469
0.01764 0.06348 -0.14920
0.07443 0.07066 -0.03013
0.14799 0.07066 -0.17402
-0.12849 -0.03429 -0.16434
0.17128 0.06531 -0.05257
0.13065 0.07066 0.06329
0.02279 0.21115 0.19080
-0.11693 0.24358 0.13633
0.25138 -0.26521 0.28013
0.01456 0.07066 0.08740
-0.01391 0.23000 0.18683
0.14111 0.06302 -0.11344
-0.03335 0.18067 0.15173
0.06314 0.15582 0.17743
0.14411 0.11306 -0.18597
0.17141 0.05255 -0.11757
-0.06838 0.26920 0.19395
0.01229 0.07415 0.14150
0.04922 0.05837 0.08115
-0.15091 0.22614 -0.08538
-0.13128 0.15590 -0.04409
-0.15798 0.29105 -0.17029
0.17095 0.11969 -0.19388
-0.14921 -0.12731 -0.21198
0.10049 0.07066 -0.02121
-0.05306 0.09460 0.10845
0.03583 0.06077 -0.02332
-0.07883 0.28933 0.21372
0.18693 0.01848 0.13666
0.18986 0.01134 -0.13922
-0.03793 0.05631 0.11324
-0.00057 0.09968 0.14021
0.24473 -0.23478 0.26506
-0.17312 0.23619 0.05451
-0.17567 0.23738 -0.05398
-0.21105 0.26471 -0.00141
-0.13515 -0.04609 -0.16676
0.18001 0.07857 0.21084
-0.13591 0.24490 -0.12920
-0.18389 -0.28596 0.27453
0.17743 0.05950 0.14946
-0.06981 0.07066 0.05043
-0.24341 0.29074 -0.01392
-0.08099 0.07859 -0.08742
-0.07423 0.06341 0.11223
-0.07107 0.07066 -0.01176
-0.17611 0.23251 -0.03500
-0.10932 0.06977 -0.03762
-0.17731 0.25994 0.08640
-0.07837 0.18443 -0.13037
0.10503 0.07066 0.09127
-0.02291 0.08344 -0.13373
-0.09261 0.07066 -0.01489
-0.12091 0.12049 0.02888
-0.08287 0.28262 0.20246
-0.04182 0.05993 0.11080
0.10025 0.22123 -0.22812
-0.21069 0.27710 0.06331
-0.12355 0.12155 -0.02518
-0.20062 0.28587 -0.10986
-0.19234 0.28066 -0.10869
0.22221 -0.13116 -0.20279
-0.07857 0.24843 0.16945
0.05353 0.07066 0.04495
0.09662 0.19370 -0.20685
0.21283 -0.06882 0.18042
-0.11449 0.05855 -0.00853
-0.16411 0.26108 -0.11314
-0.13761 -0.07667 0.18032
-0.12168 0.13327 0.04224
-0.02463 0.15656 -0.15233
0.16688 0.08056 -0.18184
0.10736 0.11907 -0.18420
-0.17525 0.27555 -0.12289
-0.04893 0.27236 -0.21254
-0.21643 0.27978 -0.05880
0.18064 0.07113 0.19810
0.10858 0.21317 0.21196
-0.11701 0.18852 -0.09648
-0.02991 0.22934 0.17932
-0.18754 0.24612 0.02583
0.00776 0.07066 0.02143
-0.18795 0.25299 0.05050
0.17502 0.06178 -0.06023
-0.00546 0.05833 0.10677
-0.18117 0.26314 0.08587
0.16330 0.09164 -0.18342
0.15525 0.13795 0.18637
-0.10393 0.12500 0.06666
-0.16321 0.20314 -0.00664
0.02227 0.05656 -0.08981
0.13620 0.07994 -0.17940
-0.06518 0.25698 -0.19088
-0.23748 0.28644 0.00369
-0.03899 0.20968 -0.17011
-0.00543 0.20252 -0.18130
-0.06037 0.15911 0.12475
0.25361 -0.27298 -0.27261
-0.15497 0.26245 0.12146
-0.08449 0.05790 -0.07777
-0.23014 0.29246 -0.08569
0.03497 0.26357 0.23676
-0.06138 0.29002 0.22246
0.00590 0.05746 -0.14329
-0.02552 0.05673 0.12245
-0.00116 0.27892 0.24455
-0.09259 0.05641 0.06015
-0.10110 0.27474 -0.18807
0.06016 0.16122 0.17854
-0.03797 0.27218 -0.21722
-0.23895 0.29604 -0.08359
0.22979 -0.14608 0.21864
-0.11736 0.21232 0.11119
-0.00947 0.06740 0.13105
-0.09115 0.05740 -0.06891
-0.10210 0.18945 -0.11547
-0.19914 0.29195 0.12064
-0.12987 0.19727 0.07969
-0.07855 0.16688 0.11490
-0.13979 0.15674 -0.00803
0.07180 0.05735 -0.10608
-0.08982 0.15798 0.10203
0.02244 0.12151 -0.16225
0.22309 -0.11784 -0.19617
-0.10756 0.03895 -0.12756
0.16791 0.05553 -0.11492
0.17569 0.06114 0.10143
-0.04460 0.23836 0.17914
0.17442 0.04288 -0.12138
-0.22433 0.29386 0.09234
0.16777 0.06863 0.16982
0.18062 0.07138 0.18784
0.22635 -0.13514 0.21663
0.05398 0.07066 -0.13777
0.02793 0.19535 0.18457
-0.15551 -0.14895 0.21632
-0.08448 0.22077 0.14255
-0.15019 0.22838 -0.08874
-0.10962 0.23766 0.13675
-0.02637 0.28278 0.22781
-0.19889 0.25237 -0.00031
0.07406 0.17478 -0.19354
-0.13969 -0.07964 -0.18226
-0.05765 0.22595 -0.17152
0.03825 0.26185 0.23141
-0.20419 0.27911 0.08263
-0.18057 -0.26738 -0.28362
-0.10652 0.18715 0.10341
0.15350 0.08018 0.17422
-0.14759 0.18856 -0.03958
0.08252 0.15286 0.18117
-0.05903 0.07267 -0.10612
-0.02184 0.19341 -0.16945
-0.08151 0.19964 0.13060
-0.15565 0.20313 -0.03986
0.13903 0.10505 -0.18381
0.12893 0.07066 -0.11065
0.01436 0.24470 -0.21511
0.10532 0.07066 -0.14274
-0.02754 0.13213 -0.14284
-0.07591 0.16891 0.11791
-0.10805 0.13830 0.06782
0.07006 0.07066 0.13176
0.03787 0.24781 0.21623
-0.19085 0.29004 -0.13393
0.09690 0.22445 0.22069
-0.09822 0.20874 -0.13008
-0.17069 0.21623 -0.00977
-0.17514 -0.24341 0.25379
-0.18668 0.24384 0.02164
-0.05931 0.07066 0.01383
0.11604 0.07066 -0.03947
-0.01097 0.07066 0.08924
0.09591 0.06141 -0.11431
-0.06767 0.26307 0.18850
0.15416 0.07066 -0.06622
0.01080 0.09707 0.14477
-0.02519 0.14735 -0.14897
-0.14825 0.23968 0.09881
0.07190 0.22043 0.20763
0.17031 0.12191 0.19880
0.02580 0.07066 -0.15008
-0.07269 0.24721 -0.17938
-0.21279 0.27333 -0.04070
-0.18319 0.27371 -0.10827
0.02383 0.06170 -0.15175
-0.17694 0.22461 0.00025
0.22278 -0.11884 0.20244
-0.11819 0.28472 -0.18958
-0.10030 0.13272 -0.08188
0.03511 0.07066 0.04921
0.11238 0.07066 -0.14147
0.12344 0.18280 0.19882
0.14944 0.06046 0.11214
-0.00102 0.07066 0.12759
-0.04472 0.19329 -0.15922
-0.10290 0.04647 -0.12064
-0.03197 0.14847 -0.14633
-0.12161 0.17550 -0.07986
0.22596 -0.14663 -0.21426
0.16020 0.14483 -0.20357
-0.23331 0.29300 0.07113
0.08092 0.19313 0.19628
-0.00647 0.27323 -0.23235
0.03810 0.07066 -0.05042
-0.02290 0.20699 -0.17576
-0.18132 0.29191 0.14545
0.05942 0.07066 -0.05997
-0.02203 0.16412 -0.15644
-0.02186 0.07066 -0.04351
-0.01630 0.10052 -0.13992
-0.14018 0.19107 0.05979
-0.12855 0.12582 -0.00872
-0.07332 0.19336 -0.13955
0.13961 0.12257 0.18128
0.20027 -0.02735 -0.15336
0.02380 0.15887 -0.17464
-0.04575 0.23022 0.17283
0.13732 0.18149 -0.22173
0.02944 0.25141 -0.22330
0.12687 0.15448 -0.19563
0.00282 0.07721 0.13764
-0.16510 0.21350 -0.02632
0.25501 -0.28141 0.28878
0.08520 0.23280 -0.24745
-0.09195 0.14086 -0.09841
-0.19712 0.29380 0.13023
-0.21322 0.29294 0.10454
-0.04358 0.18291 0.14811
-0.11736 0.01590 -0.13359
0.06215 0.07877 0.15904
0.11711 0.11460 0.17772
-0.17449 -0.23774 -0.26892
-0.02431 0.07066 -0.03005
-0.12070 -0.00017 0.14398
0.03737 0.15261 0.17026
-0.00709 0.07066 0.06023
-0.01230 0.26081 0.21116
0.02720 0.22476 -0.20580
0.16390 0.13749 0.20668
0.21390 -0.07449 -0.17691
0.01237 0.23638 -0.20922
-0.14704 0.19674 -0.06174
-0.01722 0.19230 0.16441
-0.06587 0.08317 -0.10269
0.11430 0.07066 -0.17036
0.01736 0.11862 0.15269
-0.03025 0.07066 -0.11889
-0.25795 0.29639 -0.00345
-0.12946 0.19393 0.07731
0.14618 0.10028 0.17702
-0.22455 0.27963 -0.02224
0.13468 0.07066 0.07726
0.01537 0.25514 0.21632
0.00741 0.16452 0.16315
-0.04257 0.07066 0.01889
-0.23589 0.28719 -0.02246
-0.13105 0.15474 0.03663
0.00304 0.06559 0.13641
-0.10366 0.16268 0.08902
0.06159 0.11036 0.16458
0.13289 0.05991 0.10902
-0.15182 -0.13959 0.21060
-0.19605 0.26671 -0.07707
0.11933 0.07066 -0.01449
-0.18136 -0.27104 0.27242
-0.17343 0.23022 -0.03877
0.08148 0.11229 -0.17636
0.02892 0.16830 0.17372
-0.05601 0.07066 0.07691
0.07975 0.05898 -0.10692
0.11861 0.20346 0.23757
-0.10212 0.12619 -0.07629
-0.06689 0.07422 -0.10040
0.05595 0.09793 -0.16734
0.15099 0.07066 -0.16008
-0.13561 0.19907 0.07325
-0.09038 0.07066 -0.06168
-0.13429 -0.06190 0.17228
0.14328 0.05732 0.11489
0.05670 0.15608 -0.18251
-0.25356 0.29498 0.00199
0.05396 0.07088 0.15625
-0.04851 0.13598 0.12428
-0.20290 0.29604 -0.13681
-0.20440 0.26444 0.02668
-0.05468 0.25564 -0.19439
-0.12150 0.21269 0.10580
-0.13647 0.21063 0.08268
0.17077 0.06580 0.08798
-0.19848 0.25272 -0.00949
-0.10332 0.07066 -0.04553
-0.23905 0.29529 -0.07556
-0.07407 0.26469 0.18706
0.00145 0.06042 -0.10819
0.25072 -0.25010 -0.26319
-0.05710 0.07066 -0.00014
0.20707 -0.05509 -0.17278
-0.14510 -0.09380 0.18451
-0.08982 0.05473 0.11649
-0.22285 0.28181 0.03595
0.10899 0.21278 0.23328
0.00851 0.23877 -0.20958
0.13069 0.07066 -0.06257
-0.21213 0.27529 0.04741
0.02053 0.26427 0.22475
0.09358 0.06550 -0.17174
0.04823 0.19387 -0.19531
0.05949 0.07066 0.07614
-0.19432 0.26005 -0.05894
0.09560 0.20282 -0.21075
0.00549 0.11177 -0.15215
0.02740 0.06091 0.08030
0.02994 0.26473 -0.23391
0.01095 0.07066 0.03881
0.11411 0.19430 0.20305
0.00687 0.07066 -0.09109
0.11159 0.13877 0.18327
-0.11803 0.15227 0.06219
0.26226 -0.29202 0.29258
-0.16893 0.24370 -0.08149
-0.23538 0.29167 0.04916
-0.14754 0.20208 0.05922
0.08196 0.07066 0.15091
-0.20782 0.27184 0.04814
-0.02593 0.20335 0.16605
0.25449 -0.26498 -0.26988
0.00635 0.07066 0.10923
0.04818 0.14935 -0.17839
0.07483 0.16826 0.18472
-0.15839 0.20136 -0.02348
-0.14815 0.18764 -0.03486
0.16062 0.07066 0.15008
-0.11066 0.20800 -0.12016
0.25610 -0.28606 0.28873
-0.18588 0.25639 -0.07553
0.04339 0.07066 0.09500
-0.10430 0.26561 0.16764
-0.13362 0.16284 -0.04679
0.14279 0.16556 -0.20058
0.04649 0.18892 0.18610
-0.00662 0.07066 0.06814
0.10712 0.07066 -0.09980
0.10457 0.07066 -0.12759
-0.12855 0.22659 -0.11713
0.05490 0.24339 -0.22398
-0.22303 0.27963 0.02240
-0.12489 0.26973 -0.16363
0.14997 0.15252 0.19027
-0.18889 0.25736 0.06489
0.00014 0.14096 -0.15808
0.01648 0.11667 -0.15833
-0.17545 -0.23434 0.24918
0.11489 0.07066 0.07385
-0.11483 0.15479 0.06817
0.05162 0.07605 -0.16277
0.04450 0.11810 0.16234
0.19260 0.00192 0.14597
-0.13507 -0.04426 0.16401
-0.14310 0.22647 -0.09665
-0.03371 0.09262 -0.12914
-0.14284 -0.09683 -0.19150
-0.15006 0.26304 -0.13579
-0.06703 0.07066 -0.09708
-0.02871 0.19496 0.16063
0.10413 0.07066 0.13078
0.08666 0.07066 0.01664
0.03201 0.17177 -0.18231
0.08676 0.07066 0.15922
-0.18912 0.24615 -0.02557
-0.10951 0.12664 0.05962
0.15585 0.07066 0.00442
0.21876 -0.11400 -0.19418
-0.18322 -0.29917 -0.29367
0.12953 0.07066 0.00768
0.16658 0.13214 -0.19600
-0.02073 0.07066 0.01180
0.04658 0.07066 -0.01899
-0.16360 0.20761 -0.01592
0.06011 0.23568 -0.22023
-0.13059 0.29690 0.19828
-0.12583 0.29291 0.19200
-0.15080 -0.13695 0.20766
-0.25597 0.29596 -0.00792
0.16989 0.06662 0.04836
-0.08755 0.06683 0.06931
0.20650 -0.04556 -0.16176
-0.01314 0.13754 -0.15102
-0.06061 0.24534 -0.18354
0.05765 0.25171 -0.24811
-0.11034 0.13636 0.06346
-0.15986 -0.15815 0.21869
0.04180 0.14114 -0.17433
-0.05490 0.11760 -0.11988
0.07050 0.23429 0.21527
0.13587 0.08944 -0.18096
0.01117 0.20320 -0.18902
0.08112 0.23571 -0.25009
-0.14789 0.19056 0.03666
-0.13639 0.28274 -0.17247
0.04576 0.07066 0.04647
0.01921 0.16139 0.16710
-0.00972 0.24938 -0.20904
0.09322 0.07066 0.16147
0.02462 0.10455 0.15234
0.01458 0.13033 0.15454
0.14878 0.16611 0.22376
0.08728 0.07066 0.06520
0.11158 0.06059 0.11067
0.19692 -0.01556 0.15104
0.15890 0.11625 0.18129
0.07006 0.24360 -0.25252
0.12906 0.14125 0.18534
0.25275 -0.26746 -0.26502
0.13794 0.12908 -0.18920
-0.07134 0.29074 -0.22559
0.10580 0.21585 0.23103
-0.11573 0.07315 0.00479
-0.04116 0.23369 0.17733
0.11925 0.07066 -0.05124
-0.12515 0.20836 0.09612
-0.01907 0.05624 -0.11160
0.10102 0.07066 0.14234
0.08572 0.07066 0.09873
-0.15044 0.29242 0.17220
0.06138 0.07066 -0.06625
0.04897 0.23934 0.21338
-0.17656 -0.24085 0.25883
0.09157 0.07066 0.13502
-0.10024 0.20870 0.12199
-0.11632 0.14668 0.06125
0.16810 0.06832 -0.17080
-0.06526 0.15087 -0.12423
-0.21290 0.27960 -0.07337
0.12132 0.20084 -0.21438
0.04378 0.25896 0.25216
0.01816 0.17090 -0.17711
-0.11913 0.17467 0.07618
-0.23337 0.29810 0.09514
0.11471 0.20724 -0.21933
-0.19478 0.28482 -0.11541
-0.05180 0.17947 0.14138
0.10551 0.20007 0.20491
0.00101 0.07066 -0.12389
0.02523 0.07066 0.00249
0.11836 0.07066 0.12535
-0.10582 0.07066 -0.00293
-0.02704 0.25255 -0.20401
-0.14467 0.29302 0.17805
-0.16275 -0.17819 -0.23201
0.17641 0.06046 -0.08127
0.00135 0.19487 0.17395
0.16748 0.06890 0.13832
-0.02462 0.10301 0.13015
-0.08535 0.12974 0.09420
0.03058 0.07066 0.08686
-0.15971 0.29509 0.17181
0.17930 0.08687 0.17903
-0.06063 0.16858 -0.13582
-0.09408 0.22058 0.13516
-0.10332 0.18492 -0.11183
0.01996 0.27116 -0.23902
-0.05877 0.07066 -0.00538
-0.03125 0.28043 -0.22908
-0.04074 0.29096 -0.24978
0.09301 0.07066 0.08649
0.13772 0.07066 -0.11632
-0.03059 0.21981 0.17334
0.00099 0.21108 0.18217
-0.05756 0.17212 0.13337
0.00379 0.16575 0.16205
-0.07546 0.21336 -0.15058
-0.14624 0.28451 0.16151
-0.18482 0.29494 -0.15808
0.15168 0.07066 -0.08385
0.01638 0.14337 0.15957
0.01003 0.26884 0.22619
0.10423 0.07066 0.05160
0.13567 0.18372 0.21736
0.00253 0.07066 -0.13077
0.05801 0.09804 0.16131
-0.06654 0.25942 0.18585
-0.06650 0.06080 0.10835
-0.07659 0.14327 -0.11258
0.04922 0.07066 -0.05102
0.09943 0.09017 -0.17643
0.10101 0.07066 0.01567
-0.14788 0.27030 0.14047
0.07102 0.08831 -0.16928
0.01444 0.05903 -0.10068
0.21381 -0.07337 0.18192
0.07000 0.24365 0.24628
-0.12569 0.14069 0.03690
-0.20907 0.29777 0.12792
-0.07900 0.08344 0.08511
-0.00149 0.27676 -0.23773
-0.15805 -0.14878 0.21268
0.08566 0.07066 -0.00204
0.08714 0.07066 0.10730
-0.05507 0.29248 0.22913
-0.10231 0.24191 -0.15247
-0.00426 0.09547 -0.14431
-0.03210 0.07066 -0.03078
-0.13994 0.16898 0.02497
-0.15060 0.19548 -0.04330
-0.02273 0.20890 0.17033
-0.14136 0.22397 0.08992
0.00262 0.24776 -0.21337
0.13423 0.07066 0.08661
-0.09486 0.14841 0.09230
-0.18267 0.26039 0.07959
0.03623 0.16781 0.17529
0.17434 0.10787 -0.22158
0.00074 0.07066 0.00333
-0.18179 0.23977 -0.03542
-0.18424 0.27255 0.09805
-0.05091 0.11983 0.11705
0.25656 -0.29606 -0.28508
0.09486 0.08538 -0.17450
0.01225 0.07066 -0.06936
-0.07175 0.21297 -0.15310
0.10630 0.21537 0.21871
0.25481 -0.27927 -0.27139
-0.14856 0.28097 -0.16032
-0.16242 0.20409 -0.01244
-0.18920 0.24055 -0.00555
0.06602 0.07066 0.13875
0.08908 0.07066 -0.10490
-0.08183 0.15649 -0.11400
-0.20430 0.28677 0.10041
-0.06866 0.23829 -0.17476
-0.01371 0.07066 0.01843
-0.18760 -0.29276 0.27312
-0.05953 0.25564 0.18570
-0.10404 0.20003 -0.12036
-0.15229 0.18529 -0.01088
-0.05591 0.07066 -0.08803
0.13918 0.07066 0.16528
0.16009 0.07943 0.17463
0.04501 0.25832 -0.23359
-0.21376 0.26907 0.00736
0.03872 0.05812 -0.00813
0.08360 0.13922 0.17723
0.11974 0.07066 -0.14876
0.15031 0.06218 -0.10921
-0.16498 0.27278 -0.13198
-0.13679 0.14836 -0.00732
0.20754 -0.06457 0.17974
0.14895 0.10392 -0.18438
-0.16999 0.24047 0.06939
-0.00446 0.15280 -0.16003
0.20968 -0.06743 -0.17848
0.10436 0.07066 -0.16597
-0.09274 0.07066 -0.05007
-0.16523 0.23089 -0.07051
0.05164 0.07066 0.05856
0.03983 0.25291 -0.22698
0.04238 0.25969 -0.25665
-0.11498 0.28088 -0.18555
0.03660 0.18084 0.18030
-0.21162 0.27628 -0.06146
0.09005 0.07066 0.09806
-0.17564 0.24000 0.05676
0.15542 0.09145 0.17625
0.24470 -0.21373 0.25332
-0.03378 0.27832 -0.22569
0.01435 0.07066 0.04567
0.14327 0.07066 0.02592
0.17166 0.07240 0.17480
-0.07976 0.19605 0.12977
-0.16909 0.22579 0.03825
0.04457 0.25649 0.22439
-0.13516 -0.04799 0.16854
-0.10351 0.17513 0.09836
0.12248 0.07066 0.10825
0.02305 0.26980 0.24135
-0.04846 0.20264 -0.16223
0.03636 0.07066 -0.10757
0.13559 0.18383 0.22191
0.04421 0.13860 0.16759
-0.12322 0.21139 0.10203
-0.22054 0.27694 -0.02571
0.16940 0.06709 -0.12662
0.02652 0.07066 0.04328
0.06732 0.13781 0.17289
0.10051 0.07066 -0.08902
0.08195 0.14488 -0.18512
0.00005 0.05625 -0.10771
0.05146 0.11413 0.16306
0.11291 0.13451 -0.18866
0.04860 0.07066 -0.12943
-0.10924 0.07526 0.03453
0.08789 0.23088 0.22391
-0.00725 0.11237 -0.14664
0.02551 0.07066 -0.04434
0.00490 0.17131 -0.17139
0.06026 0.14069 -0.17863
-0.11735 0.07295 -0.00408
0.16967 0.12415 -0.22897
-0.04938 0.21706 -0.16989
0.08526 0.23275 -0.22893
0.04911 0.07066 0.08725
-0.02073 0.07107 0.12647
0.00980 0.14128 0.15593
0.08077 0.12928 -0.18027
-0.06842 0.20195 0.14187
0.24184 -0.22151 -0.24549
-0.16536 -0.20320 0.23768
0.20687 -0.04454 0.17023
-0.01189 0.11538 0.13883
0.08594 0.23227 0.23249
0.25110 -0.26389 -0.26672
-0.11537 0.19920 -0.10822
0.03494 0.06054 0.05654
-0.07576 0.14298 0.10655
0.03488 0.22191 0.19955
0.17200 0.06463 -0.04089
-0.00129 0.21388 -0.18937
0.14576 0.15638 0.19109
0.04838 0.07066 0.03133
0.03841 0.07066 -0.14362
0.04173 0.08746 -0.16211
-0.13468 0.15873 0.02729
0.09225 0.07066 -0.05443
-0.08440 0.05620 -0.11707
0.00634 0.07066 0.04698
0.04328 0.12157 -0.16942
0.02144 0.07066 0.11404
-0.03866 0.16835 0.14426
0.18801 0.02668 0.13121
-0.10542 0.28625 0.19527
0.01576 0.07066 -0.04953
0.00834 0.07066 0.12326
-0.03251 0.28904 -0.24405
-0.01567 0.25570 0.20525
0.14234 0.06241 -0.10869
-0.01537 0.13301 -0.14850
-0.13894 0.26677 -0.14923
-0.08020 0.06537 0.07722
-0.14347 0.24370 0.11056
0.12001 0.17228 0.19474
-0.13315 0.14938 -0.02506
0.08689 0.06198 -0.11032
0.08958 0.07066 0.14226
0.08065 0.07066 0.12705
-0.02267 0.06433 -0.13137
-0.11919 0.12517 0.04251
-0.00104 0.23634 -0.20361
-0.07208 0.27242 0.19577
-0.06505 0.29664 0.23626
-0.12569 -0.00625 -0.15133
0.05812 0.21840 -0.20977
0.17931 0.05772 -0.03202
0.08056 0.08235 0.16400
0.15619 0.07066 -0.05578
-0.03217 0.13095 -0.14047
-0.21202 0.26782 -0.01495
-0.11098 0.12769 -0.06460
-0.13534 0.20643 0.08012
-0.01888 0.11669 -0.14261
-0.00353 0.17948 0.16449
-0.14392 0.23479 0.09869
0.09544 0.14142 -0.18729
0.17375 0.06298 -0.10881
0.13723 0.07066 -0.01716
-0.18877 0.26212 -0.08024
0.15718 0.07066 0.07934
0.13054 0.07066 -0.12738
0.01226 0.25345 -0.22079
0.18283 0.03476 0.12465
-0.00383 0.07066 -0.10294
-0.16296 0.24276 0.08211
-0.06960 0.15443 -0.12240
-0.16829 0.21473 -0.01590
-0.10119 0.06659 -0.05672
-0.10328 0.04827 0.12228
0.15974 0.07066 -0.01838
-0.13644 0.15394 0.01160
0.10294 0.15155 0.18567
-0.14867 0.21970 -0.08172
-0.23203 0.29125 -0.06751
0.03825 0.10104 -0.16363
0.02474 0.05632 -0.08348
0.03040 0.07066 -0.13631
0.16655 0.13220 -0.21618
-0.19431 0.25025 -0.01736
-0.20677 0.27603 -0.07969
0.02186 0.07066 -0.01405
-0.02019 0.07066 -0.00062
0.07445 0.15127 -0.18529
-0.06054 0.06416 0.09726
-0.12525 0.18489 0.07522
0.19774 -0.00624 -0.14981
-0.11659 0.24317 -0.14277
0.00044 0.26329 -0.22551
0.11201 0.07066 -0.15948
-0.10827 0.21899 0.12331
0.02345 0.24596 -0.21811
-0.12356 0.27263 -0.16839
-0.02597 0.12494 -0.14164
0.15118 0.07066 -0.14633
-0.14633 0.17650 -0.01872
-0.10090 0.16185 -0.09882
0.11189 0.20996 0.21702
0.02342 0.07066 0.07719
0.02954 0.07066 0.14088
0.07453 0.07066 -0.13643
0.15279 0.07066 0.05513
0.12779 0.19430 -0.24010
0.08766 0.08811 0.16670
-0.12484 0.13263 0.02733
-0.11147 0.07066 0.00112
0.02323 0.07066 0.06746
-0.02275 0.07066 0.03547
0.12890 0.09369 -0.18114
-0.04856 0.15033 0.13008
-0.14474 0.18662 -0.04738
0.14917 0.07066 -0.12639
0.14448 0.17189 -0.22258
0.10780 0.07066 -0.10851
-0.05995 0.20641 0.15095
0.00551 0.05725 -0.10749
-0.10157 0.22492 -0.13916
0.26065 -0.29456 -0.27688
-0.13192 0.23575 0.11669
0.05436 0.22012 0.20325
-0.06430 0.16973 -0.13362
0.08683 0.07066 0.02309
0.12462 0.07066 -0.08701
-0.24504 0.29277 0.01715
-0.06653 0.20137 -0.14950
0.02630 0.26810 -0.25094
-0.00434 0.07849 0.13461
0.05769 0.07066 -0.13567
-0.09112 0.06495 0.06394
0.15835 0.07066 0.00997
0.06272 0.24884 -0.25305
-0.10224 0.21807 0.12720
-0.19168 -0.29380 -0.29645
-0.17171 0.27172 -0.12054
0.17875 0.09251 0.18669
0.17275 0.06393 -0.10055
0.01877 0.05778 -0.09615
-0.25260 0.29432 -0.00615
-0.01655 0.26632 0.21403
-0.04351 0.05878 -0.10828
0.13597 0.07066 0.01375
-0.23148 0.29485 -0.09251
-0.02709 0.24885 0.19441
0.05446 0.07066 -0.07104
0.11811 0.06131 -0.10838
-0.02476 0.05914 -0.10838
0.03870 0.05878 -0.01282
-0.03207 0.07066 -0.01746
-0.01220 0.07066 0.08257
0.10165 0.07066 0.09371
0.05455 0.10931 0.16264
-0.03779 0.12798 -0.13609
-0.10905 0.20127 -0.11733
-0.02886 0.07066 -0.03531
-0.15857 0.26245 -0.12298
-0.12023 0.17186 0.07258
-0.01703 0.05768 0.11234
0.11170 0.05923 -0.10894
0.03889 0.05825 -0.07209
0.04747 0.07066 -0.11664
-0.20649 0.26489 0.01939
-0.02119 0.10570 -0.13873
0.09598 0.06054 -0.17179
-0.18176 0.23325 0.00619
0.12857 0.10261 -0.18260
0.14116 0.15873 -0.19798
0.03114 0.19028 0.18303
-0.00826 0.07066 -0.13028
-0.20906 0.29116 -0.11125
-0.14007 0.17155 0.02962
-0.15583 0.19620 -0.02207
0.21277 -0.08972 0.19041
-0.08203 0.07066 0.03206
0.06428 0.24773 -0.24949
0.05937 0.07066 -0.14900
0.07278 0.05635 0.10680
0.18008 0.05700 0.03746
0.01288 0.26993 -0.23448
0.07273 0.05598 0.15919
-0.07544 0.07066 -0.02987
-0.07233 0.16214 -0.12377
-0.21788 0.29153 0.09329
-0.15976 0.20247 0.01365
0.17762 0.09646 -0.21532
0.03173 0.26526 -0.25551
-0.08026 0.21669 0.14280
0.00488 0.12090 -0.15429
-0.17391 0.29000 -0.15647
-0.17850 0.24698 0.06570
0.12904 0.06585 -0.17744
0.17279 0.04995 -0.12252
0.12555 0.07066 0.09381
-0.06348 0.17397 -0.13636
-0.06627 0.08880 -0.10368
0.07017 0.08726 0.16236
-0.05629 0.26614 -0.20275
0.00125 0.13788 0.15099
0.17296 0.06372 0.05362
-0.01731 0.12422 0.13875
-0.01771 0.26258 -0.21683
-0.14280 0.18416 -0.04989
0.18045 0.07340 -0.18647
0.01127 0.07066 0.13753
-0.05447 0.23757 0.17419
-0.00757 0.11003 0.13934
0.12758 0.07167 0.17137
-0.13563 0.16653 -0.04545
0.15406 0.07066 0.11269
0.02330 0.07066 0.08751
0.12969 0.16984 0.19459
-0.04105 0.24110 0.18267
0.13503 0.07066 -0.06110
0.07956 0.07066 0.05204
-0.05686 0.05633 0.09895
-0.14193 0.20823 -0.07906
0.16811 0.06831 0.07840
-0.09580 0.06386 -0.06194
0.15596 0.07066 0.14276
-0.14083 0.21394 -0.08662
0.14016 0.13806 0.18524
-0.16272 -0.18971 0.23360
-0.09107 0.16418 -0.11064
-0.07819 0.05598 -0.11301
-0.11210 0.02743 -0.12745
0.03845 0.07066 0.10973
-0.12675 0.14052 -0.03852
0.10995 0.07066 0.01329
0.01770 0.07066 0.08421
-0.14853 -0.10638 0.19168
-0.10443 0.27131 0.17458
-0.06346 0.06045 -0.11022
-0.16971 0.22658 -0.04439
-0.14119 0.25458 -0.13486
-0.23570 0.29060 -0.04689
-0.13520 0.27331 0.15393
-0.12806 0.13180 -0.01863
-0.04527 0.22959 -0.17919
0.19409 0.01282 -0.13781
0.14531 0.17076 0.22476
0.11965 0.07066 0.00455
0.17373 0.06300 -0.15263
0.14031 0.12801 0.18259
0.05801 0.07531 0.15768
-0.16027 0.20708 0.02270
-0.16693 0.20953 -0.00663
-0.22245 0.29653 -0.11123
0.09320 0.10858 0.17174
-0.14681 0.24786 -0.11768
-0.11764 0.21860 -0.12250
-0.04446 0.29183 0.23670
-0.18230 0.26756 -0.09783
0.23425 -0.18444 0.24111
-0.20618 0.27363 -0.07134
0.15164 0.09911 0.17724
0.10582 0.21584 -0.23755
0.13203 0.07066 0.12682
0.00853 0.07066 0.03542
-0.06382 0.29521 -0.23740
-0.18335 -0.26397 0.26566
0.17166 0.11721 0.22043
-0.11941 0.01681 0.13892
-0.13471 0.26797 -0.15393
0.05538 0.07066 0.01971
0.23664 -0.17925 -0.22895
0.10842 0.08620 -0.17789
-0.01927 0.07066 -0.07998
-0.16929 -0.22007 -0.25509
-0.00411 0.07066 -0.05376
-0.12307 0.13369 0.03684
0.09477 0.22597 0.23918
-0.07518 0.27892 0.20138
0.08063 0.07066 0.10499
-0.06674 0.06014 -0.09787
0.08541 0.06766 0.16346
0.17592 0.06093 0.06893
0.08115 0.17738 0.18968
0.08650 0.07066 -0.14135
0.06749 0.07066 0.05591
0.18028 0.05681 -0.09765
0.00226 0.07066 -0.01541
0.00928 0.17100 -0.17321
-0.12387 0.23935 -0.13399
0.00919 0.07066 -0.11301
0.12210 0.10704 -0.18290
0.03877 0.20898 -0.20000
-0.19761 0.26573 -0.06863
0.19518 0.00717 0.14342
0.15291 0.06242 0.17237
-0.13681 0.23864 0.11350
-0.10198 0.27038 -0.18177
0.13544 0.05904 -0.11343
-0.25388 0.29638 0.01479
0.12890 0.07969 0.17228
-0.10693 0.06343 -0.04455
0.08717 0.07066 0.03009
-0.11753 0.29412 0.20125
0.16076 0.05890 -0.11771
-0.07609 0.07066 -0.00422
-0.04176 0.21749 -0.17353
-0.11747 0.16579 -0.07853
0.05714 0.15867 0.17687
0.03975 0.20511 0.19185
-0.14061 -0.08654 0.18668
-0.08800 0.21571 0.13625
0.13484 0.07461 -0.17876
0.01979 0.18491 0.17718
0.01956 0.07050 0.14431
0.26010 -0.29062 0.28906
0.06089 0.07066 -0.05100
-0.08337 0.23578 -0.16151
0.16318 0.07368 0.17429
-0.12787 0.29699 -0.20710
-0.16378 0.24632 -0.09201
0.15350 0.10953 -0.18587
0.07234 0.07066 0.12426
-0.13868 0.28676 0.17103
-0.01693 0.07066 0.04907
0.03912 0.06292 -0.15840
0.09817 0.19703 0.20219
-0.07744 0.24996 -0.17818
0.11005 0.07066 -0.13118
-0.03206 0.21044 -0.17364
-0.04022 0.10697 -0.12758
-0.14327 0.20073 0.06400
