0.07751 0.00376 0.21313
0.15071 0.00376 -0.01059
-0.20427 0.27299 0.13625
-0.18278 0.00376 -0.00339
0.17184 -0.00560 0.20169
0.17839 0.00141 -0.18911
-0.17027 0.03570 0.18968
-0.02602 0.00376 -0.04709
-0.17944 0.14154 0.18261
-0.19485 0.27364 -0.04464
-0.22144 0.35885 0.14443
-0.17778 -0.00560 0.19079
0.13068 -0.30017 0.18575
0.10332 -0.00560 -0.09744
0.20706 -0.00560 -0.03556
-0.03517 0.00376 -0.09649
0.20668 0.00376 -0.20672
0.03617 -0.17612 -0.19198
0.04737 -0.01497 -0.15894
-0.13414 0.00376 -0.06637
0.20090 0.00376 0.16172
-0.07787 0.00376 0.02208
-0.19806 0.21855 -0.18261
-0.19363 0.25878 -0.16837
-0.05400 0.00376 -0.11564
-0.22151 0.35921 -0.10892
-0.12997 -0.33112 -0.19082
-0.14521 -0.00518 -0.19812
0.09360 -0.11040 0.18261
-0.18690 -0.00124 -0.17811
-0.11191 0.00376 0.15668
0.07061 -0.23251 0.18261
-0.19378 0.26832 0.04064
-0.03917 0.00233 -0.03233
-0.11017 -0.00560 0.04748
-0.13453 0.00376 0.12224
0.07742 -0.00555 0.20712
0.01167 -0.20199 0.18261
-0.21003 0.34954 -0.08201
-0.21014 0.35009 -0.09726
-0.12600 -0.03736 0.18261
-0.11041 0.00376 0.15108
-0.14521 0.00086 -0.06626
0.09426 0.00376 0.06184
-0.08739 -0.00560 0.00955
0.11287 0.00376 -0.10421
0.06645 -0.14345 -0.19198
-0.21393 0.36903 0.15054
0.05620 -0.00560 0.06324
-0.06670 -0.01497 -0.16378
-0.19410 0.26990 0.03573
-0.09183 -0.07322 0.18261
-0.20230 0.26315 0.17891
-0.18338 0.00376 0.02492
-0.20419 0.27262 0.08244
0.20947 -0.00560 0.04584
0.12106 0.00118 0.14969
0.23039 -0.00560 -0.03933
-0.02495 -0.00560 -0.09462
0.14383 -0.00560 0.01092
-0.19647 0.25821 0.09368
-0.19775 0.28813 -0.01369
0.02932 -0.00560 0.05155
-0.05637 0.00376 0.18202
0.16692 -0.00560 -0.08321
0.02808 0.00376 -0.09482
-0.12784 -0.00560 0.05219
0.09776 -0.00560 0.18403
-0.17107 -0.37439 0.20052
-0.22490 0.31725 -0.18261
-0.15857 0.04452 -0.19118
0.14316 -0.00417 -0.22007
-0.19825 0.17563 0.18301
0.17890 -0.34007 0.19198
0.15293 -0.01497 -0.15983
0.12661 -0.07496 -0.19198
-0.20952 0.29924 0.03623
0.06257 0.00004 -0.21073
-0.16559 -0.37439 0.17769
-0.05836 -0.26066 0.18261
0.08859 0.00376 -0.17113
-0.19873 0.29307 -0.12751
0.21051 0.00376 -0.13950
-0.13017 -0.00560 -0.03007
-0.19872 0.29301 0.05362
-0.17667 0.07116 0.19198
-0.21372 0.33335 0.20314
-0.11493 0.00376 0.21865
-0.05678 -0.00560 0.15139
-0.20745 0.33667 0.08675
0.17839 -0.00462 0.18828
-0.00323 -0.00560 -0.09721
-0.10709 -0.31489 -0.18261
-0.20454 0.27436 0.00072
-0.20083 0.30217 -0.22007
0.08796 0.00376 0.11627
-0.03292 -0.00560 -0.13622
0.16919 -0.32371 0.18453
0.00088 -0.21141 -0.19198
0.08237 0.00376 -0.03471
-0.05486 -0.11184 -0.18261
0.07758 0.00376 0.15958
0.14802 -0.00560 -0.18935
0.06257 0.00011 -0.07433
0.19428 -0.01497 -0.15744
-0.20617 0.28251 0.14656
0.10277 0.00376 -0.02318
-0.17363 0.00376 0.11352
0.08923 0.00376 -0.19664
0.01953 -0.00119 -0.15600
-0.03917 0.00073 0.17784
0.23264 -0.00560 -0.13629
0.23880 -0.00273 -0.20631
-0.19677 0.25815 -0.00628
0.06318 -0.23266 -0.18882
0.10064 0.00376 0.08516
-0.11851 0.00376 0.21387
-0.22011 0.33797 0.19198
0.15580 0.00376 -0.09817
0.17053 -0.00560 -0.18885
0.16370 -0.00560 0.12742
-0.22301 0.37882 0.00732
-0.10572 -0.00560 0.05410
-0.21913 0.34732 0.19784
0.19041 -0.01934 0.19198
-0.10692 0.00376 -0.20894
0.08968 -0.12663 -0.18953
0.05582 -0.00560 -0.14017
-0.08903 -0.00271 -0.12708
-0.12567 -0.33164 -0.19198
-0.22441 0.37369 0.05291
0.12106 -0.00373 -0.05402
-0.20904 0.29684 -0.11505
0.21532 -0.00560 0.02769
-0.11800 -0.01226 -0.15452
-0.10158 -0.00141 0.19446
0.20949 -0.37897 -0.18824
-0.03861 0.00376 0.10055
-0.21882 0.37966 -0.04034
0.04452 -0.00560 -0.16656
0.23334 0.00376 0.09200
-0.00186 0.00376 0.06510
-0.19934 0.29608 -0.12173
0.04442 -0.15673 -0.18290
-0.21590 0.37889 0.06910
-0.20440 0.27367 -0.06953
-0.22122 0.35777 -0.20694
-0.13460 -0.00560 0.17835
-0.21799 0.34162 0.19739
-0.01180 -0.00560 0.08817
0.22461 0.00376 0.04091
-0.20319 0.30516 -0.16136
-0.11169 0.00376 0.13862
0.08599 -0.24090 -0.18540
-0.17334 -0.00065 0.03989
-0.05230 0.00376 0.02421
0.10292 -0.00560 0.06804
-0.10360 -0.00560 0.17322
0.11989 0.00376 0.00696
0.14926 -0.06704 0.18897
0.04072 -0.16043 -0.19178
-0.06563 0.00376 0.08422
-0.07724 -0.01497 0.15927
0.03193 0.00376 0.10679
0.21317 0.00376 0.05298
-0.20033 0.18598 0.19171
-0.00976 0.00376 -0.11402
-0.21321 0.36547 -0.21437
-0.20895 0.29639 0.11619
0.01953 0.00015 0.06686
-0.17910 -0.01497 0.15520
0.15933 -0.00560 0.16453
0.09754 -0.00458 -0.22007
-0.20782 0.33849 -0.20867
0.02848 -0.00560 0.00881
0.16113 -0.00560 0.21610
0.23398 0.00376 0.17211
-0.18690 0.00068 0.01381
0.08132 -0.00560 -0.09385
-0.00070 0.00204 -0.22007
0.06133 -0.01497 0.16045
-0.20324 0.26787 0.20201
-0.20848 0.29404 -0.03329
-0.14521 -0.00508 -0.18866
0.08929 -0.24418 0.18350
0.11937 -0.00560 -0.21688
-0.20124 0.25787 -0.14663
-0.11928 -0.32043 -0.19003
-0.03351 -0.01213 0.15452
0.10592 0.00376 -0.15264
-0.18226 0.00376 -0.18734
0.17652 -0.00560 0.04869
-0.03603 -0.11946 -0.18553
-0.18690 -0.00268 -0.12001
0.07422 -0.12693 -0.18991
-0.20188 0.26104 0.17251
-0.00913 -0.00560 -0.06903
0.20349 0.00376 -0.07668
0.10444 -0.00560 0.19444
-0.00695 -0.20810 -0.18840
0.23880 -0.00166 -0.08794
-0.00357 -0.00560 0.11175
0.23337 0.00376 0.04602
0.22874 0.00376 -0.06427
-0.00309 -0.00560 -0.18205
-0.20944 0.33420 0.00916
0.21803 -0.00560 0.10365
-0.05440 -0.00560 -0.01198
-0.21340 0.33341 0.14747
-0.20480 0.27565 0.19479
0.22319 -0.00560 -0.14188
-0.03395 -0.00560 -0.21837
0.12106 0.00130 -0.02727
-0.20139 0.20005 -0.19198
0.21553 -0.00560 -0.13670
-0.17334 -0.00546 -0.04563
0.04199 0.00158 -0.22007
-0.20196 0.26143 0.04908
0.20223 0.00376 0.17593
0.21113 -0.38019 0.17791
0.02144 0.00376 -0.02706
-0.05110 -0.00560 -0.10777
0.19360 0.00223 0.09171
-0.05545 -0.10012 -0.18957
-0.03272 -0.00560 -0.21029
-0.20062 0.30252 0.03813
0.16070 0.00376 -0.10265
0.18256 -0.34244 0.18261
-0.21167 0.35776 -0.03220
-0.21838 0.34358 0.21910
0.07793 -0.13160 0.19198
0.12106 -0.00366 0.09389
-0.18309 0.13784 0.18261
0.23245 -0.00560 0.07182
-0.13007 -0.00892 -0.15452
0.04819 0.00376 0.15638
0.05803 -0.00560 0.00247
0.20064 -0.00560 0.13446
-0.11449 -0.00560 -0.06166
0.05418 0.00376 0.01145
0.02357 -0.18734 -0.19198
0.07970 0.00376 0.14165
0.02774 0.00376 0.06242
-0.05883 0.00376 -0.04484
-0.20966 0.34769 -0.20382
-0.17219 -0.38019 0.19857
0.07791 -0.23286 -0.18923
-0.22232 0.36327 0.12811
0.10475 -0.11156 -0.18895
-0.09818 -0.01041 -0.16388
-0.02710 0.00376 0.04309
-0.20784 0.29086 -0.07230
-0.00867 0.00376 -0.19727
-0.22965 0.34469 0.18261
-0.22229 0.35330 0.19198
0.09292 0.00376 0.19939
-0.01300 -0.22486 0.19198
0.19360 -0.00445 -0.03605
-0.22402 0.37176 0.00216
-0.21247 0.36175 0.08716
-0.08903 0.00319 -0.19079
-0.18690 0.00103 -0.11677
-0.13309 -0.33957 -0.18261
0.02379 0.00376 -0.13582
-0.09086 -0.30041 0.19198
-0.04539 -0.00368 -0.21396
-0.21798 0.30271 -0.18261
0.04266 0.00376 -0.10459
0.22809 -0.00560 0.10365
-0.18516 -0.00560 -0.04840
-0.20849 0.22680 -0.18485
-0.11765 -0.00560 0.20371
-0.07376 0.00376 -0.18429
0.03224 0.00376 -0.01221
-0.21465 0.37267 0.16324
0.09431 -0.00560 -0.07438
-0.18608 0.00376 -0.20662
0.14743 -0.31692 -0.18705
-0.13848 -0.01946 0.18261
-0.20312 0.26726 -0.08039
-0.13592 -0.33707 0.18428
-0.02005 0.00376 0.09902
0.07276 -0.23967 0.19198
0.03775 -0.00560 0.09400
0.18412 -0.34280 -0.18261
0.12094 0.00376 0.10414
0.02616 0.00376 0.01618
-0.16778 0.06318 0.19198
0.10548 0.00376 0.16207
-0.12879 -0.00560 -0.11601
-0.09714 -0.06273 0.18261
-0.17136 0.04115 0.18280
0.19056 -0.36005 0.18918
-0.04539 -0.00337 -0.18383
-0.19786 0.25793 0.20975
-0.20522 0.27281 0.18261
-0.20008 0.25749 0.01147
0.09598 -0.00560 -0.10919
0.08569 -0.00560 0.16638
-0.21738 0.37994 0.03353
0.17536 -0.00560 -0.13584
-0.17625 -0.00560 -0.07514
-0.14026 -0.34571 0.19198
-0.02814 0.00376 0.13961
0.08529 -0.25175 0.19198
-0.22219 0.36262 0.10501
0.08880 0.00376 0.05108
-0.00928 0.00376 -0.02231
0.01953 0.00199 0.18856
-0.03074 -0.00560 0.11601
-0.17334 0.00152 0.15726
0.16724 0.00376 0.08884
0.16241 0.00376 -0.14964
-0.17806 0.14193 0.19046
-0.06001 -0.10948 0.18537
-0.07088 -0.27696 -0.18261
0.15976 -0.00560 0.15005
-0.18800 0.16892 -0.19198
0.06039 0.00376 -0.07277
-0.08846 -0.00560 0.06764
0.13954 -0.00560 -0.17207
0.21040 -0.00560 -0.05515
0.02862 -0.00560 -0.09782
0.08901 -0.25850 0.18703
0.04179 -0.21127 0.18763
-0.19297 0.26423 -0.16262
-0.20850 0.29415 0.17099
-0.09760 -0.07188 0.18783
0.22084 -0.00560 0.13897
-0.20869 0.29508 -0.09426
-0.12064 -0.04884 -0.18812
0.11146 -0.00560 -0.14950
0.23533 0.00376 0.16025
0.12061 -0.00560 -0.10401
-0.22124 0.35786 0.00272
-0.18409 0.00376 0.01766
-0.22239 0.36358 0.17303
0.06055 -0.00560 -0.07115
-0.11687 -0.33318 0.18613
-0.20309 0.26708 -0.10425
-0.06562 -0.00560 -0.08631
0.04566 0.00376 -0.05675
-0.11850 -0.31964 0.18992
-0.21402 0.26368 0.18261
0.09485 -0.11049 -0.18261
-0.13756 -0.00560 0.17087
-0.22506 0.37694 0.01623
-0.19354 0.15207 0.18936
-0.20872 0.34300 -0.08275
0.11582 -0.09695 -0.18261
-0.04539 -0.00214 -0.03772
-0.11984 -0.00560 0.02790
0.04747 0.00376 0.20739
0.08385 -0.25333 0.18757
-0.06248 -0.00560 0.04823
0.17221 -0.00560 0.21346
-0.17291 -0.37439 -0.18426
0.23432 0.00376 -0.21897
-0.08903 0.00059 -0.21654
-0.18690 0.00188 0.16711
-0.08903 0.00221 -0.13632
0.08258 -0.01407 -0.16388
-0.13992 -0.00560 -0.14650
-0.22023 0.35279 0.21149
-0.19295 0.26416 -0.08974
-0.16194 -0.01497 -0.15623
-0.18596 -0.00560 0.05804
-0.00809 0.00376 0.15620
0.15617 -0.00560 -0.09363
-0.20747 0.28900 -0.03125
-0.14626 -0.34741 0.18410
0.15424 -0.30883 -0.19088
-0.05131 -0.00560 0.11300
0.13476 -0.06875 0.19198
-0.21884 0.34582 -0.01069
-0.02845 0.00376 -0.10928
-0.17570 0.00376 0.04104
0.16064 -0.00560 -0.14089
-0.07621 -0.00560 -0.11914
-0.15743 -0.01205 0.18934
-0.21069 0.33395 -0.00714
-0.00475 -0.20590 0.19124
0.08048 0.00376 0.11893
-0.19580 0.27840 0.16636
0.22007 -0.37992 0.17557
-0.20499 0.27658 -0.09848
0.10430 0.00376 -0.20399
-0.10619 -0.01402 -0.16388
0.20827 -0.00560 -0.14857
-0.00145 -0.00560 -0.09181
-0.20081 0.30343 0.20350
-0.01998 -0.00560 -0.07428
-0.19471 0.27296 0.01632
0.12106 0.00284 -0.09512
-0.21352 0.36703 -0.21007
-0.08804 0.00376 0.17488
0.03264 0.00376 -0.03061
-0.04646 -0.00560 0.19978
0.03550 -0.00560 0.02141
-0.06598 -0.27728 -0.18261
0.14976 0.00376 0.06028
-0.17112 0.07646 -0.19198
0.17063 -0.00560 0.09225
0.00746 -0.01148 -0.16388
-0.11563 0.00376 -0.02248
0.22231 0.00376 -0.17489
-0.20103 0.28550 0.22007
0.14490 -0.00560 -0.06660
0.15789 0.00376 0.01537
-0.19885 0.25774 0.13315
0.14913 0.00376 0.05095
0.08060 0.00376 -0.19527
-0.10158 0.00027 -0.10700
-0.19972 0.25756 -0.01524
-0.20412 0.30497 0.21013
0.00141 -0.00796 -0.15452
-0.10996 0.00376 -0.05897
0.06935 -0.13812 -0.18261
0.02070 0.00376 0.13423
0.15086 0.00376 -0.04519
-0.12588 -0.32703 -0.18702
0.14782 0.00376 0.16181
-0.15370 -0.35485 0.18918
-0.07863 0.00376 0.05463
-0.16541 0.07613 0.18261
0.01575 -0.19961 0.19198
-0.21880 0.37966 -0.13421
-0.19776 0.19618 0.18261
-0.07561 -0.00560 -0.18673
-0.19572 0.27798 -0.11058
-0.12932 0.00376 -0.10269
-0.02875 0.00376 0.00154
-0.12046 0.00376 -0.12846
0.19699 0.00376 0.19290
0.23880 0.00062 0.16361
-0.21673 0.33531 0.04891
0.20883 -0.36316 -0.19081
-0.17334 -0.00242 -0.09743
-0.21122 0.33385 -0.18355
-0.19244 0.26159 -0.20278
0.20286 -0.01494 0.16388
-0.18690 -0.00503 -0.11471
-0.22173 0.37907 0.05468
0.19323 -0.01497 0.15523
0.12174 -0.09456 0.18915
-0.18516 0.11207 0.19198
-0.12972 -0.00560 -0.20231
0.01953 -0.00146 0.07260
0.22765 -0.00560 -0.06946
0.11474 0.00376 -0.02281
0.00341 0.00140 -0.01228
0.02347 -0.00560 -0.03644
-0.17612 -0.00560 -0.04061
-0.18237 0.00376 0.10124
-0.22193 0.36131 -0.01181
0.23430 0.00376 -0.00416
-0.21972 0.35026 0.05414
-0.19349 0.25881 0.07047
-0.20772 0.33801 0.11674
-0.08608 0.00376 -0.00971
-0.19007 -0.00560 0.15806
-0.22586 0.31366 -0.18693
-0.04539 -0.00528 0.21511
-0.11166 0.00376 0.18798
-0.10970 -0.00560 0.21909
-0.15129 0.00811 0.18820
0.13831 0.00376 0.19255
-0.07981 -0.00560 0.15101
0.04736 -0.00893 0.16388
-0.22447 0.31068 -0.18261
0.22163 -0.00560 0.02603
-0.08165 -0.00560 0.19978
0.09237 0.00376 -0.10930
-0.02532 -0.00560 -0.08092
0.04062 -0.00560 -0.12668
0.05646 0.00376 -0.02551
-0.11915 -0.00560 0.05129
-0.03678 -0.25224 0.18261
-0.21170 0.35790 0.10558
-0.03990 -0.24105 0.19050
0.23513 -0.00560 0.18166
0.22577 -0.00560 -0.08167
0.05858 -0.00560 -0.02237
-0.01464 -0.21579 -0.19085
-0.20721 0.33545 0.00243
0.02835 -0.00560 -0.15049
0.22007 -0.37500 -0.17797
0.23567 -0.00560 0.05320
-0.13792 0.00376 0.05340
-0.11707 0.00376 -0.04073
-0.02556 0.00376 0.18654
0.19360 0.00027 -0.19756
0.09457 -0.26405 -0.18870
-0.20365 0.26989 -0.05231
0.11388 -0.00560 0.14625
0.10676 -0.00560 -0.00566
0.22984 0.00376 0.08326
-0.20100 0.30440 -0.03878
-0.16768 -0.37544 0.17325
0.22781 -0.00560 0.18644
-0.05808 -0.27107 -0.19198
0.17839 0.00373 0.08828
0.11426 -0.10204 -0.18676
0.10447 -0.00347 -0.22007
-0.00682 -0.15755 0.19198
0.21838 -0.00560 -0.02114
-0.20139 0.25861 0.18555
-0.05570 -0.27201 -0.18705
0.06100 0.00376 -0.12682
-0.22027 0.35298 0.17790
-0.03541 -0.13256 0.18261
-0.13222 -0.02372 -0.19141
-0.10158 -0.00213 -0.17970
0.19381 0.00376 0.04702
-0.13288 -0.00560 0.09788
0.14453 0.00376 0.18603
0.11327 -0.00560 -0.06056
-0.20696 0.28646 0.08603
0.21379 -0.00560 0.14252
-0.06794 0.00376 0.11318
0.23600 0.00376 0.01883
-0.21158 0.35728 -0.10488
-0.17801 0.00376 0.14911
0.03454 0.00376 -0.21035
-0.18269 0.00376 -0.03361
0.10708 -0.00560 0.20589
-0.04885 0.00376 -0.20906
-0.11407 -0.31606 0.18261
0.03222 -0.00560 0.07343
-0.09348 -0.29515 -0.19198
0.15887 -0.04228 -0.18403
0.21678 0.00376 -0.06470
-0.03917 0.00255 -0.04936
0.11367 -0.01031 -0.15452
-0.00900 -0.00560 -0.18020
0.10399 -0.10227 0.19198
0.06257 0.00229 0.05217
0.14026 -0.00560 -0.04397
0.07742 -0.00006 -0.18257
0.04293 0.00376 -0.09517
0.09440 -0.00560 0.01556
0.01965 0.00376 -0.18652
0.15544 -0.00560 -0.20639
-0.20951 0.29919 -0.09607
-0.21774 0.34035 0.11380
0.16862 -0.00560 0.01553
-0.04539 0.00372 0.00227
-0.10158 0.00099 -0.07383
0.00341 -0.00398 0.07858
0.14336 0.00376 0.19741
-0.00632 0.00376 0.16671
-0.04539 0.00093 -0.10293
-0.20809 0.33447 -0.17344
0.22283 -0.00560 0.07871
0.09909 -0.00560 0.03032
-0.12462 0.00376 0.05241
-0.22219 0.33842 -0.19198
-0.21277 0.36327 -0.04815
-0.15483 0.02580 0.18841
0.05317 0.00376 -0.05858
-0.06560 -0.00560 0.01708
0.02224 0.00376 -0.17560
-0.01972 0.00376 0.16025
-0.05091 0.00376 -0.13007
0.16938 -0.01273 -0.15452
0.04357 -0.19868 0.18413
-0.06340 -0.27000 -0.19198
0.17839 -0.00238 0.14042
-0.21849 0.34409 0.04088
-0.13103 -0.00560 0.12973
0.14991 0.00376 0.09249
0.20560 0.00376 0.20850
-0.20215 0.30536 0.03171
0.06085 -0.14632 0.19198
0.03181 -0.01497 0.15773
0.17346 -0.00560 -0.06199
0.17839 -0.00165 -0.01373
-0.02972 -0.00560 -0.00044
-0.06054 -0.01497 0.15540
-0.02071 -0.00501 0.22007
0.05794 0.00376 -0.05371
-0.08903 0.00292 0.15848
-0.20680 0.30444 -0.21832
-0.21406 0.36970 0.19315
-0.00378 0.00376 -0.12980
-0.03581 -0.00409 0.22007
-0.14521 -0.00554 -0.09044
0.22652 0.00376 0.17729
0.04931 -0.00560 -0.03701
0.00074 -0.20739 -0.18261
0.16771 -0.03431 0.18261
-0.06311 0.00376 -0.13717
-0.03917 -0.00023 0.10868
0.02679 -0.00560 0.19281
-0.20764 0.30427 0.04167
-0.22204 0.36186 0.03567
-0.18614 -0.00560 0.13780
0.01206 -0.18155 -0.18710
0.03489 0.00376 -0.16538
-0.22330 0.36814 0.03623
-0.12132 0.00376 -0.15849
0.21695 -0.38019 -0.18529
0.02006 -0.00560 0.18401
-0.12858 0.00376 0.09322
-0.14086 0.00376 0.11164
-0.01747 -0.00560 0.07186
-0.19465 0.15762 0.18394
0.22078 0.00376 -0.19167
0.08740 0.00376 -0.01346
0.12481 -0.27954 0.18760
0.15422 -0.00954 0.15452
-0.16829 0.03413 -0.18261
0.18299 -0.35247 -0.18365
-0.20503 0.27682 -0.18311
-0.20831 0.29320 0.00920
-0.12351 -0.00560 -0.12840
-0.12353 0.00376 -0.04200
0.17741 -0.00560 -0.20993
-0.19805 0.28963 0.09486
0.05737 -0.21241 0.18533
-0.21700 0.33663 -0.13458
-0.19528 0.27578 -0.03811
-0.18857 0.17441 -0.19198
-0.19969 0.29784 0.10799
0.22827 -0.00560 0.19774
-0.20445 0.27388 -0.13869
-0.03781 -0.25406 -0.18261
0.21871 -0.00560 0.13133
0.21677 -0.37439 0.18656
-0.19508 0.15975 -0.18616
-0.08051 0.00376 -0.18381
0.23880 0.00250 -0.19125
-0.10378 0.00376 -0.13181
0.15839 -0.00560 -0.11925
0.04502 0.00376 -0.15901
0.03907 -0.00560 0.04130
-0.17334 -0.00407 -0.18207
-0.04134 -0.12814 -0.18500
0.04665 0.00376 0.04323
-0.09260 -0.29374 0.18323
-0.20025 0.30067 -0.20433
-0.03068 -0.00560 0.07241
-0.01982 -0.23195 0.19198
-0.14521 -0.00539 -0.00325
-0.20968 0.34782 0.06849
-0.05338 -0.00560 0.08713
-0.17415 -0.00560 -0.19708
-0.21591 0.37897 -0.01507
-0.21546 0.37672 0.03700
-0.05106 -0.26004 0.18261
-0.11950 -0.00560 0.18951
-0.00461 0.00376 -0.08655
-0.14251 0.00376 0.20371
-0.11035 0.00376 -0.09033
0.11549 0.00376 -0.17961
0.23880 -0.00322 -0.05584
0.05960 -0.00560 0.01389
-0.03546 -0.12928 -0.19198
0.02549 -0.00560 -0.18098
-0.08504 -0.00560 -0.09728
0.13927 -0.00560 0.21041
-0.20983 0.30082 0.10088
-0.20836 0.28875 -0.19198
-0.20887 0.29599 0.13425
-0.11484 -0.00560 -0.02134
0.14476 -0.00560 -0.04672
-0.16721 0.02608 -0.18261
0.23064 -0.00560 -0.16545
-0.23073 0.37217 0.19198
-0.13389 -0.02612 0.19198
-0.01240 0.00376 -0.05377
-0.17538 -0.00560 -0.20517
0.04444 0.00376 0.13106
-0.19635 0.28113 0.12697
0.16104 -0.00560 -0.09727
0.22508 0.00376 0.19052
0.19360 0.00152 0.14281
0.13788 0.00376 0.15798
0.19373 -0.36316 -0.19198
0.12209 -0.08223 -0.19198
0.14255 0.00376 -0.16521
-0.13989 -0.00560 -0.08123
-0.18998 0.20158 0.18516
-0.10932 0.00376 0.02163
0.09319 -0.00560 0.19302
0.16460 -0.33163 0.18261
-0.20862 0.29473 0.04792
0.12106 -0.00113 0.20235
-0.21014 0.30237 0.17442
0.17839 0.00030 0.02251
-0.17334 0.00328 0.13468
-0.10158 -0.00245 -0.09227
0.23880 -0.00462 0.19918
-0.07771 -0.00560 -0.00733
-0.12015 0.00376 0.08267
-0.06795 0.00376 -0.10338
0.07742 -0.00255 0.02844
0.03146 -0.18484 -0.18625
-0.15027 -0.01921 0.18898
-0.20193 0.26131 -0.17245
0.12269 -0.08943 0.18261
-0.10301 0.00376 0.05499
0.06257 0.00151 0.07031
-0.20075 0.25736 0.02889
-0.12638 -0.00560 0.14004
0.06927 -0.14704 0.19029
-0.02829 -0.00560 -0.04980
-0.21601 0.37944 -0.06818
-0.17395 0.10954 0.18261
-0.00917 -0.00560 -0.08361
0.23153 0.00376 -0.00005
-0.06322 -0.00560 -0.18663
-0.20724 0.28784 0.04222
0.15389 0.00376 -0.19351
-0.04539 -0.00292 0.07785
-0.07330 -0.00560 -0.02872
0.09643 0.00376 0.07162
-0.14059 -0.00560 -0.06153
-0.20439 0.27361 -0.01861
-0.03917 -0.00427 0.04674
-0.21885 0.34588 0.02060
0.11042 -0.00560 -0.10401
-0.14067 -0.35571 0.19198
-0.14302 -0.02220 -0.18261
-0.21227 0.36078 0.03801
-0.07273 0.00376 -0.03381
0.13752 0.00376 -0.00798
-0.11038 -0.00560 0.11345
0.09254 -0.00560 -0.20180
-0.02427 0.00376 0.00390
0.07302 -0.23777 -0.18261
0.13853 0.00376 -0.14729
0.05985 0.00376 0.11148
-0.22198 0.36156 -0.18586
-0.04680 -0.00560 0.20509
0.14704 -0.00728 -0.15452
-0.03381 0.00376 0.04251
-0.20544 0.28089 0.22007
-0.13800 -0.03078 -0.19198
-0.21343 0.36654 -0.05470
0.16626 -0.00560 0.10257
-0.20524 0.29035 0.22007
0.21677 0.00376 -0.01969
-0.20929 0.29809 0.01669
-0.02092 0.00254 -0.22007
-0.20830 0.34091 -0.10872
0.06257 0.00262 0.07994
-0.22070 0.28785 -0.18288
0.04499 -0.00560 -0.14329
0.02258 -0.00560 -0.13622
-0.13418 -0.00560 -0.00608
0.17083 -0.01497 0.15774
-0.00768 -0.00560 0.20255
0.06257 0.00087 -0.05855
-0.07893 -0.00560 0.02210
-0.07210 -0.27325 -0.18605
-0.08730 -0.00560 0.11009
0.13442 -0.07131 0.18261
-0.03035 -0.13521 0.18261
0.00197 -0.00560 0.18195
0.00341 0.00086 -0.04775
-0.11784 -0.00560 -0.17154
-0.14521 0.00093 0.20902
0.10621 0.00376 -0.06309
-0.21440 0.37140 0.05001
-0.04539 -0.00530 0.13998
0.03094 -0.00792 0.15452
-0.20503 0.20950 -0.18703
-0.19939 0.29635 0.16139
0.15141 0.00376 -0.10423
0.16645 0.00376 0.14041
-0.02026 -0.00560 0.17590
0.13661 0.00031 -0.03051
-0.03705 0.00376 0.08904
-0.01153 -0.00560 0.04951
-0.13613 0.00376 0.12682
-0.01632 0.00376 0.01330
-0.22433 0.31960 0.18261
-0.20144 0.25886 0.06607
0.20951 0.00376 -0.06622
0.09867 0.00376 -0.08006
0.04258 -0.17373 0.18523
-0.16875 0.04888 0.18261
-0.05028 -0.00560 0.18914
0.04790 -0.00560 -0.11989
-0.06878 -0.08686 -0.19109
-0.06575 0.00376 0.06205
-0.18235 -0.00560 0.17882
0.08367 -0.25315 -0.18343
-0.20227 0.26298 0.10132
-0.02367 -0.00560 -0.03976
-0.13692 0.00376 -0.00541
-0.10793 -0.04789 -0.18755
-0.14521 -0.00086 0.13004
0.06065 0.00376 0.03613
-0.20981 0.30383 -0.07232
-0.21424 0.37063 -0.05861
-0.13104 0.00376 0.20609
-0.04550 -0.00560 -0.18898
-0.12358 -0.33747 0.18261
0.03905 -0.16734 -0.19198
-0.22215 0.37899 -0.18691
-0.20560 0.27964 0.10305
0.03277 -0.00560 -0.04977
0.21256 -0.37439 -0.18685
-0.22501 0.37667 0.07091
0.03184 0.00376 0.18788
-0.17334 -0.00557 -0.11703
0.02605 -0.00560 -0.08121
0.20452 0.00376 -0.09538
-0.15299 -0.00697 -0.19198
0.14849 -0.00560 0.20037
0.07742 -0.00248 0.13039
-0.13501 -0.00560 -0.21308
-0.20011 0.29994 0.06642
-0.00668 -0.00560 0.02882
-0.08254 0.00376 -0.09224
-0.11224 0.00376 -0.08017
-0.14113 0.00376 0.12739
-0.03280 -0.00560 0.14585
0.05567 0.00376 -0.07366
0.19544 0.00376 -0.02848
-0.01083 -0.00560 0.13108
-0.21974 0.35036 -0.20717
-0.21678 0.27905 0.18261
-0.23025 0.37835 -0.18549
0.10273 0.00376 0.06526
-0.18105 0.00376 -0.13318
0.03720 0.00376 -0.08731
-0.18690 0.00004 0.11968
-0.17568 0.00376 -0.12863
0.08473 -0.00560 0.07682
0.02433 -0.00560 -0.02941
0.20484 -0.01497 -0.16022
-0.06361 -0.27992 -0.18959
-0.19265 0.26264 -0.21663
0.23454 0.00376 0.19726
0.13959 -0.30552 0.18261
-0.21481 0.37345 0.14924
0.12106 -0.00350 -0.04857
-0.11931 -0.00560 -0.19287
-0.20000 0.29939 0.02764
0.17650 -0.33948 0.18261
-0.22232 0.36322 -0.13588
-0.14304 0.00376 0.02816
0.08599 -0.00560 0.08733
0.01142 -0.18973 0.18665
-0.20692 0.28624 0.06084
0.10176 0.00376 0.03462
-0.19833 0.25784 0.03958
0.15353 -0.00560 -0.11718
-0.17334 0.00249 -0.20951
0.01953 0.00108 -0.07668
0.22102 0.00376 0.10993
0.14263 -0.30151 -0.19198
0.10228 0.00376 -0.06629
-0.13941 0.00376 0.17468
0.04279 -0.00560 0.01446
-0.14282 0.00376 -0.12949
0.01953 -0.00440 0.00621
-0.08750 -0.00560 -0.12351
-0.17334 -0.00176 0.10665
-0.12254 0.00376 -0.18856
-0.15429 -0.01519 -0.18885
0.10226 -0.00560 -0.03728
0.06912 -0.00762 -0.15452
0.02101 -0.00560 0.03544
-0.03917 0.00070 0.01067
-0.20727 0.28799 -0.21726
-0.21484 0.28471 0.19198
-0.23350 0.36879 -0.18261
-0.05373 0.00376 0.21048
-0.19275 0.26315 0.14244
-0.20406 0.30498 0.09285
0.08449 -0.00560 0.00633
0.22264 0.00376 -0.03744
0.00294 0.00376 -0.13423
0.17697 0.00376 0.07810
0.17214 -0.33768 -0.18261
0.23027 -0.00560 -0.04492
-0.17956 0.09514 -0.19198
-0.05501 0.00376 0.05640
0.23439 -0.00560 0.15228
0.22421 0.00376 0.06524
-0.03279 -0.00560 -0.08459
0.17839 0.00296 0.12348
0.20577 -0.00999 -0.15452
-0.20799 0.29158 0.07232
0.13827 -0.00560 0.14144
-0.08664 0.00376 -0.04489
-0.02278 0.00376 0.17527
0.00225 0.00376 -0.03805
-0.21124 0.35558 -0.18677
0.13661 -0.00248 0.20518
-0.07165 0.00376 0.15150
-0.02905 -0.00560 0.16901
-0.19250 0.26192 -0.02161
-0.19759 0.28736 -0.11790
0.23254 -0.00560 0.11360
-0.14823 -0.34938 0.19013
0.22221 0.00376 -0.15915
-0.22134 0.35834 -0.00472
0.21332 0.00376 0.20526
-0.12000 -0.32115 -0.18432
-0.03684 0.00376 -0.01627
0.12912 -0.29861 -0.19142
-0.20976 0.30044 -0.19755
0.16050 -0.01184 0.15452
-0.13129 -0.00560 0.18843
-0.08654 0.00376 -0.12510
0.19034 -0.02284 0.18261
-0.22315 0.36738 -0.18952
-0.13298 0.00376 -0.10639
-0.17173 0.05369 0.18261
0.13661 -0.00028 -0.10010
-0.21504 0.37461 -0.09624
0.04472 -0.00560 0.02950
-0.20468 0.27505 0.11672
0.11893 0.00376 0.02249
0.13661 0.00219 -0.16205
0.04015 -0.00560 0.14243
0.15784 -0.05847 0.18960
-0.19453 0.25860 0.00085
0.19688 -0.00560 -0.10229
-0.21601 0.29324 0.19198
-0.08212 -0.28493 0.19198
-0.10428 -0.32059 0.18531
-0.07858 -0.08357 -0.19198
-0.02914 -0.00560 0.03158
0.13790 -0.30542 0.19198
-0.22337 0.36849 0.15360
0.00341 -0.00045 -0.09339
0.09406 -0.00560 -0.00779
0.06591 -0.00701 0.15452
-0.06655 -0.09270 -0.19198
-0.18395 0.00376 0.15681
-0.05733 -0.00560 -0.05990
-0.19878 0.29330 0.08340
0.01953 -0.00493 0.03067
-0.07715 -0.08186 0.18261
-0.18036 -0.00517 -0.22007
0.23246 0.00376 0.03570
0.06257 -0.00478 -0.03388
0.14051 0.00376 0.06361
-0.01307 0.00376 0.04351
0.02574 -0.00560 -0.14318
-0.21175 0.24310 -0.18677
0.08935 0.00376 -0.02559
-0.23207 0.37835 0.18903
0.00486 -0.16015 -0.18276
-0.15263 -0.01497 -0.15469
0.07742 0.00261 0.19206
0.17958 -0.03599 -0.18261
0.13661 0.00113 -0.13730
0.05655 -0.14759 0.18261
0.19360 -0.00471 -0.22003
-0.08020 0.00376 -0.02189
0.08320 -0.00560 -0.07017
-0.22617 0.31519 0.18632
0.09349 -0.24837 -0.18566
-0.02763 0.00376 -0.10386
-0.07665 -0.08192 0.19198
0.10065 -0.00560 -0.15042
0.05186 -0.21744 -0.18261
0.17555 0.00376 0.13885
-0.21686 0.33595 -0.08034
0.19451 -0.00560 -0.16988
-0.19978 0.25755 -0.09995
-0.20153 0.30549 -0.08156
-0.19325 0.26563 0.18968
-0.14521 0.00139 -0.01624
0.21616 0.00376 0.03142
-0.07998 0.00376 -0.21132
-0.00438 0.00376 0.19296
0.05578 0.00376 -0.00891
0.16553 0.00376 -0.09310
-0.00369 0.00376 0.07238
-0.21376 0.36818 -0.00097
-0.17334 0.00084 0.15012
-0.17162 0.06679 -0.19198
-0.10373 -0.00560 0.19749
-0.21345 0.36663 0.04082
-0.19652 0.28200 -0.03169
0.14074 -0.00560 -0.08532
-0.12343 -0.00560 0.16025
-0.13317 0.00376 0.05790
0.19788 -0.00560 -0.07335
-0.19812 0.28998 0.13320
-0.22100 0.35666 0.13777
-0.03408 0.00376 0.20712
-0.09460 -0.00560 0.16346
0.13661 0.00034 0.11607
0.21972 0.00376 -0.14991
-0.19328 0.26580 -0.01728
0.22843 0.00376 -0.18145
-0.00320 -0.21950 -0.18282
0.09432 -0.00560 0.07238
0.21481 0.00376 -0.09930
0.16708 -0.04500 -0.18261
0.03245 -0.00560 -0.07780
-0.18690 0.00159 0.13791
-0.18590 0.15650 0.19198
0.16175 0.00376 0.21546
-0.04670 -0.00560 -0.09942
-0.14308 -0.00560 -0.03406
-0.19309 0.26487 -0.18872
-0.22104 0.37921 0.17713
-0.20169 0.26012 -0.19681
-0.08903 -0.00019 0.11215
-0.00999 -0.14538 0.18820
-0.10195 -0.00560 -0.14202
-0.00419 -0.00560 -0.06446
-0.19940 0.29640 0.02209
0.10651 -0.00560 -0.05629
0.15226 -0.01130 0.16388
-0.13578 -0.03161 0.19198
-0.01152 0.00376 -0.04355
-0.13637 0.00376 0.03830
0.15321 -0.00560 -0.17322
-0.21589 0.37883 0.14703
-0.08903 -0.00311 -0.02184
0.19360 0.00235 0.00136
0.09265 0.00376 -0.09615
0.13909 -0.00560 -0.18151
-0.07740 -0.00560 -0.04100
-0.23724 0.37054 0.18337
-0.00151 -0.00560 0.20650
-0.19650 0.23281 -0.18261
-0.14521 0.00127 0.14607
-0.20876 0.30404 -0.20297
0.08542 0.00376 0.02580
-0.21098 0.35432 0.14650
0.23607 -0.00560 0.20787
-0.17334 0.00090 -0.04020
-0.22177 0.36049 0.09252
0.03157 -0.16958 0.18555
-0.03917 -0.00540 0.06935
0.15237 0.00376 0.03254
0.09687 -0.00560 0.15044
0.05076 -0.00560 0.09751
0.19248 -0.00715 -0.15452
0.15260 -0.00560 0.17664
-0.20898 0.29656 0.18661
-0.05066 0.00376 -0.17749
-0.04815 -0.00560 -0.00835
-0.19595 0.27917 0.18498
0.00341 0.00134 0.11193
-0.20959 0.27099 0.19198
0.08860 0.00376 -0.18661
0.02869 0.00376 0.14943
-0.18593 0.00376 -0.14810
0.08821 0.00376 -0.15255
0.04545 -0.20777 -0.18261
-0.02629 -0.00560 -0.07593
-0.17404 0.05457 0.18962
0.14962 -0.00103 0.22007
-0.06388 0.00376 -0.08770
0.03768 0.00376 -0.01244
0.20092 0.00376 0.21373
-0.21980 0.37946 -0.17799
-0.08529 -0.00560 0.17055
0.10346 -0.00687 -0.15452
0.05842 0.00376 0.04375
0.13661 0.00123 0.20903
-0.19921 0.29544 0.21123
-0.03297 -0.00560 0.01413
0.04464 0.00376 0.17116
-0.21131 0.35597 -0.01357
-0.08457 0.00376 0.07067
-0.01476 -0.14156 -0.19198
-0.08317 0.00376 0.17533
0.04040 0.00376 -0.07927
0.07943 -0.13687 0.18313
-0.11541 -0.00560 0.15103
-0.14521 -0.00021 0.16119
-0.05942 -0.00560 0.14194
-0.21355 0.36718 -0.17818
-0.09655 -0.01214 -0.15452
0.20368 -0.00560 0.09704
0.04946 0.00376 0.18895
-0.20598 0.28155 0.11672
0.19480 0.00370 -0.22007
-0.00345 -0.21976 0.18741
0.16385 0.00376 0.06102
-0.10158 -0.00410 0.09854
-0.02399 -0.13153 -0.18261
-0.18450 0.00376 0.17352
-0.11400 -0.00878 -0.15452
-0.08337 0.00376 0.18997
0.16250 -0.00250 0.22007
0.21861 -0.00560 0.20828
0.09365 -0.00560 -0.17614
0.02696 -0.18485 -0.18261
-0.07404 0.00376 0.10779
0.06257 -0.00327 0.05184
0.20688 0.00376 0.07726
-0.08646 0.00318 -0.22007
-0.11010 0.00376 -0.00032
0.20497 0.00376 -0.21843
-0.18288 -0.00560 0.20998
0.10163 0.00376 -0.08942
0.14547 0.00376 -0.08611
0.07742 0.00372 0.06707
-0.21965 0.34259 0.18261
0.16348 -0.05283 -0.18377
0.04365 -0.19947 -0.19198
0.23880 -0.00192 0.14474
-0.20107 0.30474 -0.05454
0.00287 -0.01497 -0.15462
-0.19671 0.17310 -0.18261
-0.05246 -0.00560 0.14352
0.10257 0.00376 -0.17292
-0.03917 -0.00082 0.21290
-0.20475 0.27542 0.04810
-0.14282 -0.35789 -0.18261
0.14103 0.00376 0.11880
-0.19421 0.21519 0.19198
0.03216 -0.00560 0.20835
0.02093 -0.17665 -0.18261
-0.17753 0.00376 -0.06603
0.17506 -0.00560 -0.02725
-0.11977 -0.00560 0.01445
0.16347 0.00376 -0.09889
0.05883 -0.00560 -0.03906
-0.04539 0.00046 0.06542
-0.06104 -0.00560 -0.16935
-0.03816 -0.00560 0.11708
-0.17154 0.04205 -0.18362
0.11306 0.00376 0.00274
-0.06426 0.00376 0.09624
-0.08172 0.00376 -0.05280
0.01953 -0.00279 -0.15022
-0.22016 0.32686 -0.18261
-0.12482 -0.33556 -0.18261
-0.14521 0.00256 -0.13938
0.17627 0.00376 -0.06380
0.02948 -0.00560 0.13014
0.12079 0.00376 -0.11060
-0.08308 0.00376 -0.08328
0.14523 -0.07108 -0.19046
-0.22464 0.37483 0.13051
-0.03917 -0.00368 -0.02167
0.16546 -0.01497 0.15902
0.20630 0.00376 -0.12226
0.13420 -0.00560 -0.15985
0.15883 -0.05747 -0.18722
0.21827 -0.00560 -0.09506
-0.22274 0.30643 -0.18261
0.23040 -0.00560 -0.09901
0.12804 -0.07311 0.18787
0.02417 -0.00560 -0.11414
0.16778 0.00376 -0.13882
-0.01323 -0.00927 -0.15452
-0.10274 -0.06440 -0.18261
-0.16251 -0.00498 0.19198
-0.09218 -0.06357 0.18948
0.17472 0.00376 0.19162
0.23606 0.00376 0.20423
0.19553 -0.00546 0.22007
-0.13345 -0.34914 -0.18261
0.17380 0.00376 -0.20846
-0.06519 -0.00560 0.14776
0.20251 -0.00560 0.03081
-0.22282 0.36575 0.06360
0.08781 0.00376 0.15090
-0.19451 0.18475 -0.19198
0.04066 -0.00560 -0.17864
0.03183 -0.00560 -0.09168
-0.14276 0.00369 0.22007
0.09384 0.00376 0.15283
-0.04107 -0.25087 0.19198
0.09411 -0.12041 0.19198
0.19360 -0.00450 0.18121
-0.01355 0.00376 0.09588
-0.21017 0.35027 0.00359
-0.20118 0.30531 0.18070
-0.01587 -0.00560 0.02477
0.18385 -0.35121 0.19198
-0.16198 0.04607 0.19198
0.22740 -0.00560 0.18052
0.05943 0.00376 -0.16989
-0.06846 -0.00560 0.21561
-0.14330 0.00376 0.19876
0.03088 0.00376 -0.18518
-0.02523 -0.00560 -0.14356
0.20808 -0.37756 0.18965
-0.12181 -0.00560 -0.10300
-0.10324 -0.06625 -0.18683
0.17411 0.00376 -0.00950
0.15514 -0.00560 0.04590
-0.10474 0.00376 -0.11179
-0.11297 0.00376 -0.06769
0.00274 0.00376 -0.09936
-0.02426 -0.14523 -0.18329
-0.22035 0.37935 -0.15501
-0.07951 -0.00560 0.08673
-0.03917 -0.00045 -0.20389
-0.13059 -0.00560 -0.05670
0.16146 -0.31602 -0.18945
0.23006 0.00376 0.05072
-0.01807 -0.00560 0.03363
-0.17365 -0.00560 0.14859
0.19485 -0.00560 -0.20465
-0.06600 -0.08962 0.19090
-0.16610 0.01488 -0.18584
-0.20389 0.27108 0.19818
0.14216 -0.00607 -0.15452
0.08088 0.00376 -0.12526
-0.14246 0.00376 0.07419
-0.13287 0.00376 -0.18308
-0.12970 -0.00560 -0.19555
0.13661 0.00270 -0.06660
-0.17334 -0.00509 0.19422
-0.21852 0.34423 0.20963
0.08806 -0.24527 0.19198
-0.21161 0.34338 -0.22007
0.19360 -0.00225 0.18599
-0.03917 0.00167 0.12824
-0.20383 0.27077 0.15864
0.10948 -0.26630 0.19198
-0.05886 0.00376 -0.06948
0.10696 0.00376 -0.12222
-0.09719 -0.06784 -0.19198
0.00341 0.00236 0.09881
0.02604 -0.00560 -0.19249
-0.15432 0.02323 -0.18567
-0.12807 -0.00560 0.00596
-0.17156 0.08303 0.19198
0.03841 -0.20264 0.18261
-0.07700 -0.08617 -0.18261
-0.06993 -0.00560 -0.11416
-0.22110 0.35714 0.07160
0.02701 0.00376 0.12192
0.21406 -0.00560 0.07913
-0.12060 -0.00560 0.11184
-0.03076 -0.00560 -0.01037
0.05532 -0.00560 0.21063
-0.13642 0.00376 -0.07251
0.01953 -0.00032 -0.05977
-0.07994 0.00376 0.15541
-0.10466 0.00376 0.21419
-0.20967 0.30001 -0.08755
-0.14465 0.00376 0.09321
-0.21350 0.36691 -0.00964
-0.20370 0.27013 -0.04019
0.03608 0.00376 0.04156
0.14147 0.00376 0.14213
-0.07775 -0.00560 0.21877
0.06257 0.00106 0.17380
0.22218 -0.00560 -0.09220
0.23156 -0.00560 -0.02620
-0.17907 -0.00197 0.22007
0.00412 -0.17361 -0.19105
-0.18391 0.17120 -0.19082
-0.04539 -0.00550 -0.01281
0.11767 -0.00560 -0.21031
-0.22231 0.36320 -0.12535
-0.21466 0.37271 -0.02802
0.10456 -0.26546 -0.19198
0.07760 0.00376 0.06232
-0.20691 0.30441 0.05700
0.15809 0.00376 0.15564
0.09065 -0.00560 -0.14790
0.23458 0.00376 -0.15120
-0.15780 -0.00801 -0.19198
-0.12313 -0.00560 0.17064
0.10264 -0.25747 0.18539
-0.21711 0.33721 -0.21092
0.05863 -0.01497 -0.16076
0.05744 -0.01442 -0.15452
-0.20540 0.27864 -0.18853
0.13179 -0.07765 0.19198
0.12106 0.00082 -0.06130
0.12085 -0.09011 0.19198
-0.06659 0.00376 0.02294
0.00341 -0.00442 0.20982
0.21071 -0.01495 0.15487
-0.10916 -0.00560 -0.15972
0.17390 -0.00560 -0.11467
0.12558 -0.28030 -0.18962
0.06551 -0.14347 0.19198
-0.08530 -0.07042 0.18526
-0.20352 0.26925 0.15134
0.11403 0.00376 0.09059
-0.02825 0.00376 0.12823
0.17413 -0.00560 0.07339
-0.15271 -0.36902 0.19119
-0.21735 0.37499 -0.22007
-0.00347 -0.21978 -0.19000
0.00746 -0.00648 -0.16388
-0.11982 0.00376 0.11997
-0.11530 -0.00560 -0.10977
0.04896 -0.00560 -0.02156
0.21737 -0.00560 0.18532
-0.20429 0.22039 -0.18261
0.04419 -0.00560 0.07162
-0.20016 0.30022 0.05913
0.10453 -0.10789 -0.19198
-0.12747 0.00376 0.19459
-0.04633 -0.11132 0.19198
-0.19387 0.26877 -0.19176
0.07742 -0.00101 -0.15301
-0.21394 0.36909 -0.03541
-0.17663 0.00376 -0.20541
-0.22439 0.37359 0.08105
-0.20947 0.30390 0.13340
0.15446 0.00376 -0.04183
-0.02312 0.00376 0.12877
-0.21452 0.33319 0.11673
-0.14197 -0.34919 -0.19198
-0.19294 0.25892 -0.01491
-0.19486 0.27370 0.05184
-0.19791 0.28893 -0.13496
-0.11944 -0.33384 -0.18261
0.00812 -0.01497 0.15481
-0.22328 0.36805 -0.09495
0.06257 -0.00332 -0.08923
0.21748 0.00376 -0.16183
0.13661 0.00365 0.09964
0.10300 -0.00560 -0.10318
-0.05891 -0.00560 -0.13261
-0.08044 0.00376 0.19857
-0.19428 0.27080 0.05577
-0.14385 0.00376 0.01612
-0.13578 -0.00560 -0.09369
-0.04195 -0.25206 -0.18261
0.04417 -0.15698 -0.18965
0.15615 -0.32279 -0.18261
-0.05583 0.00376 -0.08185
-0.11243 0.00376 0.18182
-0.07278 -0.28251 0.19198
0.08483 -0.00560 -0.13253
-0.22386 0.37865 0.12246
0.02412 -0.00560 0.05760
-0.14192 0.00376 0.15181
0.05694 0.00376 -0.08813
-0.17659 0.00376 -0.17676
-0.02126 -0.00560 0.20258
-0.06931 0.00376 0.18619
0.08387 -0.00560 -0.18532
0.18620 -0.01494 0.19009
-0.07972 -0.01064 0.15452
0.01359 -0.17839 0.19198
-0.20718 0.28754 -0.01910
-0.20918 0.34530 0.08880
-0.08054 -0.00560 0.06994
0.22027 0.00376 -0.17895
0.10931 -0.09556 0.18261
-0.20283 0.26582 -0.04902
-0.15042 -0.00296 -0.19101
-0.21664 0.33486 0.12742
0.19382 -0.00560 0.02074
0.13165 -0.28956 0.19198
-0.03017 -0.00560 -0.12866
-0.08263 0.00376 -0.18891
0.16820 -0.00560 -0.04864
-0.10392 -0.00682 0.15452
0.22591 -0.00560 0.03626
-0.12990 -0.00560 0.01054
-0.10387 -0.00560 -0.00415
-0.19129 0.19069 0.19198
-0.05233 -0.00586 0.15452
0.19803 0.00376 -0.00233
-0.17334 -0.00095 -0.17666
0.09864 -0.00560 0.10294
-0.13850 -0.00560 -0.20682
-0.08903 0.00067 -0.09044
-0.01222 -0.00560 -0.19277
0.15704 0.00376 -0.16544
0.05785 -0.00560 0.18710
-0.21691 0.33623 0.18885
0.09871 -0.00560 0.19751
-0.11059 0.00376 0.04585
-0.20844 0.33440 0.10972
0.15938 0.00376 0.20084
0.08061 -0.00560 0.17103
-0.01008 -0.00560 0.18240
0.20901 0.00376 -0.13170
-0.20924 0.33424 -0.12156
-0.19236 0.16596 -0.19198
-0.13976 -0.00560 -0.10343
-0.17486 0.11183 -0.19198
-0.20819 0.22833 0.18261
0.16734 -0.00560 -0.05957
0.22627 0.00376 -0.10385
0.17839 0.00055 -0.03131
-0.20093 0.30404 -0.04394
-0.14446 -0.00560 0.20644
-0.19591 0.27896 -0.10480
-0.11338 0.00107 -0.22007
-0.02706 0.00376 -0.02793
-0.20620 0.30456 0.13863
-0.20682 0.28576 0.01969
-0.13263 0.00376 -0.17474
-0.12270 -0.01497 -0.16259
-0.02137 0.00376 -0.08822
-0.22127 0.35803 -0.19660
-0.11888 -0.05060 0.18842
-0.19464 0.27259 -0.18780
-0.22773 0.35433 0.18261
0.10975 -0.26455 -0.18262
0.13751 0.00376 -0.15212
0.09759 0.00376 -0.18580
-0.05711 -0.01497 -0.15515
-0.22328 0.36807 -0.15143
0.14513 -0.07040 -0.18261
-0.11927 -0.00156 0.22007
-0.12542 -0.00857 0.16388
0.04835 0.00376 0.09906
-0.21930 0.34814 0.07353
0.14183 -0.07082 0.18261
0.02732 0.00376 -0.16245
-0.20616 0.24314 0.18261
-0.10239 -0.30535 -0.19198
-0.00683 -0.00560 -0.09046
0.10371 0.00376 -0.16386
-0.21714 0.33736 0.14301
-0.19761 0.28744 -0.04812
0.22413 0.00376 0.14308
-0.21346 0.36671 0.13604
0.13302 -0.28771 0.18665
-0.21334 0.29834 0.19198
-0.22137 0.35850 -0.08712
0.19954 -0.00263 0.22007
0.19937 0.00376 0.08523
0.05721 0.00376 0.11578
0.20518 -0.01112 -0.18343
-0.07858 -0.00560 -0.02819
-0.11853 0.00376 -0.14192
0.17839 -0.00128 0.21453
-0.11653 -0.00560 -0.00344
0.21030 0.00376 0.12066
-0.02201 -0.00560 -0.17804
0.17839 -0.00267 0.07272
0.04990 0.00376 0.14942
0.09608 -0.10507 -0.18541
-0.01888 -0.00560 -0.11635
0.04900 0.00376 0.11292
0.09624 -0.00560 0.04991
-0.02089 -0.23720 -0.18990
0.04167 -0.20158 -0.18261
0.04774 0.00376 -0.20119
0.15258 -0.00560 0.01804
0.21972 0.00376 0.19879
0.13661 -0.00104 0.13295
0.20164 -0.00560 -0.15248
-0.00551 -0.00560 0.01584
0.00585 -0.16114 0.18354
-0.22271 0.37888 0.08569
-0.11539 -0.00560 -0.13242
0.01953 0.00028 -0.04270
-0.19943 0.29655 0.07308
-0.00020 0.00376 0.12594
-0.00289 -0.00560 -0.08496
0.12234 -0.27708 -0.18650
-0.07557 -0.00560 -0.19901
0.16396 0.00376 0.03405
0.02712 0.00376 -0.05062
-0.21789 0.34109 -0.10712
0.03519 0.00376 0.02185
-0.16427 0.00571 0.19159
-0.12941 -0.33427 0.18261
0.07802 0.00035 -0.22007
-0.11053 -0.04756 -0.18261
-0.21003 0.33409 -0.01867
-0.03335 -0.00560 0.02136
-0.22171 0.35794 -0.19198
-0.18033 0.00376 0.05686
0.17839 0.00160 -0.20641
-0.20603 0.28179 -0.11083
0.19360 -0.00366 -0.19447
0.09698 -0.00560 0.11017
0.17352 -0.34300 0.18311
-0.01748 0.00376 0.20203
0.14708 -0.05569 -0.19198
0.19397 0.00376 0.07565
0.11856 0.00376 -0.16539
0.17365 0.00376 -0.17509
0.05177 0.00376 0.05415
-0.20294 0.26636 0.08415
-0.05371 0.00376 -0.13414
0.05198 -0.00560 -0.21984
0.22846 -0.00560 -0.09478
0.17269 0.00376 0.14413
0.03105 0.00376 -0.11277
-0.00931 -0.00560 -0.10292
-0.03398 -0.00653 -0.16388
0.00341 -0.00128 0.16156
0.03211 -0.20159 -0.18799
-0.16460 0.05848 -0.18261
0.00908 -0.01497 0.16131
-0.19285 0.21592 -0.18262
0.08690 0.00376 -0.04827
-0.01665 -0.13875 0.18991
-0.05802 0.00376 0.11204
-0.19813 0.29004 -0.05823
0.03756 -0.00560 0.10447
-0.14521 -0.00039 -0.07965
-0.19700 0.23665 -0.18697
-0.05985 -0.00560 -0.12782
-0.00253 -0.00560 -0.21791
0.09297 -0.00560 0.06665
0.03349 -0.00560 0.16524
0.21376 -0.00560 -0.20675
0.16733 0.00376 -0.12629
0.19868 -0.00560 -0.00694
-0.19304 0.25890 0.16263
-0.18591 0.12834 0.19198
-0.19358 0.26729 0.14730
-0.18590 0.13921 0.19198
-0.11357 -0.00560 -0.18678
0.17609 0.00376 -0.05570
-0.08903 -0.00196 0.07127
0.11701 -0.08946 -0.19198
-0.00648 -0.16301 -0.18541
0.17431 -0.00560 0.09771
-0.06586 -0.00560 0.13258
-0.16578 -0.38019 0.20002
0.21372 -0.37439 -0.19876
-0.07237 -0.09351 -0.19198
-0.10591 0.00376 -0.17329
-0.19319 0.26532 -0.05643
0.07742 -0.00347 -0.10472
-0.20884 0.30403 -0.00538
0.05092 -0.00560 0.13667
0.23539 0.00376 0.02686
0.01964 -0.00560 0.16837
-0.02091 -0.23722 -0.18271
-0.10393 -0.06556 -0.19166
0.20353 -0.00560 0.02145
0.21465 0.00376 0.13057
0.05592 0.00376 -0.13006
0.06359 -0.13756 0.18843
0.04051 -0.00560 -0.14435
-0.18507 0.17698 -0.18266
-0.15066 -0.01391 0.16388
0.04446 -0.00560 -0.20473
-0.20467 0.27499 -0.15374
0.00470 -0.00925 0.16388
-0.22026 0.35295 -0.16481
0.11318 -0.00840 -0.16388
-0.21695 0.38003 -0.20297
0.09875 0.00376 -0.04621
0.03275 -0.00560 -0.15388
-0.04808 -0.00560 -0.07111
0.22840 -0.00560 -0.06259
0.09905 0.00376 0.01165
-0.21018 0.35029 -0.17398
0.07819 -0.00560 -0.10995
-0.00103 0.00376 0.04994
-0.22297 0.36652 0.10108
-0.22305 0.36692 0.18095
-0.12321 0.00376 -0.05426
-0.20009 0.29985 0.17963
0.01956 -0.00560 -0.04150
-0.18401 0.10441 0.18817
-0.22248 0.36407 -0.16007
-0.08903 0.00292 0.09475
-0.19316 0.26518 0.00869
-0.19494 0.27408 0.21632
-0.19552 0.27698 0.19640
-0.07613 -0.00560 0.03775
-0.18690 0.00000 0.02274
0.05351 -0.21238 -0.19198
-0.17962 0.14001 -0.19198
-0.00414 -0.00560 -0.05241
-0.20519 0.27758 0.05393
0.08142 -0.12415 -0.19198
0.10623 0.00376 -0.07881
-0.08111 0.00376 -0.06199
-0.11116 0.00376 0.06935
0.14824 -0.00560 -0.03634
-0.19983 0.29857 -0.02792
-0.22267 0.36501 -0.04210
-0.22345 0.36890 0.21033
-0.04919 -0.00560 -0.05137
-0.08372 -0.01041 0.16388
-0.12850 0.00376 0.01049
-0.21503 0.37456 -0.11962
0.00341 -0.00457 0.06701
-0.19656 0.28220 0.09004
0.20381 0.00376 0.10107
-0.06026 -0.00560 -0.21527
-0.22159 0.29231 0.18852
0.12106 -0.00280 -0.06962
-0.19398 0.26927 -0.16459
-0.06063 0.00376 0.20051
-0.05068 0.00376 0.10262
0.20217 -0.00560 -0.12056
0.20187 0.00376 -0.07175
0.07742 0.00330 0.17669
0.02281 -0.01497 0.15953
0.06257 -0.00379 0.06812
-0.20281 0.26571 -0.02332
-0.20951 0.34695 0.19908
0.16978 -0.00560 -0.08683
0.01953 0.00234 0.04395
0.09701 -0.00560 -0.20418
0.13903 -0.00560 0.02096
-0.20915 0.34517 -0.03031
0.03408 -0.18923 -0.18944
-0.19807 0.28976 -0.10948
-0.01369 -0.00560 -0.21116
0.00193 -0.00560 -0.10959
-0.21051 0.35193 -0.16465
-0.05474 0.00376 -0.01464
0.20289 -0.35962 -0.18261
-0.20225 0.26292 -0.15209
0.15905 0.00376 0.17503
-0.10982 -0.00560 0.13619
0.13357 -0.01497 0.16321
0.04873 0.00376 -0.15133
-0.08903 -0.00484 0.15747
-0.02747 -0.01494 0.16388
-0.05134 0.00376 -0.02014
0.19360 0.00110 0.17089
-0.05543 -0.00560 -0.17957
0.11706 0.00376 0.18135
0.19501 0.00376 -0.17403
-0.07733 -0.09215 -0.18985
0.08722 -0.00560 0.10457
-0.10538 0.00376 0.12531
0.14657 -0.00560 -0.12627
0.20991 0.00376 0.03215
0.11037 0.00376 -0.14045
0.05979 0.00376 0.05559
0.15467 -0.00396 -0.22007
-0.10895 0.00376 0.11234
0.09766 0.00376 0.19003
-0.10158 -0.00260 -0.04085
-0.10158 0.00060 0.18616
-0.16396 -0.38019 -0.18784
0.09287 0.00376 0.12997
-0.18070 0.11136 -0.18261
-0.14521 -0.00406 0.18303
0.23136 0.00376 0.16280
-0.19214 0.26008 0.01380
-0.05011 0.00376 -0.00552
-0.01624 0.00376 -0.00757
-0.21871 0.34522 -0.20598
-0.05622 0.00376 0.20438
-0.11437 0.00376 -0.07516
-0.21112 0.35499 -0.12298
0.17827 0.00376 0.05142
-0.04091 -0.11997 0.18261
-0.16388 -0.36794 0.18421
-0.02197 -0.00560 0.06639
-0.17349 0.06834 0.18261
-0.12215 -0.00560 -0.07682
-0.13676 -0.00560 0.16374
0.17316 0.00376 -0.07897
-0.05050 0.00376 0.14089
-0.10431 0.00376 -0.11949
0.16915 0.00376 -0.05132
0.13889 -0.00560 -0.10474
0.23880 0.00278 0.14033
-0.01486 0.00376 0.18510
-0.20422 0.27277 -0.03203
0.10942 -0.27891 0.19061
-0.21676 0.33546 -0.05901
-0.12034 0.00376 -0.00888
-0.20747 0.28902 0.09691
0.02702 0.00376 0.09556
-0.19898 0.29428 0.11106
0.13661 -0.00233 0.04697
-0.20569 0.28011 0.12839
-0.08592 0.00376 0.07528
-0.05426 0.00376 0.06386
0.17839 0.00347 -0.12929
0.05562 -0.22411 -0.18261
0.06775 -0.13340 -0.18540
-0.07508 0.00376 -0.16706
-0.02728 -0.00584 0.15452
0.10189 -0.00560 -0.13775
-0.21890 0.33776 -0.18261
0.18172 -0.01170 0.16388
0.10241 -0.00560 0.12343
-0.17295 -0.37439 -0.17956
-0.19737 0.28625 -0.04054
-0.14111 0.00376 -0.17922
0.09100 0.00376 -0.20903
0.17057 -0.00560 0.18493
0.22309 0.00376 0.11512
0.06257 0.00333 0.16735
-0.20888 0.34378 0.05749
0.09498 0.00074 0.22007
0.11374 -0.00560 0.11515
-0.22715 0.37444 -0.18261
-0.01384 0.00376 -0.17377
0.15283 0.00376 0.02148
-0.17334 -0.00017 0.20405
-0.10340 0.00376 -0.16575
0.21684 -0.00560 -0.07453
-0.21237 0.36124 0.02940
0.21175 0.00376 0.13833
-0.10526 0.00376 0.09404
0.09042 0.00376 -0.10152
0.15095 -0.31609 -0.18261
0.21153 -0.00560 -0.19370
0.13661 -0.00091 0.15632
-0.17336 0.00376 -0.02904
0.21657 -0.00560 -0.17859
-0.21178 0.35828 -0.06759
-0.08728 -0.07296 0.19198
0.14909 0.00376 0.14065
-0.13637 -0.00560 -0.02477
-0.01334 -0.00560 -0.06248
0.10412 -0.09703 -0.18555
-0.20822 0.33445 -0.08048
-0.08461 -0.01288 -0.16388
-0.04539 0.00355 0.19073
0.07547 -0.01480 -0.15452
0.11041 -0.00560 0.19571
-0.04539 -0.00547 0.06219
-0.00139 0.00376 -0.10877
-0.01533 0.00376 0.02624
-0.20093 0.25732 -0.00437
0.12106 0.00176 0.15719
-0.17936 0.08114 -0.18688
0.21934 -0.37439 -0.19203
-0.22501 0.37670 0.18590
-0.19431 0.27096 -0.11379
-0.18248 0.12733 -0.19198
0.17564 -0.00560 -0.21496
0.06257 0.00162 0.21732
-0.20719 0.33534 0.19406
-0.04539 0.00364 -0.14342
-0.06498 -0.00560 0.05232
-0.10804 -0.00560 0.02365
0.04776 -0.00560 0.20382
-0.18690 0.00085 -0.03871
-0.08903 -0.00414 -0.19153
0.01953 -0.00099 0.12739
0.07742 0.00288 -0.13437
0.16602 -0.00560 0.02432
-0.05116 -0.25230 -0.18595
-0.22141 0.35869 -0.15637
0.00341 -0.00004 0.14317
-0.21313 0.36503 0.13166
0.14540 -0.00560 -0.17371
0.14670 -0.00560 0.18364
-0.03372 0.00376 0.16117
-0.22152 0.37780 -0.22007
0.03253 -0.00560 0.19049
0.07742 -0.00232 0.05312
-0.04539 -0.00237 0.11171
0.19789 -0.00560 0.10244
0.05153 -0.00650 0.16388
0.20278 -0.37226 -0.19010
-0.20770 0.29016 -0.13192
-0.22424 0.37286 -0.06514
-0.01432 0.00376 0.10116
0.17839 -0.00306 -0.12357
-0.20967 0.34777 0.10568
-0.19814 0.29008 0.17267
-0.21707 0.33700 -0.11322
-0.01777 0.00376 0.08378
0.16309 -0.00560 -0.17521
0.06257 -0.00008 0.18164
0.05145 0.00376 0.13970
0.04211 0.00376 -0.02030
-0.20868 0.29503 0.20225
-0.08475 0.00376 -0.19708
-0.19339 0.26637 -0.14510
0.23053 -0.00560 0.14341
-0.18710 -0.00560 -0.15718
-0.19751 0.28695 -0.18715
0.10221 0.00376 0.06987
0.15880 -0.01263 0.16388
0.08388 -0.00560 -0.00373
0.03567 -0.00560 -0.19000
-0.21718 0.33753 -0.16737
0.18974 -0.35081 -0.19198
-0.11838 -0.04273 -0.18261
-0.21349 0.36687 -0.07296
-0.20673 0.30445 0.09904
-0.10158 0.00096 -0.20557
-0.16928 0.07883 0.19198
-0.22218 0.36256 0.00067
0.17326 -0.01295 0.15452
0.03740 -0.00560 -0.21155
-0.19779 0.22091 0.18261
-0.13995 -0.00560 -0.04315
0.06257 -0.00297 0.02503
-0.21211 0.35995 0.21975
-0.20321 0.26771 0.03062
-0.14603 -0.36234 0.18988
-0.02306 -0.14383 0.18261
0.10621 0.00376 0.14291
-0.13208 -0.00560 0.20883
0.10967 -0.00560 0.12954
-0.19657 0.28227 0.01824
-0.19877 0.29326 -0.21923
0.08514 0.00376 -0.07294
0.20221 -0.00870 0.19198
-0.16542 -0.00836 0.16388
-0.20459 0.27460 -0.06433
-0.07333 0.00376 -0.06533
0.00314 -0.00560 -0.04424
0.00106 0.00376 -0.21158
-0.21803 0.34180 -0.07753
-0.04819 0.00376 0.14794
-0.21808 0.37980 -0.05496
0.11861 -0.00560 -0.03479
-0.18694 0.18633 0.18327
0.14478 0.00376 0.10249
-0.20632 0.30453 -0.16766
-0.20532 0.27826 -0.07351
