0.12869 -0.02531 0.15436
-0.12358 0.00690 0.14969
0.15680 0.00846 -0.11958
0.13392 0.01100 0.09256
-0.11141 0.42365 0.17840
-0.09822 -0.35828 -0.13370
-0.05102 -0.00016 -0.16246
-0.08557 0.39102 -0.10766
-0.09312 0.01100 -0.08673
-0.06143 0.41256 0.15860
-0.07837 -0.43328 0.10063
-0.10691 0.10553 -0.13045
-0.10133 -0.14998 -0.13683
-0.13503 0.43563 0.11281
0.14444 -0.27833 0.10051
0.14047 -0.39953 -0.11235
-0.11539 0.34863 0.10401
-0.07305 -0.06021 0.12336
0.11609 0.01100 0.11128
-0.12248 0.09284 -0.01708
-0.07871 -0.35440 0.12959
0.13147 -0.32113 -0.11821
-0.09816 0.34404 -0.11210
0.12221 -0.42744 -0.11974
-0.09820 0.35422 0.05123
0.01098 0.01100 -0.11048
-0.10586 0.20567 0.11619
-0.06879 -0.11620 -0.11000
-0.12026 0.01100 -0.11492
0.13575 -0.04348 0.12685
-0.10603 0.35422 0.09103
-0.09685 0.37655 -0.11789
-0.09198 -0.30083 0.12677
0.01581 -0.02860 -0.02953
-0.14397 0.39137 0.09211
-0.05014 0.01100 -0.04820
0.14818 -0.33060 -0.11750
0.02267 -0.02860 -0.03184
-0.07991 0.39670 0.17731
0.05302 -0.02860 0.08838
-0.09914 -0.21363 -0.14161
-0.09860 -0.42075 0.10157
-0.09657 -0.25289 -0.14348
-0.12126 0.31593 -0.00120
-0.07271 -0.22761 0.10803
-0.09195 0.43563 0.11893
-0.12880 0.21811 0.00439
-0.10400 -0.11059 -0.14158
-0.09887 -0.04383 0.12209
0.10993 0.01100 -0.12378
-0.03030 0.01100 -0.14304
-0.10336 -0.02860 -0.01513
-0.11054 0.35422 0.09756
-0.09307 -0.05853 -0.10894
0.12853 -0.25667 0.13178
-0.07298 -0.04348 -0.11102
0.09416 0.01100 -0.09193
-0.11278 0.20053 -0.10483
0.14127 0.01100 -0.09040
0.14788 -0.31607 0.12232
0.14843 -0.02860 0.13494
-0.07722 0.01100 0.04235
-0.07353 -0.21902 0.12761
-0.10183 -0.36236 0.11967
0.12160 -0.11165 -0.11857
-0.10137 -0.21034 -0.12520
-0.09350 0.02661 0.11329
-0.08754 -0.03710 -0.10856
-0.09114 0.43563 -0.17549
-0.12297 0.10844 -0.11964
-0.11423 0.02554 -0.10524
0.14810 -0.17592 -0.12527
-0.14607 0.37422 0.08406
-0.11537 0.24281 0.10284
-0.11932 0.24164 -0.00647
0.12317 -0.13437 -0.14486
0.14498 -0.04296 0.09715
-0.07210 -0.03888 0.10714
0.15604 -0.22582 -0.12851
-0.09391 0.18955 0.09343
-0.11535 0.35422 0.09360
0.13675 -0.02860 -0.07440
-0.08671 0.35422 0.15793
0.12985 -0.26650 -0.14333
-0.10261 0.37956 -0.01521
-0.10992 0.43563 0.11859
0.15580 -0.42230 -0.13636
-0.10234 -0.41340 -0.11910
-0.09328 0.17404 0.11313
-0.09544 0.41765 -0.07328
0.04662 0.01100 0.07957
-0.11611 0.35422 -0.01035
0.07795 0.01100 -0.05195
-0.07235 -0.23292 0.10738
0.14891 -0.08141 0.09715
-0.07219 -0.24609 0.13167
0.00459 -0.02860 -0.04064
0.02383 -0.02860 -0.07112
-0.08796 -0.36117 0.13010
0.15680 -0.07350 0.12838
-0.07698 -0.15789 -0.13925
-0.04337 0.01100 -0.12964
-0.07172 -0.27597 -0.13619
-0.11986 0.27061 -0.12634
-0.07073 -0.42502 -0.14297
-0.12196 0.24311 -0.01639
0.15457 -0.21303 -0.13717
-0.03776 -0.00984 0.15436
-0.10145 0.26371 0.09043
0.15396 -0.27553 0.10573
-0.08698 -0.06678 0.10744
-0.10245 0.36809 -0.01986
-0.10345 -0.22854 -0.13665
0.00804 0.01100 -0.04525
-0.10527 -0.14722 0.10541
0.14969 -0.40287 0.12991
0.14308 -0.35963 0.10283
-0.12317 0.27959 -0.11721
-0.04364 0.01100 0.04415
-0.06356 -0.02860 0.12757
-0.07540 -0.39953 -0.11125
-0.14492 0.22462 -0.00466
-0.06944 -0.43563 -0.13109
0.15445 -0.27267 0.11861
-0.09597 -0.15676 -0.13951
0.14647 -0.04348 0.10564
0.12273 -0.02860 0.12893
-0.05078 0.00164 0.15436
0.13142 0.01100 -0.08205
0.04651 -0.02860 0.09417
-0.10637 -0.42321 0.12221
-0.08372 0.35422 0.10886
-0.14099 0.15333 0.00147
0.13845 -0.02860 -0.11080
-0.12974 0.40352 0.13514
-0.14522 0.35422 0.03881
-0.08908 -0.02860 -0.12309
-0.10043 0.24783 0.11648
0.15680 -0.00430 0.09564
-0.08110 -0.02860 -0.11665
-0.09967 0.42692 -0.05016
-0.09910 0.28738 -0.11040
-0.12473 -0.02860 -0.11983
-0.11714 0.43563 -0.14630
0.05831 0.01100 -0.09556
-0.10170 -0.19592 0.11678
-0.08546 -0.22297 -0.10954
-0.10730 -0.08680 0.10951
-0.11952 0.38858 -0.10854
0.07247 0.01100 0.00906
-0.11142 0.43563 0.11137
-0.05376 0.01100 0.07261
-0.10418 -0.15191 0.10928
0.14012 -0.07982 0.13236
0.12795 -0.35220 -0.13863
-0.00524 -0.00088 0.15436
-0.01762 0.01100 -0.04826
0.04921 0.01100 -0.11657
-0.03980 -0.02860 0.11586
-0.09866 0.40792 -0.11098
-0.07744 0.42990 0.12083
0.12391 -0.21241 -0.13885
0.14045 -0.21333 0.13017
-0.11632 0.41093 0.16682
0.01981 -0.02860 -0.06306
-0.09269 -0.28596 -0.11346
-0.06184 0.42975 -0.16574
-0.01233 0.01100 -0.10425
-0.11351 0.01100 0.13411
-0.14469 0.01100 0.00183
0.11148 -0.02860 -0.13487
-0.08890 0.01100 0.12128
-0.14710 0.42264 0.08015
-0.10671 -0.25679 0.10856
-0.13456 0.33355 0.00456
0.12886 -0.10544 -0.10966
0.11028 -0.02860 0.10508
-0.10398 0.35422 0.05244
-0.09826 0.21805 0.11603
0.15104 -0.16327 0.10751
-0.11269 0.36665 -0.13051
-0.07803 -0.35615 0.11247
-0.07161 -0.15060 -0.12504
0.13436 -0.12152 -0.14486
-0.12216 0.28763 -0.00001
0.15419 -0.40063 0.11869
-0.12771 -0.02860 0.05603
-0.11538 0.35422 0.08118
-0.07210 -0.11121 0.11044
-0.12707 0.43253 -0.14955
-0.10730 -0.12075 0.12848
-0.14402 0.24602 -0.01419
-0.08265 -0.04348 0.13329
0.14339 0.01100 -0.10703
0.15680 -0.09436 0.13218
0.12160 -0.12593 0.11831
0.12977 -0.40564 0.09939
-0.10372 0.32420 0.09051
-0.05340 0.01100 0.03939
-0.07289 -0.42501 0.12820
-0.10730 -0.10297 0.10793
-0.14665 -0.02860 -0.04396
0.15341 0.00045 0.15436
-0.09712 -0.35963 -0.11423
-0.10702 -0.05306 0.11850
0.12209 -0.25561 0.11941
0.02609 -0.02860 0.12779
0.10603 0.01100 -0.13718
-0.10031 0.39215 -0.04434
-0.11739 0.35422 -0.02322
0.04017 -0.02738 0.15436
0.04657 0.01100 -0.03854
-0.09250 0.39115 0.11230
-0.11908 0.03972 -0.00842
0.03434 0.01100 0.05274
-0.13562 0.00983 0.11930
0.11296 0.01100 -0.09868
-0.10184 0.01100 -0.00507
-0.12503 0.25178 -0.01928
-0.11876 0.37603 -0.16915
-0.08921 0.28132 0.10234
0.13799 -0.28436 0.12784
-0.11186 0.36712 -0.10470
0.07415 -0.02154 0.15436
0.15490 -0.21554 0.11458
0.15331 -0.02860 -0.13137
0.08737 -0.02848 0.15436
-0.03204 0.01100 0.08162
0.01292 -0.02860 -0.05041
0.12361 -0.02860 -0.13290
-0.07776 -0.18366 -0.12539
0.15213 -0.37300 0.11341
-0.01960 -0.02860 -0.05147
-0.12669 0.24977 0.00352
-0.06187 0.40275 -0.16821
0.15173 -0.15602 0.12828
-0.12152 0.31284 -0.12412
0.05396 0.01100 0.01035
0.11266 0.01100 0.12225
-0.13277 -0.02860 -0.10704
-0.15056 0.39478 0.06264
0.11306 0.01100 -0.05481
0.03101 -0.02860 -0.06434
-0.07302 -0.42331 0.10550
-0.14010 0.26369 0.00216
0.15014 -0.35666 -0.13897
0.13271 -0.43563 -0.13478
-0.09035 0.20053 0.09807
-0.09400 -0.30807 -0.11808
0.15680 -0.10291 0.09890
0.12470 -0.02860 0.11784
0.09938 0.01100 -0.03664
0.08637 -0.02141 0.15436
-0.09402 -0.38822 0.10399
-0.09604 -0.02860 -0.11930
0.12603 -0.15757 -0.13476
-0.07192 -0.20772 -0.12048
-0.09163 0.08442 0.09587
0.12586 -0.01920 -0.16246
-0.10503 0.35422 -0.08557
0.15680 -0.06957 -0.13969
-0.12581 0.35422 -0.01307
-0.08692 0.36211 0.09562
-0.07686 -0.02860 0.01898
0.01602 0.01100 -0.06809
-0.14464 0.41062 0.08957
0.09534 -0.02860 0.02800
0.01741 0.01100 0.05801
0.14395 -0.43563 0.12454
-0.13018 0.43563 -0.00329
0.14285 -0.26735 -0.14321
0.12534 -0.42215 -0.11066
-0.14662 -0.02860 -0.03327
-0.12554 0.37331 -0.15316
0.15478 -0.04890 -0.14069
-0.08955 0.43520 -0.09593
-0.07508 0.37437 -0.17381
-0.12244 0.32704 -0.12190
-0.14853 0.43563 -0.02071
-0.03283 -0.02860 -0.07292
0.15680 0.00399 -0.09846
-0.13163 0.36479 0.13068
-0.08330 0.40773 -0.17730
-0.00557 0.01100 0.11016
-0.15679 0.36111 -0.00429
-0.08323 -0.02860 -0.09681
0.14796 -0.09522 -0.10966
-0.07233 0.36993 -0.17264
0.03388 -0.02860 0.08152
-0.12296 0.19245 -0.11567
0.11859 -0.02860 -0.00186
-0.11223 0.17628 0.09501
-0.09607 -0.43563 -0.12939
-0.11794 0.36869 -0.10724
-0.10786 0.43563 0.13827
0.15131 -0.02860 -0.01364
-0.06371 0.01100 -0.09600
-0.10238 0.43206 -0.02159
-0.10477 0.35422 -0.04700
-0.08411 -0.41076 0.13380
-0.14273 0.10620 -0.01621
0.02236 -0.02463 -0.16246
0.15385 -0.02860 0.10723
0.12212 -0.05895 -0.11162
-0.13010 0.43563 0.01542
-0.07785 -0.31438 -0.13016
-0.11344 0.26345 0.11045
-0.15024 0.01100 -0.04663
0.04113 -0.01032 -0.16246
-0.05664 0.01100 0.09603
-0.15434 0.39726 0.03653
-0.04874 -0.02860 0.10723
-0.11528 0.08904 -0.12965
-0.10682 0.01100 0.04817
0.09031 -0.02860 -0.03561
0.15680 -0.01594 0.14994
-0.07868 -0.40764 -0.14167
0.15436 -0.04821 -0.12355
-0.05429 -0.02860 -0.07851
-0.09707 -0.02860 0.13885
-0.09327 0.01100 -0.15334
-0.10956 0.43563 -0.01743
0.12747 -0.09144 -0.10966
0.12688 -0.19722 0.12577
-0.14900 -0.02860 0.05399
-0.11436 -0.02860 0.09345
-0.12485 0.43563 0.06425
0.08100 0.01100 0.15014
-0.12450 0.01100 -0.13664
-0.15388 -0.00815 -0.04889
-0.14377 -0.02860 -0.09736
0.12807 -0.14273 -0.11064
0.13045 -0.29158 0.12610
0.04908 -0.02860 0.02467
-0.13048 0.37102 -0.14151
-0.09131 -0.36049 0.10606
0.15680 -0.12077 0.11575
0.12536 -0.05368 -0.14465
-0.14974 0.36295 0.06709
0.15680 -0.01237 -0.01875
0.12432 -0.12679 0.13236
-0.10051 0.35422 0.13349
-0.10375 -0.01838 -0.16246
-0.12272 0.25593 -0.12122
-0.10938 0.42274 0.18320
-0.14913 0.41543 -0.07846
0.12178 -0.43322 -0.14336
-0.07885 -0.13106 -0.10856
-0.09973 -0.20157 -0.13918
-0.08427 0.38828 0.10341
0.07130 0.01100 0.09644
-0.07217 -0.13881 0.10826
0.01401 0.00409 -0.16246
-0.12190 0.02168 -0.01631
-0.10481 -0.22882 0.13513
-0.10442 0.36769 -0.18624
0.15182 -0.07975 -0.10966
0.12615 -0.02860 -0.06742
-0.12216 0.01100 -0.06653
-0.07639 -0.28258 0.10461
0.15680 -0.00428 0.10611
-0.10239 0.35727 -0.02126
-0.04779 -0.02860 -0.05136
-0.10670 0.01100 -0.14600
0.07047 -0.00004 0.15436
-0.10195 -0.28781 0.12168
0.01132 0.01100 0.08219
0.15658 -0.25070 0.09869
-0.11915 -0.02860 0.08138
0.12220 -0.22784 -0.12164
0.14122 -0.28390 -0.11406
-0.12346 0.43563 0.14789
-0.11310 0.32654 0.09615
-0.12776 0.01100 -0.14133
-0.06542 0.41824 -0.15728
-0.11917 0.13710 -0.00759
-0.10146 0.35422 -0.18036
-0.09144 -0.02860 -0.14081
0.11755 -0.01790 -0.16246
-0.13022 0.37746 0.13402
-0.10837 0.40677 0.18556
0.15575 -0.03142 -0.10966
0.15019 -0.34709 0.11096
-0.06866 0.01100 0.04644
-0.14753 0.42115 -0.08657
-0.07060 -0.02860 0.03304
0.14157 -0.21677 -0.11139
-0.15526 0.40776 -0.03631
-0.10585 -0.14471 0.11646
0.15669 -0.24663 -0.13586
-0.09509 0.27657 0.11451
-0.09413 0.37118 0.18334
0.13957 -0.15479 0.12857
-0.08224 0.01100 0.02745
0.10572 0.00196 -0.16246
0.13824 -0.13198 0.13236
0.04040 0.01100 -0.10929
-0.08274 -0.27569 -0.14089
0.15680 -0.01532 -0.12114
0.09892 -0.02860 -0.06391
0.00540 0.01100 0.01668
-0.07699 -0.32592 -0.13392
0.09726 0.01100 0.08656
-0.07494 -0.26011 -0.10941
-0.07682 0.01100 0.07398
-0.09885 0.35422 0.11450
-0.12304 0.18427 -0.11905
-0.07798 -0.02860 0.05516
0.08808 0.01100 0.07647
0.08550 0.01100 -0.13095
-0.10143 -0.43563 -0.12888
-0.09770 0.43563 0.17700
-0.12311 0.41750 -0.11855
-0.07148 -0.04785 -0.12643
0.10939 -0.02860 0.13917
-0.15062 0.36203 -0.07039
-0.12732 0.43563 -0.10941
0.10288 0.01100 0.10889
-0.09068 -0.24579 0.10054
-0.13520 0.08572 -0.02115
-0.12451 -0.02860 -0.10378
-0.15674 -0.00670 -0.00563
0.13783 0.01100 -0.04090
-0.09953 0.01100 0.05700
-0.15090 0.43165 -0.06886
0.11839 -0.02860 -0.13658
-0.15278 0.40356 0.05056
-0.12481 0.01100 0.04194
-0.12167 -0.02860 -0.05300
0.01246 -0.02860 0.09306
0.13903 -0.42762 -0.11026
0.12160 -0.11523 -0.13063
-0.03355 -0.02860 -0.13550
-0.07170 -0.43563 -0.11578
-0.12309 0.08061 -0.11667
-0.09265 0.41895 -0.08404
-0.09970 0.43563 0.10440
0.03665 0.01100 -0.14449
-0.09695 0.39210 -0.11674
-0.10964 0.02572 0.09269
-0.09702 0.01100 -0.00233
-0.10283 0.41584 -0.00942
-0.14506 0.30247 -0.01150
-0.09064 0.39761 0.08367
0.12183 -0.43247 0.11253
0.12448 -0.20897 -0.13216
0.12160 -0.07875 -0.14242
-0.15412 -0.02860 0.01814
-0.12083 0.28612 -0.12508
-0.11363 0.15746 0.09684
-0.12519 0.41858 0.09698
0.15385 -0.20863 0.10923
0.02815 0.01100 0.00241
-0.05086 -0.02860 0.07426
0.08361 0.00746 -0.16246
-0.11362 0.41564 -0.18129
-0.13178 0.40340 -0.13843
-0.11981 0.13433 -0.01244
-0.09917 0.03505 0.11631
0.07584 0.01100 -0.08457
0.12160 -0.13017 0.09722
0.13013 -0.32128 0.12212
-0.09133 0.35767 -0.08913
0.12809 0.00374 0.15436
0.15680 -0.10253 -0.12438
-0.10421 -0.04744 0.10870
0.15007 -0.27192 0.13010
-0.14405 0.17506 -0.01410
-0.02313 -0.02860 0.03986
-0.10190 -0.19793 0.13054
-0.13886 0.42123 -0.11788
-0.11337 0.35422 -0.07463
0.07661 0.01100 0.11396
-0.09713 0.40189 0.05603
-0.08430 0.43258 -0.11140
0.01531 0.01100 0.02852
0.12160 -0.08012 0.11290
-0.13238 0.43563 -0.13523
0.15366 -0.20759 -0.12259
-0.07885 0.35422 0.15173
-0.11946 0.36727 -0.00544
0.13246 -0.35799 0.12656
-0.07785 0.36350 0.11986
-0.09460 -0.20718 -0.11178
0.15368 -0.06955 -0.10966
-0.11507 0.08421 0.10645
-0.09422 0.01100 -0.02991
-0.06848 0.42421 0.14196
-0.08573 0.01100 -0.01873
0.02587 0.01100 -0.05730
-0.14045 0.35422 0.05791
-0.12308 0.16810 -0.11876
-0.07272 -0.22757 0.12230
0.15430 -0.01822 0.15436
0.09043 -0.02860 0.11640
-0.08278 -0.10662 0.13566
0.02582 -0.02860 -0.08799
0.13079 -0.21491 -0.14288
-0.08237 -0.34806 0.10699
-0.11923 0.14661 -0.00952
-0.06627 0.39767 -0.15528
-0.07500 -0.35253 -0.13421
0.04396 0.01100 -0.02517
0.12619 -0.06768 -0.14466
0.12850 -0.42074 0.09827
-0.10400 -0.03610 -0.12073
-0.09766 0.26895 -0.11333
-0.10136 0.35813 -0.03481
0.15680 -0.00579 -0.06840
0.15680 -0.02682 0.06077
-0.09771 0.36924 -0.18340
0.07689 -0.02860 0.14113
-0.10054 -0.16756 0.12648
-0.11717 0.35422 -0.05274
-0.10380 -0.38880 0.11653
-0.09342 -0.03288 -0.14376
0.04403 -0.00463 0.15436
-0.09222 0.10750 0.11194
0.12311 -0.41538 0.12538
-0.02325 0.01100 -0.01699
-0.00172 -0.02860 0.01755
0.11861 -0.02860 0.13421
-0.09253 0.43501 0.07641
-0.02931 -0.01680 -0.16246
-0.11457 0.35422 0.08864
-0.08146 -0.38956 -0.11200
-0.08529 0.43563 -0.13674
0.15680 -0.01089 0.07539
-0.11991 0.32680 -0.00398
-0.12679 0.01100 -0.12838
0.06291 -0.02860 0.01024
0.15680 -0.13815 0.11872
-0.10763 -0.02860 -0.13464
-0.08154 -0.17158 0.12797
-0.15485 0.37034 -0.04004
-0.09945 -0.16168 0.10584
0.15607 -0.11840 -0.14486
-0.12631 0.12772 -0.02003
-0.10488 -0.25879 0.13491
-0.12798 0.02942 0.00405
-0.12984 0.30875 -0.02122
-0.08020 -0.29361 -0.11531
-0.07337 -0.02860 0.11505
-0.07926 -0.13630 0.10046
0.13037 -0.24241 -0.10966
0.15680 -0.00555 0.10110
0.15528 -0.14504 -0.13088
0.15569 0.01100 0.04609
-0.13900 0.32972 -0.01967
-0.10394 0.41544 0.11650
-0.00260 0.01100 -0.05360
0.15576 -0.06768 0.12046
-0.08159 -0.34654 0.12901
-0.13728 0.43563 -0.08858
-0.11067 0.23548 0.09347
-0.04226 -0.02860 -0.15621
-0.07630 -0.33509 -0.13066
-0.10188 0.00394 -0.16246
0.05529 -0.02860 0.13798
0.15664 -0.24827 -0.12165
-0.04702 -0.02860 0.06660
-0.10385 -0.23677 -0.11179
-0.11865 -0.02860 0.11843
-0.08995 0.23417 0.10799
0.09778 -0.02860 0.08990
-0.12170 0.38542 -0.00062
0.10932 -0.02860 -0.14439
-0.09100 0.34480 0.11034
0.05890 -0.02860 0.02841
-0.10533 -0.05109 0.13475
-0.09964 0.13743 -0.10970
-0.08480 -0.16851 -0.11553
-0.09016 -0.02860 -0.13234
-0.13609 -0.02860 0.04400
0.05912 -0.02860 0.05846
0.08914 0.01100 -0.01546
-0.09550 0.06489 0.11483
0.12185 -0.23273 0.12553
-0.05855 0.42567 0.16826
0.08325 0.01100 0.07905
0.03175 -0.02860 0.10741
-0.13786 0.37269 -0.12084
-0.07091 -0.02860 -0.14981
-0.15629 0.42369 0.00982
0.06167 0.01100 0.03936
0.12847 -0.43563 0.12955
0.12492 -0.05267 0.13199
-0.09440 -0.18154 -0.12637
0.12673 -0.28167 -0.11364
-0.13822 0.01100 -0.01821
-0.12300 0.04980 -0.11595
-0.10237 0.40741 -0.02181
-0.06475 0.36992 -0.15888
-0.09580 0.29289 0.09203
0.12651 -0.04570 -0.13179
-0.07667 -0.02713 -0.16246
0.05144 -0.02860 -0.01783
0.04810 0.01100 0.08812
-0.09829 0.42290 -0.05783
-0.08388 0.01100 -0.15917
-0.09515 -0.13199 -0.10856
0.15680 0.00767 0.11004
-0.09980 0.07707 -0.12584
-0.09134 -0.24897 -0.10873
-0.10393 -0.43476 -0.11249
-0.09812 -0.19478 -0.12976
0.15208 -0.37238 -0.12297
-0.07453 -0.09517 -0.10856
-0.11079 0.12929 0.11347
-0.15659 0.43234 -0.00980
-0.15451 0.36839 0.03499
-0.08231 0.01100 -0.04437
0.13454 -0.02860 -0.00471
-0.14396 0.08010 -0.01432
0.04915 -0.02860 -0.11271
-0.11524 0.32752 -0.10565
-0.10635 -0.22349 0.11400
-0.09754 0.38278 -0.12172
-0.12584 -0.00655 -0.15246
-0.04092 0.01031 -0.16246
-0.08934 0.32710 0.10566
-0.08519 -0.42481 -0.10937
-0.07765 0.01100 0.00058
-0.10044 0.35422 -0.06716
-0.10474 0.02804 -0.10568
-0.12186 -0.02860 0.02316
-0.08005 -0.42724 -0.10918
-0.09798 0.35542 -0.05948
-0.11298 0.36317 -0.18280
-0.12515 0.43563 -0.07905
0.12253 0.01100 -0.04822
-0.08651 -0.23842 -0.10866
-0.07257 -0.02860 -0.15434
-0.11344 0.21489 0.09659
0.03695 0.01100 -0.11854
0.15668 -0.05671 0.12941
-0.11225 0.30376 0.11200
-0.10322 0.36457 0.11659
-0.10400 -0.09540 -0.12912
-0.07315 0.01100 0.07027
0.15463 0.01100 -0.13765
-0.11807 0.43563 0.00302
-0.11031 0.40532 0.11384
-0.10702 0.35422 0.14711
0.14727 0.01100 0.00508
0.12159 -0.02860 -0.05702
0.14987 -0.19050 -0.12826
-0.07992 -0.33080 0.12371
-0.10192 -0.02799 0.15436
0.11542 0.01100 0.08330
0.10957 0.01100 0.01601
-0.06198 0.37231 0.16971
0.15360 -0.39282 -0.14140
-0.06028 -0.02860 0.14074
0.05826 0.00221 -0.16246
-0.12070 0.35422 0.10869
-0.10875 0.15608 0.11500
0.07533 -0.02860 -0.15834
0.02269 0.01100 0.13625
-0.07761 0.43563 -0.15612
-0.02929 -0.02860 0.02646
0.14639 -0.01265 -0.16246
-0.12153 0.06419 -0.00084
0.15680 -0.01034 0.00594
0.13189 -0.43563 0.09774
-0.13585 0.01100 0.00167
0.15655 -0.05781 -0.13971
-0.11396 0.02794 0.10948
-0.06425 0.40458 -0.16005
0.12422 -0.40053 0.12553
-0.15305 0.42511 0.04827
-0.12088 0.39861 -0.11031
-0.15239 0.36671 -0.06078
-0.11093 0.40879 -0.13074
0.07192 -0.02860 0.02872
-0.12016 0.34555 -0.00339
-0.10730 -0.09239 0.10447
-0.14313 0.42862 -0.10346
-0.11527 0.00000 -0.16246
-0.09580 -0.40494 -0.14147
-0.11012 0.03302 -0.13085
-0.08841 0.35422 -0.14245
-0.13364 0.36721 -0.13323
-0.14356 0.41684 -0.00154
-0.15474 -0.01237 0.03290
0.13537 -0.27853 -0.14146
0.15246 -0.37748 -0.11847
0.15463 -0.02860 0.03192
-0.11025 0.12330 0.11389
0.12281 -0.26411 0.11893
-0.13671 0.36259 0.11611
-0.07392 -0.41116 0.10233
-0.08561 0.39089 0.17973
-0.09193 0.02391 0.09548
0.00243 -0.02860 -0.08395
-0.08842 -0.02860 0.10812
-0.08950 0.31795 0.10687
-0.07537 -0.34762 -0.11823
-0.14145 0.20597 -0.01779
0.15342 -0.15303 -0.13070
-0.10910 0.42566 -0.18823
-0.08989 -0.30796 -0.13423
0.14450 -0.43563 -0.13767
-0.13227 0.35422 0.03842
-0.14524 0.35019 -0.01015
0.07112 0.01100 0.10132
-0.06255 -0.02860 -0.06342
-0.12297 0.33200 -0.11573
-0.09910 0.37674 0.04533
-0.12156 0.42779 -0.16254
-0.09126 -0.02860 0.01635
0.03988 -0.02860 -0.04167
-0.10319 -0.28232 0.11821
-0.12630 0.38506 0.14326
-0.07911 -0.04296 0.10046
-0.10104 0.40877 0.02954
0.00312 -0.02860 0.07543
-0.07287 0.43473 0.17433
-0.13689 0.20665 0.00392
0.03786 0.01100 0.03632
-0.05981 0.01100 0.02795
0.13113 -0.30794 -0.13482
-0.10400 -0.09936 -0.14042
-0.15607 0.39248 0.01606
-0.09966 0.12847 0.11638
0.12309 -0.04977 -0.11478
-0.06890 -0.23836 -0.11529
0.14294 -0.05884 0.13187
-0.03115 0.01100 -0.07148
-0.07415 0.01100 0.11632
-0.07420 0.01100 -0.09830
-0.12940 0.02416 0.00449
-0.10725 0.41858 0.10822
0.12521 -0.22150 0.13125
-0.11270 0.11879 -0.10481
0.07236 0.00324 -0.16246
-0.14409 0.40631 -0.09978
-0.13199 -0.02860 -0.13392
0.14472 0.01100 -0.12529
-0.07935 -0.04957 -0.14215
-0.12865 -0.02860 0.13752
0.12173 -0.23726 -0.13496
0.15680 -0.00792 0.11037
-0.02493 -0.02860 0.07752
-0.11322 0.04895 0.11073
0.12127 0.01100 0.06142
-0.13821 0.42928 0.11171
0.12184 -0.43563 0.13145
-0.09204 0.33274 0.09533
0.15354 -0.43563 -0.11093
-0.14892 0.39604 0.07151
0.00646 -0.02860 -0.02499
0.04035 0.01100 0.13676
-0.09423 0.35422 -0.13165
0.15341 -0.39015 -0.11428
-0.05603 0.01100 0.05488
-0.15315 0.43563 -0.00217
-0.11155 0.39989 0.09415
-0.06815 0.41292 0.17233
-0.00500 0.01100 0.14244
-0.10461 -0.02860 -0.02898
-0.14024 0.43261 0.10575
-0.09033 -0.02860 0.04739
-0.11453 0.41170 0.09895
0.13636 -0.24162 0.13234
-0.10710 0.30644 -0.10485
-0.06851 0.40995 -0.17102
0.15013 -0.34625 0.11919
0.08007 -0.02860 -0.13697
-0.09748 0.15600 0.11571
-0.06998 -0.11137 -0.14376
-0.12542 0.32350 0.00290
-0.10259 0.43563 0.14851
-0.12138 0.39987 -0.00104
-0.09986 0.17568 -0.10941
-0.07488 0.41725 0.12687
-0.03718 0.01100 0.15310
-0.03195 -0.02860 0.08081
-0.14483 -0.02325 0.08883
-0.11009 0.06401 0.09303
-0.10198 -0.40865 -0.13488
-0.12087 0.40679 0.15608
-0.10726 -0.05595 0.13393
0.09214 0.01100 -0.13767
-0.01849 0.01100 -0.15263
-0.14529 0.01796 -0.00691
0.12160 -0.13219 0.11826
-0.06827 0.36375 -0.15056
-0.07289 -0.25936 0.13026
0.12765 -0.35458 -0.11993
-0.02669 -0.01477 0.15436
0.01730 -0.02860 0.10991
-0.14188 0.35422 -0.08721
0.08345 0.01100 0.03557
0.08562 -0.02860 0.09336
-0.08159 -0.35360 0.10658
0.15673 -0.02860 0.02712
0.12681 -0.43563 -0.11695
-0.08162 0.41484 -0.11906
-0.09796 0.14614 -0.12272
-0.14540 0.36230 -0.09475
-0.09739 -0.35945 0.10614
0.13220 -0.25062 -0.10988
0.12169 -0.24599 -0.14474
-0.10302 0.41082 -0.00389
-0.13894 -0.02860 -0.02891
-0.15655 0.40031 -0.01104
-0.09874 0.30630 0.09081
-0.12519 0.14144 -0.01940
0.05032 -0.02860 -0.04992
-0.13004 0.01100 -0.10336
-0.12141 -0.02860 -0.14879
-0.09468 0.01100 0.02251
0.14773 -0.04359 -0.13551
-0.12588 0.35422 0.11707
-0.14163 0.27699 0.00097
-0.10719 0.32843 -0.10483
0.10733 -0.02860 0.12695
0.15550 -0.24247 -0.14486
-0.08865 0.35923 0.09051
-0.10130 -0.40394 -0.11092
-0.10338 -0.38317 0.12252
0.14639 -0.38472 0.12856
0.05556 0.01100 -0.01709
-0.08832 -0.02860 0.03353
-0.07021 0.01100 -0.00324
-0.10364 -0.25383 -0.13709
-0.11705 0.13970 -0.12877
-0.10037 -0.29428 0.12018
0.13309 -0.02860 0.08858
-0.12077 0.22782 -0.12516
0.09686 -0.02860 0.00875
-0.03859 0.01100 -0.07811
0.10678 0.01100 0.07927
0.14799 -0.21444 0.09920
-0.09440 0.01100 -0.11275
-0.10371 0.29829 0.09051
0.15386 -0.15113 0.11596
-0.09901 -0.18593 0.10999
-0.11541 0.25655 0.10389
-0.11330 0.43563 0.07503
-0.14535 0.19645 -0.00932
-0.00666 -0.02860 0.00161
0.15680 0.00294 0.08376
0.12160 -0.08967 0.10760
0.13630 -0.29998 -0.13623
0.13939 0.01100 -0.14800
-0.08993 -0.02860 0.05769
-0.07668 0.01100 0.07986
-0.08242 -0.09010 -0.10856
-0.14192 0.16695 0.00060
-0.14653 0.01098 0.08230
-0.10895 0.43563 -0.17341
-0.11330 -0.02860 0.00548
-0.12168 0.01100 -0.06149
-0.00936 -0.02860 0.01742
0.08545 -0.02860 -0.16074
-0.08102 -0.42379 0.10134
-0.09080 -0.06659 -0.13714
-0.10326 0.33284 -0.10636
0.05806 0.01100 0.08678
-0.14481 0.28700 -0.00441
0.15680 -0.01772 0.10875
0.15213 -0.19975 -0.13391
-0.13551 0.43563 0.07327
-0.06365 0.36401 0.15336
-0.04318 -0.02860 0.13121
0.15327 -0.02860 0.13459
-0.05747 -0.01718 -0.16246
-0.12681 0.01100 -0.05835
-0.14907 0.01100 -0.06933
-0.10231 0.35863 -0.18535
-0.11537 0.37535 -0.10571
0.08214 -0.00160 0.15436
0.12221 -0.25707 -0.11418
0.15005 -0.06768 -0.13133
-0.09669 0.10785 0.11538
-0.13257 0.35422 -0.11778
-0.09182 0.01100 -0.09235
-0.10002 -0.15174 -0.11164
0.14123 -0.18320 0.12325
-0.07367 -0.02860 -0.13353
0.14259 -0.02860 0.04452
0.13006 0.01100 -0.15933
-0.10024 -0.28044 -0.13693
-0.08581 -0.06814 -0.10856
-0.14258 0.07602 -0.00027
-0.10063 -0.27835 -0.11552
0.01943 0.01100 -0.13687
-0.13798 0.01100 0.02975
-0.12196 0.12302 -0.11227
0.12160 -0.09478 0.10377
-0.12359 0.39587 0.14967
-0.10400 -0.12217 -0.11155
-0.03201 -0.02146 0.15436
-0.03002 0.01100 0.00198
-0.13378 0.25688 -0.02134
-0.14214 0.01912 -0.01698
-0.07075 0.01100 -0.05428
-0.05036 0.01100 0.09954
-0.14812 0.41135 -0.08395
0.10066 -0.02860 -0.02352
-0.07008 -0.41842 -0.12748
-0.08539 0.39767 0.10009
0.13340 -0.25296 0.13207
-0.11984 0.06942 -0.00416
-0.12039 0.01100 0.10923
-0.07283 0.38949 0.13171
-0.12406 0.35422 -0.05968
0.14254 -0.37083 -0.11449
-0.08568 0.39030 -0.17830
0.14091 -0.04594 0.10170
-0.10553 0.07759 0.11629
0.07905 0.01100 0.14570
-0.13907 0.14699 -0.01962
-0.11678 0.24652 -0.10635
-0.14892 0.00350 0.07150
-0.13224 0.37174 -0.02153
-0.04101 -0.00253 -0.16246
-0.08915 -0.33096 -0.13595
-0.14713 0.35422 -0.03742
-0.09237 0.16052 0.11213
-0.09690 0.38453 -0.11708
-0.14283 0.36967 -0.10459
-0.09348 0.35422 0.17241
-0.11519 0.31463 0.10146
-0.06879 -0.09868 -0.11474
-0.13741 0.35422 -0.01679
-0.14528 0.15560 -0.00982
-0.12488 0.41004 -0.15472
-0.14350 0.01100 -0.01425
-0.10227 0.17633 0.09032
0.02987 0.01100 -0.03104
-0.12293 0.30910 -0.11993
-0.00773 -0.02860 -0.05541
-0.07425 -0.22119 0.10160
0.14719 -0.38859 -0.14135
-0.07172 -0.39644 -0.13799
0.13075 -0.02860 -0.11584
-0.07678 -0.08526 -0.10856
-0.07210 -0.11183 0.12861
-0.09788 -0.14799 0.13345
0.13854 -0.24854 -0.14470
-0.06879 -0.08883 -0.11636
-0.09894 -0.06556 -0.12488
0.01662 0.01100 0.10474
-0.06909 -0.02988 -0.14376
-0.10151 0.06949 -0.10770
-0.03052 0.01100 -0.01744
-0.15355 -0.02543 -0.05186
-0.09515 -0.02860 -0.15362
-0.09377 0.19837 0.11350
-0.08505 -0.10785 0.10046
-0.15617 0.36055 0.01325
0.11610 0.01100 0.14676
0.13132 -0.30538 -0.11993
0.13469 -0.10149 0.13236
-0.10400 -0.08963 -0.12241
-0.15620 0.42326 -0.02051
0.05619 -0.02860 -0.08283
0.12307 -0.06768 0.10210
-0.06289 -0.02860 -0.04051
-0.08165 -0.00398 -0.16246
-0.00919 0.01100 -0.12982
0.15569 -0.02860 -0.03763
-0.12507 0.35422 -0.07899
-0.08933 0.12209 0.10143
0.01554 -0.02860 -0.06822
0.01269 -0.02860 0.03651
0.15562 -0.02860 -0.14960
-0.09777 0.02159 -0.12228
-0.07220 -0.03380 0.13566
-0.02772 -0.02563 0.15436
-0.10858 0.28509 0.09197
0.12888 -0.12126 0.09715
-0.09131 0.31025 0.11075
0.13160 0.01100 -0.00788
0.12874 -0.09213 0.13236
-0.12429 0.17560 -0.01871
0.15680 -0.01307 -0.13585
0.12884 -0.02860 0.14864
-0.08971 -0.09631 0.13566
-0.09604 0.01100 0.08611
0.15074 -0.19403 -0.12466
0.13688 -0.06681 -0.13778
-0.12067 -0.01681 -0.16246
0.15249 -0.15702 0.11361
-0.12902 0.35422 -0.14341
-0.15391 0.40642 0.04042
-0.07867 -0.34758 0.11592
-0.04692 0.01100 0.13811
0.12286 -0.26442 -0.12112
-0.12022 0.22436 -0.10946
-0.08932 0.38995 -0.09664
-0.11499 0.35422 0.13262
-0.09662 0.36513 0.05880
0.15669 -0.23816 -0.11580
-0.07533 -0.15241 0.11218
-0.11490 0.09724 0.09983
0.15327 -0.38838 -0.12488
-0.00512 0.01100 0.07454
0.03397 -0.00815 -0.16246
-0.15251 -0.02860 0.00742
-0.08496 -0.25618 0.13512
-0.12485 0.00113 -0.15480
0.08398 -0.02860 -0.04092
0.14386 -0.02860 0.09642
0.15680 -0.00811 -0.13269
-0.08599 -0.08105 0.13566
-0.12734 0.40333 -0.02046
-0.10251 0.39188 -0.01816
0.04919 0.01100 0.01576
-0.14456 0.36137 -0.01287
0.12237 -0.42523 0.12322
0.15651 -0.43181 0.11408
0.04635 0.01100 0.14117
-0.09886 -0.06733 0.12374
-0.10716 0.43183 0.18843
0.15680 -0.09124 -0.14087
0.04918 -0.01202 -0.16246
0.15259 -0.23140 0.13204
-0.15174 0.43563 -0.05085
0.14304 0.01100 0.07207
0.00259 -0.02860 -0.00499
-0.10073 0.42225 -0.04047
-0.06463 0.43563 -0.16928
-0.00573 0.01100 -0.05979
-0.06897 -0.05716 -0.13776
-0.10502 0.37157 0.18795
-0.14506 0.38568 0.08796
-0.10847 0.39421 0.11511
-0.13533 0.18956 0.00446
-0.13406 0.40417 -0.13201
-0.08909 0.09646 0.10376
0.00256 -0.02242 -0.16246
-0.00282 0.01100 0.01240
-0.11444 0.35422 -0.16307
0.06505 -0.00485 0.15436
0.12331 -0.41266 0.10649
0.09603 -0.02860 0.01454
-0.10981 0.06065 0.11422
-0.08593 -0.30589 0.11014
-0.08800 0.36549 -0.10052
0.15680 -0.04300 0.12549
-0.09661 -0.29582 -0.12706
-0.09859 0.35422 -0.15577
-0.14009 0.35737 0.10619
0.00824 0.01100 -0.12695
-0.10027 0.07193 0.09058
-0.09702 0.03421 -0.11618
0.12571 -0.04348 0.10207
0.12287 -0.22021 0.11230
0.12312 -0.06144 0.10498
-0.15624 0.39416 0.01119
-0.07502 -0.19992 -0.11319
-0.01525 -0.00960 -0.16246
0.15039 -0.02860 0.11579
-0.09411 -0.02860 -0.07881
-0.13826 -0.01219 0.11157
-0.05724 0.01100 -0.13627
-0.10884 0.35422 -0.09449
0.14607 -0.07519 -0.14486
-0.08925 0.01327 0.10206
0.06080 0.01100 -0.10711
-0.13447 0.01100 0.07481
0.13320 -0.30401 0.10698
-0.07926 -0.43563 -0.13360
-0.11524 -0.02860 -0.06250
-0.11372 0.16908 0.11004
0.08464 -0.02860 -0.00774
0.02330 -0.02860 0.15272
-0.10122 -0.35421 0.12851
-0.06170 0.37883 -0.16607
-0.13500 0.41586 0.00451
-0.10266 0.24813 -0.12851
-0.09902 -0.02860 -0.13204
-0.01927 -0.02860 -0.13964
-0.11820 0.40680 -0.12789
0.15680 -0.01442 0.12445
0.02775 -0.02860 -0.16174
-0.09679 -0.19304 -0.11485
-0.05800 -0.02860 -0.11985
0.14916 -0.11570 0.13236
0.15680 -0.00296 -0.09808
-0.12670 0.01100 0.10248
-0.11000 0.22128 -0.10447
-0.09273 -0.04348 -0.10947
-0.08121 -0.02860 0.13140
-0.12069 0.01100 0.11944
-0.09425 0.07191 0.09317
0.15680 0.00022 0.07753
0.05908 -0.02860 0.09682
-0.13094 0.23368 0.00469
-0.04282 -0.02860 -0.14752
0.02417 0.01100 -0.02390
-0.09358 0.41170 -0.08050
0.07972 0.01100 0.13420
-0.10309 -0.26075 -0.12194
-0.10100 -0.24932 0.10064
0.13086 -0.17835 -0.12786
-0.06898 -0.02860 -0.04062
0.08983 -0.02860 0.07260
0.13040 -0.16031 0.10222
-0.09996 0.38715 0.03938
-0.10206 -0.36550 0.11578
0.10991 -0.02860 0.02393
-0.10444 0.07438 -0.12952
-0.00041 0.01100 -0.09972
0.15603 -0.25908 -0.12183
-0.06771 0.01100 0.11526
0.14487 -0.02860 -0.06838
0.15371 -0.43563 0.11331
-0.02476 -0.02860 -0.11213
0.15680 0.00370 -0.10437
0.15624 -0.12978 0.09715
-0.00646 -0.02234 -0.16246
-0.10138 0.43563 -0.09053
-0.11054 0.35759 -0.18854
0.00636 -0.02860 -0.16066
-0.11934 0.35422 -0.08019
0.13069 -0.07648 -0.10966
0.05655 0.01100 -0.04312
0.13247 -0.02860 -0.08818
0.15402 -0.39842 -0.13754
-0.09340 -0.14331 -0.14264
-0.10067 0.30971 -0.12697
0.12160 -0.12421 0.10785
-0.15637 0.00452 0.00763
-0.08438 -0.21672 0.13392
-0.08570 0.38067 0.09919
-0.11364 -0.02860 -0.16154
-0.11191 0.21857 -0.13062
0.00506 -0.02860 -0.10806
-0.10260 0.41223 0.00764
-0.15287 0.35422 0.04195
0.01809 -0.02860 -0.07240
-0.04468 -0.02860 -0.02676
0.15600 -0.22530 0.12901
-0.14683 -0.00453 0.08117
-0.14077 0.43563 0.09738
-0.09371 -0.22801 -0.14317
-0.12188 0.14884 -0.12325
0.12496 -0.06768 -0.13885
-0.08464 -0.02860 0.07638
-0.11993 0.04974 -0.10908
-0.03727 -0.02651 0.15436
-0.12829 0.10155 -0.02085
-0.10795 0.39676 -0.10473
0.12498 -0.39038 -0.13064
-0.13111 0.43563 -0.10632
-0.12289 0.40283 -0.12023
-0.12576 0.18782 -0.01980
-0.09796 -0.43563 0.13528
0.05138 0.01100 -0.03731
-0.10091 0.39798 -0.12717
-0.14013 0.43563 -0.07635
-0.13519 0.41237 0.12057
0.14903 -0.17191 0.12453
0.14529 -0.06621 0.10319
-0.04764 0.01100 -0.03462
0.03613 0.01100 -0.16025
0.15043 -0.10826 -0.14486
-0.10030 0.38066 -0.12649
0.11914 -0.02860 0.09967
-0.14419 0.15720 -0.00289
-0.15225 0.41389 0.05342
0.07151 -0.02860 0.08057
0.15680 -0.01061 -0.06386
0.08575 0.01100 -0.00455
-0.10730 -0.10844 0.10111
-0.09330 -0.02860 -0.11042
-0.09335 0.36291 0.18301
-0.06301 0.42487 0.17015
-0.04026 0.01100 -0.11324
0.05320 -0.02860 0.01487
0.09810 -0.02860 -0.13722
-0.10644 0.07134 0.11595
-0.00340 -0.02860 -0.02423
-0.12282 0.21852 -0.11457
-0.11539 0.17252 0.10405
0.13171 0.01100 -0.06269
0.12197 -0.43061 0.10235
0.13830 -0.38429 -0.14103
-0.13023 0.35422 0.05277
0.06734 0.01100 -0.02898
-0.09795 -0.27133 0.10263
-0.08369 -0.15989 -0.11353
-0.09724 0.02554 -0.11453
-0.11609 0.29662 -0.12932
-0.11316 0.19236 -0.10487
-0.02851 -0.02860 -0.05250
-0.12192 0.41858 0.11138
0.10004 -0.02481 0.15436
-0.11218 0.07456 0.11208
0.14637 -0.02860 0.11145
-0.11202 0.38876 -0.18507
0.14090 -0.10587 -0.14486
0.15152 0.01100 0.05968
-0.09910 -0.36996 -0.12368
0.03658 -0.02860 0.06074
0.14938 -0.14900 0.09960
-0.08194 -0.41953 -0.14256
-0.09660 0.35422 0.12861
0.11596 0.01100 0.01678
-0.14386 0.41498 0.09256
0.12184 -0.23826 0.09726
-0.10400 -0.03087 -0.14355
-0.14510 0.39078 -0.01118
0.15479 -0.40866 -0.11552
-0.14250 0.01100 -0.02215
0.12395 -0.06768 -0.12332
-0.06907 -0.43192 -0.14159
0.14031 -0.02860 0.11640
-0.06879 -0.12724 -0.13157
0.11869 0.01100 -0.16124
-0.13789 0.01100 0.08328
-0.07653 -0.02860 0.03993
-0.11430 0.01100 -0.04812
-0.07892 -0.27161 0.10267
-0.13481 -0.02860 -0.01103
-0.14793 0.01100 0.07303
-0.10046 -0.13934 0.10065
-0.11070 0.35422 0.03410
-0.15572 0.35563 0.02399
0.15530 -0.02860 -0.02144
-0.03156 -0.02860 0.08985
0.13093 -0.17865 -0.12014
0.15361 -0.39291 0.10289
0.15062 -0.26123 0.09810
-0.09254 -0.19947 0.10519
-0.06268 0.42424 0.15564
0.15680 -0.03701 -0.12057
0.14577 -0.02860 -0.11912
-0.10189 -0.01908 0.15436
0.13852 -0.15651 -0.11384
-0.12736 0.24071 0.00379
-0.08931 0.14697 0.10544
-0.08024 -0.29835 0.12531
0.07112 -0.02860 0.14953
0.07194 -0.02860 -0.09893
0.13409 -0.14531 -0.14327
-0.04214 -0.02860 0.10104
-0.10031 0.17247 -0.12651
0.12272 -0.22136 -0.13556
-0.10200 0.01100 -0.12088
-0.07205 -0.27537 -0.11137
0.15593 -0.26031 0.10299
0.12281 -0.41939 0.11925
-0.08701 -0.03381 0.13566
-0.10933 0.43563 0.03658
0.14679 0.01100 0.11645
-0.08658 -0.32325 0.12727
-0.13622 0.43423 -0.12566
-0.10509 -0.40609 0.12934
-0.11487 0.18614 -0.10550
-0.10333 -0.22704 -0.11056
-0.11204 0.43563 -0.10292
-0.14720 -0.02312 -0.08786
-0.06436 0.40182 0.15169
-0.10298 0.39954 -0.00301
-0.08329 -0.38338 -0.13986
0.15643 -0.25396 0.11566
-0.10586 -0.08124 0.10046
-0.00705 0.01100 -0.03525
-0.10013 -0.26083 -0.10947
0.09521 0.01100 0.00683
-0.09588 0.43563 -0.12802
-0.08993 0.38364 0.09908
-0.14014 0.00281 -0.11413
-0.11018 0.34944 -0.10448
0.15080 -0.02860 0.01604
0.07894 -0.02860 -0.14430
0.14210 -0.28524 -0.14013
-0.07430 -0.04348 -0.13214
-0.12701 0.43563 0.12842
0.15680 -0.10738 -0.13180
-0.12379 0.34573 0.00165
-0.13332 0.35422 0.01772
0.01123 -0.02860 -0.10649
-0.09683 0.12849 -0.11768
-0.15649 0.41808 -0.01247
0.06741 0.01100 0.11417
0.15680 -0.00270 0.08808
0.14380 -0.21521 -0.14292
0.12571 -0.20238 -0.11951
0.03267 0.01100 -0.07853
0.15680 -0.02544 -0.14598
0.04990 -0.02860 0.13680
-0.06574 0.01100 0.07365
-0.13845 0.36804 0.00327
-0.08786 -0.30540 0.12594
0.14573 -0.11435 0.09715
-0.11941 0.06080 -0.01091
-0.10400 -0.07751 -0.11121
0.09189 -0.02479 -0.16246
-0.07633 -0.05203 0.10104
-0.09733 0.41149 -0.11411
-0.09723 0.37834 0.05548
-0.11373 0.01100 0.07950
-0.01839 0.01100 -0.04003
-0.00336 -0.02860 0.02333
-0.12451 0.38627 -0.15560
-0.10542 0.39994 -0.12992
-0.09043 -0.12645 -0.10856
-0.08597 0.38345 -0.10649
-0.08278 0.38229 -0.11588
-0.08094 -0.39316 0.10362
-0.15641 -0.00720 0.00652
-0.09513 -0.04905 0.10238
-0.12306 0.26111 -0.11638
-0.13421 0.35464 -0.02128
-0.12693 0.16409 0.00362
-0.10290 -0.04348 -0.11164
-0.12053 0.33749 -0.12547
-0.06907 -0.25280 -0.13771
-0.12172 0.35422 -0.15145
-0.12156 0.19638 -0.01587
-0.10391 -0.24585 -0.13173
0.04817 -0.02860 -0.04524
-0.10882 0.03841 0.11497
-0.13202 0.42718 0.12978
0.15434 -0.27351 -0.11813
-0.00520 0.01100 -0.00832
-0.08646 0.01100 -0.14829
0.15680 0.00499 0.05234
0.13485 -0.15087 -0.14198
-0.09662 -0.08991 -0.10856
0.12366 -0.21432 0.11406
0.15201 -0.37140 0.10400
-0.12167 0.20150 -0.01601
-0.06890 -0.02860 -0.10636
-0.10425 -0.39474 0.10560
-0.12736 0.01628 -0.02046
-0.03387 -0.02860 0.12724
-0.08935 0.36858 0.10576
-0.12114 0.35745 0.15544
0.08785 -0.00946 -0.16246
-0.10829 0.43563 0.17060
0.12673 0.01100 0.00813
-0.15042 0.40429 -0.07147
-0.12130 0.03765 -0.11085
-0.11805 -0.02860 0.11217
-0.12015 0.11245 -0.01328
0.03118 0.01100 -0.06500
-0.08225 -0.03176 -0.10856
-0.08418 -0.02860 0.12486
-0.11235 0.43563 0.15931
-0.14393 -0.02860 0.05859
-0.13326 0.01100 0.10355
-0.11960 0.43563 -0.07176
0.15194 -0.15939 -0.11628
0.10817 -0.02860 -0.02763
0.02200 0.01100 -0.09908
-0.03468 0.01100 -0.10993
-0.14482 0.18688 -0.00441
-0.07210 -0.06876 0.12973
-0.13888 0.24918 -0.01976
0.13787 0.01100 0.00669
-0.10908 0.01572 0.09226
-0.09457 0.28241 0.09292
-0.08252 0.35422 -0.13890
-0.07913 0.35528 0.17698
0.15680 -0.00603 0.06119
-0.09172 0.25422 0.11128
-0.09246 0.34624 0.09479
-0.13681 0.37775 0.11582
-0.13613 0.35422 0.06788
-0.12243 0.10728 -0.11340
-0.10055 0.25354 -0.10852
0.04642 -0.02860 0.04607
-0.10566 0.35422 -0.00583
0.14840 -0.07045 -0.10966
0.12327 -0.41319 -0.11639
-0.12003 0.01100 0.03517
-0.10268 0.40371 -0.01353
-0.02124 -0.02860 0.00818
-0.15654 0.41693 0.00320
0.00646 0.01100 0.03804
-0.10965 0.35422 -0.03259
-0.10098 -0.15146 -0.12654
-0.13006 0.04839 -0.02124
-0.14503 0.20317 -0.00496
-0.10007 0.43563 0.08926
-0.08989 -0.02860 0.09952
-0.10640 -0.02860 0.10806
-0.11651 0.01100 0.11284
-0.11049 0.29851 0.11370
-0.07351 -0.09421 0.13566
-0.07094 -0.02860 0.09865
-0.11344 0.25728 0.11045
-0.13311 0.01100 -0.03659
0.02041 -0.02860 0.07271
-0.14203 0.27765 -0.01712
0.12568 -0.20257 0.12615
-0.07704 -0.12262 0.10046
-0.07897 0.39828 0.11722
-0.09745 -0.29276 -0.11752
-0.08422 -0.14669 -0.14185
-0.07761 -0.28849 0.10984
-0.13830 0.43563 0.05360
-0.13379 0.14300 -0.02134
0.07331 0.01100 0.06156
0.14842 -0.26041 -0.14398
-0.12006 0.17420 -0.01303
-0.14975 0.36271 -0.07514
0.12160 -0.03500 -0.12854
-0.09333 -0.02860 -0.00843
-0.10730 -0.09430 0.11205
-0.07525 -0.19239 -0.12557
-0.07397 0.39810 -0.13712
-0.10250 -0.06141 -0.11206
-0.10812 0.15417 -0.13061
-0.12187 0.01964 -0.11207
0.08375 0.01100 0.12074
-0.10971 -0.02860 0.14247
-0.13525 0.30885 0.00447
0.00143 -0.00342 -0.16246
-0.11504 0.01100 -0.06862
-0.08919 -0.13028 0.13566
0.03813 -0.02860 -0.04887
-0.03825 -0.02860 0.14646
-0.13501 0.41204 -0.02118
-0.06510 0.35422 0.15768
-0.08135 -0.02860 0.10434
0.11943 -0.02860 0.14124
0.12233 -0.05958 0.09864
-0.10172 0.41771 -0.10754
0.05413 -0.02860 -0.13099
-0.04169 -0.02860 0.08047
0.12762 -0.19415 -0.13874
0.15680 -0.04062 -0.12811
0.05399 0.01100 -0.00815
-0.13514 -0.02860 0.00067
0.10626 0.01100 0.14818
-0.09826 0.01100 -0.04161
0.12510 -0.25682 -0.11025
0.05495 -0.02860 -0.13574
-0.07662 0.01100 -0.11433
-0.11518 0.12005 0.10563
0.12495 -0.15290 -0.13319
-0.10667 0.15309 0.09118
-0.10501 0.10633 0.09068
-0.10730 -0.13177 0.12140
-0.11937 0.35422 -0.10661
0.06778 0.01100 -0.10718
0.14502 -0.02860 -0.14000
0.01548 0.01100 0.07977
-0.14809 0.01100 -0.07560
-0.08908 0.03904 0.10366
-0.11541 0.22540 0.10316
0.14965 -0.16928 0.11053
-0.13037 0.41477 -0.02128
-0.08134 -0.04818 -0.11102
-0.12337 0.05101 0.00133
-0.12384 0.03496 -0.01836
0.15154 -0.36522 -0.11939
-0.07383 -0.05491 0.13558
-0.10230 0.43317 0.01565
-0.13181 0.39616 -0.13837
-0.04127 -0.02860 -0.02037
-0.01489 -0.02860 0.10741
-0.09723 0.08457 -0.12078
-0.06946 0.38293 0.17288
0.12244 -0.14211 0.10512
0.13957 -0.09336 0.13236
-0.11593 -0.02860 0.06355
-0.10078 0.40042 0.11652
0.10958 -0.02860 -0.06464
0.15680 -0.12679 0.10388
-0.14333 0.35872 -0.10268
-0.08124 -0.43563 0.12515
-0.06893 -0.24743 -0.11267
0.11480 0.01100 0.00240
0.12628 -0.15430 0.12868
-0.10715 0.17984 0.09138
0.11461 -0.02860 0.05612
-0.09940 0.09422 0.09069
-0.07964 -0.17095 0.11583
-0.09386 0.01996 0.09347
0.15564 -0.13058 -0.14486
0.11648 -0.02860 0.04624
0.00401 -0.02860 -0.14604
-0.10136 0.03082 -0.10782
0.01395 0.01100 0.01158
-0.11663 0.42420 -0.17419
0.00568 0.01100 0.12828
0.15010 -0.06768 -0.11449
0.14305 -0.18572 0.10551
-0.07429 -0.36206 -0.13062
0.11667 0.01100 0.02616
-0.12102 0.36392 -0.16383
0.12043 0.01100 0.03350
-0.09252 -0.22377 0.10138
-0.11935 0.40331 -0.00626
-0.07118 -0.40540 -0.11081
0.06863 -0.02860 0.06751
-0.08403 0.43563 0.17754
-0.14814 -0.01494 0.07573
-0.13175 0.01100 -0.00215
-0.09967 0.01100 -0.14913
-0.07397 -0.26909 0.12682
-0.09229 0.43563 0.09627
-0.10730 -0.04214 0.10095
-0.12281 0.35830 -0.01750
-0.08787 -0.02860 -0.07615
-0.06204 0.01100 0.07689
0.12650 -0.20724 0.10036
0.10357 0.01100 -0.10945
-0.14450 0.08974 -0.01302
-0.09698 0.17262 -0.11887
0.06559 -0.02860 -0.10138
-0.10194 -0.13697 0.13566
0.12668 -0.28671 0.10679
-0.00294 0.01100 0.12964
-0.07228 -0.10001 0.13566
0.02198 0.01100 -0.14570
0.04446 0.01100 0.04211
-0.08251 0.36014 0.10855
0.14151 -0.31617 -0.13594
-0.07711 -0.36849 0.12894
0.12573 -0.39497 -0.14183
-0.14834 0.37282 -0.08276
-0.05949 -0.02860 0.09754
-0.08175 -0.20833 0.10346
0.15029 -0.02860 -0.07841
-0.15456 0.36407 -0.04264
-0.09668 0.35422 0.07238
0.13093 -0.39605 -0.11261
-0.10301 0.01100 0.03919
-0.12397 0.31280 0.00179
-0.10763 0.16022 0.09158
-0.08955 0.42066 0.08785
-0.09737 0.41057 -0.18326
-0.05194 -0.02860 -0.02101
-0.06486 0.39822 0.17093
-0.07933 -0.33870 0.11438
-0.09487 -0.02860 0.10521
-0.01220 -0.02860 -0.01777
0.12437 -0.39848 -0.13275
-0.09972 0.02282 -0.10960
0.15114 -0.35978 -0.12445
0.13230 -0.02860 -0.14367
-0.11489 0.32816 -0.12982
0.14399 -0.37284 -0.14017
-0.11953 0.34023 -0.01176
-0.10324 0.37345 -0.18574
-0.15613 0.40004 0.01432
0.15029 -0.06652 0.11842
-0.14677 0.43563 0.06210
0.14974 0.01100 -0.07906
-0.10296 -0.02860 -0.08982
0.02456 -0.02860 0.09098
-0.12101 0.12090 -0.12485
0.07316 -0.00759 0.15436
-0.10155 -0.35866 0.12378
0.10215 0.01100 -0.07210
-0.10495 0.35422 -0.00090
-0.07868 0.39901 -0.12601
0.13355 -0.19042 -0.11661
-0.07506 -0.22526 -0.14295
-0.08918 -0.40781 -0.11063
-0.11435 0.36077 0.17145
0.12589 -0.08509 -0.10966
0.14184 -0.02860 -0.07779
-0.14078 0.01100 -0.07820
-0.06922 -0.14029 -0.12638
0.06999 0.01100 0.12400
-0.09847 0.27342 -0.11136
-0.08857 -0.02860 -0.10286
-0.10374 -0.25212 -0.12585
-0.14295 0.24687 -0.00075
-0.09874 -0.06768 -0.13565
-0.01702 -0.02860 0.07722
-0.07985 0.41117 0.11513
-0.13840 0.43563 0.04739
0.12160 -0.10182 0.12844
0.02244 -0.02860 0.13689
-0.01829 0.01100 0.11029
0.06735 -0.02860 -0.00804
-0.08896 -0.16727 0.10714
-0.14532 0.36718 0.08697
-0.09774 0.39470 0.05273
-0.07559 0.43563 -0.17001
-0.04352 0.01100 -0.00661
-0.13948 0.08407 -0.01930
-0.14112 -0.02557 -0.11118
0.08645 0.01100 0.09670
-0.08498 0.43563 0.15518
-0.11505 0.10759 0.10039
-0.11675 0.01100 0.09551
-0.09441 -0.02860 0.04084
0.01537 0.01100 0.00407
0.14647 -0.29923 0.12395
-0.07582 -0.19017 -0.13320
0.12656 -0.19854 -0.11479
-0.08409 -0.31861 0.10919
-0.10215 0.41978 -0.02755
-0.10590 -0.04992 0.10384
-0.15613 0.42118 0.01430
-0.07625 0.01100 0.05735
0.14847 -0.01145 0.15436
0.13872 -0.30155 0.10626
-0.13740 0.39270 -0.12218
-0.12817 -0.02860 0.03110
0.04548 -0.02860 -0.15280
-0.04697 0.01100 -0.10032
0.09559 -0.00652 -0.16246
-0.15660 0.35849 -0.00939
0.15680 -0.02582 0.05322
-0.11419 0.43563 0.14177
0.02470 -0.02860 0.04918
0.13212 -0.06369 -0.11272
-0.13172 0.10592 0.00479
0.13910 -0.02860 0.00484
-0.05482 -0.02860 0.13598
-0.14917 0.35422 -0.06719
-0.13519 0.43563 0.09673
-0.09874 -0.16112 -0.13286
-0.09618 -0.08307 -0.14376
-0.09420 0.35422 -0.10472
-0.07234 -0.20545 -0.12866
-0.09922 -0.02860 0.10973
-0.07713 -0.13402 -0.14376
0.13476 -0.28926 -0.13916
-0.12011 0.31682 -0.01318
0.13567 -0.41847 0.13108
0.12934 -0.02860 0.02127
-0.09995 -0.33718 0.11109
-0.08121 -0.22428 0.10134
-0.06341 -0.02860 -0.06945
0.07054 -0.02860 -0.13528
-0.08811 -0.20937 0.13284
-0.10275 -0.41890 -0.11018
0.14956 -0.35181 0.10341
-0.13846 0.38805 -0.11908
-0.11946 0.28097 -0.01126
-0.09251 -0.18108 -0.11829
0.02796 0.00700 0.15436
0.00990 -0.02860 0.00699
-0.13872 0.20147 0.00316
-0.09827 -0.25221 0.13540
-0.05431 -0.02860 -0.08545
0.13088 -0.09622 -0.10966
-0.09283 -0.02860 0.13519
0.12827 -0.34621 -0.13256
-0.11917 0.16255 -0.00909
0.10178 -0.00586 0.15436
-0.09785 0.36050 0.11586
-0.10829 0.01468 -0.10469
-0.11918 -0.02860 0.04401
-0.12054 0.02228 -0.00246
0.14085 -0.41955 -0.14366
-0.10470 0.11693 -0.10570
0.12714 -0.04348 -0.12321
-0.08676 -0.29952 0.10895
-0.09590 0.41168 -0.07077
0.15680 -0.01298 0.05914
-0.08616 -0.13742 0.10046
0.05620 -0.01556 0.15436
0.12529 0.01100 0.14177
0.15680 -0.00619 0.03248
0.12214 -0.42835 -0.11124
-0.06879 -0.10085 -0.12059
-0.08909 0.38403 -0.17975
-0.07380 0.01100 0.14816
0.05989 0.01100 0.04464
-0.11043 -0.02860 0.06729
0.06245 -0.01413 0.15436
-0.10592 0.34944 0.09087
0.14838 -0.02860 -0.04658
-0.14312 0.40104 -0.10349
-0.12721 0.39706 -0.02040
0.15076 -0.37025 0.12748
-0.12232 0.35422 0.15048
-0.01724 -0.00437 0.15436
-0.08464 -0.06768 0.10238
0.12160 -0.13132 -0.11818
-0.10169 -0.05320 -0.14350
-0.04059 0.01100 -0.01856
-0.12360 0.43563 -0.03829
-0.07665 -0.02860 -0.06344
-0.00985 0.01100 -0.10975
0.13417 0.01100 -0.10752
-0.07772 -0.00902 0.15436
0.06931 -0.02860 0.05606
-0.02318 0.00813 -0.16246
0.12160 -0.09391 -0.12566
-0.07210 -0.11416 0.11555
-0.09325 0.38141 -0.08174
-0.04093 -0.02860 -0.00678
0.14816 -0.38354 0.10104
-0.07083 -0.24353 -0.14373
0.15544 -0.41747 -0.11293
-0.00826 -0.02860 0.09102
-0.12637 -0.02860 0.11605
0.15680 -0.01282 -0.10735
0.12162 -0.24170 -0.13908
-0.09046 0.21294 0.09780
-0.14980 0.38739 0.06676
-0.09287 -0.22067 -0.14254
-0.06717 0.39305 -0.17045
-0.10080 -0.14355 -0.10973
-0.10364 0.28387 0.11654
-0.10247 -0.41513 -0.13595
0.10629 -0.02860 -0.05484
-0.15500 0.42602 0.03054
-0.08046 -0.32365 0.11919
0.07697 -0.02860 0.14738
-0.10075 0.42244 -0.18469
-0.08510 -0.07497 -0.14376
-0.08580 -0.24457 -0.10862
-0.09974 0.02823 -0.12576
-0.07092 -0.27098 -0.11696
-0.09290 -0.36564 0.13043
-0.11931 0.23401 -0.01011
-0.06249 0.43563 0.16488
-0.09741 0.23728 -0.11392
-0.09021 -0.02860 -0.08719
-0.10053 -0.36815 0.10549
-0.10184 0.35422 -0.16587
-0.09619 0.14419 0.11517
-0.11411 0.31930 -0.10519
0.07248 -0.02860 0.10964
0.12666 0.01100 -0.00418
-0.14258 0.21217 -0.01640
-0.15321 0.00952 0.04689
0.15583 -0.22744 -0.14423
0.03628 -0.02860 0.14485
-0.11912 0.18684 -0.00797
-0.09258 -0.09721 -0.14376
0.12181 -0.25031 0.12518
0.14872 -0.28162 0.12838
0.14716 -0.27311 0.09957
-0.10247 0.40290 0.01110
-0.06879 -0.03365 -0.12949
-0.15570 0.41527 -0.03228
0.15243 -0.37710 0.12668
-0.09904 0.27409 -0.12485
-0.09966 0.37161 0.04214
-0.08557 -0.03155 0.10046
0.15680 -0.01862 0.03490
0.09992 -0.02860 0.08307
0.12178 -0.43318 -0.11601
-0.07067 0.01045 0.15436
0.13744 0.01100 0.03221
0.15581 -0.42233 0.10773
-0.08967 0.01174 0.10733
-0.05331 -0.02860 0.10416
0.12289 -0.26469 -0.11284
-0.09760 0.01100 -0.01333
0.03076 0.00288 -0.16246
-0.13231 0.35422 0.06252
-0.08473 -0.29301 -0.13715
-0.13459 -0.00489 0.12236
-0.09608 0.01400 0.09191
-0.06989 -0.14319 -0.14230
-0.11081 0.40924 0.09358
-0.12191 0.18347 -0.00034
0.13371 -0.11024 -0.14486
0.13944 0.01100 0.14990
-0.03703 -0.02860 0.00442
-0.00623 -0.02860 0.10228
-0.13800 0.09238 -0.02013
0.13082 -0.08871 0.09715
-0.13307 0.37009 0.00476
0.12765 -0.16453 0.11952
-0.11235 0.39115 0.17619
0.14402 -0.30011 -0.13619
-0.14984 -0.02434 -0.07463
-0.06879 -0.13385 -0.12951
-0.04765 0.01100 0.12010
-0.08436 0.41702 0.10313
-0.07308 0.36746 -0.13922
-0.05659 0.01100 -0.03904
-0.09646 -0.09250 0.10046
-0.12953 -0.02860 -0.03458
-0.06975 -0.26139 -0.13898
-0.10165 0.01100 0.12114
-0.09779 0.05165 -0.12232
0.10380 0.01100 0.08985
-0.09316 0.10116 0.11303
-0.06862 -0.01193 0.15436
0.14406 -0.19634 -0.13936
-0.07701 0.01100 -0.02578
-0.03135 0.01100 0.12974
0.15680 -0.09147 -0.12798
0.15680 -0.02322 -0.07117
-0.08820 -0.05995 -0.10942
0.13811 -0.00309 -0.16246
-0.06913 -0.23126 -0.12478
0.10501 0.01100 0.04845
-0.09332 -0.12169 -0.10856
-0.10474 0.43563 0.04632
-0.02941 0.01100 -0.11674
-0.05469 -0.02860 -0.05989
0.05491 0.01100 -0.14713
-0.09045 -0.08660 -0.14376
0.15148 -0.36434 0.12175
