0.07443 0.03916 0.18138
-0.20500 0.30659 0.17768
-0.16398 0.00772 0.04275
0.14362 0.08112 0.22530
0.20844 0.01988 -0.22098
-0.19132 0.00441 0.01342
-0.20158 -0.22264 0.19422
-0.16439 0.10031 -0.17784
0.22184 -0.02183 -0.15113
-0.20725 0.32812 -0.18280
-0.15643 0.02399 -0.19279
0.01850 0.01918 -0.21308
0.14082 -0.00282 -0.24469
-0.02641 0.00389 0.16570
-0.16864 0.07214 -0.02107
0.20111 -0.02323 0.13302
0.04644 0.22495 -0.24529
0.10988 0.13287 -0.23281
-0.19230 0.08145 -0.20485
0.18272 0.03037 -0.21073
0.09904 -0.02606 0.21956
-0.20577 -0.26984 -0.20765
-0.00881 0.03941 -0.14103
-0.17213 0.12443 0.06368
-0.19231 0.08174 -0.19571
0.07747 0.00390 -0.05281
-0.19907 -0.23607 0.20642
-0.18430 0.03039 -0.16696
-0.18811 0.19887 0.09332
-0.12103 0.19364 0.22637
0.22385 -0.33406 -0.20188
-0.01530 0.00389 0.18339
-0.18372 0.21339 -0.02620
0.22168 -0.01173 0.03470
-0.13976 0.21659 -0.23596
0.13658 -0.00694 0.22139
-0.16440 0.11576 0.20637
0.12660 0.00391 0.00012
-0.18763 0.19463 -0.02344
-0.19443 -0.29999 0.17537
-0.19217 0.23093 -0.07620
-0.16817 0.05764 -0.08233
-0.19468 -0.36866 -0.20255
-0.17802 0.24771 0.20642
-0.17394 0.24084 -0.18598
0.08011 0.03942 -0.06546
0.13520 0.07655 -0.24950
0.20603 -0.36699 -0.22182
-0.08542 0.03940 -0.11204
-0.21571 -0.36866 -0.19827
-0.19937 0.23785 0.17820
0.19601 0.00392 0.21555
0.22204 -0.07457 -0.20567
-0.21147 0.36675 -0.17632
0.20944 0.02664 -0.16781
-0.18756 0.19400 0.16587
-0.13714 -0.02113 0.20813
0.02153 0.03110 0.19898
0.18149 -0.01291 -0.22546
-0.08379 0.01319 -0.21148
0.04808 0.00390 0.07887
0.21257 0.02288 0.05664
-0.06610 0.00388 -0.10403
-0.06974 0.00388 -0.12772
-0.18839 0.20139 0.07273
-0.07704 0.22128 0.23309
-0.19857 -0.18412 -0.18590
0.07932 0.00390 -0.12125
0.07806 -0.04443 0.20688
0.13263 0.03548 -0.22271
-0.01546 -0.00173 0.19327
0.11635 0.03883 0.22801
-0.18584 -0.04300 -0.17784
0.11354 -0.04274 0.22690
-0.19754 0.20935 0.17662
0.06778 0.03942 0.07599
-0.22642 0.36096 -0.00601
0.22201 -0.03255 0.04164
-0.19188 0.22887 -0.15161
-0.18095 -0.22359 -0.20889
-0.06385 0.00388 -0.17384
-0.18734 0.26562 0.20642
-0.11285 0.03002 -0.19820
-0.18616 0.00625 -0.11197
-0.18394 0.14959 0.08031
0.20083 -0.00545 0.13347
-0.16991 0.00135 -0.04526
-0.17314 -0.21099 0.18632
0.10163 0.03943 -0.09483
0.19847 0.03496 0.06123
-0.20033 0.34603 -0.10730
-0.18331 0.13764 -0.16343
0.19385 0.03697 0.01039
-0.17544 0.07653 0.17537
-0.18327 0.13673 -0.00506
-0.12005 -0.02950 0.20895
0.19803 -0.16544 -0.19353
-0.18232 0.08625 0.07879
-0.16296 -0.06070 -0.20627
-0.08602 0.00441 -0.21015
-0.18357 0.14374 0.08530
-0.20214 0.31192 0.00359
0.12801 0.00391 0.18292
-0.03417 0.00441 -0.21123
-0.20017 0.29981 0.02194
0.05077 0.00390 -0.06827
0.16740 0.03943 0.04751
-0.17119 0.11321 0.11174
-0.19337 0.23926 -0.16154
0.20529 -0.04443 0.00883
-0.16511 0.12978 0.17571
-0.22043 0.33245 0.05495
0.11405 0.00391 -0.06221
-0.19232 -0.03853 -0.20540
-0.02734 0.03941 0.10556
-0.18760 0.08513 0.20642
0.01948 0.03491 0.19295
0.19078 -0.13099 -0.19338
0.18803 -0.03768 -0.19802
-0.17358 0.13948 -0.06725
-0.11140 0.00388 0.02711
-0.19406 0.26579 0.14377
-0.17243 -0.02566 -0.17784
0.08799 -0.04443 0.20393
-0.00050 0.22439 0.21530
-0.18283 0.06076 -0.01904
0.19338 0.00392 0.05597
-0.08668 0.00388 0.03004
-0.12476 0.03874 0.17444
0.13599 0.00391 0.21420
-0.17798 0.15471 -0.17784
-0.18298 0.12937 0.10951
-0.03968 0.00389 0.12838
-0.16774 0.01540 0.10144
-0.06100 -0.02284 -0.19295
0.13809 -0.03038 0.24830
-0.05892 -0.00684 0.19116
-0.18416 -0.04443 -0.05669
0.06657 0.00945 0.21565
0.08235 0.03942 -0.14197
0.00874 -0.01035 -0.21710
0.10566 0.18385 0.24777
0.20070 0.00268 0.06280
0.12114 0.03943 -0.12689
-0.18323 0.21038 -0.00001
0.07953 0.03915 -0.18532
-0.04997 0.03941 -0.15747
-0.18333 0.04711 -0.09339
0.22308 -0.09877 0.19875
-0.17795 0.26308 0.20642
-0.12340 -0.00360 0.20881
0.20898 0.00459 0.20864
-0.18746 0.19311 0.10117
-0.16482 -0.04394 0.20642
-0.18547 0.21402 -0.17785
0.13637 0.00391 0.07338
0.05602 0.03942 0.04921
-0.19748 0.26400 -0.16299
-0.18740 0.30074 0.15089
0.22277 -0.07888 0.21117
0.12729 0.18707 -0.22245
0.07093 0.22479 -0.23129
0.13682 0.16641 -0.23689
-0.18318 -0.17896 0.20642
0.03747 0.00390 0.10526
0.21378 0.02113 -0.20443
-0.04703 -0.04248 0.21248
0.20739 -0.03901 -0.19198
0.18860 -0.04861 0.19564
-0.21684 0.30231 0.03172
0.14177 0.00391 -0.10197
-0.19259 0.09359 0.18269
-0.17194 -0.08219 -0.20889
-0.18445 0.00441 0.13806
-0.14734 0.03240 0.00477
-0.00845 0.21568 0.24139
0.04581 0.21018 -0.21861
-0.19146 -0.34756 -0.17784
0.20081 -0.00403 -0.07197
-0.16011 0.01830 -0.04223
-0.04762 0.00389 -0.00450
-0.20108 0.28137 -0.12121
0.21927 -0.11147 0.22299
0.13212 0.03943 0.07919
-0.18609 0.00705 -0.05005
0.00085 0.00389 -0.03973
0.21374 -0.04443 -0.12893
0.09596 0.22431 -0.24698
0.09415 0.00390 -0.14480
-0.19082 -0.34079 0.20642
-0.19178 0.35733 -0.17092
-0.03466 0.00389 -0.03840
-0.09632 0.03940 0.14691
0.19502 0.00392 -0.01362
-0.06283 0.03327 -0.19587
-0.18354 0.04346 0.10153
0.07998 0.03942 -0.17629
0.08432 0.03943 -0.07223
0.22166 -0.01106 -0.07582
-0.18250 -0.04443 0.06848
0.19616 0.00392 0.14118
-0.18239 0.10674 0.11147
-0.01966 -0.01028 0.19306
0.05875 -0.04443 -0.21735
-0.16290 0.07530 0.18603
-0.07778 0.20262 0.21083
-0.17284 0.13182 -0.04825
-0.16824 0.05991 -0.11485
-0.19638 0.25775 0.12201
-0.19526 -0.30099 -0.20889
-0.18886 0.20547 0.00098
-0.20379 0.29318 0.17537
-0.13779 0.00388 0.19626
0.07857 0.20821 0.21957
-0.19301 -0.06929 -0.18968
-0.09208 -0.03345 -0.19143
0.03493 0.22000 -0.21810
-0.20001 0.28635 0.16838
-0.18994 0.21480 -0.16088
-0.21183 -0.32701 -0.17839
0.11475 0.03943 -0.03674
-0.20025 0.27873 -0.07508
-0.18226 0.09805 0.07222
-0.00609 0.03941 0.05150
-0.17306 0.20166 -0.20829
-0.12242 -0.02337 -0.21074
0.08495 0.00390 -0.14392
0.11701 0.11190 -0.24864
-0.06645 0.00389 0.01298
-0.17914 -0.26432 0.18964
0.10503 0.03943 0.06732
0.05208 0.00019 -0.19844
-0.20865 0.34145 -0.17924
-0.18749 0.19346 0.07953
-0.18676 0.18604 -0.11013
-0.04772 -0.02425 -0.21436
-0.18170 0.20089 0.14267
0.04547 -0.01264 0.19621
-0.20559 0.28076 0.12234
-0.19448 0.32443 -0.12893
-0.19140 -0.00349 -0.00699
0.20076 -0.00112 0.00854
0.21163 0.00392 0.18605
0.20172 -0.09814 0.19070
0.11281 0.10909 -0.22459
-0.18388 0.03761 -0.02911
-0.18408 0.03407 0.00463
-0.18458 0.02547 -0.04879
-0.18546 0.22830 -0.20889
-0.18984 0.21405 0.14341
-0.17855 0.17994 -0.15703
0.19185 0.03760 -0.18076
-0.20430 0.29827 -0.20750
-0.19193 0.06557 0.20105
-0.16866 0.17999 0.17537
-0.03309 0.01301 -0.21376
-0.18591 0.22539 -0.11477
0.11501 0.00391 -0.17292
-0.08627 0.21665 0.23704
-0.19864 0.22643 -0.18815
0.05304 0.03805 -0.18996
0.10974 0.00391 0.12408
-0.01207 0.00389 0.00847
0.02322 0.03942 -0.00070
-0.19118 -0.01752 -0.04329
-0.20253 0.31592 0.01323
-0.18571 0.17429 0.16417
0.20824 0.00441 0.14438
0.14293 0.04297 0.23759
-0.17205 -0.04443 0.15220
-0.17101 0.02325 -0.17784
0.19396 0.00392 -0.10846
-0.10375 0.00388 0.12337
0.22225 -0.10537 -0.21595
-0.17156 0.11821 0.03322
-0.18215 0.12384 -0.20889
-0.21290 -0.36866 0.19050
-0.16811 0.05580 -0.10519
-0.10222 0.03940 0.14263
-0.00320 0.00389 0.19628
-0.17085 0.10873 -0.12390
0.10968 0.13834 0.22277
-0.05467 0.00389 0.20249
-0.07055 -0.00894 -0.19249
-0.17611 -0.04443 -0.17539
0.05351 -0.04239 -0.21924
0.12109 -0.04887 -0.24883
-0.19223 -0.03319 -0.18730
0.05393 -0.04443 0.21081
-0.19447 0.35540 0.15313
-0.19630 0.25727 0.06655
0.14585 0.03943 -0.15197
-0.20985 0.35629 0.17394
0.13565 0.18058 -0.22329
-0.19827 -0.36443 0.17537
-0.04387 0.21446 -0.24105
-0.14430 -0.03996 0.18726
0.13489 0.18612 0.22276
0.07603 0.00390 -0.10323
0.22281 -0.18542 -0.20653
-0.19037 -0.14121 0.17537
0.03527 -0.01793 -0.21838
-0.11686 0.00388 -0.10045
-0.18490 0.16442 -0.14484
0.00853 0.03942 -0.07391
0.07995 0.19816 0.21965
0.22212 -0.03915 0.05597
0.14626 0.00391 -0.19409
-0.19167 0.00616 -0.19428
0.11559 0.01784 0.24161
0.21119 -0.23971 -0.22340
-0.18039 0.00441 -0.13714
-0.18981 0.24567 -0.00965
-0.19339 0.26281 -0.06691
-0.18078 0.19520 0.13163
-0.18930 0.20938 -0.06658
-0.18655 0.22098 -0.17785
-0.00347 0.00389 -0.13414
0.22174 -0.03288 -0.20262
-0.13914 0.00388 0.18706
-0.18476 0.16225 -0.13055
-0.16681 -0.04971 0.20642
-0.17648 0.16479 -0.01014
0.13196 -0.00328 0.22117
-0.18530 0.16961 0.16079
0.20093 -0.01180 0.00045
-0.20444 0.35106 0.07180
0.04220 0.19768 -0.23380
0.21209 0.00263 -0.22580
-0.18401 0.21504 -0.07756
-0.19262 -0.05614 -0.18408
-0.17402 0.14398 -0.12315
-0.19077 -0.04289 -0.09652
-0.18756 -0.00831 0.20642
0.19747 -0.34149 -0.21955
0.04824 -0.04036 -0.19822
-0.17235 0.04050 0.17537
0.05760 0.00390 -0.00337
0.20946 0.00441 -0.13029
0.11640 -0.01393 -0.22231
-0.03743 0.00389 -0.14179
0.21717 0.01472 -0.07154
-0.17284 0.04897 0.17537
-0.15185 0.00387 -0.11924
-0.18235 0.10377 -0.06979
0.19611 0.03603 0.00552
-0.19694 0.27841 -0.00197
-0.09461 0.03940 -0.07285
-0.21244 0.36773 0.14296
-0.16769 0.01995 -0.07529
-0.08905 0.01017 0.20800
-0.20084 0.33071 -0.08347
-0.13461 0.00388 0.18874
-0.16309 0.01059 0.19483
-0.19438 0.24547 0.00684
-0.19691 0.19952 -0.20068
-0.16331 0.08617 -0.20752
-0.18553 0.00441 0.03763
-0.21999 0.35246 0.09818
-0.18225 0.09729 0.15818
-0.04313 -0.01657 0.21269
0.08027 0.00390 -0.13389
-0.13528 0.19275 0.21451
0.02603 0.00390 -0.08090
0.18135 0.00391 -0.07395
0.15632 -0.03211 -0.20345
-0.00841 0.03941 0.16919
0.05497 0.19756 -0.24141
-0.11089 0.00388 0.00530
-0.19180 0.04953 -0.19708
0.14144 0.11052 -0.24735
0.06143 0.00390 -0.03415
-0.17365 0.00141 0.00542
0.11505 0.00099 -0.24809
0.05781 0.03942 -0.08886
-0.18728 0.23286 -0.11575
0.12603 -0.02463 0.22223
-0.03102 -0.02284 0.19250
0.19860 0.03490 -0.13232
-0.19182 -0.20247 -0.17784
0.04777 0.00390 0.15521
-0.18373 0.14624 -0.01818
-0.17697 0.06662 -0.17785
0.02435 0.20853 -0.21760
0.20896 0.00392 0.05573
-0.17020 0.10006 -0.12920
0.19961 0.00444 0.21157
-0.21546 -0.35742 -0.19346
-0.18257 -0.08527 0.20642
-0.20999 0.36833 0.17054
-0.19190 -0.01438 0.19751
-0.18270 0.06462 0.02385
-0.18438 0.02892 0.12194
0.11985 0.00805 -0.22192
0.22215 -0.04149 -0.01088
-0.17097 0.15261 0.20642
-0.18335 0.04672 -0.17575
-0.02006 0.03941 0.16168
0.19778 -0.35137 -0.21476
-0.19754 0.26428 -0.07922
-0.17029 -0.02630 0.05511
-0.17647 -0.04443 0.17403
-0.09787 0.03545 0.18612
0.10200 0.00391 0.18326
-0.18433 -0.10028 -0.17784
0.22165 -0.01046 0.14547
-0.06078 0.03941 0.14228
-0.19103 -0.02671 0.11143
0.11092 0.18766 -0.22168
0.00741 -0.03780 0.21512
0.20833 0.00441 0.15917
0.00275 0.19766 0.21959
-0.08264 0.03941 0.08870
-0.19422 0.14477 -0.19959
0.10048 0.03943 0.08032
-0.20440 0.28092 -0.00598
-0.19785 0.21409 -0.19581
-0.17808 0.17657 -0.04020
-0.18143 0.19922 -0.06573
0.09197 0.20986 0.24701
-0.06882 0.00388 -0.09258
-0.18352 0.14308 0.09867
0.20404 -0.19495 0.19190
-0.19517 0.16651 0.17913
-0.16774 0.01569 -0.15802
0.17855 0.03944 0.08441
-0.18739 0.32765 -0.17784
-0.04729 0.03941 -0.10188
-0.19877 -0.22851 -0.17784
0.02257 0.00389 -0.21576
-0.18229 0.09976 -0.03826
-0.17385 0.14232 0.03538
-0.19399 -0.09539 -0.18109
0.12661 0.05442 -0.24909
-0.17230 0.22333 0.17826
-0.20250 0.34699 -0.20889
0.06741 0.00390 -0.14844
0.22148 0.00037 -0.11809
0.20111 -0.02321 -0.10252
-0.04554 -0.04443 0.20356
0.21956 0.00682 0.02002
-0.16957 0.19412 -0.20864
0.06928 0.03942 0.06678
0.20765 -0.06448 -0.19228
-0.15459 -0.01395 0.20730
0.05860 -0.01452 0.19684
-0.08856 0.03940 -0.06885
-0.16350 0.00952 0.10458
-0.18308 0.20946 0.16741
0.21369 0.02128 0.20833
-0.10715 -0.03624 0.18880
-0.10649 0.00388 -0.20831
0.00420 0.00194 0.19422
0.08710 -0.00985 -0.20012
0.20112 -0.02387 -0.04542
-0.19142 -0.00242 -0.07632
-0.04073 0.21427 0.21291
0.03463 0.20385 -0.24476
-0.15850 0.00388 0.18779
0.10534 0.00391 0.10125
-0.15590 0.19144 -0.22996
-0.16784 0.04401 0.13381
-0.17755 -0.04443 -0.15057
-0.13322 -0.02837 -0.18945
0.01863 0.00389 -0.12741
0.11637 0.00391 0.20736
0.01108 0.03942 0.08475
-0.02711 0.02592 -0.20627
-0.16766 0.02304 0.04409
-0.17662 0.18993 0.22935
-0.16647 0.21388 -0.20978
0.14088 -0.01218 0.22788
0.08363 -0.02010 0.21882
-0.06982 0.03941 -0.03126
-0.16426 0.03842 0.17537
-0.19557 0.32300 0.11849
0.18797 0.03858 -0.17606
-0.11205 0.03940 0.10985
0.21375 -0.04443 0.13202
-0.18233 0.08476 0.00686
-0.16789 0.21384 -0.23298
-0.21161 -0.34822 -0.20889
0.08614 0.03943 0.17329
-0.16790 0.04905 -0.16307
0.13974 -0.01743 0.22154
-0.18516 0.22129 -0.09627
-0.18633 0.00413 0.17120
-0.22390 0.35330 0.04956
0.00034 -0.01646 -0.19592
-0.01910 0.00389 0.18039
-0.20171 0.36842 0.19374
-0.18301 0.05533 0.08668
-0.19497 0.24909 0.08403
0.05596 0.00480 -0.21971
-0.18969 0.30012 -0.13847
-0.18394 0.14963 -0.13577
0.13788 0.16310 0.22373
0.14642 0.03943 -0.13089
0.19536 -0.21545 0.21803
0.13015 -0.04969 0.24914
0.16270 0.03943 -0.16462
-0.11569 0.03938 0.16828
-0.13694 0.03743 -0.06317
-0.21728 0.31841 -0.07140
-0.03449 0.00441 0.20917
0.03165 0.00390 0.14200
0.11183 0.11516 -0.23359
-0.20415 0.32866 -0.02254
-0.17997 0.19015 -0.06557
-0.11671 0.03940 0.14382
0.19452 -0.12326 -0.22485
-0.19157 0.22661 -0.14579
0.16033 0.00391 0.18672
0.22199 -0.36846 -0.21168
0.11561 -0.00595 -0.20150
0.04063 0.03942 0.06203
-0.14794 0.02902 -0.19788
0.20737 -0.04443 -0.04529
-0.20089 0.28213 0.07998
-0.14014 -0.01369 -0.18916
0.12787 0.10315 -0.22248
0.22223 -0.04461 0.21348
-0.05341 0.03941 0.09754
-0.09798 0.00388 -0.12676
-0.20438 0.28254 -0.13954
-0.16928 0.00133 -0.14836
-0.16952 0.08878 0.00722
0.13992 0.00391 -0.07455
-0.04786 0.00389 -0.10684
-0.19146 0.00045 0.13878
-0.17072 0.00022 0.07265
-0.21239 0.36756 0.13381
0.05653 0.03942 -0.15336
0.05654 0.03942 -0.03153
-0.21757 0.30439 -0.01306
-0.12884 0.00388 -0.01842
0.11032 0.14891 0.22135
0.01755 0.00390 0.18477
-0.20724 0.35207 0.02752
-0.01871 0.00389 -0.08157
-0.11030 -0.04443 -0.20272
-0.16095 0.01662 -0.03315
-0.18397 0.15004 0.11391
0.16953 0.03943 0.17385
0.11296 0.22383 -0.22430
-0.06957 0.00441 0.19554
-0.17918 0.18444 0.03388
0.19687 0.00392 -0.10406
0.06964 0.00390 -0.10208
-0.03842 -0.01943 -0.19404
-0.16344 0.08969 -0.18814
-0.15934 0.01954 -0.01418
0.16248 0.00578 0.22100
-0.19204 -0.35266 -0.17977
-0.18498 0.22034 0.09675
-0.00196 0.00389 0.06497
-0.18263 0.06660 -0.03457
-0.17144 0.21415 0.18530
0.03991 -0.03033 -0.19782
0.02485 0.00390 0.01598
-0.18309 0.05288 0.07009
-0.18265 0.20680 0.08812
-0.16463 0.00438 -0.00941
-0.19022 0.20205 -0.17784
-0.08596 0.03941 0.15424
0.20619 -0.25214 -0.19461
0.07136 0.00390 0.13189
-0.15757 0.20600 0.20637
0.13700 0.03943 -0.16679
-0.19015 0.21635 -0.12233
-0.19170 0.01676 0.20607
0.06526 -0.04443 -0.20099
0.18827 -0.03155 0.22241
-0.18236 0.08094 0.11535
-0.17001 -0.04386 -0.08816
-0.21120 0.36582 -0.20691
-0.18447 0.15782 0.11052
0.13715 0.16433 0.23406
-0.10561 0.03940 0.09306
-0.17798 0.27526 0.20595
0.00041 0.03942 0.13052
-0.19269 0.29019 -0.10729
0.20031 -0.10089 -0.22512
-0.11809 -0.04443 -0.20175
0.06475 0.19742 -0.23557
-0.17351 0.23627 -0.20025
0.02255 0.03942 -0.14307
0.13153 0.07212 0.22254
0.14233 -0.00867 0.22167
0.04920 0.00390 -0.14261
-0.14940 0.03084 -0.01515
0.20087 -0.00812 0.04907
-0.19129 -0.01009 0.16025
-0.18942 0.24376 0.16769
-0.19616 0.29952 -0.08830
0.20130 -0.03476 -0.02030
-0.06390 0.20930 -0.21344
-0.20157 0.31759 -0.04898
-0.17056 -0.00972 -0.16920
0.22356 -0.29363 -0.21209
0.07220 0.00390 -0.16282
-0.19254 0.25894 -0.11268
-0.05273 0.03941 0.12910
-0.17050 0.10398 0.16459
0.20074 0.00392 -0.18312
0.14769 0.00391 0.09067
0.05240 0.03839 0.18491
-0.03457 0.19928 0.23993
-0.18875 0.00441 -0.04166
-0.20192 0.30125 -0.17280
0.20656 0.00392 -0.19917
0.06354 0.00441 0.20155
-0.19310 0.23763 0.00709
-0.18961 0.24466 0.00460
-0.18622 0.17997 -0.03553
-0.17631 0.16342 -0.01555
0.20905 -0.04443 0.16360
-0.18450 0.15831 -0.12469
-0.06663 0.00388 -0.03484
-0.17146 0.11687 0.13251
0.06959 0.03942 -0.06209
-0.01655 0.03941 -0.15774
-0.00255 0.00389 -0.19405
-0.05339 0.03941 -0.17135
-0.07055 0.00388 0.00416
0.10083 0.00391 -0.08057
-0.20573 0.28074 -0.07472
-0.18345 0.00441 -0.14450
0.22152 -0.00217 -0.00639
-0.14449 0.00387 -0.11636
0.14627 -0.02293 -0.22374
-0.18260 0.06761 -0.17275
-0.18612 0.17888 0.15027
0.20143 -0.04278 -0.18805
-0.08366 0.00441 0.20712
-0.17990 0.18967 0.05994
-0.22220 0.33626 0.02898
-0.18379 0.03912 -0.14152
-0.19131 0.18867 0.22101
-0.18926 0.20899 -0.06030
0.01986 0.03942 -0.04152
-0.19102 -0.02696 0.02301
-0.16480 0.05824 -0.17784
-0.11725 0.21526 -0.21092
-0.15304 -0.04443 -0.19068
0.17158 0.03944 -0.11880
0.10839 0.01057 -0.22071
0.06670 -0.02137 -0.21990
-0.04575 0.00441 0.20191
-0.17977 -0.03005 -0.17784
-0.19468 0.15524 0.17555
-0.11388 0.00388 0.10389
-0.18406 0.03451 -0.11553
-0.18505 0.01966 0.05112
-0.20218 0.36782 -0.14512
0.06402 0.02549 -0.21064
-0.17135 0.20957 0.17537
0.21954 -0.30894 -0.19531
-0.10822 0.00388 -0.14251
0.04882 -0.01880 0.19636
0.22297 -0.20903 -0.19985
-0.19112 -0.02088 -0.01133
-0.06294 0.00388 -0.20934
-0.20908 0.32802 -0.15506
-0.19168 0.28266 -0.16953
-0.19374 0.24154 0.14683
-0.16256 0.06620 -0.18089
0.22603 -0.28649 0.21256
-0.19008 0.21583 -0.07015
0.13948 0.03697 -0.19726
-0.16201 0.02021 -0.18975
0.06929 0.03942 -0.10174
0.22303 -0.21641 -0.21721
-0.18243 0.10915 0.04176
-0.16792 0.04962 -0.03257
-0.09802 0.03932 -0.17447
0.20070 0.00279 0.14608
-0.08493 0.00388 -0.12712
0.01265 -0.01164 0.19462
0.02906 0.00390 -0.00423
-0.16536 -0.11275 0.17798
0.21193 -0.15086 0.19135
-0.18245 0.11013 -0.07152
0.05405 0.03942 0.01556
-0.21952 0.32982 0.06281
-0.19283 0.23575 -0.11989
-0.17008 -0.17186 0.20642
0.13942 0.05530 0.22298
0.05049 0.03942 -0.09664
-0.13002 0.00387 -0.17725
-0.18977 0.18874 0.20738
0.13390 0.12412 -0.24944
-0.12153 0.00388 0.20246
-0.02004 0.22019 0.24074
-0.03579 0.03941 0.14822
0.04164 0.03942 0.11523
0.09568 0.03241 -0.20426
-0.16767 0.02221 -0.01748
-0.09169 0.00388 -0.03845
0.19530 -0.10192 0.19074
0.01372 0.00441 -0.21220
-0.19434 0.35121 -0.15281
0.08624 0.00441 0.19959
-0.18171 0.20093 -0.03266
-0.16212 0.00387 -0.02063
0.11867 0.20180 -0.24872
0.19210 -0.17260 -0.20732
-0.19140 -0.00377 -0.03245
-0.18355 0.04325 0.01246
-0.18103 -0.04443 0.00527
0.06120 0.03942 0.06730
0.11943 0.10976 0.22186
0.19235 0.03586 -0.20221
0.21761 -0.01751 -0.19205
0.04576 0.03942 -0.14893
0.15285 -0.03248 0.20139
-0.17008 -0.03900 0.00279
-0.17044 -0.01687 0.05401
-0.18059 0.19400 0.13820
0.20097 -0.01413 -0.14046
-0.19182 0.25543 0.01512
0.09658 -0.04146 -0.22133
-0.18649 0.30346 -0.15980
0.17846 -0.02405 -0.22530
-0.18317 0.05052 -0.15743
-0.15602 0.00387 -0.09061
-0.18382 0.21396 -0.04816
-0.11470 -0.00609 0.18846
-0.16879 0.07514 -0.16304
0.11885 0.00441 0.21915
0.21553 -0.36851 -0.21451
0.19368 -0.12440 0.19102
0.09651 -0.01452 -0.22134
0.02843 0.03942 -0.03314
0.20698 0.02911 -0.19310
-0.17509 0.15300 0.05855
0.19691 0.00392 0.17165
-0.19493 0.24887 0.04411
0.22372 -0.31603 -0.19851
-0.19084 -0.03868 0.15474
0.21661 -0.26530 0.19277
0.13945 0.03943 0.09873
0.21904 -0.04443 0.08028
0.19976 -0.24513 -0.22333
-0.21339 0.36630 0.16212
-0.00755 0.03941 -0.09251
-0.19312 -0.35937 0.20471
0.16994 0.00391 -0.01457
0.18761 0.00392 0.06461
0.02232 0.00389 -0.20166
-0.19761 0.30981 -0.08786
-0.18322 -0.29536 0.19898
0.01485 0.03542 0.19160
0.22587 -0.27632 0.20376
-0.17976 0.10551 0.17537
-0.18237 0.08071 -0.07671
0.19082 -0.13210 -0.20655
-0.17844 -0.25896 -0.19565
-0.16773 0.03422 0.05301
0.22440 -0.31242 0.19336
0.04536 0.00390 -0.19354
-0.01107 0.03941 -0.12990
-0.17830 -0.10755 -0.17784
-0.07267 0.03941 0.07880
0.19529 -0.27295 -0.19639
-0.18261 0.23391 0.17537
0.06053 0.00390 0.05049
0.20081 -0.00435 -0.05866
0.22305 -0.09681 0.21287
0.15751 0.00441 0.21291
0.14642 0.00391 0.08463
0.11282 0.19346 -0.24844
-0.19102 -0.02711 0.17414
-0.20389 -0.34254 -0.20889
-0.16442 0.00472 0.18670
0.18452 -0.04443 -0.22007
0.20309 0.00441 0.16738
-0.16782 0.00833 -0.16749
0.18377 -0.04443 -0.20987
-0.02802 0.00389 -0.06188
0.14392 0.03943 -0.14655
-0.18247 0.11154 -0.02504
-0.18310 0.13229 -0.11179
-0.17306 0.00441 -0.11110
-0.05524 0.00424 0.19135
-0.09586 0.00388 0.15428
0.09449 0.00390 0.10109
-0.17833 0.16570 -0.20889
0.19634 0.00392 0.01687
-0.03491 0.20630 -0.24148
-0.19889 0.27147 -0.11758
-0.18640 0.03544 -0.20889
-0.02375 0.03941 0.08577
-0.17027 -0.02757 0.12431
-0.18287 0.05967 0.05482
-0.18489 0.16429 0.02928
0.20954 -0.17715 0.22217
-0.18073 0.19487 0.07914
0.21367 -0.33031 0.22027
-0.20564 0.33948 0.01972
-0.10187 -0.01000 -0.21175
-0.17068 0.10642 0.04266
-0.18876 0.20465 0.02196
-0.04428 0.00389 -0.02993
-0.21857 0.34480 0.10046
0.21275 0.00441 0.02996
0.07419 0.03942 0.07707
-0.20576 0.31395 -0.17786
-0.17049 0.00136 0.17521
-0.08825 0.20433 0.21025
-0.10203 0.21962 0.22797
-0.14783 -0.01458 -0.18916
-0.16859 0.07061 0.14478
0.12001 0.03943 -0.05385
0.00681 0.21208 -0.21677
-0.16754 -0.09778 0.17537
-0.19924 0.23583 0.19240
0.21306 0.02224 -0.21030
-0.06223 0.03941 -0.10151
-0.18469 0.16132 -0.07320
0.04779 0.00390 0.03496
-0.02486 0.00389 -0.13079
-0.18748 -0.07541 -0.17784
-0.03609 -0.00017 0.19227
-0.18582 0.33357 -0.17928
-0.18232 0.08523 -0.01642
-0.12890 0.03914 0.09297
0.16045 0.00441 0.20646
0.21573 0.01790 -0.01872
-0.15146 -0.00786 0.20745
-0.19451 -0.10924 0.18676
0.11529 0.05524 0.24101
-0.20936 -0.30619 0.17909
-0.19012 -0.34062 -0.19516
0.06986 0.00390 -0.06338
0.01790 -0.00666 -0.21755
-0.18469 0.00162 -0.00722
-0.06999 0.00388 0.03623
-0.19274 0.22319 -0.20889
0.22177 -0.01762 0.08293
-0.17738 -0.25087 -0.17969
0.10680 0.15809 0.22499
0.00888 0.19769 0.21723
0.06475 0.03942 0.06178
-0.05867 0.00441 -0.20636
0.09731 -0.04443 -0.20371
0.21932 0.00816 -0.15103
0.11154 0.11492 0.23800
0.19055 -0.05665 -0.19218
0.05321 0.03942 0.07445
0.03143 0.00390 -0.18538
-0.12288 -0.04443 0.19564
0.10163 0.00391 0.20612
-0.15723 -0.01975 -0.20906
-0.18280 0.08661 -0.17784
0.06846 0.00390 0.11587
-0.18560 0.01303 -0.14317
-0.17949 0.28767 -0.19197
-0.19180 0.04928 0.18114
-0.17716 -0.22264 0.20642
-0.15314 0.00387 0.09811
0.20075 -0.01707 -0.22580
-0.17862 0.00441 0.03524
-0.17763 0.17335 0.13761
0.09889 0.03941 0.17854
-0.20470 -0.29529 0.20642
0.18829 -0.03440 -0.22298
-0.03184 0.00389 -0.16169
0.06589 0.00390 0.05403
-0.17053 -0.01147 -0.06094
-0.17664 0.16620 -0.13041
-0.00976 0.19751 0.22179
0.06432 0.00390 0.17640
0.19116 -0.06906 0.19034
-0.15360 0.02700 0.09148
0.20155 0.00864 -0.22539
-0.00712 0.03689 0.18716
-0.02343 0.19731 -0.22182
-0.20421 0.28743 -0.14624
-0.19130 -0.00946 0.05370
0.17605 0.00391 -0.19802
-0.17300 -0.04443 -0.14741
-0.21867 0.36642 0.04569
0.19695 -0.32496 -0.21826
-0.19564 0.27272 0.03469
-0.16216 0.03625 -0.19081
0.01453 0.00390 0.19578
0.19046 -0.11829 -0.22491
-0.19177 -0.00683 0.19925
-0.17886 0.28253 0.18858
-0.17424 0.24405 0.19721
0.15853 0.03943 -0.16997
-0.19813 0.20829 0.22488
0.20251 -0.14261 -0.19325
-0.13729 0.00387 -0.12969
-0.22309 0.34364 0.03465
0.22144 0.00311 0.04396
-0.22604 0.36234 -0.03552
0.19514 -0.21010 0.19913
-0.19135 -0.00666 0.04584
-0.18265 0.06607 0.17036
-0.18377 -0.17967 -0.17784
-0.18332 0.13783 0.06544
-0.16608 0.14467 -0.20004
0.19663 0.03579 0.19304
-0.22101 0.33277 -0.04557
0.10847 -0.03121 -0.20114
-0.16771 0.01857 0.17399
-0.00591 0.03941 -0.10952
-0.17063 -0.00488 -0.00225
-0.16409 0.00788 -0.14379
-0.08316 0.03907 -0.17881
-0.18228 0.09938 0.08635
0.02858 0.20917 0.24346
-0.18253 0.20601 -0.09140
-0.19681 0.27787 -0.09255
0.19104 0.00392 -0.03525
0.12684 0.00391 -0.15021
-0.16782 0.00851 -0.13894
-0.19716 -0.15983 -0.19382
0.22680 -0.33542 0.20516
-0.16307 0.01081 0.14098
-0.20166 -0.22360 -0.19558
-0.17251 0.13673 -0.17784
0.16795 0.03943 -0.01533
-0.02357 0.00389 -0.16098
0.21034 0.00441 -0.09417
0.22197 -0.03016 0.15406
-0.16834 0.06274 -0.05436
0.21145 0.01648 -0.22296
-0.19180 0.05112 0.18768
0.10464 0.00391 0.09629
-0.15419 0.02659 -0.14929
0.21074 -0.09948 -0.22514
0.17328 -0.03585 -0.20399
-0.19075 -0.04390 -0.15822
0.12158 0.06872 0.24866
0.10579 -0.02502 -0.20101
-0.18450 0.02683 0.14871
-0.17774 -0.25364 0.18105
-0.17244 -0.09465 -0.17784
0.19096 -0.09116 -0.19261
0.19426 -0.18836 0.20595
0.08366 0.00390 0.13581
-0.04286 0.03941 -0.14053
-0.19295 0.21106 -0.23043
0.01132 -0.00164 -0.19646
-0.01428 -0.02501 -0.21597
-0.06356 0.00388 -0.20089
-0.20062 0.30240 -0.01836
0.07814 -0.02836 -0.19967
-0.18245 0.11063 -0.14986
0.16320 -0.02928 0.20189
-0.18234 0.08314 0.03574
0.03274 0.03942 0.04865
0.20617 -0.31222 0.19335
-0.13209 0.03862 0.12413
0.19333 0.03714 0.18108
0.10264 0.17739 -0.24632
0.20574 -0.31391 -0.19537
-0.18300 0.12992 -0.10367
0.20404 0.03146 -0.15144
-0.03375 0.22339 0.21773
-0.17995 0.19762 0.17537
-0.20544 0.36702 0.09858
0.11622 -0.01898 -0.22193
-0.18988 -0.13399 0.17537
0.21755 0.01387 -0.13427
0.07262 0.00390 0.04202
-0.17006 0.09811 0.04266
-0.08719 -0.02694 0.18978
0.18777 0.03862 -0.02507
-0.19097 -0.03031 0.07689
-0.20534 0.30992 0.18853
-0.05473 0.19653 0.21909
0.21794 -0.25960 -0.19470
-0.22325 0.35245 -0.06214
0.13333 0.03943 -0.16197
0.15306 -0.04443 -0.21292
-0.19092 0.25104 -0.01856
-0.13759 0.00293 0.20813
-0.17371 0.05767 -0.17785
-0.17451 -0.19041 0.20642
-0.18581 0.01048 0.02333
0.20022 -0.33557 0.20036
-0.14908 0.03103 0.10014
-0.16201 0.02049 -0.17871
0.03013 0.03942 -0.17433
-0.18817 0.23768 -0.15454
0.11633 0.00391 0.10300
-0.18257 0.06854 0.00706
-0.02121 -0.03303 0.21374
0.21188 0.00441 -0.04317
-0.12531 0.00388 0.16492
0.10560 0.03943 0.05473
-0.10025 0.03940 0.09624
-0.20051 0.28012 -0.03140
-0.20249 0.34071 -0.08013
-0.19189 -0.35172 0.19161
0.22454 -0.19204 0.19793
-0.16208 -0.01418 -0.18222
-0.18741 0.19274 0.01047
0.21371 -0.36836 0.21292
0.19425 0.00392 -0.17191
0.19408 -0.18393 0.20746
0.14266 0.07162 -0.24519
-0.07717 0.03940 -0.14662
0.20008 0.00178 0.19005
0.20405 -0.33618 0.19365
-0.20308 0.28847 -0.15427
0.20140 -0.04119 0.02079
0.19871 -0.29811 0.20835
0.21484 0.01937 -0.10936
-0.19875 0.28356 0.05376
-0.16874 0.07425 0.09347
-0.02873 0.03941 0.09902
-0.15052 0.19577 -0.20935
0.01417 0.00389 -0.05184
0.21240 0.00441 0.00116
-0.18807 0.34861 -0.20294
-0.06111 0.00441 0.21082
-0.04429 -0.00131 -0.21454
-0.10014 0.01705 0.20482
0.14086 0.13010 -0.23081
-0.19259 0.09400 -0.19448
-0.22490 0.36627 -0.00949
0.15275 0.03943 0.10731
-0.02568 -0.01179 -0.21543
0.18955 -0.09227 -0.22475
-0.21387 -0.34408 0.19602
-0.19537 0.27154 -0.11293
-0.17451 -0.21874 -0.17784
-0.20369 0.32839 0.03428
-0.17367 -0.21611 0.19657
-0.17822 0.17761 -0.13539
-0.16572 0.13909 -0.20655
0.08225 -0.01672 -0.22065
-0.20445 0.32831 -0.00179
-0.15426 0.20601 -0.23585
-0.15522 0.02533 0.02663
-0.07366 0.21204 -0.21298
-0.19113 0.22340 -0.13197
0.22007 -0.09395 -0.22521
-0.17004 -0.04182 -0.05625
-0.06463 0.00389 0.10238
0.14760 -0.00688 0.20115
0.08849 0.00390 0.01970
-0.18689 -0.14777 0.17537
-0.18881 0.24080 0.07255
0.12277 -0.02812 0.24873
-0.19173 0.28266 0.11169
-0.19973 0.27597 0.13433
-0.18727 -0.04443 -0.11097
0.00232 0.00389 0.18012
0.01558 0.03942 -0.10623
-0.20640 0.34337 -0.00834
0.01556 0.03942 0.03551
0.22066 -0.15286 -0.19338
-0.15514 0.00388 0.19319
-0.19699 0.28426 -0.04937
-0.16413 -0.08640 0.19034
0.15681 0.03943 0.03353
-0.16495 0.12735 0.18073
0.08064 0.00390 -0.07017
-0.03381 -0.01146 -0.19427
-0.14293 0.02007 -0.20547
0.04560 0.03738 0.18814
0.12710 0.03943 -0.11735
0.18884 -0.06995 -0.20528
-0.17875 0.21443 0.17537
-0.18401 0.29003 0.17558
-0.18480 0.02270 0.15999
-0.18322 -0.29530 -0.19814
0.09690 0.20652 -0.22102
-0.17047 -0.01524 -0.07696
-0.16786 0.04569 0.10455
-0.18282 -0.29230 0.18602
0.13667 0.00012 0.22282
0.21755 0.00392 0.08535
0.08421 0.00390 0.09636
0.20113 -0.02427 0.07165
0.20895 0.02714 0.07969
-0.20720 0.33447 -0.17784
0.20081 -0.00454 -0.14428
-0.19801 0.26682 0.06583
-0.20311 0.33470 -0.06308
-0.13723 0.03731 0.04246
0.11934 0.03943 0.02227
-0.14757 -0.01652 0.18726
0.16904 0.00391 -0.20821
0.16590 0.00391 0.10232
-0.16748 0.19060 0.23011
-0.17947 0.18960 -0.20837
-0.13097 0.00388 0.12237
0.22189 -0.02518 0.18649
-0.17854 0.17990 -0.00765
-0.10187 0.03940 -0.04626
-0.22129 0.32887 0.01499
0.21661 0.01596 -0.13014
-0.06731 0.03941 -0.04861
-0.14079 -0.03260 0.20795
0.21824 -0.16440 -0.22433
-0.16790 0.00131 -0.17650
-0.18647 -0.04443 -0.14617
-0.16665 -0.13403 -0.18360
0.13173 -0.04035 0.24923
-0.18868 -0.09868 0.20642
-0.16262 -0.04278 0.18267
0.19370 0.03702 -0.08802
-0.19593 0.25500 -0.14997
0.22470 -0.28636 0.22082
-0.18509 0.11826 -0.17784
-0.20786 -0.29103 -0.18849
-0.21314 0.31846 0.11321
0.14808 0.03459 0.19969
-0.16470 -0.09079 0.17537
0.11237 0.11214 0.22787
-0.19157 0.22657 0.00604
-0.19311 0.23766 -0.12821
-0.07507 -0.02044 0.21114
0.03021 0.03942 0.14482
-0.17636 0.00146 -0.00932
-0.12616 0.00388 -0.12792
0.15577 0.02764 -0.21259
-0.18362 0.31891 -0.19139
-0.07923 0.21069 -0.21271
0.19348 -0.21594 -0.21339
-0.20004 0.32149 -0.07796
0.11373 0.09154 -0.23669
0.20045 -0.27650 -0.22295
0.12160 0.22353 -0.22772
0.12446 0.03943 -0.09670
-0.08148 -0.03412 -0.21272
-0.05379 -0.04443 0.19564
0.20814 -0.04443 -0.00880
-0.18472 0.31076 0.17245
-0.19669 -0.15175 0.18241
0.19145 -0.11891 0.21821
-0.02503 -0.04443 -0.19732
-0.17257 -0.20544 -0.19072
-0.17071 0.00054 0.16575
-0.20003 0.33593 0.20642
-0.20489 0.34398 -0.05481
-0.18682 0.18669 0.10083
-0.19388 0.13690 0.20416
-0.16325 0.19546 0.20606
-0.19079 -0.04140 0.07101
-0.02099 0.19780 -0.24213
-0.17278 0.22843 -0.20426
-0.16764 0.02537 0.13636
0.09968 0.03943 -0.12118
-0.19865 0.31844 0.08746
-0.21931 0.36627 -0.01139
0.20119 0.00392 0.09246
-0.17722 0.16710 0.17536
-0.21469 0.30859 0.08324
-0.18154 0.19986 0.11344
0.14301 0.07696 0.23616
0.19758 -0.15475 -0.22445
0.12367 0.03943 0.02487
-0.19712 0.19039 0.22898
0.10794 0.14415 -0.24232
-0.17540 -0.23288 0.19879
-0.13988 0.03641 -0.10010
-0.18289 0.05895 0.15646
-0.18437 0.02910 -0.02067
0.11404 0.10416 0.24824
0.20133 -0.03665 -0.08451
0.19475 -0.18243 0.19174
-0.18539 0.01556 -0.17132
0.05046 0.00390 0.14370
-0.20208 0.19788 -0.23062
-0.17211 0.12423 0.05659
-0.02407 0.20299 0.24052
0.22175 -0.01630 0.00987
-0.14403 0.00388 0.13186
0.02799 0.00390 -0.06169
-0.20832 -0.29566 0.17801
0.11203 0.22384 -0.23737
0.11786 0.03943 -0.09621
-0.18883 -0.32853 -0.20889
-0.18238 0.10585 -0.03866
-0.18403 0.05614 0.20642
-0.10723 0.00388 -0.04172
-0.18581 0.26934 -0.17784
0.04066 0.03942 -0.00270
0.14055 0.08878 0.22304
-0.18432 0.15539 -0.04757
-0.00085 0.03941 -0.13209
-0.01782 0.00389 0.19004
-0.19135 -0.00629 0.10706
-0.18463 0.21844 -0.10989
-0.18306 0.05381 -0.17140
0.18215 -0.04443 0.20470
0.10862 0.00417 -0.22213
-0.16958 0.09003 0.08864
0.00003 0.22441 -0.22671
0.05465 0.00390 0.05422
0.18795 -0.01326 0.21200
0.16654 0.00078 -0.20397
-0.07909 0.03941 0.14506
-0.04531 0.00389 0.14507
-0.12302 -0.04361 -0.18993
-0.07491 0.00389 0.20527
-0.10687 -0.00293 -0.21151
-0.16020 0.19607 0.23291
-0.10754 0.00388 0.03192
-0.10483 0.00241 0.18895
-0.05742 0.00388 -0.19365
-0.19228 0.25766 0.05989
0.21983 -0.20191 0.22187
-0.08975 0.03940 -0.12266
-0.01437 0.03941 0.02470
0.21982 0.00392 -0.09574
0.18028 0.00391 0.07844
-0.06248 0.21286 0.23837
-0.19056 0.00303 -0.17784
-0.17047 -0.01482 -0.00846
0.22290 -0.19861 -0.20570
0.10703 0.15527 -0.22940
-0.18519 0.01796 -0.10092
-0.16572 -0.12052 -0.20398
0.04578 0.03942 -0.03915
-0.01556 0.03941 -0.00586
0.14652 0.00391 -0.12958
-0.20070 0.20359 -0.21256
-0.16781 0.04162 -0.08009
-0.18541 0.17087 0.06783
-0.00824 0.20057 0.24141
-0.18139 0.19897 0.06262
-0.04937 0.00388 -0.15873
-0.17463 0.14908 0.14896
-0.06201 0.00388 -0.14841
0.21761 -0.13160 0.19112
0.20516 0.00441 -0.10017
-0.21821 0.32958 -0.08182
-0.19166 0.00085 0.18377
-0.21566 -0.35907 0.18872
0.09357 0.03943 0.03849
0.07025 0.00203 -0.22009
0.12708 -0.01209 -0.22282
-0.18377 0.14685 0.05873
-0.09362 0.00388 0.16348
0.20325 -0.11836 0.22290
0.03634 0.03942 0.01589
-0.18906 0.04363 0.17537
-0.21781 0.30606 0.01237
0.22162 -0.00820 0.06125
-0.19416 0.14334 0.19134
-0.19135 -0.00673 0.09071
-0.03526 -0.04270 0.19228
0.22150 -0.00063 -0.09559
-0.01872 0.21631 0.21414
-0.17300 0.13345 -0.03062
-0.16838 0.06404 0.06924
0.10802 0.03943 -0.16137
-0.20716 -0.28393 -0.19768
-0.04873 0.00388 -0.16889
-0.02425 0.00389 0.04468
-0.18231 0.10139 -0.06444
-0.20138 0.26364 -0.20375
-0.01458 0.19745 0.23867
-0.18697 0.23117 0.08774
-0.19301 -0.06942 -0.18132
-0.08143 0.20137 -0.23928
0.20094 -0.01260 -0.01475
-0.19243 -0.15808 -0.20889
-0.16235 -0.02825 -0.19535
0.22202 -0.03295 -0.09798
-0.18691 0.19883 0.17537
-0.18074 0.20269 -0.17784
-0.13020 0.00387 -0.13947
-0.09406 0.03940 -0.11577
-0.18939 -0.08074 -0.17784
-0.19904 0.27226 0.14224
-0.03494 0.03928 -0.17796
0.19741 -0.21274 -0.19412
-0.07098 -0.03824 0.21132
-0.18231 0.08702 0.10674
-0.09771 0.21552 0.20972
-0.16182 0.00387 -0.12324
-0.14854 -0.03649 -0.18916
-0.18186 -0.04154 0.20642
0.03583 0.19771 0.23817
-0.20754 0.36108 0.04677
0.18262 0.03928 0.03304
-0.20287 0.32845 0.05060
0.05179 -0.04443 -0.20831
-0.18316 0.13403 -0.00050
0.07402 0.00390 -0.09728
0.14515 0.00441 -0.21538
0.12702 0.22301 -0.22261
0.03435 0.22489 -0.23666
-0.07938 0.00388 -0.11961
0.07739 -0.02112 0.21851
-0.19072 0.30216 0.13149
-0.21310 0.30887 -0.10199
-0.17925 0.18500 -0.08051
0.22469 -0.20126 0.19205
0.22430 -0.17658 0.19382
0.09632 0.00391 -0.04287
-0.21857 0.31544 -0.04031
-0.19060 0.24950 0.17102
0.22187 -0.02389 0.02352
0.05457 0.00390 0.01166
-0.18322 0.04906 -0.04857
0.11233 0.13181 0.24815
0.21406 -0.00971 -0.22580
0.14148 0.03943 0.11643
-0.19794 0.28791 0.20642
-0.18365 0.14510 -0.04616
-0.13115 0.19743 -0.23694
-0.06861 0.00388 0.02422
-0.18746 0.02944 -0.17784
-0.17490 0.15143 -0.11282
0.13354 0.08146 -0.24942
0.04234 0.00390 -0.07072
0.03563 0.00390 0.11125
0.03112 -0.04173 -0.19739
-0.17188 0.12184 -0.13176
0.21810 -0.35041 -0.22203
-0.18143 0.00156 0.00269
0.14417 0.03943 -0.11751
-0.12073 0.00436 0.20895
0.11387 0.15953 -0.24849
-0.13065 0.00388 0.13840
0.20131 -0.03547 -0.10522
-0.19953 0.36763 -0.13458
-0.05532 0.19650 -0.21402
0.09501 0.22434 -0.23440
0.02525 0.00389 -0.15284
-0.17561 -0.23493 -0.19332
-0.21345 0.31354 0.10327
-0.07861 0.19572 0.23244
-0.06836 0.00388 -0.19903
0.20132 -0.15118 -0.19335
0.17425 0.00391 0.01676
0.14798 0.00391 0.03106
-0.10801 -0.04443 -0.19238
0.07478 0.21582 -0.24665
-0.19168 0.22742 -0.09468
-0.20468 0.30281 0.19175
-0.19984 0.29486 -0.00331
0.20142 -0.04254 0.10329
-0.18491 0.16467 0.11993
0.08447 0.00390 0.19293
0.22265 -0.07168 0.20653
-0.21129 -0.32250 0.19667
0.19074 0.02511 -0.21649
-0.18074 0.29801 -0.18868
-0.14901 0.03111 0.05542
0.16366 0.00441 0.21100
-0.16787 0.00393 0.09951
-0.19356 0.24135 0.17537
-0.17024 -0.02912 -0.06448
-0.06701 0.00389 0.05355
0.19963 -0.32092 0.19751
-0.09506 0.19498 -0.23098
-0.19249 -0.35544 -0.19856
-0.05188 0.03941 0.04458
-0.14077 0.03234 -0.19397
0.10465 0.03943 -0.01642
-0.16208 0.02808 0.18650
-0.20881 0.28032 0.08011
-0.18301 0.13012 -0.06863
-0.19424 -0.33022 -0.20889
-0.18522 0.30173 0.17537
-0.19854 0.28493 -0.20889
-0.15507 -0.00287 -0.18916
-0.19951 0.24823 -0.20889
0.06332 0.19745 -0.22573
0.19692 -0.14341 -0.19326
0.19771 -0.27359 0.20372
-0.09845 -0.03407 -0.21190
-0.21473 0.28617 0.01302
0.21257 -0.05977 -0.22563
-0.19327 0.29702 0.10823
-0.20660 0.36708 0.10337
0.22175 -0.01658 -0.17571
0.20101 0.00392 0.03260
-0.11018 0.03940 0.09923
-0.19256 0.09241 0.19381
-0.18524 0.01734 -0.05793
-0.19320 0.12001 0.20119
0.16081 0.02764 0.20960
-0.00167 0.03941 -0.05607
0.11527 0.10378 -0.22189
-0.19434 0.26698 -0.08930
-0.01800 0.03941 0.01484
0.03214 0.00390 -0.01632
-0.19288 0.26057 -0.03986
-0.18465 0.00441 0.12770
-0.13229 0.00388 0.10336
-0.05470 -0.03757 0.19134
-0.09763 0.00441 0.19639
0.14097 0.12146 -0.24128
-0.18512 0.01891 0.00495
-0.20718 0.30866 0.14633
-0.02134 0.00389 -0.20922
-0.16763 -0.05241 -0.20889
-0.17873 0.18128 0.11421
-0.04572 0.02211 0.20445
-0.21486 0.35893 -0.14920
0.16891 0.03943 0.12190
-0.20944 -0.30694 -0.19784
-0.19293 0.18858 -0.23386
-0.18027 0.13426 -0.17784
0.17869 0.00391 -0.06579
-0.18296 0.12891 0.04483
-0.18432 0.02993 -0.15622
0.20357 -0.16287 0.22235
0.18851 0.00392 -0.19094
0.21082 -0.02045 0.19009
0.11129 0.00391 0.08915
0.22063 -0.04443 0.06158
0.01979 0.22309 0.24297
-0.19516 0.27062 -0.10697
-0.19851 -0.18306 0.19368
0.20575 0.03011 0.18341
-0.00583 0.03941 -0.16453
0.18770 -0.02784 -0.22575
0.11353 -0.02726 0.24794
-0.19131 0.22470 -0.07617
0.18410 0.03919 -0.13360
-0.22387 0.36388 -0.07724
-0.03329 0.03941 -0.12407
-0.18258 0.11905 0.11632
-0.20867 -0.33714 0.17537
0.05004 0.00390 -0.03249
-0.17977 -0.17078 0.17537
0.13855 0.13898 0.22293
0.12530 0.02374 0.22219
-0.18974 -0.04443 -0.11575
0.22348 -0.28091 -0.20151
0.00385 0.03941 -0.11006
-0.05579 0.00389 0.04847
0.09759 0.00391 0.02708
-0.17065 -0.04278 -0.20889
-0.19332 0.35075 -0.15791
-0.20613 -0.27345 0.18057
-0.13374 0.03832 0.14885
-0.18871 0.20420 0.02990
0.20455 0.00392 0.05894
-0.05834 0.03941 -0.13189
-0.13015 0.21737 -0.22168
-0.01823 -0.03608 -0.19500
-0.17573 0.25680 -0.18489
-0.18687 0.18730 0.13980
0.04004 0.00390 0.07860
0.12542 0.14924 -0.22237
-0.19935 -0.24869 0.20642
0.14455 0.01050 0.21905
-0.16785 0.04493 0.07188
0.07238 0.03942 0.01701
0.10439 0.03943 0.13666
-0.16867 -0.16108 0.20436
-0.19312 0.31240 -0.12704
0.20084 -0.00638 0.14817
0.03758 0.00390 0.13875
-0.22253 0.36629 0.01602
-0.18508 0.01936 0.07930
-0.18098 0.19641 -0.05739
-0.17732 0.20375 0.17537
0.10334 0.17571 0.23600
-0.18556 0.17259 0.10508
-0.19497 -0.12128 0.17669
-0.19074 0.15577 0.20642
-0.16817 0.05742 0.12184
-0.19127 -0.01138 -0.07592
-0.12070 0.00388 0.03926
0.01184 0.19771 0.22774
0.11675 0.09934 0.22171
-0.16997 0.09700 0.16539
0.05407 0.00390 0.19576
-0.08629 -0.02713 -0.19172
0.04828 -0.03572 0.21710
0.12898 -0.00516 -0.24921
-0.17030 -0.07534 0.17537
-0.16231 0.05273 0.17538
-0.16624 0.14713 -0.18744
-0.16786 0.04643 -0.10145
-0.21323 0.34676 0.14508
-0.02718 0.00389 0.00520
0.13734 -0.01942 -0.22332
-0.19108 -0.02333 0.12838
-0.13175 0.20587 -0.23691
-0.16992 0.09626 0.01302
-0.21068 -0.31740 -0.19631
-0.19453 -0.30799 -0.17784
-0.16703 -0.13909 0.18726
-0.21976 0.35161 -0.10156
-0.18965 0.06693 0.20642
-0.20304 0.28331 0.20078
-0.19451 0.24629 0.07662
0.20723 0.00392 -0.08269
0.05354 -0.02650 0.21736
0.22368 -0.31072 -0.20767
-0.14300 0.03495 0.05643
0.02089 0.22119 -0.21744
-0.19774 0.28193 -0.14388
0.17510 0.03944 0.06947
-0.19393 0.13817 -0.19470
-0.14484 0.03386 0.12919
-0.19547 0.17343 0.18260
-0.19840 0.35589 0.17552
0.22483 -0.21007 0.20278
-0.15892 0.21067 0.23298
-0.20680 0.35319 -0.04192
-0.02071 0.20565 0.21402
-0.21574 0.36079 0.14252
-0.19760 0.28133 -0.16401
0.19513 -0.06918 -0.22552
-0.21371 0.33301 -0.12853
-0.19089 -0.03536 -0.10863
-0.18918 0.20837 0.03209
-0.19137 0.24579 -0.17784
0.19951 0.03439 -0.02572
0.09120 0.03943 0.07376
-0.17409 -0.06134 0.17537
-0.01994 0.03941 -0.00418
0.21324 -0.28093 0.19297
-0.16234 0.01341 0.02454
-0.13906 0.00259 -0.18919
-0.20507 0.36694 -0.09583
-0.03562 0.03941 -0.13366
-0.17896 -0.23010 0.17537
-0.08819 0.02579 0.19954
0.22213 -0.03842 0.21020
0.21674 0.01567 -0.18598
-0.18430 0.32349 0.20447
-0.19989 0.27678 0.02814
-0.18238 0.07884 0.01548
0.20067 0.00410 0.18457
0.04231 0.00158 0.21683
-0.16216 0.03688 0.19127
-0.16258 -0.04078 0.19674
0.22292 -0.08867 0.19572
0.00601 0.00389 0.17228
-0.16958 0.08998 0.14814
0.18977 -0.07767 0.21983
-0.19534 0.25134 0.07975
-0.03372 0.20973 0.23998
-0.16976 0.09331 0.08122
0.19586 -0.22782 0.21498
-0.15720 0.02296 -0.13679
-0.19049 -0.04443 -0.07616
-0.04964 0.00389 0.12162
0.22171 -0.01414 -0.10473
-0.19773 0.26532 0.02647
-0.19418 -0.10056 0.17807
0.22248 -0.13830 -0.19497
-0.16766 0.02709 0.13030
-0.16145 0.00387 0.12104
-0.18457 -0.04443 -0.15083
0.17664 0.00391 -0.09997
0.10417 0.03943 0.04341
0.00140 0.00389 0.15672
-0.09418 0.00388 0.03704
-0.08625 0.03940 0.01519
-0.20210 -0.29515 -0.20889
-0.20093 0.28231 -0.09746
-0.08290 0.03940 0.07466
-0.05578 0.00389 0.16104
0.15177 0.03943 -0.01166
-0.16776 0.01330 0.07160
-0.18802 0.28317 -0.14359
0.20101 -0.01686 -0.11905
0.15886 0.03943 0.10663
-0.20155 0.31257 -0.03590
-0.17536 0.01343 -0.20889
-0.06156 0.03941 -0.16179
0.10173 0.03943 -0.10435
0.05642 0.21770 0.24502
-0.20458 0.34542 -0.06301
0.15009 -0.04443 0.20603
-0.20092 0.36221 0.17549
-0.16224 -0.02236 0.17580
0.01852 0.03942 -0.09083
-0.08134 0.00388 -0.09819
-0.16884 0.07616 0.00554
-0.18993 0.21473 0.06410
-0.17026 -0.02781 -0.13598
0.07090 0.00390 -0.12797
0.04065 0.03942 0.02618
0.00815 0.03942 0.12696
0.11336 0.13421 -0.24847
-0.18284 0.12588 -0.02697
-0.19072 0.22048 0.13077
0.05173 0.00390 -0.13273
-0.18328 -0.14340 -0.20889
-0.19831 0.28824 0.17537
-0.11072 0.03310 0.18976
-0.16734 -0.14323 -0.20746
-0.19753 0.20921 -0.18163
0.10015 0.22140 -0.24785
0.12470 0.00391 -0.14415
0.17036 0.03944 0.11630
0.00407 0.20384 0.24209
0.01861 0.03942 0.09317
0.13340 0.09926 0.22264
0.15572 0.00391 -0.09012
-0.03752 0.19701 0.23586
0.22157 -0.00528 0.17003
-0.20464 0.31496 -0.16929
-0.18585 0.00164 -0.15727
0.07100 0.00390 -0.17146
0.14099 0.00391 0.11603
-0.20874 0.36009 0.00367
-0.19527 0.33629 0.20642
0.04113 -0.00469 -0.21867
0.20954 0.00441 -0.01812
-0.16776 0.03700 0.15161
-0.21437 0.36074 0.15130
-0.06133 0.03941 0.13124
0.20916 -0.03343 -0.19205
0.01795 0.00390 0.12498
-0.16764 0.02438 0.00541
0.15484 -0.00732 0.22227
-0.12027 0.03940 0.04565
0.22210 -0.03795 -0.05909
0.22218 -0.04349 0.13122
-0.15789 0.02209 -0.15551
-0.22132 0.35349 0.08717
0.22177 -0.01745 0.05740
-0.16788 0.00271 -0.00482
-0.18657 0.18393 0.07481
0.22186 -0.02336 0.10203
-0.21800 0.34154 -0.10340
0.04436 0.19767 0.22330
-0.18271 0.12258 0.17507
-0.18415 -0.00239 0.17594
-0.16102 0.01632 0.04495
0.21738 0.01424 0.12007
-0.19308 -0.07124 0.18455
0.21632 -0.04443 -0.16161
0.20427 0.00392 -0.01003
-0.16093 -0.04445 0.20355
-0.19090 -0.03458 -0.16163
-0.17766 0.27263 0.18988
-0.09164 -0.02527 0.18956
-0.17028 0.10114 0.02046
-0.18414 0.03308 0.16528
-0.19731 -0.28186 -0.20889
0.22420 -0.20749 0.22179
0.22203 -0.03410 -0.04906
-0.17158 -0.04443 0.12873
-0.09078 0.00388 0.00391
0.12996 0.02953 -0.20950
-0.18429 0.00441 -0.12868
-0.18411 0.00161 -0.02747
0.14293 0.07036 -0.23948
-0.17017 -0.03333 -0.11988
-0.19100 -0.02856 0.08406
-0.18255 0.11703 0.05983
0.11585 0.03837 -0.23905
0.12697 0.00391 0.11897
-0.19498 0.28221 0.11885
-0.16229 0.05034 0.18840
-0.20419 0.34191 0.05993
0.18883 0.00430 -0.20523
-0.19185 0.06219 -0.20205
-0.12214 0.00441 -0.19255
0.18806 -0.01795 0.19524
-0.18393 0.02499 0.17537
-0.17036 -0.02154 -0.08042
0.22206 -0.03561 0.07791
0.06773 0.03942 -0.07444
-0.17955 0.25486 -0.20889
-0.07059 -0.00468 0.19060
0.00450 -0.00786 -0.19613
-0.06431 -0.03465 -0.19278
-0.18568 0.22416 -0.00396
0.18947 0.01695 -0.22179
0.00579 0.03805 0.18408
0.21973 0.00441 -0.06067
-0.04462 0.03941 0.09388
0.22303 -0.21714 -0.20356
-0.03577 0.03941 0.02277
-0.19266 -0.35655 0.17845
0.21259 -0.16762 0.19156
-0.19650 -0.14848 -0.19413
0.16397 0.00391 -0.17057
-0.19094 -0.03207 0.14875
-0.21056 0.36634 -0.03402
0.10252 -0.00265 -0.20087
-0.20520 0.33969 0.03512
-0.12109 0.00388 -0.05239
-0.17728 0.26958 0.20112
-0.18134 0.18959 0.17536
-0.19700 -0.15705 -0.20708
-0.12213 0.03940 0.07475
0.08562 0.03943 0.16434
-0.16388 -0.08121 -0.19526
-0.19870 0.28789 0.01253
-0.17033 -0.02401 0.13882
-0.18239 0.07773 0.00209
0.22174 -0.04443 -0.09045
-0.17543 0.25435 -0.19408
-0.16360 -0.07517 0.20284
0.22209 -0.03769 0.12842
-0.16347 0.01025 -0.15635
-0.19724 0.26271 -0.12347
-0.01574 0.00766 0.21215
-0.17102 0.11091 0.05171
0.10877 0.13764 -0.24360
0.00196 0.03942 0.02039
-0.18640 0.18206 0.02338
0.11051 0.18349 0.22136
-0.07867 0.19567 -0.21523
-0.17652 0.16514 -0.12207
0.19563 -0.22221 0.20087
-0.18835 0.23853 -0.07835
0.12000 0.17096 0.24857
0.14104 -0.00317 0.20084
0.20989 -0.03358 0.19009
0.04317 -0.03761 -0.21874
0.10173 -0.03857 -0.22158
-0.12578 0.03744 0.17972
-0.17064 -0.00473 0.13140
-0.17074 0.10719 -0.11690
-0.20629 -0.27514 0.19295
0.13471 -0.03548 -0.22281
-0.02139 -0.04040 0.19295
-0.13284 -0.03917 0.20833
-0.16742 0.01383 -0.17784
0.22175 -0.01407 0.21245
-0.18666 0.18497 -0.11551
0.11938 0.00391 0.12954
-0.16780 0.04047 0.03788
-0.07057 0.00389 0.21007
-0.17366 0.14034 0.04286
0.20292 -0.22837 0.22154
0.22216 -0.04198 -0.12491
0.22326 -0.25053 -0.21413
0.15088 0.00391 -0.04905
0.08908 0.20182 0.22016
-0.17551 0.15662 -0.14447
-0.16784 0.04480 -0.05776
-0.20321 0.31274 -0.20889
-0.20087 0.28379 -0.02381
-0.11341 0.01973 0.20268
-0.17155 0.11804 -0.17256
-0.10516 -0.03789 -0.19080
-0.11288 0.03940 -0.07619
-0.14238 0.21633 -0.22909
-0.19071 0.29850 0.12833
0.11613 0.05363 0.22708
0.19294 -0.19899 -0.21583
-0.19110 -0.02190 -0.13792
-0.11675 0.03940 -0.09074
-0.18645 0.18259 0.04676
-0.08998 0.00388 0.14458
-0.13997 0.03634 -0.02992
0.19716 -0.33167 -0.21523
-0.17320 0.13558 0.00308
-0.16787 0.00353 -0.12012
0.21105 0.01443 0.22085
-0.19215 0.25705 -0.16420
0.07188 0.00390 0.09248
0.01310 0.03942 0.10774
0.20824 -0.25623 0.22119
0.05601 0.03942 0.06900
0.19536 -0.21544 0.20290
0.20323 -0.36853 0.21960
-0.17839 0.17882 -0.17328
-0.21983 0.31818 -0.00460
0.20144 -0.04328 0.18427
-0.17016 -0.03462 -0.12823
0.22250 -0.14108 -0.21977
-0.13657 -0.04443 -0.20208
0.13326 0.04273 0.24932
-0.21640 0.29681 0.01075
0.21320 0.02207 -0.14563
-0.11805 0.03940 -0.15876
0.04925 0.20948 0.21794
-0.18227 0.09185 -0.11102
-0.17439 0.14563 -0.20889
0.09461 0.03943 0.16188
0.18847 -0.05819 -0.20716
-0.16604 -0.08860 -0.20889
0.13322 0.18775 0.24819
0.12336 0.00391 -0.02229
-0.21483 0.32545 -0.10983
-0.05712 0.03941 0.15314
0.21094 0.02496 -0.02647
0.22181 -0.04168 -0.21755
0.00929 0.03942 0.00871
-0.17680 0.16738 -0.07400
-0.19096 -0.03087 0.11578
0.20090 -0.01016 -0.06745
-0.19609 -0.26919 -0.20889
0.19184 -0.12876 0.19799
-0.04503 0.02557 -0.20579
-0.18965 0.24489 0.06947
0.07897 0.00390 0.14725
-0.16788 0.00300 0.12465
-0.18760 0.23461 -0.14345
-0.18988 0.15303 -0.20889
0.06451 0.03204 -0.20341
-0.18268 0.21469 -0.20889
0.19820 -0.28559 0.20239
0.00823 0.03942 -0.03614
0.13738 0.11872 -0.22293
-0.12977 0.03908 -0.14238
-0.17060 0.10534 -0.00989
-0.22540 0.35563 0.01683
-0.04586 -0.00919 -0.21446
-0.19672 0.32537 0.11190
-0.18224 0.09416 -0.00545
-0.11245 0.03940 -0.02822
-0.18140 0.01145 -0.17784
-0.12679 0.03927 0.00332
-0.18964 0.28173 -0.20889
0.05053 -0.02944 -0.21911
-0.08036 0.00388 -0.10690
-0.17067 -0.00255 0.12510
0.02450 0.00390 0.07633
