0.03976 0.01170 -0.10823
-0.04722 -0.01823 -0.08594
0.10454 -0.00167 -0.22092
-0.07635 0.01170 -0.01207
-0.08057 0.10664 0.21835
0.11804 0.01170 -0.09721
-0.12731 -0.13146 -0.03040
-0.04187 0.02403 -0.20805
-0.03737 -0.01823 0.08214
0.23738 0.01707 0.23737
0.09768 -0.04599 0.21270
0.08909 -0.01849 -0.11740
0.00135 -0.05969 -0.00000
0.00816 -0.00050 0.21491
-0.02536 -0.09043 -0.18985
-0.24042 0.26182 0.09934
-0.00953 -0.23459 -0.22868
-0.11292 -0.02143 0.07222
-0.07435 -0.01849 0.02740
0.12373 -0.01823 0.01064
0.17263 -0.28057 -0.24278
0.15072 0.07531 0.23697
0.19450 -0.08148 -0.20332
-0.05714 0.13522 -0.27677
0.09652 0.09033 -0.23298
0.22327 -0.06116 0.20332
0.23052 -0.20448 -0.06804
-0.09878 -0.21388 -0.15824
0.18821 0.06300 0.23381
-0.12276 0.06078 -0.15813
-0.10098 0.18402 -0.27481
-0.25194 0.25667 0.02576
-0.09919 0.00658 0.16179
-0.01678 -0.22286 0.22125
0.11609 -0.05974 -0.00000
-0.03231 -0.01849 0.00664
-0.27761 0.27919 0.01445
0.24171 -0.13170 -0.13148
0.17103 0.01170 0.19461
-0.23009 0.20019 -0.00770
-0.04102 -0.01849 0.00890
-0.05498 -0.04682 0.18434
0.05995 0.01170 0.09432
-0.10607 -0.04404 -0.09376
0.22905 -0.11663 0.05847
0.12496 -0.20942 -0.21845
0.05112 0.01170 -0.19421
0.13550 -0.04841 0.21351
0.19004 -0.21535 0.22006
0.24272 0.02996 -0.20549
0.17298 0.08142 -0.23397
-0.00747 -0.26939 -0.24931
0.21047 -0.01044 0.00349
0.22473 -0.20319 -0.02742
0.07387 -0.01823 -0.15851
0.25885 -0.02465 -0.20188
0.10701 0.06071 0.23728
0.07832 -0.21570 0.22267
-0.04229 -0.01823 0.04959
-0.17589 -0.27161 0.06946
-0.07387 -0.01823 0.10291
0.20718 -0.01823 0.15006
0.11633 -0.02300 0.21772
0.25623 -0.01269 0.20083
-0.20035 0.16393 0.08968
0.26765 -0.16987 0.20996
0.17998 -0.04990 -0.21322
0.19795 -0.04292 -0.20332
0.13962 -0.01823 -0.16299
0.20582 -0.08830 -0.20572
-0.11931 0.11871 0.19501
0.21092 -0.01823 0.19763
-0.01764 -0.01823 -0.03084
0.07848 -0.01823 0.07120
0.23601 0.01401 0.22098
0.02533 -0.02815 -0.20224
-0.00810 -0.01823 -0.06904
-0.06054 0.01046 0.19500
0.14664 -0.02332 -0.21841
0.23854 -0.11368 0.21922
0.13358 -0.01849 0.09122
-0.08394 0.17713 0.27042
-0.20292 0.25911 0.15593
0.01870 -0.06405 -0.20110
0.22384 -0.19508 0.02040
-0.03509 0.05326 0.21607
0.25340 -0.13708 -0.20756
-0.20271 0.20597 0.13391
-0.13080 -0.04512 0.07133
-0.14350 0.21040 0.23532
0.23830 -0.22201 0.22118
0.25666 -0.24981 0.18453
0.14902 -0.09606 -0.20420
0.15285 0.08388 0.22456
0.26048 -0.21614 0.21695
0.10142 -0.01849 -0.19640
0.18460 -0.01823 0.14672
-0.07360 -0.01849 0.12757
0.26066 -0.19549 0.19975
0.11661 -0.01849 -0.03591
0.27043 -0.21680 0.20721
-0.02081 -0.07896 -0.19501
0.11123 -0.01849 0.05908
-0.11579 0.01170 -0.01059
-0.01662 -0.04062 0.19216
0.22841 -0.20901 -0.05407
0.08236 -0.01849 0.07842
0.12963 -0.01823 0.06249
0.17537 -0.06933 -0.20943
-0.15613 0.01123 -0.03096
-0.01048 -0.16551 0.20711
0.25261 -0.07792 0.20494
-0.03300 0.09713 0.25597
-0.06668 -0.02122 0.18397
-0.14547 0.09564 -0.14319
-0.09290 -0.01823 -0.02738
0.22170 -0.17077 0.00242
-0.01769 0.10922 0.25426
-0.25674 0.28493 -0.08156
-0.05479 -0.10968 0.17017
0.26447 -0.18744 -0.22478
0.21255 -0.01823 0.14350
-0.06852 0.00869 0.15524
0.20465 -0.01849 0.15842
0.20742 -0.05446 0.20332
0.20950 -0.22319 0.22364
0.01697 0.05771 -0.22451
0.04728 -0.00611 0.21844
-0.19273 0.12331 -0.05862
-0.09388 -0.01823 0.05577
-0.03403 -0.01849 -0.01348
-0.06332 -0.27081 -0.24609
-0.02221 0.01170 -0.06282
-0.02108 -0.22044 0.22030
-0.03235 0.09704 0.26405
0.24696 -0.24148 -0.23126
0.15553 0.06070 0.23968
-0.14760 -0.01194 0.04372
0.13459 0.01170 0.15646
0.09596 -0.11095 -0.20445
-0.14657 0.00512 0.07187
0.22869 -0.10642 0.05603
0.24826 -0.01823 -0.17624
-0.08423 0.01170 0.07029
-0.11964 0.08473 0.17105
-0.12002 0.14297 -0.21121
-0.08983 0.01170 -0.08767
0.21902 -0.08018 -0.20730
-0.11703 0.18725 -0.26977
0.27703 -0.29057 -0.24757
0.16892 0.00604 -0.19664
0.22086 0.01599 -0.22289
-0.10915 -0.01849 -0.06630
0.08791 -0.01823 0.17550
0.08216 0.06619 -0.24587
0.06619 0.08939 -0.24618
-0.12914 -0.14794 0.04339
-0.00774 -0.01823 -0.00966
0.10031 -0.01849 0.03078
-0.06482 0.09922 0.22168
-0.02272 -0.15216 -0.19963
-0.04605 0.01170 0.07532
-0.22593 0.22543 -0.09405
0.00128 -0.01823 0.01038
0.26047 -0.26342 -0.22774
0.16731 -0.09876 -0.20368
0.19293 -0.07407 -0.00000
-0.12261 0.08060 -0.16531
-0.05870 0.11631 -0.26908
-0.13943 -0.01772 -0.07152
-0.08265 0.18156 -0.25585
0.22408 -0.05304 -0.02226
-0.03029 -0.01849 0.10756
-0.13702 -0.21622 0.08148
-0.22891 0.21011 0.06168
0.06727 -0.01849 -0.06788
0.18704 0.05718 -0.24173
0.22683 0.05301 0.20962
0.05540 -0.00487 0.19664
0.05615 -0.01823 0.03925
0.02373 0.01170 0.13916
0.03438 -0.22303 0.22730
0.01683 -0.09602 0.20149
-0.17944 0.21929 0.21855
-0.02141 0.01170 -0.02605
0.07927 0.01170 -0.12919
0.11164 -0.05013 -0.20332
-0.11284 -0.07550 -0.09743
0.25102 -0.29559 0.23629
0.00131 0.02171 0.21720
-0.10715 -0.09545 -0.00000
-0.09670 -0.01823 -0.08641
0.23217 -0.09540 0.20332
-0.15716 -0.23751 0.05294
0.10177 -0.01849 0.00846
0.04910 -0.02586 0.20332
0.08647 -0.04868 -0.20332
-0.17697 -0.27808 -0.08257
-0.03587 -0.24624 0.23800
-0.01241 -0.06343 -0.00000
-0.11314 0.19599 0.23322
-0.13440 -0.04841 0.05674
0.15709 -0.16181 0.21009
-0.10393 -0.22746 -0.16813
0.13208 0.01170 0.08253
0.18133 -0.12369 0.20584
-0.11756 0.06777 -0.16562
0.23497 -0.23180 -0.09508
-0.24136 0.26472 -0.13723
-0.15985 0.02040 -0.02257
0.08668 0.08308 0.22601
0.16277 -0.01823 -0.06993
-0.12366 -0.01216 -0.00524
0.23488 -0.04850 0.09456
-0.06275 -0.17497 0.17981
-0.14479 0.06860 -0.12629
0.18024 -0.27617 0.24105
0.10076 -0.01849 -0.08090
0.25154 -0.27484 0.23610
-0.01595 0.11950 -0.24958
-0.08896 0.04318 0.18456
0.25001 -0.03558 0.17078
0.09161 -0.01849 -0.10799
0.07050 0.07907 -0.23300
0.05621 0.01170 -0.08394
0.26264 -0.22187 0.19336
-0.06701 -0.02596 -0.15551
0.24516 -0.23591 -0.14844
-0.09441 0.04012 0.17823
-0.10229 -0.18292 0.13492
-0.15693 0.15366 0.17344
-0.27678 0.27456 0.06810
0.06623 0.06837 0.23104
0.12874 0.01170 -0.02663
-0.18251 0.23467 -0.19829
0.14403 -0.27682 0.24547
0.05894 0.06513 -0.24350
0.21047 -0.00141 0.09503
-0.12312 -0.20947 -0.11024
-0.00256 -0.02176 -0.20975
0.24190 -0.20697 0.13243
-0.20620 0.20217 -0.12527
0.05192 -0.01849 0.02730
0.13483 0.00134 0.22299
0.14389 0.01024 -0.19664
0.18443 -0.15460 0.20921
-0.13889 -0.27468 -0.17784
-0.11319 -0.10050 0.07139
-0.05593 -0.18896 0.18933
-0.16276 0.09769 0.11639
0.17095 -0.20761 0.21688
-0.12254 -0.19533 -0.10172
-0.07379 -0.10367 -0.14956
0.21249 -0.10142 0.20341
0.04386 -0.03977 0.21327
-0.00139 -0.20650 -0.21563
0.24298 -0.05306 0.20332
0.23929 -0.14988 -0.11897
-0.10208 0.01786 0.16297
0.14366 -0.04790 0.20332
0.22772 -0.23295 -0.04929
-0.13592 -0.06337 0.00144
0.01826 -0.06993 0.20103
0.23199 -0.10139 0.21248
0.07278 -0.01823 0.17541
-0.22551 0.19817 -0.04486
-0.24363 0.25715 0.14167
-0.19650 0.18603 -0.12880
0.05359 -0.01307 0.19664
-0.23112 0.28225 -0.14152
-0.07839 0.01712 -0.18587
-0.08114 0.05435 -0.19465
0.24141 -0.21634 0.12989
0.24932 -0.00273 -0.21689
0.27220 -0.25122 -0.23787
-0.00235 0.01170 0.01926
0.17125 0.01170 -0.05027
-0.26260 0.28422 -0.03520
-0.11369 0.19196 -0.25075
0.19209 0.04048 -0.22996
0.04625 -0.07884 -0.20706
-0.07205 0.02761 0.19306
0.21274 -0.12843 0.20636
0.12787 -0.01849 -0.03327
0.00704 -0.14925 -0.20737
-0.19056 0.15043 -0.10244
0.03920 0.08332 -0.23517
0.13769 -0.06671 -0.20994
0.03119 0.00804 -0.21884
-0.08323 -0.01823 0.05228
-0.04905 -0.09275 -0.17346
0.25078 -0.25876 -0.16265
-0.28434 0.28680 -0.02199
0.11265 -0.08949 -0.20549
-0.02860 -0.01849 -0.08478
0.24861 -0.16137 0.16451
0.23956 -0.15678 -0.22193
-0.16998 -0.24935 0.00683
-0.24952 0.28355 -0.08726
0.23758 -0.17780 -0.10971
-0.12441 -0.19597 0.09624
0.00160 0.01170 -0.03280
0.03873 0.01170 0.07751
0.12427 -0.01849 -0.12258
0.21047 -0.01449 0.18139
-0.07056 0.01170 -0.08524
0.10237 -0.01823 -0.17391
0.13763 -0.20142 0.21665
0.22281 -0.03475 -0.01201
-0.05565 0.01170 0.10735
-0.01100 0.08367 -0.25124
-0.21757 0.19957 0.08394
-0.16256 0.08072 0.09580
0.13773 -0.05869 -0.00000
-0.02955 -0.29673 -0.26947
-0.02713 -0.01849 0.05432
-0.12495 -0.11631 0.02508
-0.17590 -0.28248 -0.09946
-0.23006 0.19840 0.00080
-0.10335 0.08923 -0.18992
0.08998 -0.01849 0.04912
0.21520 -0.02726 -0.20332
-0.09847 -0.23537 0.18465
-0.07766 0.16448 -0.25345
0.06608 -0.10380 -0.20367
0.10296 -0.01823 -0.15917
0.07581 -0.29678 0.25730
-0.02978 -0.12534 -0.19023
0.11288 0.08239 -0.23145
-0.13269 -0.15471 0.02110
0.21047 -0.00316 0.02303
-0.12612 -0.06078 0.07042
0.09695 0.03366 0.22683
0.07873 -0.28081 -0.25396
0.00723 0.01170 -0.08506
-0.11156 -0.13471 -0.09804
0.03401 -0.08856 -0.20528
0.20557 0.05093 -0.22998
0.02730 -0.02940 -0.21308
-0.25897 0.29792 0.03970
-0.13388 0.20301 0.23931
-0.01695 -0.01823 -0.08377
0.27095 -0.20849 -0.21603
0.14792 -0.08722 -0.20593
0.21840 0.05393 -0.22855
0.06205 -0.01849 0.17726
0.12948 0.01170 -0.08198
0.05817 0.01170 0.13813
0.07717 -0.01849 0.15597
-0.16551 0.23336 -0.23581
0.09087 0.05900 0.23103
0.19176 -0.01849 -0.01965
0.18773 -0.02511 -0.00000
-0.00469 0.01170 0.17773
0.01443 -0.27033 0.25154
0.15715 0.03247 -0.22931
0.06842 -0.01823 -0.10518
-0.25667 0.26271 0.00336
0.23765 -0.21155 0.11007
0.13680 0.04980 -0.23172
0.07252 -0.05448 -0.21124
0.11345 -0.01849 -0.17514
-0.06786 -0.06011 -0.15465
-0.12144 -0.09647 -0.04268
0.05310 -0.01823 0.10394
0.17658 -0.10714 0.20404
-0.14950 -0.23727 0.08929
-0.02665 -0.03387 -0.00000
0.26119 -0.13596 0.19504
0.14438 -0.01849 -0.07746
0.26327 -0.18930 0.19475
-0.06254 0.13402 0.26058
-0.22680 0.21401 0.07477
-0.07033 0.01060 -0.18993
-0.03384 0.00217 -0.18249
-0.13992 -0.18600 -0.00852
0.17185 -0.03729 0.20332
-0.23197 0.21175 0.03704
0.06471 -0.01823 -0.16278
0.15076 0.01170 0.10052
-0.22986 0.27288 -0.13500
-0.00286 -0.15967 0.20743
-0.24663 0.25799 -0.07198
-0.15191 -0.23441 -0.07277
-0.04566 0.12534 0.26071
0.02667 -0.01512 0.21506
0.11069 -0.02828 -0.00000
0.20479 -0.06715 -0.00000
0.11323 -0.05392 0.21206
-0.05146 -0.03997 -0.00000
0.22360 -0.01823 -0.14136
0.00790 -0.06937 -0.20412
0.20461 0.00204 0.19664
0.15305 0.01170 -0.13485
0.03045 -0.01849 -0.08604
0.19644 -0.01962 -0.20332
0.01228 -0.07125 -0.00000
0.08377 0.08941 0.22615
-0.21574 0.17825 0.05943
0.21971 -0.08229 -0.00000
0.23845 -0.23237 0.11443
0.10021 -0.06930 -0.00000
0.09827 0.06676 -0.24720
0.06203 0.09311 -0.23654
-0.00166 0.08970 0.23643
-0.05388 -0.05926 -0.16863
-0.03862 -0.28254 -0.26175
0.02990 0.07578 0.24151
0.20719 -0.01823 -0.14988
0.23509 -0.02259 0.09574
0.14346 0.03806 -0.22997
-0.16329 0.03285 -0.02658
0.02189 -0.01849 -0.11736
-0.06650 0.00325 0.15742
0.00077 0.00981 0.19401
0.23206 0.05277 0.21407
0.18803 -0.06119 -0.00000
0.15803 -0.01823 0.11601
-0.04482 0.01170 -0.13769
-0.21174 0.23474 0.14255
-0.09196 -0.08004 -0.00000
0.24707 -0.09029 -0.20525
-0.15421 -0.25814 0.12120
0.16845 -0.17828 0.21239
-0.27217 0.29727 0.05238
0.08982 0.01170 0.17777
-0.17078 0.23196 0.21466
0.19073 0.01170 0.00854
0.25099 -0.19978 -0.23082
0.13242 -0.01955 -0.00000
-0.09746 0.01170 0.00133
0.23694 -0.01423 -0.22938
-0.07707 0.01170 0.08073
-0.16487 0.23253 0.23703
-0.01736 -0.01849 -0.10890
0.08582 -0.01823 0.04547
-0.23784 0.22190 0.02037
-0.15153 -0.25583 0.12448
-0.11770 -0.06374 0.05720
0.23021 0.03579 -0.22454
-0.11805 -0.28133 0.21522
-0.06011 -0.01823 -0.03600
-0.16258 0.17594 0.18246
-0.12890 -0.15552 -0.05654
0.09706 -0.17597 -0.21358
0.09966 -0.03358 -0.00000
-0.08796 -0.01849 0.12633
0.20586 0.01104 -0.02140
0.13220 -0.01823 -0.10593
0.21047 0.00117 -0.11766
0.16883 -0.05327 -0.00000
-0.05849 -0.05624 -0.00000
0.08827 0.06653 -0.24648
-0.25010 0.28334 0.04680
-0.18001 0.10577 -0.07551
-0.10851 -0.16346 -0.11698
0.20264 -0.05070 -0.20332
0.02212 0.08942 -0.26107
-0.12389 -0.01094 0.00285
0.26290 -0.26391 0.24364
0.01511 -0.01849 -0.12963
-0.16287 -0.28834 -0.15247
0.10439 -0.15612 -0.21035
-0.13157 -0.20454 -0.07901
-0.07758 -0.25560 0.22688
0.23302 -0.21347 0.08359
-0.03536 0.10562 -0.27228
0.26524 -0.22884 -0.20298
0.24798 -0.10280 -0.20414
0.21434 0.06892 0.21739
0.21130 -0.08188 0.20697
0.04229 -0.07984 -0.00000
-0.11530 -0.27273 -0.20833
-0.08985 0.00997 -0.12722
0.08783 -0.09998 0.20332
0.03897 -0.05705 0.21030
0.15564 -0.01849 -0.08621
0.22367 -0.10968 0.01906
-0.01931 -0.01823 0.15399
0.00340 0.01170 -0.07020
0.02087 -0.01823 0.18546
0.25952 -0.28232 0.23217
-0.10464 -0.13003 0.11094
0.21793 -0.05063 0.20332
0.09492 0.01170 0.05348
-0.04566 -0.12899 -0.18241
-0.12162 -0.04013 0.02826
-0.05431 -0.23287 0.21603
0.13891 -0.01849 -0.15774
0.09409 -0.01823 -0.08368
0.23473 -0.02218 -0.09370
-0.02301 -0.01849 0.16739
0.07031 0.07694 -0.25215
0.07109 0.09045 0.24177
0.09331 0.06318 -0.24250
0.17115 0.01304 -0.22552
0.08803 -0.12614 -0.20611
0.27072 -0.27136 -0.20527
0.25041 0.02321 0.20925
0.15505 -0.08795 -0.20332
0.03829 -0.22969 -0.23058
-0.13125 -0.02587 -0.08893
0.24920 0.00760 -0.20908
0.00060 -0.01849 0.07563
0.25465 -0.16849 -0.21072
0.18744 -0.09482 0.20444
0.00998 0.10667 0.25414
0.26141 -0.06159 -0.21175
0.08716 -0.24192 -0.23578
0.13456 -0.22180 -0.22455
0.01023 -0.06627 -0.19965
0.20303 -0.27855 -0.23880
-0.10182 -0.11001 0.10819
-0.11678 -0.19031 -0.11303
-0.15977 -0.23483 0.01397
-0.15534 -0.22849 0.01714
-0.02521 0.01170 -0.04303
-0.08153 -0.01849 -0.12733
0.22234 -0.03363 0.00796
0.07565 0.01170 0.13939
0.23203 -0.06812 -0.21694
0.17399 -0.01849 0.03846
-0.09451 -0.00525 -0.11863
0.08772 -0.22474 -0.22707
0.08244 0.09032 0.23060
0.16585 0.01170 0.18028
0.24138 -0.01823 0.17129
-0.16408 -0.24642 -0.03739
0.24694 -0.12269 0.15679
0.25924 0.00004 0.20979
-0.11047 -0.01823 -0.02582
0.24442 -0.15308 0.14487
0.15672 -0.03649 -0.00000
-0.15375 0.09287 0.12748
-0.08343 -0.27619 0.24328
-0.07746 0.05071 -0.19571
0.12878 -0.01823 0.02446
-0.07148 0.01170 0.15095
-0.06537 0.14346 0.25516
0.19882 -0.01849 -0.15372
0.11256 0.01170 -0.05233
0.17710 -0.01823 -0.14117
-0.14228 -0.00916 0.07111
-0.06101 -0.04341 0.16150
0.16156 -0.22249 0.22432
0.08330 -0.22903 0.22935
0.00831 -0.13911 0.20586
-0.15444 -0.23316 -0.05397
-0.09256 -0.07373 -0.00000
0.13706 -0.01823 -0.01559
-0.12979 -0.19876 0.08101
0.11325 -0.07102 0.20902
-0.10600 -0.27672 -0.22504
-0.12206 -0.10793 0.03777
0.18954 -0.25198 0.23470
-0.13639 0.07366 -0.14277
0.07935 -0.02069 0.20332
-0.06406 0.16266 0.25841
0.06473 0.01170 0.00566
-0.07765 0.14340 -0.27396
0.21047 -0.00669 -0.04026
0.24203 -0.15441 -0.13312
-0.05248 -0.05888 0.17003
-0.01607 -0.01849 -0.01885
-0.13510 -0.02176 -0.08112
-0.27761 0.29581 0.03591
0.03492 -0.01823 0.03621
0.26935 -0.19527 -0.21696
0.23077 -0.06970 -0.06966
-0.27696 0.27485 -0.06813
0.22608 -0.05391 0.20332
0.21802 0.00422 -0.22167
-0.00224 -0.06156 0.19751
-0.13245 0.10543 -0.17309
0.16690 -0.01849 -0.18013
0.06510 -0.12963 -0.20710
0.07605 0.01170 -0.15677
0.18888 0.07455 -0.25096
-0.14937 0.11388 0.15077
0.09118 0.01170 -0.08779
-0.12799 -0.23672 -0.14151
-0.05130 -0.02399 -0.00000
0.03352 0.09125 0.23924
-0.06948 0.09779 0.21832
0.05579 -0.01823 -0.19317
0.02101 -0.01823 0.12305
0.17925 -0.06902 -0.00000
0.09975 -0.11977 -0.20541
0.10720 -0.01823 0.11491
0.02530 -0.08384 -0.20223
-0.10919 -0.01823 -0.02052
-0.08094 0.14694 -0.24466
0.16332 0.01170 -0.13158
0.22245 -0.17893 -0.00892
0.14247 0.01170 0.14575
-0.00983 0.01170 0.07011
-0.06538 -0.01849 -0.07134
0.25274 -0.05869 0.19215
0.12376 0.01170 0.05376
-0.06893 0.00405 0.18911
-0.27325 0.28052 -0.03471
-0.12828 0.07714 -0.15795
-0.05344 -0.07083 -0.00000
-0.03846 -0.08651 -0.18037
0.04886 -0.01823 0.13237
-0.16153 -0.25335 -0.08256
0.10882 -0.01849 -0.12118
0.25990 -0.29806 -0.23570
-0.19103 0.10859 -0.01508
-0.12285 -0.10558 -0.02554
0.00332 0.01170 -0.14666
0.23261 -0.02337 0.08107
-0.01408 0.03279 0.21635
-0.03771 0.04891 0.21496
0.10146 -0.20462 -0.21793
0.14677 -0.01849 -0.10991
0.24785 -0.21919 -0.16107
0.05631 -0.29319 0.25894
-0.08988 0.01170 0.11577
0.11864 -0.09530 -0.20435
-0.10966 -0.13150 0.10198
0.24722 -0.04428 0.20332
0.23509 -0.04187 -0.09575
0.23958 -0.18316 -0.22240
0.04470 -0.15305 -0.21117
0.23137 -0.02824 0.22117
-0.07954 -0.24053 0.21000
0.07002 -0.01823 -0.05988
-0.22379 0.19173 -0.03466
-0.14777 -0.00316 0.05983
-0.07612 0.01170 -0.09791
-0.20283 0.16330 -0.08136
-0.08939 0.01170 0.07163
0.23858 -0.17467 -0.11515
0.25132 -0.06140 -0.19344
-0.02864 -0.01823 0.14703
0.23611 -0.03829 -0.21361
-0.19393 0.16908 0.11936
0.20658 0.07342 0.24392
0.26831 -0.27705 -0.22992
-0.08535 -0.19204 0.16173
0.00390 -0.27215 0.25136
-0.21550 0.19752 -0.08759
-0.11235 -0.08033 -0.00000
-0.17700 0.11674 -0.09900
0.23141 0.04767 -0.20856
0.11558 0.06160 -0.24046
0.13081 -0.07325 -0.20332
0.23992 -0.18226 -0.12220
-0.02335 -0.08438 0.19236
-0.11456 -0.04432 -0.06706
-0.03070 -0.01849 0.06283
-0.13202 0.12948 0.19024
-0.04674 0.13621 0.27330
0.13426 0.01170 0.12512
-0.12120 -0.08550 -0.03242
0.23180 -0.05653 -0.21812
-0.01284 0.01691 -0.21408
0.21047 -0.01619 -0.06534
0.25132 -0.05561 -0.19549
-0.07186 -0.09372 0.15309
-0.25772 0.27150 0.03042
0.01097 0.01170 -0.10288
-0.10647 0.01493 0.15770
-0.16598 -0.28382 0.13969
0.26094 -0.17017 -0.19232
-0.08728 0.00317 0.13196
0.04072 -0.01849 0.07729
0.08758 -0.01823 -0.15291
-0.18125 0.09486 -0.05373
-0.11822 0.01170 0.00130
-0.24764 0.26322 -0.07618
0.13216 -0.01849 0.14719
0.25021 -0.03675 -0.17167
-0.14403 -0.21590 0.05415
0.04740 -0.01849 0.19014
-0.24510 0.27745 -0.14614
-0.14657 -0.29173 -0.18889
0.26559 -0.14906 -0.21132
-0.06668 -0.01849 -0.09749
0.26498 -0.24657 0.19680
0.06457 -0.00140 -0.22036
0.24046 -0.11231 0.12502
-0.03703 0.01170 0.04848
-0.04520 0.03811 -0.20958
0.22102 -0.01823 -0.09698
-0.24003 0.22226 -0.00084
0.04807 -0.13585 0.20843
-0.26919 0.27224 -0.09316
0.22350 -0.12413 0.01768
-0.16869 0.05578 0.04305
-0.18173 -0.28269 0.07419
0.21354 -0.15659 -0.20943
0.23494 -0.20612 -0.09491
0.04789 0.08107 0.23233
-0.06559 0.15421 -0.27371
0.12719 -0.06512 0.21025
0.26416 -0.12813 -0.20592
0.06535 -0.01849 -0.18059
0.18361 -0.01849 -0.13261
-0.06168 -0.17764 -0.18160
0.11105 -0.01849 -0.10789
0.21172 -0.04723 0.21374
-0.13753 0.03147 -0.11816
0.27119 -0.29416 -0.25011
-0.08056 -0.14699 -0.15443
0.02482 -0.03144 0.20215
-0.05191 -0.01849 -0.11230
0.03709 -0.01823 -0.01235
0.11797 0.00138 0.22215
0.07056 -0.01849 -0.07878
-0.03056 -0.11819 0.18831
-0.05435 -0.06932 0.16816
-0.08951 -0.01823 0.01044
-0.04010 -0.01849 -0.01535
-0.03011 0.08722 -0.22794
-0.14061 -0.03122 0.05328
-0.11347 -0.25162 -0.18516
0.12654 -0.05606 -0.00000
-0.08881 -0.04197 0.12669
0.09602 -0.09687 -0.20396
0.16461 0.01170 0.05028
0.03210 -0.04695 -0.00000
-0.07895 -0.01062 -0.17547
-0.18357 -0.28662 0.07695
0.22496 -0.13840 0.02927
0.16279 -0.06050 -0.00000
0.17523 -0.10201 0.20348
0.04647 -0.01823 -0.01443
0.18754 -0.09569 -0.00000
0.24715 -0.04845 0.15776
0.13386 -0.01823 -0.11744
0.27401 -0.22892 -0.21356
0.01957 -0.18908 -0.21628
-0.09738 -0.01849 -0.11124
0.24803 -0.18234 -0.16191
0.12812 -0.15813 0.21014
-0.02484 -0.00754 0.18776
0.11468 0.09018 0.23666
0.06635 0.01170 0.18460
0.06889 0.07455 -0.23219
0.07137 -0.01849 0.06488
-0.07231 -0.12083 0.15566
0.02419 -0.01823 0.05407
0.10193 0.01170 -0.17486
0.22782 -0.03686 -0.05003
-0.07840 0.01170 0.10054
-0.06211 -0.08365 0.16040
-0.11392 -0.00994 0.06966
0.23243 -0.09345 -0.20471
-0.05665 -0.01823 0.01650
0.01861 -0.01823 0.10748
0.23777 0.04905 0.21659
-0.22094 0.27522 -0.13371
0.25616 -0.05462 0.19498
-0.01087 -0.09207 0.19727
0.25754 -0.20871 -0.18583
0.03305 -0.17981 -0.21557
0.26139 -0.01578 0.21787
0.11445 0.01170 -0.02306
-0.02663 -0.28262 -0.26020
-0.04193 -0.11458 0.18143
-0.17308 0.20600 0.19010
-0.13588 0.00579 0.10515
-0.07424 0.17247 0.26235
-0.24607 0.29054 -0.07987
-0.15130 0.15573 -0.18400
0.03640 -0.03113 -0.21375
0.00127 -0.01849 0.04630
-0.17517 0.09062 0.07042
0.14905 -0.01849 0.10475
0.10629 -0.01849 0.08887
0.21520 -0.07995 -0.00000
0.10735 -0.01849 -0.17443
-0.08468 -0.09698 0.13573
-0.04510 0.01170 0.06956
0.16382 -0.02258 -0.00000
-0.19286 0.13636 0.07644
0.05965 0.06527 0.24391
0.01986 -0.01849 0.11693
0.15643 0.01170 -0.18212
0.22744 -0.12362 -0.04740
-0.17224 0.13528 -0.12967
0.10985 -0.25590 -0.24238
0.03376 -0.01823 0.08368
0.00006 -0.01548 0.21118
0.22029 0.06063 -0.24278
-0.05776 -0.21466 0.19786
0.21455 -0.00039 0.22152
0.02038 0.01170 -0.18763
0.24385 -0.03615 -0.22887
-0.17291 -0.25267 0.00100
-0.12120 -0.09133 0.03238
-0.15464 -0.26599 -0.13469
-0.12262 0.17021 0.22745
0.26456 -0.13798 0.20195
-0.18867 0.12251 0.07108
0.07539 0.07255 -0.23448
0.00917 -0.01823 0.03124
0.15249 -0.11088 0.20444
0.25924 -0.05213 0.19868
0.14074 -0.01849 0.00339
0.07171 -0.03857 0.20332
0.05624 0.09394 -0.24037
0.08394 -0.01823 0.09572
0.22515 -0.22963 -0.03067
0.07368 0.01170 -0.01342
0.04866 -0.01823 0.15882
0.22839 -0.26141 0.23166
-0.26456 0.28054 -0.10816
0.27023 -0.21294 -0.20739
-0.06402 -0.04575 -0.00000
0.07428 -0.19983 0.21777
0.22800 -0.07477 0.05126
-0.00627 0.01170 -0.15919
-0.03450 0.01170 0.08483
0.11848 0.01170 -0.07408
0.07862 -0.06285 -0.00000
0.19189 -0.20600 -0.21618
0.22352 -0.15201 -0.01787
0.01594 -0.28712 0.25998
0.12706 0.02466 -0.22675
0.14769 0.04801 -0.23196
0.20384 0.02858 0.22680
-0.08943 0.01170 0.05733
-0.14188 -0.20535 -0.02580
-0.06237 -0.09088 -0.00000
-0.22117 0.27421 0.16218
-0.00051 -0.01823 -0.14419
0.24321 -0.18945 -0.13892
0.08935 0.01170 0.05703
0.16856 -0.16167 -0.20998
-0.12715 -0.03267 -0.09488
-0.10158 0.18173 -0.25875
-0.02851 0.01519 0.21121
0.24100 -0.23581 -0.12778
0.25132 -0.07213 0.19425
0.23555 -0.17148 0.21576
0.09927 -0.05502 -0.00000
0.17960 -0.01849 0.17972
-0.02633 0.01170 -0.16932
0.22513 -0.03178 -0.20332
0.18105 -0.01823 -0.12507
-0.02496 -0.06902 -0.18766
-0.04975 -0.08819 -0.00000
0.03001 0.09169 0.25833
-0.11153 0.15441 -0.22707
-0.06394 0.01170 -0.12854
0.03042 -0.28873 -0.26050
0.22552 -0.01823 -0.16262
-0.01524 0.01170 0.12047
0.13088 -0.02336 -0.20332
0.20186 -0.05926 -0.20332
-0.15594 -0.22789 -0.00987
-0.12903 -0.12926 0.00912
0.12132 0.01170 -0.02386
-0.01800 -0.01849 0.02926
0.23230 -0.05036 -0.07921
0.22459 -0.04628 -0.21393
-0.05923 -0.01823 0.09158
0.07209 -0.23376 0.23196
0.20558 -0.01849 0.00099
0.07892 -0.23367 -0.23178
-0.12270 0.12349 -0.19507
0.08064 0.09030 0.23646
-0.09273 -0.14543 -0.13700
0.27899 -0.26125 0.21783
-0.16488 0.18910 -0.18944
0.23490 -0.21206 -0.09465
0.04972 -0.25139 -0.24130
-0.11690 0.00533 -0.05947
0.21560 -0.03634 -0.00000
-0.05567 -0.01823 0.08013
0.24330 -0.17897 -0.13934
-0.21354 0.21589 -0.12275
-0.04728 0.13402 0.24787
0.22664 -0.11396 -0.04168
0.23265 -0.12839 -0.08133
-0.12212 -0.01911 0.02329
0.07007 -0.01849 -0.08478
0.05165 0.01170 0.07696
0.11094 0.05737 -0.23176
-0.08903 -0.10463 -0.12786
-0.23486 0.25194 0.10359
0.12003 -0.24100 -0.23465
0.18705 0.01170 -0.05771
-0.26659 0.28247 -0.06607
-0.09097 -0.01823 0.04082
0.23539 -0.01823 0.12370
-0.18376 0.25265 0.20190
-0.22134 0.21587 -0.09539
-0.13616 -0.27459 0.18239
0.00002 -0.01823 -0.15973
-0.06220 -0.28558 0.25989
-0.09559 0.00283 -0.11665
-0.19415 0.16237 0.10825
0.22599 -0.11834 0.03688
0.23148 -0.25005 0.07423
-0.19643 0.12849 0.04293
-0.05132 -0.15766 0.18531
-0.12219 -0.05409 -0.02264
0.15851 -0.01823 0.13721
-0.10003 0.15666 0.23943
0.08494 -0.01823 0.19615
0.15708 -0.01823 -0.09725
-0.10895 -0.28502 -0.23129
-0.02370 0.01170 0.11989
0.03981 -0.06374 0.20332
-0.01508 -0.19203 -0.21082
0.27275 -0.21931 0.21914
-0.01753 0.01170 -0.09591
0.24841 -0.05277 -0.16363
-0.16722 0.09617 -0.10183
0.08542 -0.01849 0.02286
0.09562 -0.08691 0.20567
-0.00096 -0.01823 -0.01655
0.24337 -0.20741 0.21719
-0.09322 -0.28238 -0.24514
0.22396 -0.11638 -0.02131
-0.09571 -0.22346 0.17347
0.24899 -0.03843 0.16623
-0.18999 0.11089 -0.03429
0.03437 -0.01849 -0.05998
-0.23836 0.23680 -0.06943
0.11194 -0.01849 -0.05367
0.24209 -0.01823 0.15596
-0.16119 0.06264 0.08257
0.00858 0.01170 0.19049
0.19502 0.07584 0.22489
0.19576 -0.03672 0.20332
0.08059 -0.07399 -0.20789
0.05090 -0.17479 0.21440
0.23450 0.01891 0.22162
-0.01859 -0.01849 0.08821
0.25234 0.02560 -0.22348
-0.16245 0.17039 0.17820
0.23821 -0.07815 -0.11314
-0.10501 -0.01823 0.04901
0.04462 -0.23414 0.23270
-0.21863 0.27534 0.15560
-0.10997 -0.26768 -0.20903
-0.19192 -0.29429 -0.05340
0.24681 -0.09454 -0.15618
0.25505 -0.28473 -0.24080
0.07384 0.01170 0.12688
-0.02108 0.01170 0.09850
0.10931 -0.01849 -0.08069
0.13479 -0.06412 0.21044
0.16822 0.06679 0.25059
-0.12368 -0.05570 -0.00000
-0.20908 0.15107 0.01226
0.25223 0.00664 -0.20282
-0.21918 0.26709 -0.13051
0.07552 -0.01823 -0.13517
-0.20306 0.13525 0.00657
-0.06501 0.05816 -0.20396
0.06164 -0.01849 0.08416
-0.03987 0.00611 0.20488
0.13836 -0.07777 -0.00000
-0.08082 -0.06880 -0.15298
0.06279 -0.01823 -0.11453
0.01684 -0.01849 -0.10065
0.00646 -0.01823 0.01868
0.24758 -0.17198 0.21110
-0.11881 -0.08923 -0.06502
-0.14383 -0.02551 -0.03950
0.21868 -0.03827 -0.20332
0.19634 -0.13212 0.20676
0.22982 -0.15006 0.06349
-0.26916 0.27241 0.09361
-0.02222 -0.01805 -0.20706
-0.25233 0.27800 0.08252
0.08969 -0.15521 -0.21053
0.13805 -0.24075 -0.23413
-0.12188 -0.00585 -0.02437
0.12941 -0.02924 -0.21726
-0.15895 0.01675 0.02039
0.05749 -0.01849 0.13857
0.19641 -0.11367 0.20475
-0.00233 -0.21946 -0.22172
0.23935 -0.23763 0.11927
0.19771 -0.19768 -0.21476
-0.01804 0.10194 0.27021
-0.11008 0.19159 -0.25362
-0.11317 -0.04849 -0.07143
-0.17290 0.12258 -0.11886
-0.14337 0.19427 -0.25449
0.11367 -0.01823 0.07767
0.17112 -0.14688 -0.20837
0.21047 -0.01837 -0.14638
-0.00525 -0.08969 0.19700
0.13429 -0.01823 -0.17813
-0.01087 -0.03720 0.20595
0.19437 0.01170 0.10635
-0.18977 0.10684 0.02019
-0.08617 0.13038 -0.23105
-0.10361 -0.08451 0.10151
0.03349 -0.23020 0.23093
-0.12502 0.02446 -0.13501
0.26699 -0.16830 0.20493
0.00200 -0.05444 -0.20544
-0.21827 0.21003 -0.09717
-0.10893 0.10504 0.19553
-0.12982 -0.17242 0.06431
0.14960 -0.18546 0.21391
0.23899 -0.04626 0.11737
0.06700 -0.23806 -0.23423
0.08761 -0.01823 -0.08986
0.01683 0.10241 -0.23494
-0.05108 0.07282 0.21469
0.09888 -0.15441 0.21020
0.02231 -0.01849 0.08975
0.10064 -0.01849 0.10775
-0.14745 0.22923 -0.23330
0.24555 -0.09685 0.15028
0.26528 -0.21855 -0.20097
0.00569 -0.03121 -0.00000
0.04550 0.01170 0.17671
-0.02808 0.01170 0.17408
-0.20779 0.22647 0.14237
0.00668 -0.23086 -0.22945
0.17354 -0.07243 0.20332
0.09185 -0.01823 0.19529
-0.15094 0.12547 0.15828
-0.04177 -0.09865 -0.00000
-0.23334 0.22567 -0.07011
-0.11933 -0.15362 -0.08552
-0.12825 -0.07208 -0.05021
0.04075 0.01170 -0.09182
0.00723 -0.08828 -0.00000
0.10816 -0.13768 0.20741
-0.08982 -0.01823 0.02926
0.16579 0.02500 0.22785
0.17341 -0.08979 0.20332
-0.11823 -0.16165 0.09403
0.08367 -0.01823 -0.10880
0.14207 -0.06218 0.21082
0.19042 0.05711 0.24322
0.09230 0.01170 -0.08204
-0.04671 0.11845 -0.25072
-0.05901 -0.09441 0.16568
0.23692 -0.09445 0.20452
0.08995 -0.01823 0.00230
0.22325 -0.27175 0.23476
0.14835 -0.09124 -0.00000
-0.13898 -0.24150 0.12797
0.02032 0.01170 -0.17342
0.04477 0.01170 0.05229
-0.04583 0.14233 -0.26552
-0.05505 0.12031 -0.27450
-0.00041 0.06565 -0.22376
-0.10975 -0.04190 0.08219
0.24165 -0.12421 -0.13116
-0.10719 -0.07817 -0.10808
-0.09365 0.00781 -0.16758
0.06494 0.07606 0.23201
-0.08320 0.01170 -0.04569
-0.12313 -0.05694 -0.01333
-0.11834 -0.11332 -0.06324
0.10340 -0.01823 0.00026
0.20841 -0.28658 -0.23966
0.03281 -0.15007 -0.21096
0.23408 -0.01201 0.22766
-0.04020 -0.04660 -0.17943
-0.25367 0.29377 -0.09210
0.25129 -0.24242 -0.22398
-0.03223 -0.26927 -0.25254
0.01902 -0.15497 0.21039
-0.05109 -0.09707 0.17265
-0.23300 0.21152 -0.02539
0.13297 -0.09005 -0.20332
-0.14374 0.06848 0.12795
0.12211 -0.06735 0.20332
-0.09292 -0.11820 -0.12638
-0.17137 0.05172 0.00525
-0.01803 0.09804 -0.25317
0.08243 -0.10807 -0.20414
-0.02381 0.01170 -0.00226
-0.13116 -0.01412 -0.10044
-0.16144 -0.24498 0.05502
-0.26381 0.28274 -0.07199
0.11153 -0.25268 0.24072
0.24733 -0.15481 0.15864
-0.03441 -0.01849 0.17006
0.22993 -0.01403 -0.22105
0.23269 -0.07938 0.08156
0.15814 -0.01823 -0.19282
-0.15571 0.21411 -0.22409
0.06019 -0.01849 0.16687
0.22742 -0.11541 0.04722
-0.01066 -0.01849 -0.14869
0.17294 -0.01849 0.09022
0.22448 -0.03276 0.02545
0.07591 -0.10117 -0.20339
0.06873 0.01170 -0.03320
-0.08827 -0.29533 0.25874
0.23209 -0.08691 0.21453
0.16001 0.01167 0.19664
-0.12878 -0.08552 -0.00380
0.22720 -0.02244 0.21690
0.15605 -0.01823 -0.07562
0.16022 -0.01849 0.10299
0.00405 0.08306 -0.22999
0.09998 -0.03284 -0.20332
0.12133 0.07866 -0.25202
-0.21397 0.25826 -0.16203
-0.12979 -0.23223 0.13169
0.01984 -0.01686 -0.19664
-0.09906 -0.06588 -0.10930
0.15107 -0.05326 -0.00000
0.24120 -0.07143 0.12883
-0.08178 -0.01849 0.00680
0.07562 -0.01823 0.05526
-0.06118 -0.01849 -0.15228
-0.03490 -0.01849 0.10576
-0.18613 0.09485 0.00703
-0.05445 -0.21574 -0.20061
0.23592 -0.19510 0.10053
-0.12794 -0.12566 0.01320
0.06515 -0.01671 -0.21773
-0.27546 0.29985 -0.01279
0.01406 -0.01823 -0.15432
0.10449 0.07921 -0.23554
0.17099 -0.01849 -0.00150
0.28150 -0.27824 0.22027
0.02054 -0.07971 -0.20467
0.08161 -0.00980 0.21892
0.02661 -0.01849 -0.06523
0.15935 0.08746 0.24713
-0.14356 0.06383 0.12573
-0.15716 -0.25510 -0.10508
0.23977 -0.08508 0.12143
-0.01996 -0.17025 0.20490
-0.00277 -0.01823 0.12643
0.25406 -0.23347 0.23636
-0.03245 -0.22512 0.22093
0.24934 -0.21901 -0.16778
0.16204 -0.28478 -0.24482
0.13242 -0.19310 0.21547
0.07996 -0.04361 -0.00000
0.03811 -0.08062 0.20332
-0.04533 -0.27655 0.25888
0.22651 -0.06199 0.04073
0.08356 0.01170 -0.15984
0.11954 -0.01823 -0.06326
-0.01837 -0.06210 0.20032
0.22506 -0.22792 0.03007
0.21192 -0.01823 -0.18822
-0.06072 -0.00046 0.19232
-0.08193 -0.01849 0.13565
0.05439 0.01170 -0.01921
-0.18466 0.22493 0.18705
0.21047 0.00269 0.05781
-0.23279 0.28244 -0.11102
0.14695 -0.01364 -0.22030
0.12719 -0.01849 0.12292
0.08571 -0.04843 -0.00000
-0.22818 0.19571 0.00807
0.05517 0.09231 -0.22813
0.23708 -0.24419 -0.22650
-0.26870 0.29886 0.04799
0.01157 -0.28925 0.26114
-0.16454 0.03597 0.02388
0.24088 -0.03877 0.22776
0.17967 0.08774 0.24131
-0.09248 -0.08511 -0.00000
0.22570 -0.17009 0.03477
-0.11295 -0.02063 -0.00000
0.24368 -0.06436 -0.22511
-0.12361 -0.24779 -0.16498
-0.08474 -0.22902 0.19110
0.20709 -0.01823 -0.06065
-0.18184 0.12842 -0.09954
0.02755 0.09372 -0.23556
-0.08916 0.16107 -0.27557
0.08560 0.01170 0.10775
0.21726 0.02966 0.22559
-0.24511 0.24955 -0.06555
-0.20460 0.22017 0.14262
0.19489 0.01170 -0.19459
0.00274 -0.01067 -0.19438
-0.06599 0.01170 0.03664
-0.13293 -0.00448 0.10427
-0.21873 0.25731 0.18762
0.00248 -0.01849 -0.18270
0.16136 -0.22468 -0.22544
0.26741 -0.18073 0.21791
-0.23371 0.22004 0.05517
-0.07774 -0.09374 -0.14721
-0.15843 0.12466 0.14418
-0.16185 -0.25794 0.09385
0.06056 -0.05152 -0.00000
-0.22299 0.25984 -0.14465
0.08873 -0.07927 0.20332
-0.13207 -0.20400 0.07710
-0.09367 -0.01849 0.09071
0.01896 -0.17131 -0.21316
0.15313 0.01170 -0.02402
0.07310 0.06210 -0.23875
-0.15008 -0.26672 -0.14454
0.18020 -0.01823 0.12545
0.02373 0.09391 -0.24329
0.18161 -0.01849 0.08733
0.20232 -0.08778 -0.00000
-0.01237 -0.04258 0.19445
0.15918 0.01170 0.15256
0.07455 -0.04455 0.21295
0.21255 -0.01823 0.15424
0.14721 -0.01823 -0.18294
-0.27550 0.27695 0.03957
0.23514 -0.12027 0.09601
0.24613 -0.22861 0.22166
0.17135 -0.14161 0.20779
0.00842 -0.01823 0.15694
-0.14877 0.00886 -0.06867
-0.08675 -0.28343 0.24856
-0.09095 0.00286 0.16843
-0.11188 -0.01349 -0.13618
-0.19109 0.11799 0.05236
-0.05561 -0.01823 0.09619
-0.05523 -0.01823 -0.05196
0.17535 0.01170 0.02938
-0.14385 0.20870 -0.23980
0.19748 0.01170 -0.06532
0.21905 0.02897 0.23402
0.26511 -0.28274 0.24732
-0.03994 -0.01849 0.15310
0.08512 -0.16807 -0.21262
-0.03151 -0.09240 -0.00000
0.20292 -0.14165 0.20780
0.23127 -0.05089 -0.07289
0.16032 0.01170 -0.02922
-0.12440 0.20886 -0.23186
0.02567 -0.21427 0.22305
-0.07965 -0.01823 -0.02773
0.10087 -0.26201 -0.24564
-0.09102 0.09191 0.20322
-0.03584 -0.11416 -0.18462
-0.15626 0.17973 -0.19551
-0.00201 0.01170 0.06858
0.14155 -0.27774 -0.24594
0.02836 -0.03631 0.20276
-0.01099 -0.01823 0.06666
0.21582 0.03615 0.23714
-0.04977 0.04128 0.20791
-0.07605 0.17031 0.26934
-0.13440 -0.22601 -0.11169
0.21249 -0.27215 0.23630
0.25132 -0.05563 0.18793
-0.10730 -0.02204 -0.08991
0.05632 0.08601 0.23439
-0.14418 -0.25421 -0.13709
0.16714 -0.16851 -0.21091
-0.01989 -0.21104 0.21422
0.16499 -0.01849 0.10354
0.03959 -0.01823 0.06607
-0.21270 0.27005 0.14571
-0.03249 -0.01823 0.08440
-0.15625 -0.24591 -0.08539
-0.02298 0.05164 0.21782
0.16380 -0.19967 0.21581
0.04935 -0.08228 0.20646
-0.07764 -0.04677 -0.16396
0.01180 -0.14217 -0.20698
-0.00621 -0.07811 -0.00000
0.25064 -0.02306 -0.21371
-0.10572 -0.15112 -0.11706
0.18675 -0.06816 0.20965
-0.14116 0.10951 0.16246
0.23825 0.03681 0.23843
0.18413 -0.06496 -0.20332
0.20255 -0.01849 -0.10700
0.15918 0.01170 0.16589
0.02660 -0.01823 0.11474
0.19188 0.03171 -0.22882
0.16137 0.07658 0.23811
-0.10731 0.16158 0.23594
-0.03301 0.07699 -0.22012
0.22675 0.05141 -0.22121
0.27784 -0.25415 0.21669
0.22472 -0.07527 -0.20827
-0.07894 -0.10002 -0.14344
-0.17179 0.07280 -0.06009
-0.10431 -0.12027 0.10782
-0.15567 0.21246 -0.25188
-0.24538 0.27619 -0.11715
0.25584 -0.15662 -0.22564
-0.08902 0.01170 -0.11522
-0.12010 -0.21081 0.11748
-0.22159 0.21002 -0.08551
-0.23985 0.26440 -0.10529
0.17610 0.01170 0.15005
0.06218 -0.01823 0.16215
0.11731 -0.26084 0.24472
0.14721 -0.01849 0.18772
-0.14341 0.07603 0.13254
-0.13633 -0.18864 -0.04922
0.01186 0.01170 0.08637
0.11204 -0.01849 0.02474
-0.02082 -0.01849 0.14190
0.17672 -0.25852 -0.23795
0.15900 0.08546 -0.22260
0.06908 -0.04852 -0.21227
-0.12526 0.13878 -0.20323
-0.14980 0.08833 -0.13048
-0.02864 -0.05286 0.19697
0.15484 -0.00077 -0.19664
-0.22936 0.28037 -0.14691
-0.25191 0.29341 0.06077
0.03872 -0.01849 0.01020
-0.17522 0.15783 -0.14207
-0.08873 -0.01823 -0.02547
-0.10010 -0.11822 -0.11420
0.05469 -0.01823 0.00444
-0.12057 -0.02990 -0.03862
-0.15275 -0.22354 0.01326
-0.02171 -0.01234 -0.18960
0.15497 -0.01823 0.10537
-0.07549 0.06666 -0.20051
-0.12982 0.18177 0.25762
0.17055 -0.04248 -0.21467
0.00340 -0.26247 0.24603
-0.07367 -0.06005 -0.00000
0.26013 -0.03051 0.20335
-0.01294 0.01170 -0.17191
-0.18066 -0.27366 0.04048
-0.26242 0.29844 0.06214
-0.10717 0.19183 -0.23615
0.15011 -0.01849 -0.00962
0.23850 0.03578 0.20779
0.03293 -0.26757 -0.24979
0.04809 -0.01849 -0.14431
0.19701 -0.20227 0.21549
0.17022 0.01170 -0.00452
0.20924 -0.01823 -0.07993
-0.06096 -0.01823 -0.01846
0.16970 0.01170 -0.12572
0.15882 0.03894 -0.23058
-0.04805 0.08830 0.22451
-0.08298 0.14333 -0.27049
0.03015 0.01170 0.18409
0.23062 -0.10495 -0.06869
0.17577 -0.01823 -0.19294
0.12760 -0.16554 -0.21130
0.13882 0.04120 -0.23029
-0.25254 0.28927 -0.03248
0.20030 0.01170 -0.05583
-0.13806 0.06142 0.13348
-0.18899 0.10159 -0.00665
0.04949 0.06861 0.24802
-0.04462 -0.00286 0.17616
0.07690 -0.21442 -0.22204
-0.06364 -0.29538 -0.26820
-0.21020 0.24839 0.15982
-0.24699 0.28035 0.10484
0.13174 0.01170 0.19434
-0.15749 0.22324 -0.24855
-0.11643 -0.14970 0.09218
0.19376 -0.01849 0.01833
-0.10109 0.18654 0.25525
0.25132 -0.02489 0.19715
-0.08556 -0.01823 0.09491
-0.04593 -0.21951 0.20860
0.08877 0.06153 -0.23891
0.22881 -0.15912 -0.05680
0.04233 0.07479 0.23944
0.04700 -0.01849 -0.13092
0.09258 -0.01823 0.08390
-0.12247 -0.24262 -0.15946
0.16855 -0.01849 -0.04168
-0.01051 -0.01849 0.11952
-0.20073 0.13355 -0.02206
0.05159 0.01170 -0.02968
0.18969 -0.01823 0.04895
-0.13476 -0.05462 0.03975
0.28403 -0.28680 -0.23667
0.05660 0.08644 -0.23128
-0.07960 -0.08852 0.14232
0.24527 0.03923 -0.22780
0.04152 0.01170 -0.04197
0.07116 0.01170 -0.09555
-0.13408 0.19809 0.23576
-0.12267 -0.00616 0.12224
-0.27350 0.28253 0.02238
0.02921 -0.02337 -0.00000
-0.13203 0.07209 0.14908
0.20365 -0.14919 -0.20862
-0.13069 -0.01300 0.10296
-0.09752 -0.01849 0.01317
-0.13664 -0.19217 -0.05280
-0.05298 -0.01849 -0.09457
0.00338 -0.06737 -0.19848
-0.07072 -0.22919 0.20536
0.10868 -0.01849 0.16388
-0.02138 0.10937 0.27183
0.26790 -0.17280 -0.21048
0.05515 -0.07164 -0.20332
-0.12241 -0.09474 -0.02042
-0.06807 -0.04067 0.17569
0.24026 -0.24559 -0.12397
0.17017 -0.01838 -0.20332
-0.06285 0.01170 -0.01631
-0.06785 0.12854 0.24061
-0.04754 -0.17708 -0.19140
0.26108 -0.18957 -0.19588
-0.09508 -0.05839 -0.13963
-0.02067 0.08915 0.23144
0.27173 -0.29391 0.25005
0.14651 -0.01823 0.01228
0.00503 -0.03436 0.20909
0.15549 -0.00748 0.22151
0.10287 -0.09591 -0.00000
0.02360 0.08112 0.22984
-0.04226 0.01170 -0.00559
0.22451 -0.24583 -0.02572
-0.18882 -0.28841 0.04894
-0.00732 -0.01823 -0.16542
0.10675 -0.01849 -0.06896
0.00582 -0.01849 0.07566
0.07173 -0.02207 0.20332
-0.15638 0.04216 -0.07763
0.22292 -0.07192 0.01294
0.20480 -0.02781 0.21754
-0.09825 0.15847 0.26014
0.14640 0.01170 -0.00920
0.10883 -0.07264 -0.20851
0.20635 0.07105 0.21480
0.21105 -0.13767 0.20736
0.03545 -0.01849 0.12411
0.09738 -0.25044 -0.23987
-0.13104 -0.02873 0.08683
0.00812 -0.21831 0.22289
-0.25112 0.27247 -0.07824
0.19657 -0.01849 -0.16703
0.22980 -0.09593 -0.06337
-0.00468 -0.01823 -0.10525
0.08313 -0.04754 -0.21243
0.22281 -0.09295 0.01198
0.23925 -0.24456 0.11875
-0.09698 -0.15287 -0.13260
-0.14524 0.02090 0.09115
0.14991 0.01170 -0.05451
0.26048 -0.17784 -0.19016
0.15994 0.00874 -0.22468
-0.15630 -0.29654 -0.17743
-0.10389 0.01170 0.02354
0.20707 -0.01849 0.02968
-0.03694 0.12626 0.27343
-0.13700 -0.19866 -0.05818
-0.23999 0.27210 0.11665
0.03924 -0.07457 -0.20779
-0.03791 -0.01849 0.04351
0.09418 0.01170 -0.10623
0.12380 0.01170 -0.05986
0.10818 -0.04382 -0.00000
-0.13009 -0.07667 -0.01810
0.15775 0.01170 0.01434
-0.02211 0.01170 0.18464
-0.28045 0.27840 -0.00081
0.10547 0.01170 0.10914
0.09518 -0.01849 -0.15938
-0.06275 -0.19419 -0.18499
0.11035 -0.13010 0.20654
0.07441 0.00202 -0.19664
-0.00871 -0.04900 0.20446
0.05999 -0.21857 0.22453
-0.09877 -0.01849 0.05427
0.19098 -0.01823 0.17315
-0.24712 0.25051 0.04883
0.10512 -0.00596 -0.19664
-0.21539 0.24049 0.19096
0.14627 0.01170 -0.06753
-0.04551 0.12698 0.27655
-0.05203 -0.22351 -0.20889
0.08213 0.01170 -0.15203
0.04546 0.05822 0.22747
-0.17510 0.23400 -0.21226
-0.01606 -0.03411 -0.19246
-0.18674 0.23956 -0.19554
-0.11673 -0.01849 0.01624
-0.14163 0.17355 0.21162
0.06878 -0.18745 -0.21598
0.20687 0.07859 0.23194
-0.19544 0.24859 -0.21006
0.16082 0.07969 -0.23845
-0.11480 -0.01510 -0.06665
-0.01190 -0.13395 0.20151
0.16183 -0.05312 -0.00000
-0.07614 -0.17682 0.16689
0.15448 -0.01823 0.09901
-0.11997 0.01474 -0.13806
0.13443 0.01170 -0.17325
0.02688 -0.01783 -0.21469
0.04223 -0.01849 -0.00867
0.14355 -0.02571 -0.00000
-0.13214 -0.07253 0.01058
-0.11065 0.00767 0.08083
0.22225 -0.21836 0.00721
0.20139 -0.24400 -0.23126
-0.08306 -0.19828 -0.16571
0.11005 -0.05537 0.20332
0.22519 -0.14524 -0.03103
-0.08903 0.16230 -0.25998
0.22147 -0.18460 -0.00046
0.22534 -0.09036 -0.03211
0.07263 0.06291 -0.23090
0.24388 -0.10794 -0.14218
-0.21081 0.24099 0.18557
-0.13167 0.20809 -0.23647
-0.09661 -0.07092 0.13012
-0.19492 0.23136 -0.20144
0.23588 -0.14748 0.21096
-0.01929 -0.01849 -0.18847
0.22616 -0.14626 0.03814
-0.20647 0.26093 0.15043
-0.17759 0.24006 -0.18568
0.12282 -0.01823 0.09546
-0.02550 -0.01906 -0.00000
-0.05791 -0.24804 -0.22768
-0.10802 0.18774 0.25529
0.09795 -0.01849 -0.03637
0.01932 -0.01823 0.17672
0.19386 0.00629 0.19664
-0.13648 -0.01397 0.08444
0.09603 0.02312 -0.22490
0.23037 -0.06796 0.20332
-0.10797 -0.07397 0.10911
0.23119 -0.01823 0.13978
-0.09705 -0.24420 -0.19680
0.14874 -0.01823 0.07282
0.17891 0.00433 0.19664
0.19033 -0.01823 -0.03031
0.01110 -0.01823 -0.11979
-0.02147 -0.27095 -0.25216
0.25132 -0.08897 0.18057
-0.06813 0.01170 -0.01434
-0.17926 0.24915 -0.19043
-0.11914 0.00445 0.05182
0.09307 -0.01823 0.01241
0.10343 -0.05209 0.21189
-0.11114 -0.23014 0.16070
-0.25407 0.29190 -0.02349
-0.17233 0.13692 0.13079
-0.06901 0.01170 -0.07620
0.19046 -0.01823 0.14856
-0.15412 0.11672 -0.14516
0.01419 -0.06122 -0.00000
0.01078 -0.01823 0.17575
-0.07627 -0.28131 -0.25065
-0.20294 0.17854 0.10238
-0.04450 0.01170 0.09729
-0.24681 0.25789 0.07130
-0.18471 0.24882 -0.18057
0.12258 0.09018 -0.23708
0.14642 -0.23869 0.23290
0.15640 -0.01849 0.05684
0.08939 0.01170 -0.04922
0.24480 -0.06840 0.14672
-0.02626 0.01170 0.03730
0.00155 -0.21518 0.22006
-0.09189 -0.02962 -0.15609
-0.07078 -0.08268 0.15174
0.23765 -0.10463 0.11009
-0.23251 0.28012 0.14850
-0.05226 0.10492 -0.23464
-0.12296 -0.22233 0.12927
-0.13244 -0.07053 -0.01378
0.23522 -0.14081 0.21670
-0.16833 0.05656 0.04882
-0.11275 -0.13630 0.09529
-0.13941 0.06721 0.13436
-0.08186 -0.17279 0.16006
0.16424 -0.09110 -0.20517
-0.11914 -0.02342 -0.05267
-0.15813 0.02390 0.04941
-0.14741 0.10642 0.14827
0.14956 -0.01823 -0.20229
0.07602 -0.07176 -0.00000
0.18751 0.06357 -0.24856
-0.16145 -0.23975 -0.02417
0.16773 0.01170 -0.05460
-0.03830 0.13512 -0.26439
-0.12306 -0.05958 0.01399
-0.11492 0.01290 -0.14536
-0.00985 -0.01849 0.03083
-0.04090 -0.01823 -0.02375
0.21078 -0.01823 -0.08662
-0.09739 0.00928 0.11332
0.01511 -0.21650 -0.22311
-0.12377 -0.21198 0.11283
0.24266 -0.06690 0.13618
0.11104 -0.01823 0.13153
-0.09174 0.01170 0.00357
-0.08320 0.01170 0.03852
0.16746 -0.01849 0.13134
0.04407 -0.01849 -0.11700
0.15828 0.07035 0.23647
0.23191 -0.02892 0.20332
-0.25424 0.29405 -0.03673
-0.09912 -0.05930 -0.10920
0.22051 -0.03740 -0.21566
0.08652 -0.29536 0.25577
0.09571 -0.01823 0.18904
-0.10645 -0.12521 0.10604
0.24813 -0.16833 -0.16235
-0.15965 0.13739 0.15219
0.13654 -0.08725 -0.20332
0.12941 -0.01849 0.13700
0.24514 -0.12275 -0.22256
0.07633 0.01170 0.17755
0.09695 0.05041 0.22981
-0.01843 -0.01849 -0.14973
-0.14928 0.19307 0.24437
0.22733 -0.14254 0.04665
0.16414 -0.01849 0.16034
0.09829 -0.26593 0.24766
0.18167 0.01170 0.10775
-0.23642 0.28509 0.10358
0.21431 -0.01823 0.02974
-0.07976 -0.02858 -0.00000
-0.07581 0.01170 -0.06186
0.12023 -0.15360 0.20961
0.12736 -0.14885 -0.20872
-0.05543 -0.07156 -0.16707
-0.04750 0.01170 0.04174
0.20852 -0.10763 -0.20409
-0.04081 -0.20258 -0.20036
0.04273 0.08243 0.23424
0.06287 -0.09642 -0.20332
0.26112 -0.06618 0.21229
-0.02636 0.09438 0.23575
-0.07955 -0.01849 -0.05139
-0.10220 -0.03163 0.10397
-0.05823 0.12713 -0.27574
0.23271 -0.05373 0.21202
0.01574 -0.13074 0.20572
-0.09523 -0.08128 0.12663
-0.16947 0.16713 -0.16206
-0.07951 -0.11120 0.14586
-0.01707 0.01170 -0.15634
0.08362 -0.01823 -0.06687
0.10669 -0.01823 0.18949
-0.09636 0.14993 -0.23827
0.17910 0.00529 0.22400
0.18977 0.06337 -0.23366
0.24595 -0.03270 -0.21316
0.03476 -0.13939 -0.20927
-0.05635 -0.02497 0.18880
0.27032 -0.25315 0.20694
0.00659 -0.02951 -0.21011
0.10202 -0.01849 0.11363
-0.12688 -0.16864 -0.07120
0.19914 -0.01849 0.01231
0.16453 -0.06989 -0.00000
0.16224 -0.29050 0.24587
0.14434 -0.14997 0.20870
-0.00947 -0.09771 -0.19601
-0.08383 -0.09567 -0.00000
-0.12342 0.10422 -0.18097
-0.19984 0.13806 0.04913
-0.11198 -0.12937 -0.09335
0.24627 -0.11015 0.15363
0.06895 -0.06669 0.20332
0.22261 -0.20069 -0.01024
-0.04192 -0.01849 0.17059
0.22297 0.06373 0.23785
0.14314 -0.05695 0.21184
-0.18076 0.18782 -0.15955
-0.15017 -0.00765 -0.03187
-0.17590 0.21995 0.23575
0.21697 0.05643 0.22925
-0.07886 -0.01739 0.14401
0.23365 -0.16914 -0.08740
-0.23610 0.26018 -0.16473
-0.14702 0.04909 -0.11195
-0.11017 -0.08134 -0.09997
-0.26737 0.27080 0.08499
-0.10818 0.01170 0.00444
0.09414 -0.00249 0.22025
0.22178 -0.03803 0.00316
0.10595 0.08378 -0.22279
-0.16500 -0.27478 -0.12448
-0.08050 0.06061 -0.19647
0.07805 -0.09126 -0.20492
0.25095 -0.17179 0.17498
0.24661 0.03007 -0.20957
0.10032 -0.01823 0.03624
0.17520 0.01138 -0.19664
0.24356 -0.06754 -0.14064
0.21877 -0.06210 0.21084
0.13611 -0.12711 0.20621
-0.25827 0.27862 0.05573
-0.12490 -0.11528 -0.02363
0.04335 -0.01823 0.09918
0.09914 -0.01849 -0.14805
-0.22926 0.21463 0.06811
0.12914 -0.02668 -0.00000
-0.02471 -0.01823 0.01617
0.11354 -0.21118 0.21960
-0.09826 -0.28850 -0.24828
0.01274 -0.16598 -0.21119
-0.16578 0.15482 0.15719
0.04420 -0.01823 -0.03937
-0.18193 0.09270 -0.03861
0.08367 -0.01849 -0.03654
0.22828 -0.02528 -0.05317
0.06067 -0.08431 0.20612
0.00809 -0.01823 0.18966
-0.18120 0.09352 -0.04889
-0.13258 -0.15557 -0.02379
0.05591 -0.01823 -0.12982
0.19084 -0.12187 -0.20564
0.02449 0.01170 0.15105
-0.01105 -0.19900 -0.21270
0.27996 -0.29873 -0.22870
-0.22879 0.27264 -0.11368
0.14970 -0.01823 -0.18964
-0.22910 0.20647 0.04387
-0.02242 -0.12358 -0.19383
0.25728 -0.12222 -0.21937
0.11859 -0.01823 0.00556
-0.10553 0.00404 -0.09832
0.10839 0.03041 -0.22683
0.21047 -0.00885 0.12569
0.07281 -0.01823 -0.11979
0.06162 -0.01823 0.06450
-0.19709 0.20093 0.13925
0.09939 -0.01849 0.15879
-0.25201 0.25871 -0.03385
0.15951 0.01170 0.04481
0.11833 0.06046 0.23683
-0.21507 0.16426 -0.00776
0.25910 -0.05889 -0.21818
0.23335 -0.01823 -0.14939
0.17859 -0.25021 0.23577
0.02802 -0.29397 0.26244
-0.16956 0.20297 0.19322
-0.12134 -0.16991 -0.08947
-0.18689 -0.28988 -0.07049
0.20508 -0.20778 0.21617
-0.21692 0.17317 0.02565
-0.06076 -0.18741 0.18515
-0.05014 -0.01823 0.11608
0.08009 0.01170 -0.12463
0.24179 -0.02841 -0.13186
-0.02591 -0.04465 -0.00000
0.22895 -0.06145 -0.05780
0.17183 -0.01823 -0.03134
-0.11999 -0.03564 -0.11023
-0.09969 0.01170 0.08866
-0.08773 -0.03382 0.15862
-0.02268 -0.01849 -0.00436
-0.04071 -0.10691 0.18049
0.03462 0.01170 -0.07945
0.20247 -0.22094 -0.22264
-0.21427 0.21486 0.11859
0.04421 -0.02385 -0.20332
0.02722 -0.10021 0.20256
0.21047 -0.01639 0.04750
0.15291 0.01170 0.18735
-0.02719 -0.26197 0.24727
0.02365 -0.08152 -0.00000
0.13439 -0.16315 0.21079
0.00898 -0.00978 0.19554
-0.09006 -0.01823 -0.08614
0.15844 0.06409 0.23651
0.04289 -0.15048 0.21081
0.24920 -0.12194 0.16717
-0.11512 -0.01849 0.05018
0.01178 -0.01613 0.21309
0.18091 -0.01823 -0.06004
0.01048 0.09938 -0.24024
-0.09955 -0.07781 0.10847
0.21047 -0.01060 -0.18133
0.23002 -0.09302 0.06478
-0.03538 0.01170 0.07551
0.11821 -0.01849 -0.01886
0.25841 -0.13306 0.19198
-0.13619 0.13603 -0.19076
0.12905 -0.01823 -0.10242
0.24516 -0.10356 -0.14844
0.22349 -0.21519 0.21925
-0.15183 0.02826 0.07815
0.11373 -0.00698 -0.22044
-0.13885 -0.04262 -0.03636
0.23173 -0.13236 0.07575
-0.14710 0.19378 0.22041
0.02727 0.01170 0.16516
-0.01265 0.04046 -0.21779
0.25281 -0.25691 -0.17540
-0.02158 -0.21811 -0.21890
0.12263 -0.01823 -0.17617
0.22984 -0.21912 0.06363
-0.10896 0.04599 -0.16625
-0.18756 0.14958 -0.11166
0.00946 0.01170 0.05147
0.23067 0.01815 0.23591
0.22249 -0.27298 -0.23514
0.12254 -0.01823 -0.08520
-0.05388 0.01170 -0.14541
-0.07134 0.01170 0.02868
-0.18426 0.12800 0.09165
-0.16436 -0.24154 -0.01161
0.07964 -0.09688 -0.00000
