-0.03539 -0.00573 -0.07559
-0.11723 -0.00573 -0.12137
0.00358 -0.00573 -0.11724
0.08605 0.00778 -0.03890
-0.09487 -0.00133 0.17117
-0.19740 0.33204 -0.01779
0.08195 0.00778 0.14940
-0.10581 0.11765 -0.01794
0.23003 -0.04764 -0.17333
0.24290 0.00778 -0.14499
0.19740 0.00778 -0.15064
0.23200 -0.10359 0.16291
0.07077 -0.00573 -0.15634
-0.13331 0.04258 0.13216
-0.05335 0.00778 -0.09077
-0.11467 -0.20366 -0.16717
-0.08949 0.00500 -0.15195
-0.07511 0.00778 0.06653
-0.06884 -0.00573 -0.07712
0.19682 -0.03217 0.15181
0.24037 0.00002 -0.11758
0.16349 -0.00573 -0.02808
0.07798 0.00778 -0.01830
-0.00343 0.00778 -0.07185
0.21496 -0.33625 -0.15968
0.14216 0.00778 -0.11825
-0.13709 -0.13397 0.14939
0.24578 -0.01209 0.16690
-0.05207 -0.00573 0.02082
-0.20922 0.37777 0.02095
0.15166 0.00778 0.01660
0.08449 -0.00573 -0.11188
-0.10207 0.04471 -0.13232
-0.12353 0.22899 0.01105
0.22089 -0.05457 0.17145
-0.05206 -0.02398 0.13528
0.22765 -0.21696 -0.16347
0.15332 0.00778 0.08828
-0.13556 0.09455 -0.09449
-0.11421 0.08198 -0.09826
0.19373 0.00778 0.13557
0.14745 -0.00573 0.15046
0.01924 -0.04040 -0.14393
0.11270 0.00778 0.10106
0.02269 -0.02328 -0.14408
-0.16249 -0.31441 -0.14341
-0.12363 -0.25113 -0.15982
0.08987 -0.00573 -0.08400
0.19945 -0.09641 -0.14823
0.21384 -0.00989 0.16946
0.05711 0.00778 -0.13010
-0.13492 0.07202 -0.04402
-0.09313 0.00778 0.04432
0.23072 -0.02072 0.17844
0.01588 0.00778 -0.11643
-0.14615 -0.26548 -0.17394
0.23794 0.00778 -0.03354
-0.10481 0.00778 0.06554
0.24037 -0.00196 0.17589
-0.11253 0.03853 0.14736
0.24578 -0.01908 -0.09506
0.19935 -0.09394 -0.14197
0.21587 -0.01561 -0.17095
0.23487 -0.08352 0.13325
0.20685 -0.27918 -0.14319
-0.17944 -0.36562 0.16860
0.15493 0.00778 0.04488
-0.11568 0.03648 0.15025
-0.11051 0.17875 0.12483
0.22956 -0.04349 -0.17052
-0.12520 0.23346 0.14995
-0.01476 0.00778 -0.10000
-0.16839 -0.30734 0.14943
-0.15658 -0.24679 -0.15515
-0.13777 -0.18678 -0.17159
0.24037 -0.02121 0.10959
0.21086 -0.28266 -0.13417
0.22366 -0.00573 0.04372
-0.13468 0.05913 0.04221
-0.10838 0.01962 0.16355
-0.19398 0.32654 -0.11603
-0.15709 0.30223 0.00527
0.22788 0.00778 -0.04470
-0.12399 -0.11120 0.17414
-0.17332 0.28656 0.10644
0.20563 -0.24898 -0.14346
0.23715 -0.08871 0.13457
0.21101 0.00778 -0.14504
0.20895 -0.33106 -0.15351
0.16756 0.00778 -0.06777
-0.11396 -0.08948 -0.13689
0.19888 -0.01538 0.16754
-0.13670 0.11626 0.02159
-0.15937 -0.28132 -0.16798
-0.22395 0.39322 -0.02734
-0.07718 -0.00573 0.07980
-0.17973 0.32751 0.12240
0.21058 -0.37199 0.14138
-0.15804 -0.37460 -0.14806
-0.06625 -0.00573 -0.07249
-0.15804 0.25616 0.15042
-0.07937 -0.00573 -0.06522
0.03857 -0.00573 -0.12086
-0.15100 0.22662 0.15154
0.22891 -0.28704 -0.13090
-0.09097 -0.00573 0.11273
-0.14177 0.18038 -0.09794
0.23816 -0.14858 -0.14836
0.13798 -0.02618 0.15971
-0.06059 0.00778 -0.11062
-0.11260 -0.00573 0.11068
-0.12275 -0.00435 -0.12549
-0.13478 0.06423 -0.06506
-0.16697 0.27146 0.01700
-0.10528 -0.15760 0.16356
0.24578 -0.05357 0.09999
-0.12305 -0.01472 -0.07853
-0.00708 -0.00573 -0.10155
0.12762 -0.00573 -0.13844
-0.11525 0.20103 0.10751
0.11114 0.00778 0.03710
-0.19877 0.34563 -0.10442
-0.17067 -0.37629 0.14353
0.24314 0.00778 0.17559
-0.16249 0.31087 0.01417
-0.12608 -0.08240 0.14602
-0.10250 0.04801 -0.12895
-0.12305 0.00693 0.11817
-0.12126 -0.00573 0.01391
-0.12388 0.08788 -0.09689
0.24578 -0.06167 0.14056
-0.11632 0.13838 -0.13158
0.21579 0.00778 -0.17395
-0.13757 0.26478 0.12112
-0.17228 0.28415 0.04023
0.14373 -0.00573 -0.04388
0.14730 0.00778 0.05621
-0.09507 0.00778 0.05334
-0.12446 -0.02576 -0.15098
0.07212 -0.00573 -0.09570
-0.13815 0.26606 0.02652
-0.16669 0.27077 0.02373
-0.17639 -0.33934 -0.16441
-0.10050 0.00778 -0.01884
-0.13068 0.06025 -0.13053
0.13946 0.00778 -0.10523
0.08867 0.00778 0.09026
-0.11363 0.19353 0.10470
-0.10352 0.00778 0.08113
-0.05512 0.00778 -0.12813
-0.14110 0.17627 -0.11854
-0.11329 0.19189 0.07936
-0.10150 -0.01404 -0.17363
0.24037 -0.03301 -0.08875
-0.13576 0.07162 0.11550
0.06428 -0.03702 -0.15621
-0.10157 0.00939 0.16962
-0.10929 -0.14465 0.14495
0.03141 0.00778 0.00233
-0.16712 0.27181 -0.09384
0.19260 -0.00573 -0.17293
0.24037 -0.01231 -0.12822
-0.15534 0.24014 0.12934
0.18459 -0.00573 -0.07485
-0.13901 -0.18170 -0.14384
0.21694 -0.16005 0.16796
0.17541 -0.00573 -0.13043
0.21660 -0.26614 -0.12990
-0.11981 -0.13597 0.17870
-0.17097 0.28111 -0.10118
-0.12915 -0.15559 0.14195
-0.10951 0.17402 0.06231
0.24037 0.00472 0.07969
0.22249 0.00778 -0.04448
0.24037 -0.06711 0.05871
-0.11839 0.09240 0.09664
-0.03097 -0.00573 -0.04610
0.21418 -0.00998 -0.14586
0.18893 -0.03477 0.16626
0.20425 0.00003 -0.17489
-0.03932 -0.02736 0.14373
-0.10854 0.04660 0.02231
-0.12305 -0.00834 -0.04856
-0.13454 0.05157 -0.00811
0.23855 -0.19401 -0.15410
-0.13487 0.06922 -0.01394
-0.10581 0.13669 0.08505
0.23782 -0.10778 0.15778
-0.11520 0.20089 -0.11485
0.07670 -0.03573 0.15183
-0.11895 0.01493 -0.15887
0.07320 -0.00573 0.08833
0.14778 0.00778 0.08117
0.24578 -0.06337 0.06679
-0.11682 -0.01448 0.17223
-0.10948 -0.02592 -0.12719
-0.02901 0.00778 0.05378
-0.11369 0.19378 0.01935
-0.12310 -0.18835 -0.14056
-0.12305 0.00035 0.00658
-0.10650 -0.16408 -0.16357
0.02752 -0.00573 0.07835
-0.11378 -0.06801 0.13939
0.24037 -0.03190 0.03456
0.17248 0.00778 -0.04075
-0.10683 -0.02301 -0.13449
-0.17568 0.33198 0.07944
-0.13626 -0.29062 0.16928
-0.11381 0.04610 0.01859
-0.13476 0.06335 0.03029
-0.13850 0.14591 -0.01103
-0.00685 -0.00573 0.04321
-0.07175 -0.00573 0.04444
-0.15117 0.22733 -0.05331
0.12420 -0.01805 -0.16427
0.00337 -0.00573 0.11478
-0.07702 0.00778 -0.06522
0.23724 -0.03876 0.13999
0.21883 -0.00736 -0.16229
-0.10581 0.12957 0.04323
-0.14781 -0.34488 0.16011
0.24037 0.00374 0.08412
-0.12210 0.11182 -0.11662
0.21667 -0.07434 -0.16948
0.15548 0.00778 -0.04390
-0.13320 -0.29057 0.15382
0.19879 -0.07996 -0.13828
-0.10581 0.11496 0.11754
0.15091 -0.04371 0.16818
-0.12305 -0.02876 0.06071
0.20438 -0.00573 -0.06427
0.08643 -0.00573 -0.12907
-0.12605 0.23571 -0.05205
-0.19598 0.32975 0.09507
-0.06149 -0.00573 -0.11950
-0.10796 0.00778 -0.12611
-0.15226 0.23079 0.04934
0.24037 0.00028 0.10632
0.17604 -0.00573 -0.16423
-0.13595 -0.12677 0.16628
-0.11821 -0.18674 0.17302
0.18801 -0.00573 0.17067
0.24578 -0.02479 -0.14495
0.19659 -0.02643 0.13969
-0.16989 0.32271 0.08895
-0.00530 -0.00984 -0.14778
-0.09743 -0.01756 -0.13580
-0.13179 0.25101 0.00526
0.10612 -0.02536 0.15561
-0.15287 0.29469 -0.03827
-0.01845 -0.00573 -0.04653
0.19723 -0.00573 0.08583
0.24037 -0.00990 0.01010
0.15743 -0.00573 -0.06308
0.09045 -0.00573 0.08714
-0.12344 0.03123 -0.14622
-0.08911 -0.02032 -0.14625
0.22472 -0.18419 -0.16556
-0.10581 0.10797 0.10880
-0.10703 -0.08866 0.14146
0.12571 -0.00573 0.04127
-0.12226 -0.02531 0.12689
-0.18839 -0.38757 -0.16329
0.24578 -0.06912 0.09415
-0.13126 -0.26067 0.14575
0.20932 -0.04002 -0.17479
0.13685 -0.00573 0.03459
-0.12513 -0.25064 -0.14616
-0.11629 -0.01336 -0.00202
0.22373 -0.13705 0.12597
0.24507 -0.07921 -0.02224
-0.12305 -0.02493 0.01159
0.04232 -0.00573 -0.02481
-0.06495 -0.02001 -0.13288
0.20754 -0.17182 -0.13093
-0.10144 -0.06800 -0.14104
0.15924 0.00778 -0.10308
-0.17286 0.28549 0.14108
-0.14178 0.18047 -0.04242
0.20095 -0.13353 -0.14175
0.24037 -0.06452 0.03062
0.05427 -0.03929 -0.15488
0.09592 0.00778 0.06925
-0.16863 0.27547 0.10199
-0.16729 0.27221 0.02951
-0.13626 0.10791 -0.01418
-0.14712 0.20973 -0.13365
-0.10827 -0.00573 0.12312
0.09887 -0.00573 -0.08810
0.20358 -0.16595 -0.13320
0.24578 -0.05107 0.11130
0.10491 -0.00853 -0.16197
0.02047 -0.01367 -0.14380
0.02462 0.00778 -0.13525
-0.12019 -0.23310 0.15227
0.23792 -0.11959 -0.13840
0.06863 0.00778 -0.14512
-0.07690 -0.00573 -0.00166
-0.02934 -0.00573 0.06640
0.14653 -0.00573 0.00450
-0.10370 -0.00573 0.02479
-0.11342 -0.00573 -0.12937
-0.12104 0.22084 0.08494
-0.12971 0.14570 0.13904
0.23123 -0.23223 0.13129
-0.10503 -0.02065 0.13528
0.24578 -0.00382 0.12401
0.24578 -0.01976 0.00194
0.06691 -0.01917 0.15738
-0.08947 0.00778 -0.11018
-0.14305 0.18838 0.01140
0.14357 -0.00517 0.16724
0.07633 0.00778 0.08648
0.23710 -0.02301 0.13598
-0.15078 0.29091 0.14054
0.23762 -0.08418 0.15564
-0.10657 0.14626 0.07393
0.24037 -0.01163 -0.16667
-0.20914 0.35095 -0.08792
-0.11794 0.21026 -0.13965
-0.14610 0.20527 0.03578
0.17750 -0.04495 0.16597
-0.16085 -0.35091 0.17302
0.15881 -0.00573 0.04143
-0.11629 -0.00690 -0.07956
-0.08460 0.00778 0.04058
-0.10732 0.15375 0.13093
-0.10259 -0.04521 0.13987
-0.10859 -0.09585 0.17591
0.12636 0.00778 0.10402
-0.16138 -0.27180 0.16109
0.23949 0.00778 0.10019
0.08354 0.00451 0.15952
-0.13895 0.26786 0.12696
-0.03427 -0.00573 -0.01330
0.17416 0.00778 -0.09801
-0.02932 -0.00667 0.14501
0.24037 -0.02320 -0.09909
-0.11419 0.19614 -0.00228
-0.12075 -0.13434 -0.13717
0.23319 -0.17812 -0.16000
0.22277 -0.23332 -0.16670
-0.10530 0.08021 0.02886
-0.12848 0.03152 0.12296
-0.13253 -0.10389 0.15694
0.20357 -0.14685 -0.15862
0.09362 -0.00055 -0.16082
0.22516 0.00778 -0.10239
-0.10798 -0.00573 -0.05680
-0.13224 0.25223 -0.06341
0.21505 -0.27441 0.13054
-0.07873 -0.01944 -0.13817
0.24037 -0.06201 0.14367
-0.18553 0.34579 -0.03558
0.18778 0.00778 -0.01494
-0.16781 0.27348 -0.01874
0.22080 -0.13055 0.12396
0.15172 0.00778 -0.00781
-0.12945 0.22225 -0.14927
0.00087 -0.00573 -0.06060
0.17427 -0.00573 -0.02551
0.04887 0.00778 0.10367
-0.12981 -0.20342 -0.13848
-0.12518 -0.03575 -0.14953
-0.09041 0.00778 0.00597
0.04524 0.00778 0.14603
0.23887 -0.23283 -0.14329
-0.13126 -0.20154 0.13943
-0.10610 -0.00573 -0.13393
0.00796 -0.00573 0.06775
0.03575 -0.00573 0.02904
-0.20230 0.36842 -0.06197
0.23520 -0.03950 -0.15902
-0.10438 0.06211 -0.03737
-0.20243 0.36860 0.07277
-0.08811 -0.00573 -0.00868
0.15240 -0.00573 -0.10829
0.24037 -0.02446 0.00264
-0.02127 -0.00573 0.11541
0.07565 0.00778 -0.04747
0.00745 -0.00573 0.07998
-0.02613 -0.00573 0.12777
0.17266 0.00778 -0.14185
0.21828 -0.37722 -0.13443
-0.10581 0.10633 -0.11160
0.02858 -0.00573 -0.06781
-0.05833 -0.01154 -0.13373
-0.17127 -0.32054 -0.14764
0.14282 -0.01620 0.16714
-0.03343 0.00778 0.01170
0.04509 -0.00573 0.02240
0.23002 -0.39207 -0.15057
0.13376 -0.00329 -0.15827
-0.18862 0.31797 0.02789
0.23178 -0.28373 -0.16072
0.20710 -0.00573 0.05149
-0.18344 0.30969 0.12117
0.24578 -0.04034 0.10674
0.23994 -0.00573 -0.11467
-0.09493 -0.08651 -0.16616
-0.13432 0.05086 -0.12211
-0.00799 0.00778 -0.08670
-0.00651 -0.00573 -0.14314
0.00319 0.00778 0.11822
0.11437 0.00778 0.12444
-0.10835 0.05473 -0.11028
-0.04693 -0.00573 -0.09897
0.06569 0.00778 0.10054
-0.11200 0.18579 -0.02820
-0.10581 0.11795 0.01333
0.22480 -0.27963 0.16443
-0.13329 0.15890 0.14380
0.10529 0.00778 0.14397
0.23944 -0.30139 0.15500
-0.19048 0.32094 0.05067
-0.20300 0.35620 -0.09447
0.00517 -0.00573 0.07307
-0.09590 -0.09573 0.16431
0.21299 -0.09311 -0.16654
-0.16296 0.26177 -0.04668
-0.12055 0.10475 -0.10133
-0.15196 -0.21980 -0.14810
-0.12616 0.07529 0.12962
0.23913 -0.30170 -0.15646
-0.23014 0.37880 -0.02257
0.17576 0.00778 0.12499
-0.13153 -0.11991 0.14650
0.24037 -0.07978 0.02977
-0.10441 -0.00573 0.11397
-0.06504 0.00513 -0.14042
0.14299 0.00544 -0.16712
-0.04188 0.00778 0.09312
-0.11218 0.18664 -0.06184
0.17239 -0.03498 -0.16321
0.05588 -0.00573 0.07974
0.21546 -0.12128 -0.16720
-0.15560 0.29963 -0.06640
-0.02257 -0.00548 -0.14564
0.22447 -0.28611 0.12701
0.24037 -0.04979 0.00566
-0.13849 0.14577 0.04101
-0.12789 -0.06432 -0.15290
-0.14128 0.17738 -0.08211
-0.14013 0.16609 0.07489
0.22617 -0.39286 0.15994
-0.09230 0.00778 0.13618
-0.17502 0.33091 0.03836
-0.12305 0.00432 0.04152
-0.10953 -0.16725 -0.14537
0.23764 -0.08692 0.13904
-0.13823 0.26626 -0.12070
-0.13565 0.09629 -0.06831
-0.12731 0.23907 0.06841
0.22902 -0.22110 0.16268
0.20770 -0.30015 -0.13734
-0.14919 0.21873 0.00339
0.03323 -0.00573 -0.04951
0.16796 0.00778 -0.01250
-0.12012 0.08417 0.09735
0.12332 -0.03285 -0.15694
-0.07668 -0.03696 -0.13252
-0.15247 -0.22252 -0.15165
-0.06198 0.00778 0.11519
-0.17714 0.29539 -0.03538
0.20468 -0.16761 -0.15867
-0.10581 0.13331 0.02087
-0.12305 -0.02265 0.04308
-0.10457 -0.00573 -0.00745
0.24037 0.00116 -0.08170
-0.12305 -0.02680 -0.08413
-0.11352 0.07793 0.09033
-0.13328 0.25499 0.13933
0.09370 -0.00573 -0.00181
-0.12305 -0.00192 0.07942
0.24578 -0.05939 0.12910
-0.12305 0.00695 0.00630
0.23894 -0.24088 -0.15314
0.23753 -0.07315 -0.13635
0.05674 -0.00573 -0.11406
0.22956 -0.06633 0.12964
-0.09551 0.02383 0.14553
0.21685 -0.22108 0.12771
-0.11629 -0.02820 0.10279
0.06484 -0.00662 0.15031
0.11926 0.00778 0.09757
-0.13280 0.25372 0.07441
-0.13215 -0.12740 -0.14430
0.15240 -0.01437 -0.16066
0.24578 -0.02356 -0.15776
-0.09265 -0.06472 -0.15337
0.23416 0.00778 0.06506
0.20737 -0.01397 -0.17503
-0.12305 -0.00289 -0.00038
0.24037 -0.00458 0.03905
0.21489 -0.18217 0.16568
0.08287 -0.00573 -0.05858
0.14302 -0.02052 -0.16664
-0.12477 -0.18164 0.17727
-0.12215 0.00778 0.11068
-0.21959 0.39014 0.01261
-0.12590 0.23532 0.03488
-0.11773 0.00739 0.13296
-0.13797 -0.30771 -0.14762
0.24037 -0.03119 0.06712
0.07674 0.00778 -0.02539
-0.03060 -0.00573 0.10489
-0.06046 0.00778 0.08864
0.20712 -0.02115 -0.17486
-0.13590 0.07970 -0.11057
-0.16141 -0.31109 0.17201
0.22125 -0.30386 0.16332
-0.16733 0.31861 0.04251
-0.15353 0.23464 -0.04603
0.24037 -0.06043 0.16283
0.19682 -0.03141 -0.15358
0.18422 0.00778 0.06505
-0.13048 0.02742 -0.14130
-0.20899 0.35069 -0.02199
0.21354 -0.14554 -0.12578
0.24578 -0.03376 0.11995
-0.18894 0.31849 -0.07759
0.24037 -0.05664 0.16495
-0.12305 -0.01357 0.07347
-0.10028 -0.02543 0.12908
0.12117 -0.00573 -0.08738
-0.13885 0.15025 -0.08540
-0.12705 0.01621 -0.13465
-0.10703 0.00778 -0.06525
-0.04992 -0.03027 -0.13480
-0.14853 -0.27408 0.17531
-0.07292 -0.02034 -0.13890
-0.09254 0.00779 -0.16348
0.23894 -0.28418 0.13579
0.16471 -0.00573 -0.01583
0.17026 -0.00573 -0.00257
0.24578 -0.06817 0.07346
-0.23807 0.38765 -0.02932
0.23841 -0.17855 0.15143
0.20726 -0.08476 0.12930
-0.14394 -0.23261 -0.14112
0.24037 0.00397 0.12612
0.24037 0.00207 -0.09108
0.21034 -0.31311 0.15642
-0.13602 -0.19328 0.17513
-0.09545 -0.00573 -0.00609
0.23514 -0.02777 0.17901
0.21104 -0.27450 -0.15934
-0.15607 0.24236 -0.09027
-0.05547 -0.00573 -0.05597
-0.17207 0.28368 0.05914
-0.10726 0.07109 0.08141
0.21593 -0.00573 0.14897
0.06450 -0.00573 -0.08859
0.04972 -0.00573 -0.04741
0.20434 -0.21711 -0.14377
-0.16466 0.26588 -0.03941
-0.12268 -0.01963 -0.12550
-0.17280 0.28537 0.01615
0.13986 -0.00573 0.07657
-0.23900 0.38953 0.04442
-0.00496 -0.00573 -0.09071
-0.11095 0.08821 -0.09891
-0.10555 0.08906 0.00666
0.21144 -0.11135 -0.12548
-0.11918 -0.12343 -0.17605
-0.10602 0.14071 -0.00938
-0.10842 -0.17390 -0.16592
0.03612 -0.00573 0.05481
-0.01286 0.00778 0.06833
-0.04301 0.00778 -0.04916
-0.00621 0.00732 -0.14798
-0.13587 0.10054 -0.10220
0.09747 0.00778 0.12317
-0.15783 -0.25424 0.15493
-0.13561 0.07993 -0.12022
-0.13498 0.07519 0.02132
-0.13675 0.11717 0.03922
-0.14702 -0.34206 -0.14982
-0.13703 -0.23081 0.17785
0.00365 0.00778 0.12627
-0.03923 0.00778 -0.01033
-0.10942 0.17358 0.00525
-0.17451 0.28932 -0.06396
-0.09382 0.00778 -0.07941
0.15217 0.00048 -0.16834
0.00831 -0.00573 -0.04644
0.10062 -0.00573 -0.06193
-0.12305 -0.03750 0.06300
-0.11320 0.19146 -0.04936
-0.16169 -0.32235 -0.14201
0.18340 0.00778 0.08650
-0.00723 0.00778 0.00633
-0.14208 0.27484 0.07613
0.23834 0.00778 0.13551
-0.16289 -0.27927 0.14967
-0.11303 0.02206 0.16076
-0.11983 0.21671 0.12418
-0.10617 0.14229 -0.02496
0.24037 -0.04020 0.01401
-0.17808 0.29756 -0.06418
0.23969 -0.33059 0.14366
-0.10581 0.11309 -0.09342
0.05445 -0.03285 -0.15503
-0.00366 -0.00573 0.08888
-0.14263 0.18577 -0.01873
-0.15092 0.22626 -0.07041
0.03402 0.00778 0.14414
0.09915 -0.00573 -0.07866
-0.19281 0.32467 0.02895
-0.09578 -0.02402 -0.13968
-0.09415 -0.04856 -0.16810
0.21122 -0.27294 0.13284
-0.11046 0.09886 0.10143
-0.12305 0.00666 0.05735
-0.12796 0.04883 0.03328
0.19463 0.00778 -0.12784
0.24578 -0.04257 -0.14499
0.24578 -0.03997 -0.00498
-0.11674 -0.04734 -0.17217
-0.12064 0.05100 0.04122
0.12778 0.00778 0.12376
-0.09505 0.00778 0.00301
0.21797 -0.33651 -0.13260
0.24578 -0.02339 0.10386
0.03572 -0.00573 0.11675
-0.03923 -0.00573 -0.06195
0.24037 -0.03405 0.11392
0.12276 -0.00573 0.10525
-0.16658 -0.39518 -0.14802
-0.15886 -0.27538 0.14750
-0.09543 -0.09125 -0.15558
-0.10833 -0.17347 0.16338
-0.13599 0.10275 0.08828
-0.17164 -0.38193 0.17281
-0.10375 0.05826 0.12779
-0.10039 -0.12660 -0.15731
0.11669 0.00388 0.16378
0.23435 -0.00573 0.12209
0.24578 -0.03412 0.09166
0.23933 -0.28862 0.14146
0.19727 -0.04245 -0.14919
-0.10329 -0.12975 -0.14515
0.05853 -0.00573 -0.07547
0.21208 -0.20777 -0.12974
0.22641 -0.00573 -0.16162
0.08697 -0.00573 -0.07920
-0.24232 0.39481 0.02342
0.11529 -0.00573 -0.06026
0.23406 -0.15895 -0.13178
0.23162 -0.23901 0.13152
-0.10649 0.14542 0.07983
0.24037 -0.07363 0.03750
0.18940 -0.03755 -0.16538
0.20469 -0.00573 -0.12712
-0.11421 -0.02421 0.12729
-0.10391 -0.07188 0.17462
-0.10175 -0.00573 0.00541
-0.14522 0.21392 -0.14913
0.24578 -0.01494 -0.01828
-0.13900 -0.30547 0.16849
-0.19260 0.35529 0.08476
-0.21276 0.35647 -0.00452
0.23174 -0.17302 0.16175
-0.01030 0.00778 -0.01170
0.20612 -0.26112 -0.15513
-0.09655 -0.03803 0.17190
0.21594 -0.16815 -0.12543
0.22542 -0.24941 -0.16485
0.21921 -0.06947 0.17231
0.22172 -0.39227 -0.13838
-0.01258 0.00778 0.05351
0.17873 -0.02740 0.17176
-0.13320 0.25479 -0.04453
-0.06724 -0.01520 -0.13259
-0.10245 -0.01899 -0.13512
0.24578 -0.01380 -0.14832
-0.21749 0.38763 -0.01413
-0.03408 -0.00573 0.06769
0.16836 0.00778 -0.03449
0.04976 0.00778 -0.00923
-0.17556 -0.35899 0.16992
0.23886 -0.23261 0.14194
-0.16838 0.32029 -0.05135
0.22277 0.00778 0.02651
-0.12163 0.11003 0.11121
-0.10547 -0.08355 0.14194
0.20966 -0.22402 0.13226
-0.00454 -0.00573 -0.07614
0.05362 -0.00573 0.15166
0.12232 0.00778 -0.09320
0.05326 0.00778 0.14024
-0.17749 0.29620 -0.10540
0.21520 -0.26605 0.16171
-0.12090 0.04541 -0.00807
-0.19051 0.33859 0.11447
-0.01388 -0.02867 0.14700
0.22943 -0.09117 -0.12748
0.20530 0.00778 -0.10097
-0.05339 0.00778 -0.13728
-0.10184 0.05118 0.00370
0.10274 -0.03904 -0.15431
-0.08591 -0.00573 0.09820
0.24037 0.00321 -0.02677
0.07169 0.00778 0.08684
0.19793 0.00778 0.10701
-0.04184 -0.00573 0.09759
0.23987 -0.35280 0.15198
0.21165 -0.04607 -0.17497
0.06260 -0.00573 -0.00504
-0.13517 0.08547 0.07865
-0.13469 -0.26467 -0.17070
0.24532 -0.00698 -0.17858
-0.10931 0.07056 -0.07640
-0.15281 0.23247 -0.01596
0.14743 0.00778 -0.07481
0.03502 0.00778 0.03022
0.13841 -0.00573 -0.07894
-0.14416 0.19531 -0.00538
-0.10831 0.02747 -0.12266
-0.10380 -0.13893 0.16950
-0.16613 0.31669 -0.09991
-0.16772 0.31924 -0.01197
0.03257 -0.02970 -0.14534
-0.18548 0.31295 -0.12556
0.22703 -0.08359 -0.12570
0.19640 -0.03861 -0.17316
0.02459 -0.00573 0.00929
0.23063 -0.03865 -0.16211
0.23854 -0.19274 -0.14592
0.22929 -0.04131 0.17145
0.04651 0.00778 -0.12154
-0.11336 0.19222 0.12299
-0.08360 -0.00946 0.13804
0.14571 0.00778 0.10470
0.01653 0.00778 0.13484
0.24578 -0.07059 0.06552
-0.12989 0.06588 -0.06938
-0.06021 -0.00208 -0.13348
-0.13610 0.26149 0.13164
-0.12425 -0.11106 -0.17210
-0.20837 0.34969 -0.06773
0.00156 0.00778 -0.03581
-0.07749 -0.00573 0.13425
-0.11493 0.00778 -0.05899
-0.11407 0.04613 -0.01461
-0.03797 -0.00573 -0.01583
-0.10559 0.09013 -0.01945
-0.10697 0.00778 0.01415
-0.11126 -0.18848 -0.14941
0.23105 -0.11885 0.16326
0.01887 -0.00251 -0.14359
-0.13515 0.08445 0.00274
-0.18299 0.30894 -0.08421
0.11879 -0.00573 0.14556
-0.23588 0.38943 -0.04048
-0.24102 0.39120 0.03938
-0.18229 0.30729 -0.10720
0.05674 -0.04076 0.15535
0.13860 -0.00573 0.00487
-0.14192 0.18138 -0.10545
-0.13731 0.12778 0.11004
-0.08979 -0.00573 0.07727
0.06732 -0.00707 -0.14978
0.02453 0.00778 0.13757
-0.17567 -0.37926 -0.17036
0.19958 -0.00566 -0.16669
-0.14614 0.20546 -0.02867
0.22270 -0.38200 0.16029
0.06953 -0.00573 -0.07814
0.22426 -0.27870 -0.12757
-0.10581 0.11005 -0.05001
0.00441 0.00778 0.14637
0.20542 0.00778 0.06510
-0.12064 0.18818 0.15092
0.20827 -0.09872 0.16550
-0.15720 0.30240 -0.09081
-0.05501 -0.00573 0.13833
-0.11629 -0.03006 0.02518
0.21020 -0.05886 -0.12372
0.16539 0.00778 0.10088
0.03909 0.00778 0.07279
-0.14079 0.17424 0.00050
-0.13589 0.10086 0.03477
-0.13695 0.12103 0.02866
0.16848 -0.00573 -0.03504
-0.14583 -0.20759 0.14691
0.00008 -0.00573 0.09587
-0.12957 0.02449 0.13164
0.21945 -0.11074 0.17135
-0.10817 0.16225 0.06598
-0.21576 0.36053 -0.00824
-0.10511 0.07351 -0.02706
0.23760 -0.21193 0.13495
0.00004 -0.00573 -0.11245
-0.11629 -0.02770 0.12334
-0.16828 0.27462 -0.12538
-0.05860 -0.00573 0.06763
0.09932 -0.00573 0.10655
0.02415 0.00778 -0.01282
0.16139 0.00778 0.12636
-0.19697 0.36120 -0.02933
-0.00661 0.00176 0.14793
0.23760 -0.08152 -0.13902
-0.02618 -0.00573 0.04874
-0.15165 -0.21818 0.15099
0.02910 -0.00511 -0.15252
-0.13797 0.26567 -0.07185
0.22801 -0.00573 0.04889
-0.13692 0.12041 0.08146
-0.02241 0.00778 -0.08456
-0.03229 -0.02796 0.13782
0.22274 0.00778 0.13024
-0.11136 -0.11913 0.17558
0.20749 -0.24941 0.15768
0.23505 -0.16283 -0.15894
-0.07997 -0.00573 0.12261
-0.07144 -0.00573 0.07415
-0.16337 0.31228 -0.07120
-0.13899 0.15202 -0.01083
-0.12211 0.04822 0.03093
-0.10236 0.05344 -0.02211
-0.10830 0.16356 0.11577
0.20583 -0.25467 0.15510
-0.15896 0.25117 -0.11575
-0.11629 -0.00226 -0.03958
-0.12492 0.23270 -0.03558
-0.17791 0.29718 -0.09191
-0.07313 0.00778 0.00279
-0.14372 -0.32889 -0.14782
-0.11094 0.05591 -0.13483
-0.11700 -0.17153 0.17391
-0.15704 0.24533 0.06155
-0.11629 -0.02331 0.02222
0.20083 -0.13047 -0.14555
-0.15031 0.22359 -0.14162
0.13277 0.00778 0.00503
-0.04457 -0.00573 0.04305
0.13184 -0.00573 0.08261
-0.13540 0.09156 -0.05644
0.12040 0.00778 -0.12109
0.01597 0.00778 -0.08899
0.20459 -0.04679 -0.16952
-0.12305 -0.01322 -0.06779
-0.04914 -0.01245 -0.13490
0.24037 -0.00040 0.09892
0.07456 -0.00573 0.01454
0.14436 -0.00573 -0.05511
0.12173 -0.00312 -0.16443
0.15006 -0.04102 -0.16036
0.16682 -0.00573 0.15423
-0.11897 -0.13709 -0.17644
-0.12305 0.00506 0.08546
-0.13723 0.12632 0.01046
-0.08995 -0.03602 -0.15559
0.22389 -0.25170 0.12649
0.22835 -0.31782 -0.13107
0.01358 0.00778 0.08855
-0.13575 0.09820 -0.01384
0.23456 -0.27624 -0.13398
0.22257 0.00778 -0.11534
0.24578 -0.03550 -0.01113
-0.18765 0.34863 0.10144
-0.04094 -0.00573 0.07297
-0.11373 -0.00884 0.13743
0.21366 -0.00519 0.17625
-0.17262 0.32708 -0.01737
-0.13295 0.25411 -0.14215
0.19267 -0.00573 -0.10398
0.05880 -0.03582 -0.14869
0.24037 -0.05883 0.02771
-0.04991 -0.01498 0.13556
0.20589 -0.18468 0.15979
-0.10815 -0.01546 -0.17588
0.16740 0.00778 0.14248
-0.12305 0.00501 -0.06128
0.01817 -0.00573 -0.07581
-0.13660 0.11435 0.08276
0.24578 -0.02300 -0.06718
-0.14262 -0.16807 0.15949
0.24037 -0.05165 0.16282
0.12819 -0.00573 0.16086
0.12296 0.00778 -0.14210
-0.13740 -0.28677 -0.16865
0.13586 0.00778 -0.15733
0.07760 -0.01471 -0.15835
-0.11813 0.17052 -0.14291
0.19691 -0.03359 -0.14091
-0.11719 0.05601 0.13995
0.05795 0.00778 -0.08916
-0.13515 0.05984 0.11800
0.24037 -0.06919 0.04186
-0.11629 -0.00297 0.04549
0.21987 -0.00573 -0.02357
-0.14828 0.21476 -0.01987
-0.03019 -0.02222 0.14490
-0.21179 0.35794 -0.09255
-0.13701 0.12223 -0.01952
0.08622 -0.00573 -0.14601
-0.00094 -0.01629 0.14185
0.02094 0.00271 0.15147
0.19908 -0.08721 -0.13494
-0.15293 0.28450 -0.13900
-0.11111 -0.18768 0.16042
-0.11629 -0.03007 -0.01483
0.13956 -0.00573 -0.14740
0.14524 0.00778 0.04949
-0.11629 -0.00960 -0.09941
0.21192 0.00778 0.02946
0.22049 -0.17178 0.12395
-0.17594 -0.33747 0.15456
0.19819 -0.00573 0.09843
0.21609 -0.14581 -0.16674
-0.10796 0.04786 -0.02488
-0.13397 0.05520 -0.04850
-0.08431 0.00778 -0.04205
0.24010 -0.37936 0.14891
-0.13926 0.15535 -0.12055
-0.10841 0.16465 0.03648
0.24578 -0.06408 -0.14791
-0.10581 0.11999 -0.10586
-0.13081 0.19820 0.15229
-0.16174 0.30967 -0.08592
0.02939 0.00778 0.12844
-0.22091 0.36750 0.00568
-0.17936 -0.39226 0.15964
-0.13468 0.25832 -0.06043
-0.15211 0.29331 0.05855
-0.17823 0.29792 0.13157
0.23814 -0.14657 0.15326
0.16037 -0.00573 -0.04036
-0.10342 -0.10286 0.14469
-0.12658 0.03260 0.14525
-0.14771 0.28536 -0.03046
0.07742 -0.00573 0.02517
0.20943 0.00778 -0.03692
-0.10781 -0.00573 0.03812
0.18552 -0.00573 -0.06982
0.22117 -0.32423 -0.13015
-0.08689 -0.00573 0.03345
0.24037 0.00600 0.06649
0.04823 0.00778 0.11729
-0.08601 0.00296 0.13773
0.21279 -0.36606 0.13493
-0.16779 -0.39569 0.15746
-0.09262 -0.02598 -0.16792
0.23730 -0.04695 0.15635
-0.15496 0.23899 -0.09684
-0.11781 0.20981 0.09598
-0.11612 -0.00573 -0.05753
-0.12228 0.22509 -0.08102
-0.18385 0.31034 -0.07270
0.22965 -0.24364 -0.13058
0.03921 -0.00573 -0.11471
0.24037 -0.02657 -0.09084
0.23486 -0.01533 -0.17854
0.06491 0.00778 0.06578
0.17628 0.00778 0.10546
-0.18594 -0.39031 -0.15426
0.23449 -0.36856 0.13330
0.21610 -0.01599 0.16975
-0.14571 0.28174 0.07982
-0.11130 0.08154 0.09444
-0.11078 -0.17237 0.17028
-0.13974 0.16126 -0.04692
-0.12305 -0.00861 -0.08097
-0.09777 -0.01306 -0.13709
-0.20138 0.36718 0.05476
-0.10559 0.09035 0.08038
-0.10877 0.16826 0.14234
0.08593 0.00778 -0.05911
-0.10508 0.07225 0.01329
0.01007 -0.03912 0.14874
-0.08168 0.00778 0.07535
0.23766 -0.08859 0.14611
-0.09381 0.01981 0.15585
-0.10168 0.04252 0.12879
-0.07862 -0.00573 0.09818
-0.14884 -0.34703 -0.14806
-0.12305 0.00135 0.06146
0.05181 -0.00573 -0.05231
-0.13501 0.07686 -0.00800
0.23039 -0.13809 0.16334
0.24037 -0.00233 -0.16857
0.20493 0.00778 0.07075
-0.14611 -0.32591 0.14788
-0.14668 0.28349 0.03943
-0.10867 0.04906 -0.11226
0.14033 0.00778 -0.03433
-0.14364 -0.18776 0.14794
0.05421 -0.01645 0.14894
-0.20358 0.37017 -0.06868
-0.09601 0.00503 0.16849
0.20614 -0.20900 0.15877
0.24037 -0.00237 -0.04814
-0.00267 -0.00346 -0.14824
-0.12305 -0.00167 0.02283
0.22290 0.00778 -0.15329
0.21528 -0.00573 0.16756
0.21096 -0.35392 -0.13757
0.05997 0.00778 0.10186
-0.20125 0.33824 0.01530
0.11604 -0.00573 -0.02975
-0.17668 0.29433 0.02088
-0.14249 -0.25811 -0.13802
-0.15698 0.24514 -0.00979
0.08373 -0.00573 0.08622
-0.09835 0.00778 0.00719
0.19295 -0.03100 0.16678
0.21856 -0.00573 0.00471
0.17889 -0.01642 0.17178
0.21147 -0.21715 -0.16150
0.20464 -0.22519 0.15447
-0.10573 0.09507 -0.05080
-0.16128 0.25771 -0.02625
-0.10581 0.13289 0.11087
-0.09029 -0.03964 0.16466
-0.00030 0.00778 -0.07964
-0.14314 -0.29286 -0.14244
-0.15120 -0.34008 0.16961
-0.16198 0.25940 -0.12264
0.22960 -0.28241 0.16117
-0.16678 -0.35808 -0.14044
0.22361 -0.33239 0.12755
-0.10713 0.15187 0.06617
-0.17878 -0.39243 -0.16249
0.23789 -0.11579 -0.15223
-0.12135 0.22189 -0.05768
0.22800 -0.16374 -0.12791
-0.10581 0.11309 0.03075
-0.17605 0.33256 -0.07722
-0.14239 0.18427 -0.13747
-0.11352 0.12652 -0.12569
0.22897 -0.32306 -0.16231
0.24578 -0.01819 0.12312
0.24578 -0.03898 0.06953
-0.12086 -0.09188 0.17437
0.23744 -0.06283 -0.14823
0.03877 -0.00427 -0.14613
-0.07651 -0.02566 0.13214
-0.14400 0.27865 -0.05695
-0.16390 -0.33928 -0.17208
0.00873 -0.00573 0.10316
-0.11071 -0.08702 -0.17579
-0.17712 0.29536 0.00461
-0.07832 -0.00573 -0.00649
0.19893 -0.02828 -0.16660
-0.15615 -0.29494 -0.14203
0.15583 -0.03590 0.16201
-0.08980 -0.00573 -0.08093
0.24037 0.00083 -0.15202
-0.19508 0.35863 0.07798
-0.09788 0.02933 -0.14100
0.23914 -0.26522 0.13656
-0.14568 -0.33730 0.15820
0.19264 0.00778 0.15184
-0.14642 0.28302 -0.12596
0.19977 -0.10487 0.14420
-0.17940 0.30063 0.03931
0.24578 -0.05028 -0.10491
-0.15042 -0.27118 0.14311
-0.10753 0.15584 -0.09548
0.07411 0.00778 -0.11938
0.05563 -0.00016 -0.15593
-0.10636 0.14419 0.00626
-0.22412 0.37184 -0.04559
-0.13673 0.26290 0.14468
-0.13486 0.06846 -0.06774
0.07662 -0.00573 -0.02089
0.04279 -0.01051 -0.15395
-0.19816 0.36282 0.00522
-0.14039 0.16928 -0.05277
0.24578 -0.02504 0.17157
0.20399 -0.20861 -0.13554
0.15692 -0.00521 -0.16123
0.06003 0.00778 -0.03799
0.24578 -0.01241 0.08338
0.22506 0.00778 0.11498
-0.12305 -0.02320 0.06908
0.24578 -0.02316 -0.12114
-0.17325 0.28641 0.13331
-0.10930 0.17304 0.13028
-0.14579 -0.31450 -0.16899
-0.13562 0.09573 0.03570
0.22322 -0.15507 -0.12447
0.21413 -0.29413 0.15970
-0.16070 -0.38094 -0.14803
0.16814 0.00778 0.02261
0.21758 -0.00573 0.05854
0.24578 -0.03671 -0.08226
-0.17106 0.28132 0.06549
-0.10297 0.00778 -0.02571
-0.09468 -0.00573 0.05392
0.10164 -0.00573 -0.05240
-0.12518 0.04513 -0.00175
-0.10663 0.13454 -0.12979
-0.04137 -0.01526 0.14346
0.21559 0.00778 0.15096
-0.14538 0.26447 0.14881
-0.11075 -0.18292 -0.16730
0.20233 -0.00573 0.07628
-0.11948 -0.22204 -0.14620
0.23834 0.00778 0.09018
-0.11346 -0.07344 0.17750
-0.10581 0.11701 -0.02621
0.18803 0.00778 0.15867
0.23880 -0.22492 0.14591
-0.14625 0.20591 0.13649
-0.10297 0.05181 0.13245
-0.13809 0.14084 0.07337
0.23874 0.00778 0.10841
-0.22619 0.37439 -0.01779
0.23205 0.00778 -0.17457
0.24508 -0.05317 0.17903
-0.10787 -0.08790 -0.13904
0.24578 -0.06924 -0.11329
0.03548 -0.00573 0.07515
-0.00993 -0.00573 0.08383
-0.10581 0.12718 0.06046
0.23272 -0.26999 0.15957
0.24037 -0.00474 0.15929
0.09762 0.00778 -0.07515
-0.14505 0.20070 0.11414
0.22260 -0.02251 -0.12149
-0.10415 0.06172 -0.11772
0.22189 -0.09613 -0.16780
-0.10345 -0.07829 -0.14078
-0.04683 0.00778 -0.03730
0.15666 -0.00573 0.05438
0.24037 -0.05427 -0.01794
-0.12242 0.06136 0.10438
-0.10212 0.05241 -0.03720
0.24037 -0.01774 -0.15085
0.17445 -0.00573 0.08948
0.08400 -0.03249 -0.15191
0.15212 -0.00573 0.00923
-0.16293 0.31157 0.00952
-0.13681 0.26307 0.05871
-0.11629 -0.01183 -0.09244
-0.09533 -0.08339 -0.14585
0.16097 0.00778 -0.09112
0.22826 -0.19055 -0.16315
-0.12305 -0.00333 -0.11360
-0.12465 0.10834 -0.10770
-0.10341 -0.02598 0.13712
-0.16755 0.31896 0.07119
-0.17959 0.33779 0.08496
-0.10151 -0.04905 -0.13910
0.22753 -0.19905 -0.12826
0.18813 0.00778 -0.00045
0.24037 -0.06306 -0.17139
0.20150 -0.14765 0.14626
0.23917 -0.26935 0.13800
-0.14574 0.20372 0.08140
-0.02658 0.00778 0.04132
-0.13840 0.26662 0.08945
-0.15666 0.30155 0.08499
-0.11782 0.20985 -0.11034
-0.17734 0.33463 -0.04007
-0.10636 0.02289 -0.15752
0.17146 0.00778 0.01659
-0.21878 0.36462 0.08725
0.23986 -0.34997 -0.14815
0.13994 -0.04364 0.16174
0.24578 -0.02037 -0.07888
0.22943 -0.32990 -0.13190
0.15536 -0.00573 -0.03873
0.23383 -0.05170 0.13247
-0.00508 -0.00573 0.13035
0.12942 -0.00573 -0.12269
-0.12305 -0.01658 0.05039
0.22708 0.00778 0.14149
-0.11448 0.14336 0.13801
-0.10413 0.06103 0.05176
-0.11739 -0.04190 0.17328
-0.12609 -0.04545 -0.14639
0.20126 -0.14185 0.14854
0.19951 0.00778 0.09737
-0.13725 -0.28031 0.14558
-0.11189 -0.00862 -0.17331
-0.14546 0.20249 -0.00159
-0.13068 -0.26066 -0.14419
-0.15335 -0.36317 -0.16145
-0.19349 0.32576 -0.05472
0.21153 0.00778 -0.12416
0.17021 -0.00573 0.11281
0.22079 -0.37108 0.15973
-0.09370 -0.03168 -0.16861
0.20695 -0.22925 0.15831
-0.20256 0.34035 0.00517
-0.14515 -0.28125 -0.13947
0.20209 -0.00573 0.17388
-0.09782 -0.06141 -0.16974
-0.10581 0.10031 0.07404
0.00993 0.00778 -0.05318
-0.08092 -0.00573 -0.07435
-0.05650 0.00778 0.07254
-0.10550 0.08718 0.09470
0.16481 0.00778 0.03276
-0.11528 -0.20862 -0.15076
0.15870 -0.00573 0.13238
0.11061 0.00778 -0.01303
0.23816 -0.14741 -0.15285
-0.13346 0.08220 0.12250
-0.12323 -0.20380 0.17384
-0.13695 0.12097 0.10631
-0.10581 0.10462 0.02136
-0.11076 0.17994 0.08232
-0.10887 0.04541 0.01229
-0.04459 -0.00573 0.08151
-0.15632 -0.37292 0.15513
-0.12359 -0.23492 -0.16808
-0.04632 0.00778 0.03139
-0.14228 -0.23312 0.17505
-0.08362 0.00778 0.03056
-0.10379 0.01742 -0.12878
-0.19751 0.33221 0.06544
-0.16115 -0.32830 0.17420
-0.10950 0.05807 -0.05509
0.24037 -0.04402 0.17706
0.17253 -0.03009 -0.16323
0.21455 -0.15973 -0.12582
0.24578 -0.00505 0.02045
-0.13601 0.10309 0.00232
0.23190 -0.04684 0.13115
-0.10565 0.09226 -0.00321
-0.16313 0.31190 0.09101
0.09582 0.00778 0.16024
0.23765 -0.08708 -0.14618
0.15557 -0.00573 -0.01156
-0.11629 -0.02956 -0.08051
0.00306 -0.00573 -0.04205
-0.11669 0.06094 0.10491
0.03424 -0.00573 -0.04023
-0.12305 -0.00140 -0.00755
0.24578 -0.03622 0.10891
-0.11745 0.12348 0.12816
0.22785 0.00778 0.04486
0.17760 -0.00573 -0.13788
0.10105 -0.04148 0.15496
0.09327 -0.00573 0.06988
-0.06970 -0.00573 -0.12470
0.17489 0.00778 0.06161
-0.10956 0.17428 -0.06658
0.24037 -0.01226 0.12035
-0.11792 -0.20149 0.14692
0.24037 -0.01063 0.00490
-0.14662 -0.20922 -0.14527
-0.10490 0.06608 0.03939
0.23009 -0.26090 -0.13115
0.21602 -0.31224 -0.13252
0.07763 -0.00573 0.04820
-0.16538 -0.29108 0.15512
0.24578 -0.03856 0.09330
0.20161 -0.14972 -0.13648
0.24578 -0.05019 -0.02170
0.18341 -0.00573 -0.14654
0.11504 0.00778 -0.10875
-0.11078 0.09115 0.12019
-0.10862 0.07883 0.09142
-0.11443 0.19732 -0.13884
0.23886 0.00778 -0.07976
0.02034 -0.00573 -0.03323
0.00582 0.00778 0.11410
-0.11243 0.18783 0.07787
0.16396 -0.00573 0.06699
-0.15360 -0.30155 0.17535
-0.11351 0.19293 -0.01261
-0.13650 0.24904 -0.14727
-0.13490 0.07078 0.00347
0.17399 0.00778 0.07280
0.04434 0.00778 0.08164
-0.16205 -0.33842 0.17490
0.10336 -0.00573 -0.12638
0.24578 -0.00115 -0.08942
-0.17361 0.28724 -0.04085
0.11465 -0.00573 -0.01635
0.17271 0.00778 -0.12895
0.22973 0.00778 -0.08702
-0.10347 -0.08315 0.17369
-0.10581 0.13744 -0.01968
0.06357 -0.00573 -0.15676
-0.22012 0.37103 -0.07644
-0.00765 -0.00573 -0.05457
-0.05577 -0.00573 0.10385
-0.11955 -0.14707 0.13932
-0.12282 -0.10015 -0.17203
-0.15041 0.22405 -0.11710
-0.10815 0.16209 -0.02230
-0.08768 -0.00025 -0.13736
-0.11629 0.00215 0.07606
-0.10672 0.14778 0.01567
-0.11629 -0.00994 -0.13194
0.21543 -0.18694 -0.16498
0.24037 -0.04572 0.13608
-0.19334 0.32553 0.05250
0.16355 -0.00573 -0.08851
-0.13081 0.24841 -0.04644
0.14277 -0.00573 -0.09946
0.22641 -0.13855 -0.12633
-0.00756 0.00778 -0.01688
0.17387 -0.00632 0.16432
-0.14149 -0.16132 0.16376
-0.03446 0.00778 0.13381
0.05418 0.00778 0.00953
-0.16267 0.27583 -0.14169
-0.16249 0.26063 0.06690
-0.18056 -0.35568 0.16371
0.24037 -0.07238 -0.05450
0.23739 -0.05685 0.14212
-0.13292 0.25405 -0.05395
-0.17969 0.30130 0.12398
-0.13833 0.14385 0.13820
0.10094 -0.00796 -0.15408
0.13594 0.00778 0.01374
0.21235 -0.34313 0.15624
0.24578 -0.05897 0.00786
0.10807 -0.00573 0.01726
-0.14560 0.28155 -0.01949
-0.02593 0.00778 0.09859
0.24037 -0.04883 0.12149
-0.13201 0.20161 -0.14835
0.23479 -0.00380 0.17897
-0.02997 -0.01162 0.14493
0.11852 -0.00573 0.16104
0.24037 -0.05766 -0.12937
-0.13537 -0.29894 -0.15163
0.23402 -0.04177 -0.12967
0.22904 0.00778 0.12768
-0.14906 0.21816 -0.10691
-0.04704 0.00778 0.13325
-0.12298 0.22746 0.12526
0.15360 -0.00573 0.11739
-0.12227 -0.03192 -0.14291
0.12425 -0.02693 0.16475
0.18978 -0.00573 0.13687
0.11800 -0.00573 0.11970
0.24578 -0.06385 0.05273
0.16986 0.00778 -0.15708
-0.04946 0.00778 -0.09623
0.24523 -0.03517 0.17888
0.24578 -0.05363 0.07073
0.12796 0.00778 -0.03559
-0.14121 -0.16056 0.16881
0.19840 -0.00573 0.01663
0.09707 -0.03051 -0.16055
0.21591 -0.00573 -0.07019
-0.11715 0.09733 0.12184
0.16228 0.00778 0.02565
0.24037 -0.06009 0.08296
0.13492 -0.00822 -0.16583
-0.09465 -0.08380 0.15659
-0.20126 0.33825 -0.10813
-0.10705 0.15106 0.08935
0.23061 0.00778 0.10764
-0.14124 -0.21971 -0.17258
-0.21249 0.38167 -0.03716
0.04539 0.00778 -0.06497
-0.12445 0.20453 -0.14859
-0.09133 0.00778 0.09975
0.13316 -0.00573 -0.09824
0.24578 -0.05140 0.07973
-0.11306 0.00607 0.17072
-0.13450 0.04934 -0.03096
0.16458 -0.00573 -0.07316
0.20473 -0.22750 0.15045
0.11093 -0.02634 0.16304
0.12045 -0.00573 -0.03935
-0.03179 -0.00573 0.11603
-0.10843 0.16487 0.01112
-0.11914 0.02447 0.15408
-0.10561 0.09110 -0.04566
0.23975 -0.33673 -0.15041
-0.04558 0.00778 -0.00617
-0.10038 0.00778 -0.03953
0.09720 0.00778 -0.14671
0.21048 -0.00573 -0.00649
0.24037 0.00395 -0.11456
-0.20023 0.33659 -0.09386
-0.09740 -0.10626 0.14998
-0.11420 -0.03256 -0.12658
0.22130 -0.14948 0.16934
0.20859 -0.17525 -0.16098
0.20612 -0.25029 -0.15691
-0.14166 0.17975 0.09935
-0.15186 -0.28390 0.17439
0.24500 0.00720 -0.05142
-0.12372 -0.25161 -0.16459
0.22540 -0.03250 0.12671
0.16088 0.00778 -0.16297
0.24037 -0.04087 0.13233
0.20786 -0.09656 -0.12707
-0.17264 -0.37503 0.17351
0.20983 -0.33716 0.13584
-0.11629 0.00652 0.02558
-0.20805 0.34919 0.04109
0.08223 -0.02202 0.15935
0.18992 0.00778 -0.02777
-0.18398 0.31054 0.12636
-0.13459 0.05420 0.01094
-0.13251 0.25294 -0.11203
-0.19017 0.34899 0.10577
-0.11975 0.03930 -0.11224
-0.15282 -0.22436 0.14885
-0.02070 0.00778 0.11543
0.15646 0.00778 -0.08446
-0.03783 0.00778 0.01926
-0.13929 -0.19176 0.14515
0.13023 -0.00573 0.00094
-0.16028 0.30734 -0.08079
-0.13698 0.12152 -0.07194
0.24037 0.00279 -0.07331
0.02349 -0.00728 0.15180
-0.14547 0.20253 -0.12179
-0.13737 0.12898 0.02282
0.24037 -0.07010 -0.10186
-0.02554 -0.01787 0.13869
-0.12222 0.22486 -0.11312
-0.14525 -0.33577 0.16332
0.24037 -0.01413 0.12457
-0.11629 -0.02375 -0.11832
-0.11514 -0.17692 -0.17042
-0.11098 0.08170 0.12437
-0.02198 0.00778 0.08209
-0.10508 0.07235 -0.04244
-0.11129 0.04521 -0.00397
-0.13936 0.15665 0.11611
-0.10712 0.06534 0.07272
0.10303 0.00778 -0.03686
0.13104 0.00149 -0.16563
-0.09193 0.00778 -0.12270
0.07853 -0.01717 0.15207
0.23740 -0.10828 -0.15764
-0.14496 -0.18202 -0.15043
0.24578 -0.03004 -0.00657
0.23855 -0.19450 -0.13895
-0.12757 -0.12245 -0.14213
0.20418 0.00778 0.02724
0.24037 -0.02603 0.14575
-0.15007 0.22258 -0.00351
0.14149 0.00778 -0.14203
-0.11629 -0.02153 0.07316
-0.14214 0.18274 0.03099
0.24037 -0.03945 -0.04920
-0.12654 0.11853 -0.12102
0.23609 0.00778 -0.13837
0.23657 -0.13246 -0.15810
-0.18584 0.34619 -0.04474
-0.10531 0.08041 0.04141
-0.15929 0.25215 0.09682
-0.14162 0.27383 -0.07201
0.00430 -0.03914 -0.14847
0.24578 -0.05196 -0.08240
0.16524 0.00778 -0.13214
-0.06757 0.00778 0.08040
0.03239 0.00778 -0.03723
0.18873 -0.00954 -0.17272
-0.11190 -0.12354 0.17550
0.01112 -0.00573 0.08667
-0.12305 -0.01316 -0.00375
0.18771 -0.00573 0.04774
0.20243 0.00778 -0.15730
-0.11629 -0.01164 -0.02012
0.24037 -0.07063 0.01136
0.20101 -0.13495 -0.13553
-0.08918 0.00335 0.15755
-0.12305 -0.01328 -0.03941
0.24578 0.00355 -0.02912
-0.06547 0.00778 -0.04768
0.07398 0.00778 0.02181
-0.09396 -0.00573 -0.06226
-0.13457 0.05303 0.04305
0.06151 -0.00944 0.14988
-0.00508 -0.00573 0.11298
0.03600 -0.00573 -0.09023
-0.13620 0.10671 -0.08455
-0.23417 0.39645 -0.00259
-0.17979 0.30152 0.00336
0.24542 -0.07314 0.10136
0.21177 -0.13858 0.12810
0.20325 -0.19031 -0.15482
0.03502 0.00778 0.13469
0.13530 -0.00573 -0.12691
0.20608 0.00778 -0.00254
-0.19281 0.32469 0.10166
-0.12794 -0.26119 0.16938
0.21108 -0.29931 -0.15856
-0.13608 0.10446 0.05001
-0.13499 -0.12069 -0.15482
-0.14958 0.28874 0.12383
0.24578 -0.04376 -0.17256
-0.15643 0.25466 -0.14646
0.23725 -0.00573 -0.12557
-0.12030 -0.03767 0.09107
0.14948 -0.00573 0.06090
0.12148 0.00778 -0.07103
0.20606 -0.02027 0.16846
-0.16201 0.31011 0.07013
0.07436 -0.00573 0.14634
0.23640 0.00255 -0.14716
0.08770 0.00778 -0.07842
-0.15391 0.29657 -0.09171
0.14163 -0.03127 0.16699
-0.10114 0.01924 0.13226
0.21105 -0.03195 -0.17516
-0.04201 0.00778 -0.12811
0.24037 -0.06587 0.07650
0.11543 -0.00573 -0.14917
0.24578 -0.00700 -0.10511
-0.08348 0.00778 0.08877
0.12735 -0.00573 0.12474
-0.02168 0.00778 -0.14222
-0.12405 0.23039 0.13437
0.23762 -0.37376 -0.15726
-0.10468 0.06343 -0.00987
0.24578 0.00636 -0.10647
-0.18636 0.34690 0.09211
0.06457 0.00778 0.09118
0.23932 -0.28631 -0.14307
-0.10804 0.16097 0.07931
-0.13442 -0.15357 -0.17007
0.19847 -0.07291 0.13852
-0.06169 0.00778 -0.01315
0.20983 -0.35281 -0.14180
-0.06666 -0.00573 0.06753
-0.11629 -0.00770 0.11287
0.01070 0.00778 -0.01181
-0.16174 -0.27360 -0.15651
0.20025 -0.07970 -0.13116
-0.17684 0.29470 0.08214
-0.06727 0.00778 -0.01236
0.24037 -0.03037 0.07409
0.23564 -0.00573 -0.03622
0.21349 -0.10230 -0.16656
0.24037 -0.03763 -0.00708
0.14967 -0.00573 0.15865
-0.00762 -0.00453 -0.14780
-0.12762 0.23992 -0.04257
-0.12305 0.00403 -0.08469
0.21097 -0.18110 0.16324
0.24046 -0.04651 -0.17892
0.14552 -0.01052 -0.16715
-0.12305 -0.02517 -0.02397
-0.11629 0.00730 -0.10164
0.03112 -0.00573 -0.02925
-0.05924 0.00778 0.05312
0.24037 -0.01237 0.08014
-0.14344 0.19085 -0.09776
-0.10620 0.14258 0.10723
0.03974 -0.03473 0.14708
-0.19099 0.35312 -0.03763
-0.05990 0.00756 -0.14108
0.17734 0.00778 0.02299
-0.06536 0.00778 -0.11230
-0.13390 0.07467 0.12517
-0.12305 -0.00359 0.09489
-0.12677 0.16822 0.14658
-0.10607 -0.14380 -0.16848
-0.11008 0.06493 -0.12998
-0.00119 0.00778 -0.12632
0.00997 -0.00188 0.15006
-0.04100 -0.00573 -0.02793
0.08735 0.00778 0.13177
-0.23276 0.38172 0.02949
0.19831 -0.06808 -0.13253
-0.09826 -0.11218 -0.16294
0.23892 -0.27386 -0.15660
0.19786 -0.05693 -0.14877
0.21835 -0.00573 -0.04883
0.24037 -0.00328 -0.09028
-0.11110 0.03960 -0.14407
-0.12305 -0.02228 -0.08051
-0.19757 0.33231 -0.05091
-0.09947 -0.00573 0.13309
0.15616 -0.03065 0.16886
0.09198 0.00778 -0.15078
-0.12305 -0.00214 0.11120
-0.14685 0.28381 -0.11131
-0.15391 0.23581 0.06404
0.10807 -0.03437 -0.16189
-0.10581 0.12216 0.09391
-0.12305 -0.04057 0.03161
-0.11711 0.20742 -0.06245
-0.04857 -0.00573 -0.10754
0.23732 -0.04895 0.14816
0.24037 -0.05086 0.01864
-0.07208 0.00778 -0.08990
-0.04708 -0.01942 0.14273
-0.03888 0.00778 0.10911
-0.11269 -0.18232 -0.14561
0.12995 0.00778 -0.07538
-0.13226 0.08955 0.12103
-0.15040 -0.35348 0.15388
0.21293 -0.04365 -0.16839
-0.14616 0.28255 0.00756
-0.10581 0.10030 0.10686
-0.15154 -0.23970 0.17036
0.23628 0.00778 0.06116
-0.11258 -0.14524 -0.14124
-0.11926 0.21476 -0.14255
0.22151 -0.00573 0.10669
0.05767 0.00778 0.12525
-0.13863 0.14758 -0.08063
0.24578 -0.05874 0.02253
0.19745 -0.02011 0.15419
-0.22384 0.37145 0.00796
0.00250 0.00778 0.05180
-0.15753 0.24680 -0.06346
-0.18338 0.30959 0.09897
-0.19597 0.32974 0.10317
0.08455 0.00778 0.15472
0.24037 -0.05340 -0.14550
0.21390 -0.33181 0.13314
-0.16514 0.26702 0.00021
0.23220 -0.36710 -0.13410
-0.10581 0.13869 0.08078
0.24037 0.00345 0.07219
0.24037 -0.03620 -0.02039
-0.14290 -0.32742 0.16092
-0.14848 0.21564 -0.06043
0.22613 -0.00573 -0.05360
-0.13391 0.08000 0.09273
0.22934 -0.22659 -0.13004
-0.00636 -0.03218 0.14116
-0.18041 0.33692 -0.11149
-0.10661 0.14666 0.04937
-0.16428 0.26496 0.06999
0.23081 -0.08103 0.16415
-0.11351 -0.01954 -0.13638
0.24578 -0.04374 0.15668
0.12554 -0.00573 0.05777
-0.08102 0.00778 -0.02077
0.24578 -0.04194 -0.04163
0.24037 0.00221 0.15687
-0.13086 -0.09569 0.16894
0.00830 -0.00573 -0.10115
0.24578 -0.06376 -0.12684
0.04589 0.00778 -0.10744
-0.14331 -0.17218 0.16832
0.24578 -0.02800 -0.16038
-0.19514 0.32840 -0.02529
-0.10781 -0.09528 -0.13967
0.22484 -0.00573 -0.12481
0.04964 -0.00573 0.05061
-0.12118 0.22132 0.04484
-0.12305 -0.00342 -0.02694
-0.24187 0.39551 -0.01436
0.20237 0.00778 0.12466
-0.20493 0.37200 0.05973
-0.11603 -0.21235 0.16377
-0.12837 -0.09387 0.14685
-0.03235 0.00778 0.00318
0.21616 -0.30217 0.13083
-0.13519 0.08656 -0.07795
-0.13501 0.07690 0.01081
-0.13508 0.08049 0.04753
0.24578 -0.00281 -0.01842
0.20067 0.00778 0.05267
0.05558 -0.00573 -0.04763
-0.02212 -0.00573 -0.03055
-0.02837 0.00778 0.13206
-0.13360 0.25584 -0.08184
-0.11380 0.19431 0.13027
0.23419 -0.18592 0.16010
0.21207 0.00778 -0.15710
-0.00540 -0.00573 -0.06206
0.23293 -0.19338 0.16070
0.08971 0.00778 -0.08911
0.08980 -0.00573 -0.11988
0.12736 0.00778 -0.15955
-0.13907 -0.23643 -0.13801
-0.12761 -0.21150 -0.17338
-0.11619 0.20426 0.14110
-0.18756 -0.38591 -0.14902
0.24578 -0.04992 -0.02679
0.14045 -0.00573 -0.11441
-0.11727 0.20795 0.00269
-0.14255 0.18524 -0.13110
-0.16753 0.31894 -0.12188
-0.02762 -0.03458 0.13842
-0.11629 0.00444 0.00296
0.23161 0.00778 0.07703
-0.13547 0.06395 0.12740
-0.02682 -0.02208 -0.14479
-0.11402 0.19536 -0.09861
-0.13444 0.19114 0.15132
-0.22167 0.36853 0.04780
-0.11534 0.20137 0.04737
-0.08841 0.00778 0.04935
-0.10940 -0.00849 0.13456
-0.14241 0.27559 0.03450
0.17095 -0.00573 0.03429
-0.15220 0.29348 -0.04856
0.21133 -0.03142 0.12490
-0.13750 0.13135 -0.09845
-0.12554 0.23435 0.00029
-0.20532 0.34478 0.05327
0.24578 -0.06291 0.10014
0.20477 -0.12220 -0.13031
-0.15104 0.22679 0.10720
0.19733 -0.04399 -0.15611
-0.11164 -0.04773 -0.17518
0.18868 0.00778 -0.01978
0.04791 0.00778 0.15057
0.21111 -0.38512 0.15286
0.22384 -0.19423 -0.12565
0.10777 -0.00573 0.06565
-0.13805 0.14042 0.09669
0.20119 -0.08815 -0.15897
-0.12305 -0.03385 0.02426
0.00147 0.00778 -0.13480
0.03530 -0.01176 -0.14569
0.21706 -0.39307 0.13621
-0.06884 -0.00573 0.05786
-0.11629 0.00258 -0.04262
-0.13726 0.12686 -0.12411
0.20471 -0.22693 0.14596
-0.13659 0.11423 0.05649
-0.15211 0.29332 -0.08613
0.08825 -0.02203 0.15332
-0.16826 0.32010 0.06149
0.19839 -0.07075 0.15640
-0.09718 0.01619 0.13536
-0.13819 -0.14770 0.16927
-0.11629 -0.00947 -0.04688
0.22468 -0.00573 0.07467
-0.11629 -0.02827 -0.09967
-0.07235 0.00778 0.04197
-0.12387 0.22991 -0.06260
-0.13680 0.18058 0.14948
-0.08852 -0.00595 -0.15235
-0.10498 0.06879 -0.07250
-0.23459 0.38377 0.04697
0.00650 0.00778 -0.07220
-0.16369 -0.37628 0.14727
0.18219 0.00778 0.13962
0.09881 -0.04281 -0.15922
-0.11674 0.20612 0.04664
-0.11474 0.08426 -0.09320
0.12337 -0.00573 -0.00659
-0.11466 0.19316 -0.14735
-0.12692 -0.05418 0.15095
0.23768 -0.09082 -0.13334
-0.15055 0.22463 0.03885
-0.11244 0.18788 -0.13624
0.05307 -0.00845 -0.15531
-0.11883 -0.20253 -0.14463
-0.03548 -0.00573 0.04962
-0.15389 0.23573 0.00646
-0.15577 -0.32178 0.14184
-0.11262 0.13671 0.13509
-0.02380 -0.00573 0.02709
-0.11890 -0.14436 -0.13756
0.24578 -0.00143 0.07097
-0.19491 0.32804 0.10727
-0.13040 0.24733 0.08220
0.10500 0.00778 0.12059
-0.15014 0.22286 0.12746
0.23875 -0.21921 0.14645
-0.13926 0.15542 0.13734
0.20015 -0.11440 0.14346
0.22821 -0.00573 0.07823
-0.15844 -0.25730 -0.15101
-0.10633 0.14385 -0.06494
0.17183 0.00778 0.00155
0.24037 -0.02756 -0.14771
-0.15813 0.30389 0.02705
0.19092 -0.02757 0.17333
-0.10581 0.11877 -0.04459
0.11140 0.00778 0.06888
-0.13210 -0.28636 -0.15488
0.24578 -0.01442 0.00855
0.00051 0.00778 -0.08738
-0.07153 0.00778 0.01354
-0.10996 0.00778 -0.04342
-0.10792 0.15979 -0.11010
-0.17601 0.29279 -0.05811
0.16797 -0.00573 -0.05983
0.12535 -0.03987 -0.16401
-0.11629 -0.02409 0.08302
-0.11566 -0.12590 0.17744
0.19910 0.00778 0.06705
0.20475 -0.01530 -0.15466
0.00421 -0.02469 0.14251
0.02668 0.00461 0.15221
0.02782 0.00778 -0.08703
0.20063 -0.05881 -0.12990
-0.08365 0.00778 -0.08927
-0.11280 0.18957 0.00065
-0.10581 0.12897 0.12404
-0.15452 0.29767 0.09210
-0.22140 0.36816 0.02737
-0.13631 0.10875 -0.06652
0.20983 -0.19621 -0.13064
-0.08842 -0.00354 0.15218
-0.22407 0.39256 0.03414
0.20818 -0.18523 -0.16038
-0.10581 0.09869 0.01802
-0.11629 -0.04024 0.01510
0.13074 0.00778 0.09024
-0.06879 -0.00041 -0.13994
0.21827 -0.06154 -0.17036
0.09306 -0.00573 -0.09438
-0.14322 0.27725 0.02272
0.16047 -0.03891 -0.16853
-0.22476 0.37270 0.07157
