-0.19556 0.31719 -0.11107
-0.17607 0.14689 -0.10660
-0.18248 0.32748 -0.07181
0.17319 0.04390 0.02678
0.27471 -0.34361 0.22391
-0.18961 0.22948 0.08718
0.10770 0.04390 -0.18161
-0.13157 0.06586 0.05193
-0.04491 0.04390 0.18157
-0.18256 0.27507 0.17654
0.13900 0.05773 0.19757
-0.18205 0.27937 -0.18186
0.16858 0.04390 -0.10092
0.20177 0.04390 0.04710
0.09665 0.04390 0.17357
0.24212 0.04390 0.00097
-0.03355 0.00000 -0.15785
-0.08751 0.04390 -0.17663
0.06156 0.04390 -0.10525
-0.14488 0.06044 -0.16993
0.03476 0.04390 -0.17683
0.25025 0.04222 -0.11454
-0.17034 0.26248 -0.10360
-0.10934 0.04390 -0.02149
-0.16265 0.22425 -0.19757
0.01441 0.04390 0.09507
0.23756 0.06586 0.04620
0.19532 0.06586 -0.01439
0.10407 0.00000 -0.03457
-0.13193 0.08694 -0.22391
0.08489 0.00000 -0.00145
0.03717 0.00000 -0.10302
0.23278 -0.19975 -0.18000
-0.15399 -0.11515 -0.20381
-0.15735 0.28528 -0.19757
0.24339 -0.08692 -0.22391
0.09144 0.04390 0.13800
0.10422 0.06586 0.16180
0.21851 0.04390 -0.10933
0.11575 0.06586 0.16178
-0.00999 0.06586 -0.09716
-0.19482 0.23648 -0.00944
-0.04398 0.00000 -0.06070
0.27328 -0.32213 -0.18000
-0.03857 0.00000 0.09952
-0.07421 0.00000 -0.17967
-0.03334 0.06586 0.18363
0.25451 -0.28198 -0.22391
-0.14488 0.06291 0.03383
-0.27084 -0.35123 0.21391
0.27659 -0.31554 -0.18208
-0.13926 0.27245 0.19757
0.20408 0.04390 0.09687
0.27659 -0.34412 -0.21351
-0.14488 0.01745 0.06729
-0.17299 -0.14456 -0.19757
0.22481 0.04390 -0.05750
0.15714 0.05623 0.19757
0.23269 -0.18511 -0.21302
-0.18063 0.30460 -0.10441
-0.03750 0.06586 0.03691
0.20803 0.04390 0.17459
0.23796 0.04390 -0.12237
0.23443 -0.34640 -0.22391
-0.17732 -0.18512 -0.20506
0.16159 0.00000 -0.15706
0.24915 0.04390 0.04101
0.27659 -0.15689 0.19540
-0.15600 0.12170 -0.21137
-0.13154 0.01536 0.22391
-0.22860 -0.20725 0.20815
-0.18023 0.33727 -0.19757
0.09666 0.04390 -0.03145
0.04633 0.04390 -0.12476
0.24632 -0.26229 0.22391
0.02401 0.00000 -0.05035
-0.22673 -0.32062 -0.22391
-0.05438 0.00761 -0.19757
0.02753 0.00000 -0.01749
0.25470 -0.02167 -0.18000
-0.20011 0.28557 0.05249
0.16853 0.06586 -0.06735
0.26613 -0.21662 -0.22391
-0.03783 0.04390 0.10251
-0.15401 0.28886 0.19757
-0.14488 0.00031 0.05071
0.12565 0.04390 0.08131
0.15965 0.00000 0.19330
0.00358 0.04390 -0.13486
0.13844 0.00000 0.06181
-0.21984 -0.18097 0.21786
0.18032 0.06586 -0.12330
0.02635 0.04390 -0.03239
-0.17665 0.25564 -0.19203
0.00857 0.06586 0.03204
-0.17234 0.23413 -0.00909
-0.16817 0.18663 0.18676
-0.14488 0.04039 0.06513
0.25025 0.01918 -0.15662
-0.14488 0.06413 0.05306
-0.19489 0.29489 0.11968
-0.23695 -0.23230 -0.22360
-0.16300 0.16868 0.02337
0.23269 -0.05801 0.21297
0.26580 -0.06565 -0.18000
-0.18669 0.20557 0.08291
-0.14488 0.03671 0.14146
-0.09709 0.03425 0.19757
-0.08184 0.06586 -0.03398
-0.18580 0.23270 -0.12316
0.23269 -0.25882 -0.21415
0.19352 0.04390 0.18146
0.23269 0.02243 0.20901
-0.06231 0.00000 0.04800
-0.00560 0.04390 0.16812
0.23864 -0.20737 0.18000
0.25025 0.03736 -0.06508
-0.20519 -0.13701 0.21419
0.00627 0.04390 0.04486
0.16314 0.04390 -0.04081
0.26029 -0.15812 0.22391
-0.16934 0.12580 -0.02231
0.21080 0.04390 0.15925
0.22122 0.06586 0.04408
-0.18229 0.24079 0.15262
0.25025 0.00914 0.04080
0.13194 0.06586 -0.09586
0.07310 0.04581 -0.19757
0.22690 0.04390 0.18903
-0.17096 0.25927 0.09389
0.08746 0.04390 -0.03689
-0.20327 0.31788 -0.07232
-0.16290 0.24044 0.13595
0.11345 0.00000 0.13009
0.02342 0.04390 0.13628
-0.01538 0.03726 0.19757
-0.12423 0.01050 0.22391
0.15799 0.04390 -0.01833
-0.14104 0.06586 0.04084
0.11350 0.04390 -0.04228
-0.15568 0.13015 0.06508
0.16623 0.04390 0.04448
-0.16778 0.33597 -0.18169
0.11417 0.06586 0.05934
-0.27487 -0.34649 0.19757
-0.17291 0.23759 -0.00427
-0.16943 0.30563 -0.15082
0.24611 -0.35123 -0.22130
-0.12779 0.06586 0.03074
-0.15384 0.10660 -0.21413
0.25025 0.00898 0.16173
0.23269 -0.16421 0.20149
-0.18581 0.17254 0.01729
-0.16018 0.31801 0.19757
0.13452 0.02126 -0.19757
0.00179 0.04390 0.11570
-0.17613 -0.04985 0.22223
-0.05130 0.00656 0.19757
-0.16827 0.12595 -0.10082
0.23403 -0.07769 -0.18000
0.24053 -0.10533 0.18000
-0.14488 0.04511 -0.11813
-0.02238 0.04390 0.13032
0.07267 0.06586 -0.10120
0.14826 0.06586 -0.12774
0.24587 0.00000 0.06331
0.12799 0.00000 -0.17425
-0.14488 0.02418 0.05965
-0.13829 -0.06804 0.22195
0.14026 0.06586 -0.18469
0.23052 0.06586 -0.07788
-0.03394 0.04390 -0.14478
0.15194 0.04390 0.08612
-0.20749 0.32719 0.00531
-0.04866 0.06586 0.08012
0.00464 0.04390 -0.12555
0.27659 -0.31622 0.21266
0.21592 0.04390 -0.16814
-0.14511 0.20504 -0.22391
0.12136 0.06586 0.15021
0.26158 -0.29098 -0.22391
-0.18803 0.31823 0.08099
-0.16666 0.19211 -0.00115
-0.13672 0.04390 -0.10425
0.23533 0.04390 0.06989
0.27659 -0.31749 -0.20965
-0.13879 0.03044 0.22391
-0.13885 0.24779 0.22391
-0.15809 -0.04276 -0.22391
-0.11231 0.07339 0.19757
0.24718 -0.17721 0.18000
-0.00524 0.06586 -0.01358
0.21783 0.04390 0.01398
-0.19532 0.24978 -0.04949
-0.14033 -0.07416 -0.20503
-0.20389 -0.26484 -0.22262
-0.14488 0.03355 -0.06742
-0.18890 0.20321 -0.04860
-0.18167 0.23837 -0.15431
0.05848 0.00000 -0.04146
0.18316 0.04390 -0.14408
-0.14488 0.01187 -0.02899
0.23269 0.00877 -0.20571
-0.18413 0.16118 0.02244
-0.17710 0.28346 0.06255
-0.09867 0.04390 -0.03836
-0.19224 0.28784 0.13238
-0.17372 0.24574 0.20199
-0.19721 0.32207 -0.13071
-0.19238 -0.09860 0.21107
-0.15272 0.12810 -0.11311
-0.05757 0.04390 0.09350
-0.20271 0.29816 -0.03739
0.09580 0.00000 -0.15063
-0.14354 0.16039 -0.22391
-0.17304 0.33601 -0.15438
-0.00021 0.00000 -0.08650
-0.05808 0.00000 0.05400
-0.02450 0.00000 0.13229
-0.17706 0.16750 0.12081
-0.10850 0.09658 0.19872
-0.13013 0.24797 -0.21587
-0.12708 0.07295 -0.19757
0.16109 0.00000 -0.17699
-0.19524 -0.21175 -0.19757
-0.19925 0.27021 -0.02334
-0.02901 0.04390 -0.11415
0.23269 -0.03599 -0.18544
0.17016 0.06586 -0.14285
-0.17182 0.15899 -0.14744
0.08676 0.04390 0.14343
-0.18771 -0.13872 -0.19757
-0.19642 0.29928 0.11263
-0.15841 0.27705 0.19757
-0.11790 0.14696 0.19757
0.24759 0.00984 -0.22391
-0.13961 0.05435 -0.19757
-0.15491 0.24590 0.18345
-0.23924 -0.33417 -0.22391
-0.17449 0.27702 0.08247
-0.14038 0.14853 0.18837
-0.10584 0.00000 0.04041
-0.07639 0.00000 -0.03164
0.11269 0.04390 0.13836
-0.08564 0.06586 -0.07624
0.27659 -0.29674 -0.20566
-0.18333 0.19474 0.10185
0.09963 0.00000 -0.16559
-0.06019 0.04390 0.17246
0.18933 0.00000 -0.15199
0.24183 0.04390 0.10790
-0.15256 -0.06808 -0.19757
-0.18897 -0.22007 0.21967
-0.14902 -0.01247 0.19757
0.01316 0.00000 0.06618
-0.18529 0.19960 -0.08908
-0.15916 0.15333 -0.06038
0.24737 0.04390 0.01393
-0.18010 0.30283 -0.22391
-0.15537 0.15850 -0.10773
0.10133 0.04390 0.12304
-0.25670 -0.33542 -0.22391
0.12084 0.00000 -0.11089
0.02317 0.00000 0.14415
0.03372 0.06586 -0.17945
-0.16771 0.34421 0.18754
-0.17644 0.28250 -0.06973
0.25025 0.01041 0.17563
-0.18382 0.31882 -0.15482
0.27659 -0.18794 0.19437
-0.01295 0.06586 0.12243
-0.26810 -0.32574 -0.20983
0.00216 0.06586 0.17972
0.22912 0.06586 0.05278
-0.15786 0.15551 0.07998
-0.26176 -0.33275 0.19757
0.07670 0.04390 0.15135
-0.05631 0.04390 -0.06480
0.04059 0.00000 0.00825
-0.12790 0.00000 0.18025
-0.20244 -0.26047 0.20804
0.25744 0.03292 -0.22391
0.08821 0.06586 -0.10979
0.08800 0.06586 0.16160
0.23269 -0.21883 0.19324
-0.14488 0.00191 0.10089
-0.07830 0.06586 0.13584
-0.14488 0.05404 0.01191
-0.18609 0.17337 -0.00844
-0.15908 0.17662 -0.09830
0.25025 0.02447 -0.18275
-0.14488 0.02997 0.03083
0.26196 -0.10593 0.18000
0.08586 0.04390 -0.18444
-0.18254 0.32198 0.06083
-0.18369 0.30418 -0.00100
0.02627 0.04390 0.05503
-0.15188 0.19971 0.16721
-0.17602 0.30061 -0.19757
-0.19239 0.34464 -0.01036
-0.09999 0.00000 0.02383
-0.11738 0.06586 0.04107
0.06135 0.06586 -0.08731
-0.16828 0.12594 -0.03638
-0.14388 0.15736 -0.17743
-0.19243 0.34463 -0.14702
-0.13300 0.26807 -0.20508
0.14814 0.00000 -0.10270
-0.03381 0.06586 0.12491
0.11444 0.00000 -0.18194
0.13590 0.04390 -0.18615
-0.05901 0.00000 -0.07930
-0.24375 -0.34407 0.19757
0.07389 0.06586 0.17511
-0.01776 0.04390 0.19502
-0.19399 0.24356 0.05772
0.10031 0.04390 0.09483
0.05941 0.04390 0.00487
-0.19963 0.29281 0.07398
-0.16469 0.18258 0.22325
-0.07282 0.04390 0.13314
0.12840 0.02726 -0.19757
-0.14088 0.20003 0.19757
0.24168 -0.12409 -0.22391
0.24597 -0.17156 0.18000
-0.13506 0.23221 0.19757
0.25797 -0.10499 -0.18000
0.00000 0.04390 -0.06848
-0.12619 0.07956 -0.19757
-0.00728 0.00000 -0.12428
-0.20406 0.33171 -0.08432
0.02411 0.00000 0.17139
0.13620 0.06586 0.13934
-0.15792 0.12738 0.05696
-0.16457 0.18002 -0.02337
0.17747 0.04390 -0.16223
-0.02963 0.00000 0.01532
0.24351 0.04390 0.20163
0.12133 0.06586 0.11793
-0.03489 0.06586 -0.18306
-0.18620 0.17486 -0.01343
0.20231 0.04903 -0.19757
-0.12698 0.16958 -0.19757
-0.20710 0.32875 -0.03472
0.25637 0.04390 -0.18184
0.27659 -0.11266 0.21573
0.02632 0.00000 -0.16884
-0.19646 0.26756 -0.07045
0.23269 -0.27232 -0.21241
0.24188 0.00000 -0.06546
0.10275 0.00000 -0.13027
-0.14893 0.10277 -0.19757
0.27659 0.00088 -0.20052
-0.16222 0.16109 -0.00849
-0.21668 -0.17148 -0.21170
0.24080 0.02250 -0.19757
0.25025 0.05158 -0.09501
0.12910 0.00000 -0.00098
-0.17439 0.26858 -0.22391
0.22676 0.00000 0.11672
-0.07421 0.04390 0.08198
0.09998 0.01279 0.19757
-0.07891 0.00000 0.01606
-0.02190 0.06586 -0.18692
-0.18238 0.17035 -0.07678
-0.16321 0.17217 -0.20190
0.12408 0.04390 -0.14208
-0.26219 -0.33345 0.22391
0.10199 0.06586 -0.11588
0.16411 0.00000 0.02601
-0.01937 0.00000 0.14124
0.07909 0.04390 -0.08934
-0.18990 0.23494 -0.09217
0.16384 0.04390 -0.15359
0.23269 -0.03088 -0.19323
0.04600 0.06586 0.19305
0.19227 0.00000 0.19671
-0.09674 0.06586 0.08123
-0.14145 0.15907 -0.19757
0.20331 0.04390 -0.02725
-0.11907 0.06586 -0.14573
0.04160 0.04390 -0.08078
0.15907 0.04390 0.11084
-0.17012 -0.07756 -0.19757
0.01554 0.04390 -0.14862
-0.17169 -0.03653 -0.21094
-0.14130 0.25219 -0.19757
0.12289 0.00000 0.00377
0.27659 -0.19478 -0.19226
0.03806 0.06586 -0.14836
0.07036 0.01034 -0.19757
-0.02433 0.04390 -0.17078
0.02860 0.04390 -0.13509
0.27508 -0.13456 0.18000
-0.14488 0.05539 -0.17809
-0.17916 0.13758 0.05997
-0.01403 0.04390 0.08439
-0.16455 0.18641 -0.22391
-0.10334 0.04390 0.10576
0.00147 0.04390 -0.02195
-0.14488 0.03674 -0.19069
0.02511 0.04390 -0.16772
0.16838 0.04390 0.14454
-0.05357 0.04390 0.00414
0.00803 0.06586 0.10359
-0.10521 0.04390 -0.03659
-0.00801 0.02518 -0.19757
0.07027 0.04390 0.15142
0.11716 0.04390 -0.16993
0.12665 0.04390 -0.07316
-0.11094 0.01401 0.20629
0.26099 -0.24143 0.18000
0.25025 0.06504 0.06299
0.25025 0.04888 -0.01810
0.15885 0.00000 0.18766
0.27659 -0.25334 0.20786
0.05217 0.04390 -0.08175
0.05647 0.04390 -0.05354
-0.16185 0.19084 0.08972
-0.19258 -0.16326 0.22391
-0.00859 0.06586 -0.04115
0.14370 0.06586 0.13832
0.27659 -0.06824 -0.18811
-0.12615 0.04390 -0.00353
-0.16250 0.12675 0.12746
-0.13959 0.04390 -0.11627
-0.17470 0.31260 0.19757
-0.17805 0.12677 -0.05309
0.10895 0.04390 -0.10512
0.23269 -0.04752 -0.19555
-0.01396 0.04390 -0.12648
-0.08452 0.06586 0.05041
-0.17518 -0.05556 -0.22391
-0.16155 0.22445 -0.13035
-0.05950 0.06586 -0.17562
0.27659 -0.17804 0.19590
0.08245 0.02972 -0.19757
-0.11326 0.00000 -0.07085
0.27570 0.04390 0.19400
0.27659 -0.07866 -0.21931
-0.13476 0.16996 0.22391
0.27659 -0.34195 -0.21838
0.06482 0.04390 0.10125
0.05316 0.04390 -0.19431
0.23269 -0.11922 0.21452
0.26225 0.02338 -0.22391
0.12406 0.06586 0.18436
-0.14488 0.03471 -0.01433
0.14643 0.04390 0.03747
-0.06141 0.04390 -0.02917
0.20680 0.04390 -0.12061
0.27659 -0.17858 -0.18793
-0.04748 0.06586 -0.00937
-0.19187 -0.21793 0.22391
0.22701 0.06586 0.02180
-0.19913 0.34370 0.07092
0.03709 0.04390 -0.06816
0.24723 0.04390 0.07647
0.01269 0.00000 -0.17599
0.23444 -0.24214 -0.18000
-0.14072 0.13044 0.17464
0.27659 -0.30005 -0.19609
0.25025 0.00133 0.12668
-0.13962 0.04390 -0.16627
0.21954 0.06358 -0.19757
0.04021 0.04390 -0.00818
-0.09528 0.00000 -0.08710
-0.20966 -0.15043 0.21173
0.27223 -0.26011 0.22391
0.14891 0.04390 0.11820
-0.17163 0.23149 -0.02768
0.18484 0.04938 0.19757
-0.09367 0.04390 0.03234
-0.14488 0.06147 -0.00247
-0.19236 0.22114 -0.02740
0.24905 0.04390 0.10147
-0.14688 0.16045 0.19757
-0.16260 0.34877 -0.20612
0.13554 0.04390 0.16837
0.25025 0.00766 0.10320
-0.18042 0.13165 0.00172
-0.06047 0.00000 0.10829
-0.03186 0.06586 0.00282
-0.05641 0.04390 -0.15975
0.21053 0.04390 0.18701
-0.06672 0.06586 0.10305
-0.18829 -0.21802 0.20305
-0.11932 0.06586 0.09779
-0.11208 0.04390 0.19502
-0.13811 0.04390 0.02856
0.23476 0.06586 -0.13629
0.21406 0.06586 -0.02666
0.27659 -0.16014 -0.19729
0.12222 0.04390 -0.18823
-0.16971 0.34239 0.22391
-0.14488 0.02091 -0.05466
-0.17712 -0.05281 -0.21974
-0.00367 0.04390 -0.02857
-0.16515 0.12684 0.16045
-0.12194 -0.01897 0.20264
-0.16994 0.27682 -0.12185
-0.19930 -0.11935 -0.19849
0.24890 -0.07238 -0.22391
-0.04152 0.00000 0.01110
0.25025 0.00620 0.00168
-0.14488 0.04706 -0.16953
-0.14098 0.26306 -0.19757
-0.17273 0.29724 0.12217
-0.15096 0.00223 0.19757
-0.14488 0.04794 -0.08264
-0.00014 0.04390 -0.15534
-0.22633 -0.24974 -0.22391
-0.18030 0.34631 0.12469
0.27659 -0.16681 0.18611
-0.17403 0.34705 0.15763
-0.14488 0.01592 -0.06541
-0.09607 0.04320 0.19757
-0.21311 -0.29248 0.20524
0.26180 -0.09539 -0.22391
-0.06212 0.04728 -0.19757
0.26435 -0.12704 0.22391
-0.05292 0.00000 0.13459
0.12463 0.06586 0.07329
0.23395 -0.00262 0.22391
0.14579 0.00000 0.10084
0.22007 0.04390 -0.00703
0.18597 0.00000 0.07455
-0.20040 0.34353 -0.08301
-0.17923 0.12524 -0.01801
-0.16276 0.30118 0.19757
0.17487 0.00000 0.10113
-0.25655 -0.34694 -0.22391
-0.15740 0.23239 -0.16186
0.16548 0.04390 -0.01325
0.11518 0.05215 -0.19757
-0.19645 0.25439 0.04067
-0.20286 -0.26174 -0.20685
-0.15733 0.12746 0.07410
-0.14488 0.04579 0.15833
-0.17419 0.12874 0.10169
-0.14828 0.06769 -0.20381
0.21946 0.04390 0.18553
0.22964 0.04390 -0.11677
-0.19678 -0.11179 0.19857
0.15220 0.00000 0.10197
-0.15511 -0.08363 -0.19757
-0.11931 -0.00183 0.19757
-0.27043 -0.33355 0.22391
0.20980 0.06586 0.05157
0.25025 0.01002 0.18411
-0.08936 0.04390 0.17287
-0.19188 0.24163 -0.08096
-0.25319 -0.28103 -0.20264
-0.00712 0.00000 0.05956
-0.18029 0.34631 0.15011
-0.23440 -0.30830 -0.22391
-0.17818 0.18752 -0.13324
-0.12982 0.06586 0.05886
-0.23353 -0.28171 -0.22391
0.27659 -0.11470 0.21113
0.10770 0.04390 -0.12461
0.27563 -0.26978 0.22391
-0.06226 0.00000 -0.02129
0.01637 0.04390 -0.00100
-0.03093 0.04390 -0.02337
-0.16897 0.16082 0.16564
0.25464 -0.22662 -0.18000
0.19801 0.06586 -0.08882
0.17523 0.04390 0.09146
0.12482 0.04390 0.10397
-0.14488 0.03592 0.16067
0.06637 0.06586 0.06400
-0.11286 0.00000 0.10129
-0.03759 0.04390 0.12084
-0.21387 -0.29478 -0.20984
-0.06304 0.00000 0.08839
0.02263 0.04390 0.19604
-0.11949 0.13406 -0.22391
0.17571 0.00000 -0.08197
0.04285 0.06586 -0.04232
0.11320 0.04390 0.17412
-0.15469 0.15053 0.19757
-0.01566 0.04390 -0.10638
0.13136 0.04390 -0.07039
0.24754 -0.13708 0.18000
-0.03508 0.00000 -0.17899
-0.17531 0.33569 0.19757
-0.13852 -0.04184 -0.19757
-0.08996 0.06586 0.16803
0.10447 0.04390 -0.01883
0.21191 0.06586 0.02283
-0.06124 0.00000 0.15477
-0.15690 0.19738 -0.13612
-0.07929 0.06586 0.16352
-0.11903 -0.01025 0.20558
0.20331 0.04390 0.16776
-0.17356 0.23664 0.19421
0.27659 -0.12361 0.21961
-0.05305 0.04390 -0.13083
-0.17891 -0.18988 -0.22269
-0.07918 0.04390 -0.03696
0.26087 -0.07461 0.22391
0.23269 -0.26592 0.19352
-0.04240 0.06586 -0.14346
0.02827 0.04390 0.07582
0.21176 0.00000 0.07330
-0.16377 0.28986 0.19757
-0.04670 0.06586 -0.04108
-0.17623 0.34688 0.19152
0.25789 -0.27432 -0.18000
0.16960 0.06586 0.12291
-0.18921 0.20970 0.05922
-0.00999 0.06586 -0.03419
-0.05149 0.04390 -0.19727
-0.14759 0.14920 -0.15160
0.06655 0.04390 -0.05407
0.07208 0.04390 0.01954
-0.10736 0.06586 -0.02487
-0.07489 0.04990 -0.19757
-0.01744 0.04390 -0.00475
0.27659 -0.11248 0.22255
0.23269 -0.00666 -0.19262
0.05798 0.04390 0.09171
-0.11182 0.11979 -0.22004
0.24660 0.00000 0.07561
0.00251 0.06586 0.06604
0.24742 0.00000 -0.19085
0.17604 0.00000 0.08104
-0.13156 -0.02347 -0.19757
-0.10983 0.00000 0.12152
0.25379 0.00503 0.22391
-0.07855 0.04390 -0.10318
0.21716 0.04390 0.09280
0.27627 -0.11202 0.18000
0.23269 -0.02520 -0.18738
-0.10460 0.06923 0.20120
0.26938 -0.33598 -0.22391
-0.04170 0.04390 0.06157
0.02542 0.06586 -0.12886
0.00353 0.06586 0.12784
0.27363 0.02748 0.18000
-0.04052 0.06586 -0.02006
0.16620 0.04390 -0.12141
0.14955 0.00000 -0.12233
0.07956 0.02080 0.19757
-0.11472 0.04390 0.10447
-0.24263 -0.27702 0.22391
0.10802 0.06586 0.10986
0.15751 0.06586 0.01374
-0.00757 0.00000 -0.10526
-0.19888 0.32481 0.12091
0.27659 -0.17421 -0.19955
0.21600 0.00000 -0.15002
-0.17929 0.28886 -0.03678
0.25025 0.04559 0.18730
-0.14977 0.12986 0.22391
0.19513 0.00000 -0.01169
-0.15308 0.12805 0.14430
-0.06414 0.02763 -0.19757
0.26098 0.01153 0.18000
-0.03973 0.04390 0.04548
0.23956 -0.30816 0.22391
-0.12316 0.19916 0.20427
0.10405 0.04390 -0.11395
0.03702 0.04390 -0.18990
-0.13770 0.13138 0.19757
0.16668 0.04390 0.09893
-0.18442 0.32068 0.19824
-0.17143 0.34754 -0.18990
-0.06623 0.00000 -0.02857
-0.17272 -0.10773 0.22391
-0.17549 0.32493 0.22391
-0.15377 0.20488 -0.16077
-0.18139 0.19935 -0.12152
0.07510 0.04390 -0.12562
-0.11946 -0.01154 0.20073
0.23002 0.04390 0.12554
0.27061 -0.31486 -0.22391
0.16272 0.06586 -0.04890
-0.00410 0.04390 0.06392
0.20276 0.04390 -0.10006
0.04756 0.06586 0.15271
0.03639 0.04390 -0.09093
-0.13670 0.29399 -0.20020
0.00333 0.00000 -0.13410
-0.16282 0.26386 0.19757
0.10727 0.04390 0.00862
-0.17488 0.25389 0.22057
-0.12564 0.04390 -0.02714
-0.17090 0.29030 0.22391
-0.07903 0.04390 0.10264
-0.02868 0.06586 -0.14949
0.19318 0.04390 0.12362
-0.04033 0.06586 -0.12604
0.02479 0.04390 -0.11243
-0.15308 0.31590 0.19757
0.00479 0.06586 0.02761
-0.00641 0.04390 0.01147
-0.18766 0.23770 -0.11429
0.27659 -0.20670 0.20938
0.07301 0.04390 0.07324
0.25025 0.04050 0.16115
0.26930 -0.32444 -0.18000
-0.15941 0.19339 0.11382
-0.02689 0.04390 0.12733
0.14428 0.04390 -0.00866
-0.08072 0.00000 -0.18344
-0.13700 0.04390 0.17876
0.23282 0.04390 0.00334
-0.14866 0.21614 0.19367
0.05791 0.06586 -0.02191
-0.11307 0.06586 -0.03191
0.19054 0.00000 0.17383
-0.17378 0.12518 -0.09778
-0.22089 -0.31584 -0.21702
0.18285 0.04390 0.13228
0.02911 0.00000 0.05241
-0.20487 -0.14231 0.19757
-0.14488 0.03059 0.17272
-0.20375 0.30045 0.00664
-0.18947 0.34040 -0.18693
0.25025 0.00745 -0.15186
-0.15350 0.12799 0.16628
0.15618 0.04390 -0.15549
-0.19516 0.24224 0.03351
-0.04331 0.04390 -0.04975
-0.15090 0.08601 -0.21062
-0.06890 0.00000 -0.10091
-0.17945 0.32030 0.22391
-0.15849 0.31900 -0.19757
-0.09840 0.04390 -0.11352
0.22162 0.04390 -0.04639
-0.20500 0.34289 -0.06527
-0.18958 0.30336 0.00146
0.25025 0.05866 0.06195
0.12770 0.06586 0.02913
-0.17025 0.19608 0.18302
-0.06262 0.04390 0.12973
-0.18459 0.32189 -0.20547
-0.16397 0.20032 -0.08114
0.14422 0.04390 0.14292
-0.14027 0.31897 0.20772
-0.05021 0.00000 -0.12715
0.27659 -0.31723 0.19469
-0.05504 0.04390 0.06874
0.10679 0.00000 0.02864
0.25025 0.05600 -0.16914
0.23269 -0.26691 -0.20586
-0.08478 0.04390 -0.15163
-0.17298 -0.10849 -0.22391
0.25025 0.01631 0.14863
-0.11606 0.06586 -0.08040
-0.09314 0.04390 0.13880
-0.12491 0.04390 -0.18759
-0.17536 0.25798 0.02463
0.09173 0.06586 -0.11590
0.00762 0.06586 -0.06037
-0.14285 0.33698 0.21071
-0.09162 0.06586 -0.01002
0.08736 0.06586 0.07448
-0.18741 0.34533 0.17097
0.07783 0.00000 -0.05345
-0.09625 0.02836 -0.19757
0.09745 0.00000 -0.09336
-0.10738 0.06586 -0.06154
-0.12088 0.03753 0.19757
-0.16074 0.25847 0.16350
0.24590 0.06586 0.14812
0.20214 0.04390 -0.01893
-0.00502 0.06586 -0.04931
0.10342 0.06586 -0.12612
-0.16666 0.16453 -0.17922
-0.08873 0.04390 -0.10753
0.16302 0.04390 0.13443
0.17650 0.04390 0.06090
-0.13567 0.03294 -0.19757
0.18116 0.06586 -0.15565
-0.19955 0.27016 -0.00699
-0.12915 -0.04061 0.20179
0.03489 0.00000 0.13529
-0.02375 0.04390 -0.15258
-0.10759 0.04390 0.08977
-0.16282 0.26375 0.15554
-0.25272 -0.30673 0.19757
0.13909 0.00000 -0.09706
0.07705 0.00000 0.00840
0.23269 -0.20762 0.22013
-0.25079 -0.35103 -0.19757
0.24878 0.04390 0.15325
-0.07554 0.04390 0.06376
0.08269 0.04390 -0.05263
-0.14488 0.03648 0.19178
0.10554 0.04390 0.02604
-0.13262 0.24921 0.22391
-0.16644 0.23309 0.10222
0.24862 0.06586 -0.17936
-0.17932 0.26534 0.18566
0.12088 0.04390 0.01221
0.15100 0.04390 0.09716
0.05080 0.06586 0.06941
0.16761 0.01019 0.19757
-0.09057 0.06586 -0.04170
-0.10312 0.04390 0.11967
-0.16978 0.18674 -0.17904
0.12713 0.04390 -0.11270
0.11706 0.04390 -0.09934
0.07784 0.04503 -0.19757
0.27659 0.02334 0.19698
0.21494 0.06586 -0.12568
-0.07229 0.06586 0.10539
0.26189 -0.13374 0.22391
0.06826 0.04390 0.16970
-0.22928 -0.32379 0.22391
0.02291 0.00000 0.12815
-0.20876 -0.20060 -0.22391
-0.17091 0.22616 -0.02682
-0.17331 0.29402 -0.19757
-0.01999 0.04390 0.02295
0.13642 0.06586 -0.06485
-0.09176 0.06586 0.08781
-0.14747 0.22068 0.22391
-0.18726 0.25488 -0.13477
-0.05481 0.06586 -0.04811
-0.17853 0.27943 0.21161
-0.14516 0.06826 -0.22391
0.07139 0.02526 0.19757
0.01805 0.04390 0.13462
0.00604 0.00000 -0.08049
-0.20282 0.33236 0.09860
-0.16087 -0.09188 0.19757
-0.00610 0.04390 -0.07443
-0.13225 0.13404 -0.22391
0.16543 0.04390 0.00320
-0.12195 -0.01903 0.21107
0.24875 0.00932 -0.19757
-0.13367 0.06586 -0.01959
0.24295 -0.12527 0.18000
0.25025 0.06501 -0.17368
0.23269 -0.33372 0.21756
0.25025 0.00352 0.15179
-0.18333 0.21714 0.12554
-0.17856 -0.12119 -0.22391
0.15208 0.04784 0.19757
0.19159 0.04390 0.10394
0.27659 -0.34484 0.18670
0.04964 0.04390 0.01732
-0.16330 -0.01135 0.22154
-0.04992 0.00000 -0.19021
0.20163 0.06586 -0.14988
-0.11304 0.12836 0.20202
-0.07136 0.04390 0.14406
-0.11874 0.16821 -0.21936
0.17816 0.04390 -0.00637
-0.12775 0.06586 -0.06033
-0.17506 0.34116 -0.19757
0.25025 0.01688 -0.04082
-0.16517 0.18397 -0.02055
0.02898 0.00000 -0.08656
-0.05239 0.04390 0.03018
-0.08238 0.00000 -0.03161
-0.18185 -0.19873 -0.20500
-0.06361 0.00000 0.17599
0.27659 0.01431 0.19709
0.05744 0.04390 0.02664
-0.13533 0.11103 -0.19757
-0.09124 0.00000 -0.04241
-0.15814 0.13572 -0.03501
-0.13886 0.04390 0.00396
0.06765 0.00000 0.15285
0.27659 -0.26468 0.22266
-0.15878 0.13818 0.02256
-0.17767 0.28567 0.05778
-0.20836 0.33641 0.02692
-0.14128 0.27107 -0.22391
0.02842 0.04390 -0.19496
0.23269 -0.31479 -0.20009
-0.13191 0.06586 -0.19496
-0.10579 0.02522 -0.19757
-0.14109 0.28925 0.22391
0.24347 -0.16253 0.22391
-0.13847 0.00000 0.03747
0.17125 0.04390 -0.05535
-0.16127 0.15862 -0.21723
-0.15426 0.15451 0.11195
-0.01065 0.00000 0.13873
-0.12984 0.06586 -0.16196
0.08124 0.00000 0.08758
-0.13096 0.03680 0.22391
0.25025 0.00022 0.13818
0.05157 0.04390 -0.01304
0.23269 -0.02338 0.18746
-0.18057 0.31927 -0.11039
-0.17669 0.27376 -0.04573
-0.15422 0.13423 0.08733
0.23334 -0.30496 -0.22391
0.12290 0.00000 -0.17304
0.00285 0.04390 0.14095
-0.18301 0.31077 0.21805
-0.01007 0.00000 0.06491
0.23659 0.06586 0.00151
-0.08720 0.06586 -0.19575
-0.11229 0.04390 -0.08888
0.25025 0.00577 0.13445
-0.18084 0.15911 0.07654
-0.02814 0.06586 -0.06186
-0.17117 0.17084 0.16101
0.05907 0.06586 0.15437
0.14765 0.04390 -0.16891
-0.14321 0.00761 -0.19757
-0.14104 0.04390 -0.06890
0.06285 0.00000 -0.10486
0.17106 0.04390 0.17524
0.26890 -0.08064 -0.18000
-0.14311 -0.03179 -0.22391
-0.12582 0.04390 0.11442
0.19896 0.00000 -0.09457
-0.00367 0.06586 -0.02841
-0.10356 0.00000 0.00282
-0.18084 0.30457 0.04934
0.05049 0.05995 0.19757
-0.01569 0.04390 -0.04111
0.10462 0.04390 0.08459
0.20549 0.06065 -0.19757
0.11784 0.00000 -0.03471
-0.17477 0.25664 -0.03762
-0.18801 0.23031 0.10377
-0.00927 0.04390 0.04309
0.09593 0.00000 0.09512
-0.14556 0.14222 0.15787
0.15944 0.06586 0.16382
-0.16270 0.19244 -0.19757
0.22372 0.04390 0.05040
0.25025 0.04525 -0.08835
0.18350 0.00000 0.08310
-0.12925 0.00000 0.02203
0.25025 0.06351 -0.04853
0.24341 0.02107 0.19757
0.23105 0.04390 0.03722
-0.16817 -0.02595 0.20249
0.26776 -0.33391 0.22391
0.23814 -0.14692 0.18000
-0.24207 -0.24767 0.20848
-0.20043 0.30186 0.06857
-0.04420 0.06586 0.04962
-0.18317 0.33201 -0.19757
-0.14378 0.15356 -0.19757
0.16863 0.04390 -0.11793
0.14496 0.04390 0.01898
-0.19526 0.24405 -0.03631
0.24246 0.04390 0.01758
-0.06503 0.03744 -0.19757
0.11116 0.06586 -0.13632
-0.10143 0.04390 -0.07164
0.16732 0.00000 0.04072
0.02405 0.00000 0.13727
-0.16548 0.27930 -0.15258
0.02209 0.04390 0.00843
0.27520 0.01892 -0.22391
0.24815 -0.01888 0.18000
0.16554 0.06586 -0.19383
-0.04679 0.04390 -0.10413
0.19737 0.04390 0.16585
-0.15401 -0.11430 -0.22391
0.25073 -0.12514 0.18000
-0.19411 -0.13764 0.22391
0.08440 0.04390 -0.13545
-0.14488 0.03726 -0.11228
0.10366 0.04390 0.03683
-0.07307 0.04390 0.03830
-0.09632 0.04390 -0.15243
-0.13991 0.04390 -0.04537
-0.14488 0.03128 -0.16357
-0.02499 0.00000 0.01103
0.23269 -0.13157 0.20356
0.23865 0.00000 -0.14968
0.19252 0.00000 0.00237
0.05715 0.00507 0.19757
-0.18371 0.30867 -0.19347
-0.12575 0.21731 0.22029
0.05331 0.04390 0.19146
0.27659 -0.11804 -0.22319
-0.19145 0.21156 0.00501
-0.05007 0.06586 -0.11933
-0.18313 -0.17155 -0.19757
-0.11615 0.04390 -0.09902
-0.17596 0.28744 -0.08222
-0.09496 0.00000 0.12608
0.19893 0.04390 0.15032
0.23345 -0.35123 -0.18524
-0.12218 0.00000 0.14084
0.10660 0.04390 -0.08615
0.27659 -0.25170 -0.22251
-0.18549 0.17349 -0.03587
-0.23922 -0.28400 0.19757
0.13744 0.01062 0.19757
0.17703 0.04390 0.12473
-0.15804 -0.12729 -0.21764
-0.15484 -0.04179 -0.19757
0.14832 0.04390 -0.01212
0.27659 0.03723 -0.22198
0.14687 0.06586 -0.18023
-0.13419 0.23777 -0.19757
-0.17112 0.29789 0.13446
-0.15593 0.27283 0.19657
0.05066 0.04390 -0.12851
0.10427 0.06017 0.19757
-0.14488 0.06354 -0.07336
0.23687 0.00000 0.11144
0.14160 0.06586 -0.17904
-0.15045 0.16014 0.14370
0.21196 0.04390 0.08918
-0.06567 0.04390 -0.12582
0.08232 0.04390 0.08388
0.26243 -0.15096 -0.22391
0.25099 -0.21424 -0.18000
-0.15963 0.24969 0.16289
-0.17925 0.12575 0.02037
-0.14708 0.34233 0.22391
0.24436 -0.08529 -0.18000
-0.14571 -0.03313 0.19757
-0.18762 0.18330 0.00031
-0.12651 0.00720 -0.22391
-0.14488 0.02925 -0.11104
-0.22604 -0.32028 0.22391
-0.23020 -0.30888 -0.19757
0.26635 -0.14406 0.18000
-0.18631 0.23814 0.12504
0.21838 0.04390 -0.02503
0.14911 0.06586 -0.04206
0.24532 -0.30317 0.18000
-0.19979 0.27188 0.00639
0.05361 0.04390 0.06187
0.02485 0.04390 0.11496
-0.06037 0.05213 0.19757
0.22367 0.04390 0.14798
0.23269 -0.23240 0.18792
-0.20308 0.30067 0.03700
0.22306 0.04390 -0.14924
-0.19529 0.27779 0.09819
0.06085 0.04390 0.08738
-0.26308 -0.31070 0.21210
-0.18197 0.14882 -0.03764
-0.15041 0.27576 0.22391
0.17136 0.05154 0.19757
0.02482 0.06586 0.06788
-0.18187 0.20553 0.12438
-0.14488 0.02512 0.14448
-0.03112 0.04390 0.01570
0.02102 0.04390 -0.04765
0.03002 0.04390 0.03268
0.22102 0.00000 -0.14335
-0.09234 0.02334 0.19757
-0.18959 0.20187 0.03279
-0.15500 0.15142 -0.10306
-0.14013 0.06586 -0.01927
-0.13908 0.00000 -0.17824
0.25484 -0.01162 0.22391
0.10263 0.04390 -0.19407
-0.17818 -0.18770 0.21494
0.26943 0.04390 0.18009
-0.02031 0.04390 0.07146
-0.02119 0.06586 0.07693
0.24566 0.02684 0.19757
0.20358 0.04390 0.17557
-0.05736 0.00000 -0.16311
0.02458 0.06586 -0.14440
0.02073 0.00000 0.01236
-0.14488 0.01621 -0.02265
0.19451 0.00000 -0.13110
-0.11469 0.06586 -0.10246
-0.18226 0.14822 0.02652
-0.12069 0.04056 0.22391
-0.10214 0.04390 0.07067
0.23823 0.04390 -0.01623
-0.02216 0.04493 -0.19757
-0.03377 0.00589 0.19757
0.20182 0.04390 -0.00414
-0.11360 0.00000 -0.09336
-0.20106 -0.23175 0.22391
-0.16184 0.12684 0.06551
-0.13281 -0.00585 -0.22391
0.04814 0.00000 0.13989
0.20789 0.00000 0.07989
-0.05838 0.06586 -0.11906
0.24213 0.06586 -0.10076
-0.05178 0.05076 -0.19757
0.22693 0.06586 0.09839
0.24179 0.00000 -0.04617
-0.04355 0.04390 0.04120
-0.06201 0.06586 -0.04426
-0.18305 0.16842 -0.06668
0.25573 -0.05828 -0.18000
0.17989 0.06586 -0.09075
-0.19022 0.20226 -0.00165
-0.09103 0.04390 0.03956
-0.17489 0.34706 -0.22035
-0.10512 0.06586 -0.08554
-0.11188 0.00000 0.01206
0.16756 0.06586 -0.12376
-0.20361 0.31607 -0.02779
0.00932 0.04390 -0.12601
-0.12987 -0.03656 -0.19757
0.19237 0.00000 0.00928
-0.16190 0.16819 -0.04837
-0.03040 0.04390 -0.07675
-0.16496 0.33476 0.19445
-0.14328 0.34003 -0.21290
0.06556 0.06586 -0.10511
-0.05472 0.00000 0.17288
0.26244 -0.17628 0.22391
-0.15655 -0.07169 0.19757
0.21727 0.04390 -0.08360
-0.09821 0.04390 -0.15917
0.25025 0.03569 -0.13621
-0.18076 0.33824 -0.10427
-0.02188 0.00000 -0.01973
0.24182 -0.07605 0.22391
0.24972 -0.08423 -0.18000
-0.05361 0.06586 0.04126
-0.17482 -0.04592 -0.20998
-0.21879 -0.29543 -0.22391
-0.18057 0.30017 0.04187
0.07940 0.04390 -0.10285
0.25025 0.04150 0.19700
-0.14488 0.00003 -0.11789
-0.17792 0.31990 0.10655
-0.15019 -0.02205 0.19757
-0.05048 0.06586 -0.03848
0.25265 -0.23229 0.18000
0.11717 0.04390 -0.01459
0.23269 0.02178 -0.19896
0.27659 -0.28485 -0.18224
-0.14341 0.00000 0.06881
0.00795 0.04390 0.19413
0.22492 0.04390 0.05480
0.02575 0.06586 -0.06944
0.19913 0.04390 -0.09669
0.22360 0.03656 -0.19757
0.23269 -0.04616 -0.21015
-0.13057 0.25104 0.20478
0.22118 0.00000 0.00129
0.23830 0.00000 -0.12795
-0.04688 0.04390 -0.18301
0.10637 0.04390 -0.17507
0.27659 -0.18307 0.19866
-0.15722 -0.09809 0.22391
-0.11113 0.00000 0.13572
0.23461 -0.06051 -0.18000
-0.13580 0.23920 0.22391
0.02398 0.06586 -0.05587
-0.05957 0.04390 -0.14891
-0.12742 0.22897 -0.19809
0.20245 0.00000 -0.05624
-0.21502 -0.17637 0.19757
0.23847 0.00000 0.10257
-0.18883 0.26793 -0.13623
-0.17622 0.33578 0.13538
0.09549 0.00000 0.03946
-0.17046 -0.03284 0.19962
-0.23982 -0.31533 0.19757
-0.08139 0.04390 0.17451
0.24488 0.00000 0.12299
-0.15992 0.26250 0.17045
-0.19027 0.31792 0.00549
0.15983 0.04390 0.06962
-0.08346 0.04390 -0.16578
-0.17020 -0.05904 -0.19757
-0.00222 0.04390 -0.19210
-0.08127 0.04390 -0.08310
-0.25934 -0.29948 0.19875
0.06850 0.04390 -0.00591
0.01644 0.06586 0.15117
-0.16797 0.24117 -0.09900
0.17521 0.04390 0.01243
0.08090 0.04390 0.14093
0.27659 -0.15928 -0.18422
-0.18652 0.33995 0.03415
0.02030 0.04390 -0.00630
0.19269 0.00000 -0.10380
0.06316 0.00000 0.13822
0.25871 -0.17622 0.18000
0.14465 0.00000 -0.12533
0.22475 0.04390 -0.01944
-0.14164 0.32854 0.21894
0.24924 -0.13818 0.22391
-0.24407 -0.35123 0.20120
-0.15909 0.19924 0.12241
-0.09231 0.06586 -0.15080
0.26968 -0.11661 -0.18000
-0.09532 0.00312 0.19757
0.21774 0.06586 -0.11960
-0.14864 0.13525 0.13394
-0.14602 0.04050 0.21433
-0.05002 0.04390 0.06340
-0.13262 0.26539 0.22262
-0.16050 0.15245 -0.03425
-0.13595 0.20521 -0.19757
-0.02301 0.04390 0.06545
0.14692 0.04390 -0.07059
-0.18004 0.21802 0.14728
-0.15251 0.19038 -0.22391
0.24382 -0.07114 0.18000
0.27659 -0.15206 -0.18785
-0.12757 -0.03586 0.19986
0.14690 0.04390 0.04679
0.07577 0.00000 -0.12827
-0.19148 0.34476 0.03180
-0.17193 0.23338 0.02580
-0.12614 0.00000 -0.19346
0.12508 0.00000 -0.18802
-0.16359 0.18272 -0.19757
0.05922 0.06586 0.19305
-0.04789 0.04390 0.04009
0.02023 0.06586 0.17344
-0.17694 -0.09530 0.22391
0.25025 0.05994 -0.11903
0.03492 0.04390 0.08173
-0.15154 0.35030 0.21327
0.25025 0.04630 -0.13436
0.06631 0.04390 0.19509
0.25236 -0.23894 -0.18000
-0.01091 0.04390 0.11965
0.16259 0.04390 -0.14147
0.18838 0.00000 0.13267
0.23269 -0.16107 0.20603
-0.07277 0.06586 0.01062
0.27659 -0.19559 -0.20042
-0.18024 0.33096 0.10057
0.23269 -0.14105 -0.20419
0.00011 0.04390 0.16548
-0.25706 -0.31876 0.19757
-0.20449 -0.14295 0.22391
-0.19507 -0.21315 0.19757
0.26317 -0.03955 -0.22391
-0.16130 0.15884 0.21445
-0.15343 0.10370 0.20331
0.21146 0.06586 0.01710
-0.19925 0.27640 -0.04523
0.09882 0.04390 0.01021
0.23269 -0.04822 0.21384
0.17767 0.06586 0.02488
-0.11660 0.15326 -0.19955
0.11727 0.04390 -0.15688
0.03928 0.00000 0.18096
0.07443 0.00000 -0.02658
0.19449 0.04390 -0.18431
0.00364 0.00000 -0.02829
-0.16606 0.18814 0.00364
-0.01282 0.04390 -0.13853
0.24512 0.04390 -0.20774
-0.17195 0.16585 0.15225
0.12820 0.06586 0.04283
-0.14773 -0.02327 -0.19757
-0.03853 0.06586 -0.06642
0.05263 0.04390 0.09481
-0.14523 0.06985 -0.19757
-0.12860 0.04390 0.02972
0.25025 0.05328 0.03364
0.08180 0.00000 -0.14388
-0.05049 0.04390 -0.03565
-0.04409 0.04390 0.07437
-0.18745 0.27876 0.15327
-0.13850 0.15810 -0.22391
0.05166 0.00000 0.04503
0.22137 0.00000 0.13375
0.05218 0.00000 -0.10126
-0.13879 0.06586 0.11937
-0.11659 0.06586 0.08319
0.08613 0.04390 -0.10580
-0.15641 0.20316 0.22391
0.05425 0.06586 -0.10749
-0.16539 0.30138 -0.17007
0.26653 -0.31565 -0.18000
0.08955 0.04390 0.04290
-0.19034 -0.22418 0.22273
0.00471 0.06586 -0.03872
-0.06433 0.04390 -0.04596
-0.02222 0.04390 0.19757
-0.17788 0.33925 -0.12734
0.11221 0.04390 -0.08151
0.24375 -0.33777 -0.18000
-0.05998 0.06586 -0.19500
-0.14488 0.02503 -0.01179
0.25025 0.01369 0.12855
-0.02461 0.04390 -0.09182
0.12640 0.04390 0.13311
0.05086 0.00000 0.14384
0.23269 -0.26662 -0.18011
-0.09328 0.00000 0.10080
0.01093 0.00199 0.19757
-0.14488 0.01459 0.02746
-0.13510 0.00000 -0.15157
-0.18549 0.31858 -0.04288
0.20177 0.00000 -0.07996
0.23637 0.04390 0.17476
0.16950 0.06586 0.14355
-0.18574 0.19334 -0.07495
-0.17135 0.29569 -0.13106
-0.06015 0.04027 0.19757
0.23269 -0.01144 -0.21274
-0.19008 0.30329 -0.09452
-0.14959 0.18948 -0.19757
-0.17937 0.23674 -0.16627
0.20935 0.04390 -0.03399
0.04529 0.04390 -0.02211
0.17300 0.01247 -0.19757
-0.22718 -0.26965 0.19757
0.17855 0.04390 -0.16699
-0.16731 0.12608 0.01777
0.24899 -0.35123 -0.20985
-0.19512 0.28985 -0.11255
-0.15950 -0.06284 0.19757
0.04760 0.04390 -0.04105
-0.07382 0.06586 -0.15832
-0.12775 0.04390 -0.16017
0.23269 -0.19487 -0.21133
0.11680 0.06586 -0.12131
0.16022 0.04390 -0.01150
-0.16820 0.19804 0.19422
0.11411 0.00000 0.19685
-0.17167 -0.10816 -0.19757
-0.21113 -0.27798 -0.22391
-0.18653 0.18326 0.04159
-0.00838 0.04390 0.13158
0.27659 -0.07767 0.21443
0.05737 0.00000 0.19350
-0.25895 -0.30413 -0.19757
-0.09560 0.04390 0.08883
0.27659 -0.01639 0.20965
0.05294 0.06586 0.10911
-0.18443 0.30408 0.12743
0.23269 -0.13711 -0.20766
-0.09981 0.04390 0.08588
-0.18697 0.29378 0.16781
0.15621 0.04390 0.14452
-0.10766 0.01119 -0.19757
-0.09568 0.00000 -0.13123
-0.12727 0.04154 -0.19757
-0.17979 0.23190 -0.16009
-0.17403 -0.16069 -0.22391
0.27659 -0.05036 0.19607
-0.25162 -0.34531 0.19757
-0.18777 -0.08476 -0.21024
-0.14488 0.02443 -0.17051
0.13846 0.04390 0.06679
0.13920 0.04390 0.01374
0.03796 0.06586 -0.10191
-0.05716 0.04390 -0.04155
-0.16522 -0.14881 0.21654
-0.08957 0.04708 -0.19757
0.23269 -0.02186 0.20318
0.25135 -0.14863 0.22391
0.26012 -0.26719 -0.18000
0.11474 0.04390 0.14367
0.21723 0.04390 -0.09756
0.11006 0.01902 -0.19757
0.10646 0.00000 0.18207
-0.17759 0.16053 -0.10942
-0.12897 0.22567 0.22391
0.11038 0.06586 0.11700
-0.12524 0.03386 -0.19757
0.24775 0.06586 -0.09476
-0.17528 0.25670 0.20576
-0.15708 0.19635 0.13420
0.27659 0.00889 0.18527
-0.19549 0.32885 0.14680
0.23914 -0.09888 0.22391
-0.17440 0.28645 -0.09741
0.07049 0.06586 -0.19702
-0.06228 0.00970 0.19757
-0.11059 0.06586 0.07274
0.24646 0.00000 -0.16509
-0.21533 -0.26972 0.19757
-0.19201 0.29227 -0.13740
-0.16458 0.18176 -0.22133
-0.15976 0.14802 0.20931
0.00606 0.04390 -0.05671
-0.22133 -0.18544 -0.21000
-0.13694 0.10418 0.22391
0.21903 0.04390 0.19415
0.24902 0.00000 0.05899
0.23269 0.00218 -0.20939
-0.06116 0.06586 0.11649
-0.13833 0.04390 0.13143
0.01491 0.00000 -0.00061
0.20869 0.06586 0.18095
-0.11903 0.04390 0.04527
0.18752 0.00000 -0.09696
0.21492 0.00000 0.02274
0.13335 0.06586 0.09381
-0.14925 0.01996 -0.22391
0.01932 0.00000 0.12441
0.05484 0.06586 -0.04894
0.21285 0.06586 -0.07685
0.02048 0.00000 0.09614
-0.13156 0.00000 0.11101
-0.14622 0.05326 0.19904
-0.16324 0.29015 -0.17292
0.23269 -0.24850 0.18180
-0.15688 0.27554 -0.19379
-0.04998 0.04390 0.14009
-0.16207 0.15913 0.00167
-0.15203 -0.10924 -0.21555
-0.04647 0.00000 0.09352
-0.16123 0.22270 0.13098
0.27659 -0.15662 -0.21495
-0.02971 0.00000 -0.09890
-0.18828 0.34521 -0.07253
-0.13826 0.00000 -0.19353
-0.15339 0.01838 -0.22065
-0.19695 0.25289 0.01753
0.19700 0.04390 -0.12066
-0.12465 0.02610 -0.19757
-0.14488 0.04188 -0.05774
-0.16013 -0.08185 0.19757
0.22877 0.00000 -0.06357
-0.16516 0.21378 0.08837
0.16146 0.00000 0.00565
-0.25900 -0.31668 -0.19757
-0.19496 0.23836 0.01625
-0.11291 0.02577 -0.19757
-0.14124 -0.02851 0.22391
-0.11600 0.02422 -0.22391
0.11725 0.04390 -0.18600
0.23920 0.04390 -0.14500
-0.23747 -0.33925 -0.19757
-0.00221 0.00000 -0.07389
0.14666 0.04390 -0.04530
-0.01433 0.00000 0.15267
0.23269 -0.09643 0.22330
-0.01046 0.06586 -0.08576
0.05261 0.04390 -0.13298
-0.17486 0.25227 -0.00877
-0.18522 0.32726 -0.01173
-0.15395 -0.10357 0.19757
-0.18623 0.17579 -0.01877
-0.15215 0.33696 -0.22391
-0.09331 0.04390 -0.08034
-0.17725 -0.18490 -0.20044
0.15311 0.04390 -0.12171
0.15719 0.06586 -0.04024
-0.00275 0.04390 0.07389
0.26605 -0.32912 0.22391
0.13960 0.06586 -0.15081
0.00308 0.06586 0.19525
-0.16064 0.12701 -0.09053
-0.11167 0.04390 0.10770
-0.04619 0.00000 0.02363
0.11829 0.00000 -0.12082
0.18859 0.04390 -0.17183
0.20478 0.04390 0.02611
0.25025 0.00679 -0.15866
0.15523 0.06586 0.12626
0.17938 0.04390 0.04166
-0.24482 -0.33564 -0.19757
-0.16770 0.33118 -0.22391
-0.13895 0.30582 0.19757
0.25025 0.00875 0.18998
0.16709 0.00000 -0.10591
0.20494 0.00000 0.06645
0.23269 -0.17299 0.21058
0.18311 0.04390 0.01248
-0.22580 -0.22285 0.22391
0.18000 0.04889 0.19757
0.05844 0.00000 0.07110
-0.13596 0.04390 -0.15516
-0.14488 0.04162 -0.18782
0.23311 0.00000 0.19474
-0.15715 0.16711 0.22391
0.23269 -0.26035 0.19026
-0.14690 0.19544 -0.22391
-0.05919 0.00000 0.08161
-0.06434 0.06586 -0.15111
0.13084 0.06586 0.11320
0.09703 0.06586 0.05313
-0.02747 0.00000 -0.03894
-0.16517 0.24720 0.19757
0.00432 0.00000 -0.18001
0.06423 0.04390 0.13196
-0.15299 0.01140 0.22391
-0.07038 0.06586 0.01636
0.16678 0.02102 -0.19757
-0.22731 -0.22067 -0.19757
0.17973 0.04390 -0.12229
0.20803 0.04390 0.12173
0.18501 0.04390 0.16775
-0.17439 0.26398 -0.06255
-0.19944 -0.23802 -0.19757
0.11855 0.04390 -0.08101
-0.16360 -0.14397 -0.20183
0.23928 0.06586 -0.11783
0.24293 -0.35123 0.19983
0.14010 0.06586 0.01197
-0.15185 -0.08122 0.19757
-0.13570 0.04390 0.19734
-0.02848 0.04390 -0.08815
0.27659 -0.08333 -0.20328
-0.14833 0.06805 0.22332
0.27659 -0.09067 0.20648
0.13439 0.04390 -0.09566
0.03304 0.04390 0.19387
-0.13584 0.00000 0.16361
0.27659 -0.28294 -0.21443
0.08802 0.06586 0.05658
-0.15764 0.13153 -0.03350
0.24255 -0.03363 -0.18000
-0.12850 0.08446 -0.22391
-0.15984 0.12712 -0.17895
0.08972 0.00000 0.15989
0.27659 -0.32325 -0.22305
0.04761 0.04390 0.00422
-0.00118 0.04390 0.01366
-0.14669 -0.02453 0.19757
0.09139 0.04390 -0.09352
-0.14458 0.04390 -0.19691
-0.12635 0.04811 -0.22391
-0.16000 0.21102 -0.12796
0.24134 0.06586 -0.14703
0.23208 0.06586 0.03289
0.00830 0.04390 0.05522
-0.19704 -0.19337 0.19757
0.04579 0.00000 0.17020
0.23765 -0.12493 0.22391
0.17256 0.04390 0.03769
0.27659 -0.12334 0.18484
-0.14488 0.06324 0.10705
0.08784 0.00000 -0.16562
-0.08814 0.04390 0.10417
0.12040 0.00000 0.12839
0.03240 0.04390 -0.10415
-0.10862 0.04390 -0.16815
-0.14488 0.01089 0.07684
-0.20793 -0.14523 -0.21191
-0.18780 0.31826 -0.00638
-0.18133 0.17199 0.09043
-0.03787 0.04390 0.14933
-0.10496 0.07178 -0.21331
0.15396 0.04390 0.19029
-0.15324 0.23771 -0.18603
0.12136 0.06586 -0.03897
0.08046 0.04390 -0.13097
0.13606 0.04390 0.16277
0.14936 0.00000 -0.14613
0.20183 0.04390 0.12215
-0.18599 0.31851 0.14500
-0.17399 0.25500 -0.04741
0.01667 0.04390 0.18803
0.25250 0.01459 0.18000
0.23269 -0.11402 0.20434
-0.23844 -0.33965 0.22391
-0.16575 -0.05441 0.22391
0.18118 0.06586 -0.11386
-0.18273 0.31897 0.11973
-0.05746 0.04390 -0.05621
0.06387 0.06586 -0.13496
-0.20839 0.33884 0.03672
0.15290 0.04390 0.15831
-0.16979 0.30689 0.22391
0.08964 0.04390 0.12146
0.10901 0.06586 0.02917
-0.13411 0.00000 -0.07762
-0.06211 0.00000 -0.11926
0.25025 0.00680 0.13022
-0.16836 0.21622 -0.05191
0.19735 0.04205 -0.19757
0.26626 -0.33947 -0.22391
0.13234 0.04390 0.09249
-0.16929 0.22214 0.05002
-0.17354 0.28385 0.10179
-0.04654 0.00000 -0.01777
-0.20837 -0.15507 0.19757
-0.14488 0.04784 0.10501
-0.13740 0.04468 -0.19757
-0.02623 0.04390 0.14275
-0.13678 0.11558 -0.22391
-0.25187 -0.27704 -0.20523
0.00995 0.06586 0.14819
-0.17569 -0.18024 -0.20582
0.15943 0.00000 0.16066
-0.17117 0.22790 -0.19994
0.08769 0.06586 0.08841
0.12384 0.00000 0.04870
0.25254 -0.13168 0.18000
-0.21837 -0.28561 0.22391
-0.13501 0.04390 -0.03769
0.27484 0.04390 -0.19661
0.25025 0.04732 -0.08096
-0.20997 -0.15135 -0.22335
0.12168 0.00000 0.08276
0.27294 -0.06156 0.22391
0.17302 0.04390 0.11480
-0.17619 -0.12363 0.19757
0.14253 0.00000 -0.02199
0.09407 0.00000 0.14615
-0.07176 0.04390 -0.16679
-0.20010 0.29758 0.07609
0.19953 0.00000 -0.02012
-0.15349 0.21879 0.17222
-0.11435 0.04390 0.15250
-0.24183 -0.35123 -0.21323
-0.16027 0.22335 -0.13747
0.13884 0.04390 -0.05734
0.18626 0.04390 0.11607
0.18281 0.04390 -0.17855
-0.12124 -0.01689 -0.20710
-0.13646 0.05512 0.22391
-0.18610 0.20682 0.09113
-0.14488 0.03889 -0.15372
0.24996 -0.12713 -0.18000
0.27532 -0.30649 -0.18000
-0.13777 0.00000 0.14400
-0.05706 0.00000 0.11942
0.20193 0.06586 0.02556
-0.13904 0.03470 0.19757
-0.16600 0.19088 0.02771
0.12736 0.06586 -0.14146
-0.20872 -0.27933 -0.21890
0.23269 -0.05989 -0.21972
0.23269 -0.31954 0.21268
-0.12944 0.04390 -0.08814
0.20223 0.06586 0.16837
0.25025 0.01926 -0.09399
0.07488 0.00000 0.11841
-0.18769 0.29002 0.16110
0.07289 0.00000 -0.15222
-0.12308 0.04390 0.16425
-0.06183 0.00000 0.00966
-0.09058 0.04390 0.09822
-0.17534 0.25248 0.19619
-0.18019 0.13765 -0.04169
-0.03795 0.04390 -0.17703
-0.15638 0.22413 0.16111
0.27659 -0.24463 -0.21421
-0.16961 0.24187 -0.08250
0.26388 0.02974 -0.18000
-0.24720 -0.26304 -0.19780
-0.05084 0.00000 0.10985
0.27659 -0.22198 0.20233
-0.15117 0.17915 0.15504
0.07020 0.00000 -0.00167
-0.18981 0.31798 0.05876
0.02360 0.02714 -0.19757
-0.13562 -0.06003 0.20725
-0.10039 0.06586 -0.00070
-0.16350 0.21445 -0.10490
-0.14676 0.13319 -0.14337
0.12282 0.04390 0.07170
0.05860 0.04390 0.11248
-0.15883 0.17517 0.19757
-0.18130 0.29991 -0.01845
-0.23416 -0.22394 -0.20745
-0.02681 0.06586 0.01954
0.00685 0.06586 0.17116
0.23775 -0.23453 0.18000
-0.08599 0.06586 0.19426
-0.19606 0.34186 -0.15415
0.12361 0.00000 -0.13845
0.09677 0.04390 0.03455
0.01374 0.06586 0.01907
0.24741 -0.28998 0.22391
-0.19872 0.34376 -0.01684
0.11182 0.00000 0.17674
-0.09708 0.06586 0.13557
0.13812 0.04390 0.10836
0.16587 0.00000 -0.03672
0.21685 0.04390 0.03508
-0.20803 -0.23182 0.22391
-0.13393 0.13997 -0.22391
-0.12132 0.00000 -0.13318
-0.12649 0.04390 0.05276
-0.16568 0.24409 0.11963
0.19317 0.00000 0.11591
0.08956 0.06579 -0.19757
-0.01447 0.06586 0.00425
-0.01284 0.06586 0.13873
-0.19798 -0.11538 -0.19937
-0.17912 0.28359 -0.20514
-0.09430 0.04390 0.05993
-0.18132 0.30946 0.19757
0.13395 0.04390 0.02290
-0.14244 0.04390 0.07640
-0.10179 0.04960 0.20519
-0.14488 0.06232 -0.15887
0.08211 0.00972 -0.19757
-0.16720 -0.11902 0.22391
0.21591 0.06586 0.08482
0.25025 0.04019 0.14158
0.26700 -0.16215 -0.18000
0.12332 0.00000 0.03671
0.23651 0.04390 -0.05498
-0.01055 0.04390 -0.11859
-0.17433 0.30271 -0.11572
0.13997 0.06586 0.03635
-0.08592 0.05245 0.19757
0.25025 0.05036 0.08853
-0.13071 0.06586 0.15968
-0.19423 0.26685 -0.09328
-0.22737 -0.20356 -0.20367
-0.16168 0.16909 -0.19757
-0.15484 0.20060 -0.15093
0.26799 0.04390 0.21259
-0.19199 0.29159 0.13695
0.06014 0.04390 -0.06729
0.11255 0.04390 -0.18180
0.22819 0.04390 -0.01566
0.19814 0.00000 -0.17120
0.11850 0.06586 -0.17054
-0.13006 0.04390 0.14470
0.09391 0.06586 0.02347
-0.06464 0.00000 -0.03976
0.23269 -0.33250 -0.18954
0.24059 0.00963 0.19757
-0.22364 -0.19237 -0.21694
0.20939 0.04390 0.04455
0.25103 -0.10600 0.18000
0.10281 0.04390 -0.10321
0.10410 0.04390 -0.16759
-0.17912 0.30481 -0.15504
-0.15360 0.19933 -0.15722
-0.09535 0.04390 -0.11835
0.25025 0.02693 0.14885
-0.17694 0.19346 0.14542
0.04515 0.00000 0.14537
-0.14169 0.04390 0.19155
-0.15658 0.26925 -0.19103
0.23695 0.04390 0.15381
0.15506 0.06586 -0.03209
0.10418 0.04390 0.07355
0.01696 0.04390 0.02248
-0.12303 0.00000 -0.10443
0.01075 0.06586 0.19673
0.12031 0.04390 0.15382
-0.02467 0.00000 0.11433
0.12282 0.04390 0.03310
-0.13910 0.19490 0.19757
0.25722 -0.09778 0.22391
-0.18248 0.34601 -0.12687
0.23263 0.06586 0.02705
-0.18053 0.30462 0.18469
0.19205 0.04390 -0.16554
0.03288 0.04390 -0.03380
0.27491 -0.06065 0.18000
-0.15903 0.26816 -0.22391
-0.17671 0.14458 -0.09924
0.25025 0.02158 0.16017
-0.05652 0.04390 -0.15432
-0.19906 0.29224 0.07921
-0.10660 0.08326 -0.22032
-0.03161 0.04390 -0.13982
0.21942 0.04390 0.04750
0.25025 0.04728 -0.03362
0.01816 0.04390 -0.10398
0.16996 0.04390 -0.06292
-0.18664 0.23403 0.11821
0.16415 0.00000 -0.09914
0.20693 0.06586 -0.06044
0.22876 0.06586 0.13044
0.16974 0.04390 0.12384
-0.17856 0.31955 -0.17194
0.02311 0.04390 -0.12191
0.06518 0.04390 -0.00079
-0.13474 0.04390 -0.09727
0.04863 0.04390 -0.06109
-0.07471 0.06586 -0.10601
-0.13675 0.04390 0.07921
0.25911 -0.15934 -0.18000
0.20515 0.00000 0.05960
0.07294 0.04390 -0.02638
-0.18210 -0.18415 -0.22391
-0.16159 0.15806 -0.01950
-0.13965 -0.04180 0.19757
-0.14488 0.01457 0.08835
-0.00577 0.05473 0.19757
0.00352 0.06586 0.14209
-0.06299 0.00000 -0.00708
0.13300 0.00000 0.01606
-0.02220 0.04390 0.11435
-0.22057 -0.24797 -0.19757
0.06640 0.04390 -0.06732
0.23269 0.01073 0.20606
-0.11368 0.04390 -0.07324
0.00957 0.04390 -0.17199
0.27659 0.02563 0.20806
-0.15960 0.29523 0.19382
0.08233 0.04390 -0.14116
-0.15019 0.19881 -0.17473
0.19039 0.04390 -0.19699
0.25025 0.05584 0.15234
0.13906 0.04390 -0.12682
0.25027 -0.09366 -0.22391
0.05307 0.04390 0.00044
-0.11515 0.04390 0.00344
-0.19251 -0.23070 -0.21910
-0.16912 0.25392 0.10385
0.24283 0.06586 -0.08743
0.15613 0.06586 -0.15626
-0.21361 -0.25527 -0.22391
0.24014 0.04390 -0.14005
0.10001 0.06586 0.00195
0.25061 -0.29782 -0.22391
-0.09284 0.04390 -0.09120
-0.19147 0.32796 0.16899
-0.20185 0.30166 -0.01502
0.25063 -0.19224 -0.22391
0.07086 0.04390 -0.17390
0.06734 0.04390 -0.10847
0.23269 -0.32372 -0.19313
0.15579 0.04390 -0.02303
-0.15416 0.10889 -0.20986
0.23816 0.03471 -0.19757
0.09591 0.04390 0.11889
0.22209 0.06586 -0.00459
0.23573 0.04390 -0.10415
-0.06281 0.00000 -0.12700
-0.18813 0.34523 -0.05559
0.27659 -0.32477 0.22140
0.23789 0.00000 0.01840
-0.21651 -0.17097 0.22112
-0.16677 0.32275 0.19757
-0.06981 0.06586 -0.07410
-0.13902 0.06586 0.13186
-0.19280 0.30291 0.13274
-0.18216 0.34264 -0.09782
-0.18208 -0.06768 -0.20303
-0.03792 0.06586 -0.16667
-0.09614 0.04390 0.01043
-0.08296 0.04390 -0.03907
0.21404 0.00000 0.10493
0.10635 0.04390 -0.18856
-0.08536 0.04390 0.16321
