-0.05039 -0.06170 0.08397
0.20578 -0.37102 -0.17186
-0.16958 0.25296 -0.00538
0.20704 -0.20726 0.16969
-0.14983 0.27921 0.02741
0.11320 -0.09317 0.15969
-0.18764 0.35110 0.06846
0.11357 -0.05753 0.07755
0.12477 -0.05725 0.02252
-0.20280 0.40741 -0.08787
-0.18548 0.34563 0.10222
-0.14491 0.25431 -0.03646
-0.18635 0.40592 0.05818
-0.16235 0.18857 0.05940
-0.16063 0.15013 -0.02018
-0.17406 0.28319 -0.04137
-0.16298 0.18535 0.08736
-0.13481 -0.02562 0.00456
-0.14071 -0.10556 -0.09760
-0.15392 0.29446 -0.10769
0.20659 -0.25971 0.17186
-0.13111 0.05573 0.04084
-0.05359 -0.06178 0.07070
-0.17624 -0.16903 0.10991
-0.13581 0.01198 0.10991
-0.14110 -0.10978 -0.10302
0.01331 -0.06008 -0.00129
-0.16862 0.35381 -0.10157
-0.16398 0.19944 -0.01825
-0.13421 -0.02909 -0.08083
0.02041 -0.08124 0.14141
-0.19872 -0.35354 0.09998
0.10228 -0.10004 0.12351
0.13918 -0.05688 0.04845
-0.18257 0.33221 -0.08749
-0.02430 -0.06104 0.05601
-0.18611 0.40526 -0.05603
0.20704 -0.09647 -0.00733
-0.13638 -0.05014 -0.04733
0.13530 -0.10004 -0.08857
-0.13131 0.14995 0.03610
0.06330 -0.10004 -0.04466
-0.16030 0.11007 -0.07205
-0.13102 0.13453 -0.01484
-0.02139 -0.06096 -0.02134
-0.13307 0.00669 0.09653
-0.03022 -0.07638 0.13143
-0.15770 -0.23087 -0.10366
0.12468 -0.10004 0.08384
0.05044 -0.10004 -0.08052
0.20704 -0.36651 0.16205
-0.16966 -0.08872 0.03264
-0.16124 -0.21316 -0.10991
-0.13662 -0.06476 -0.07959
-0.18196 0.39599 0.08215
-0.14830 -0.17818 -0.09607
-0.15840 0.17070 0.10991
-0.12212 -0.07916 -0.11332
0.19795 -0.32166 -0.15093
-0.17436 -0.15979 -0.08088
-0.18393 0.33847 0.03440
-0.14432 0.25119 -0.01577
-0.17929 0.31667 0.01669
-0.00338 -0.10004 -0.06907
-0.17589 0.29875 0.07547
-0.16312 0.03212 0.00825
0.08808 -0.10004 -0.11750
-0.16460 0.21688 0.09583
-0.19035 0.41946 0.01154
-0.15107 0.28119 -0.05339
-0.13260 -0.06482 -0.11126
-0.07486 -0.10004 0.00058
0.04475 -0.10004 -0.06061
-0.19307 -0.30578 -0.08976
0.20704 -0.05732 -0.10559
-0.16981 -0.08078 0.07834
-0.16180 0.04604 -0.06817
-0.17755 0.30322 -0.05974
-0.14947 0.27373 0.07025
-0.16572 0.22723 -0.02361
-0.16525 0.21503 -0.00678
-0.18126 0.32246 0.06837
-0.16141 0.08937 0.08511
-0.16112 0.10842 0.10054
-0.16095 0.16126 -0.04885
-0.16128 0.06216 -0.07970
-0.16115 0.16683 -0.06813
-0.13812 -0.07405 0.08239
-0.13979 -0.09476 0.05276
-0.20320 0.40875 -0.02389
-0.16459 0.33665 0.03100
0.20704 -0.21732 0.15853
-0.13520 -0.04441 -0.08194
0.20704 -0.05714 0.00968
-0.16162 0.05172 -0.03104
0.14449 -0.07102 -0.16586
-0.16965 -0.07891 0.02573
-0.15937 0.32038 -0.06975
-0.18713 -0.27646 -0.08670
-0.05230 -0.10004 -0.01150
0.20704 -0.06544 -0.00494
0.06902 -0.05867 0.12818
-0.16795 -0.06675 -0.05374
0.09673 -0.05796 0.01912
-0.06348 -0.06203 0.06708
-0.16634 0.23294 0.10123
-0.16511 -0.01043 -0.10499
-0.14085 0.22567 -0.09220
-0.16274 -0.00212 -0.10991
0.17887 -0.09992 0.11673
0.18335 -0.15747 -0.14275
-0.15192 0.21007 -0.10991
-0.12995 0.10836 0.10562
-0.20398 -0.39754 0.10570
-0.18598 0.40490 0.02351
-0.15931 0.31677 -0.06055
-0.13134 0.04854 0.09575
0.19964 -0.20074 0.17186
-0.16803 -0.06790 0.02540
-0.14826 -0.17794 0.09024
-0.16507 -0.00982 -0.04104
-0.04809 -0.06164 -0.07688
-0.17437 0.37025 -0.05405
-0.04594 -0.06159 -0.11471
-0.20402 0.41143 -0.05176
0.02773 -0.09640 -0.14285
0.20253 -0.09920 0.06111
-0.17502 0.28910 0.06254
0.05336 -0.05906 -0.10425
0.14569 -0.05672 -0.12610
-0.13875 0.13743 0.10991
0.10938 -0.10004 0.10674
-0.18533 0.34118 0.05505
-0.19464 0.37877 0.04372
-0.16693 -0.04072 -0.10869
-0.16299 0.18552 0.03140
-0.03724 -0.06137 0.02090
-0.14840 0.27253 0.00402
-0.14677 0.11989 0.10991
-0.16881 -0.06759 -0.10391
0.20704 -0.29245 -0.16278
-0.16154 0.15411 -0.09288
-0.13007 0.06324 0.05553
-0.13744 0.20158 0.05858
-0.10471 -0.06308 -0.07343
-0.13654 -0.05252 0.04903
-0.03748 -0.06137 0.04658
-0.16977 -0.08998 0.10366
0.18957 -0.09960 0.03813
-0.20133 -0.37548 -0.10009
0.11637 -0.08750 0.16032
-0.06858 -0.10004 0.02004
-0.12300 -0.06355 -0.08875
0.13312 -0.05704 -0.02291
-0.13472 0.11982 -0.10991
0.09677 -0.05796 -0.05765
-0.13156 0.15308 0.04040
-0.14137 0.07715 -0.10991
-0.16929 -0.07403 -0.03304
-0.13827 0.20786 0.06611
-0.12934 0.11785 0.04538
-0.13716 0.20555 -0.05471
-0.19181 -0.31953 -0.10991
-0.16409 0.33786 0.06963
-0.14396 0.24491 0.09992
-0.16192 0.16622 -0.03698
0.13661 -0.05695 -0.05887
-0.16116 -0.25015 -0.10404
0.02428 -0.10004 0.03917
-0.16923 -0.29482 -0.10991
0.01552 -0.10004 0.12966
-0.16197 0.04084 0.08336
-0.10802 -0.06317 0.10670
-0.12963 0.08131 -0.02662
-0.16028 0.12587 -0.04974
0.20704 -0.23933 0.16942
-0.18658 0.34690 -0.10991
-0.14117 0.23274 -0.05854
-0.04979 -0.06169 0.07938
-0.13562 0.19400 0.01038
0.20704 -0.07993 0.13575
0.15730 -0.10004 0.05346
0.20704 -0.07942 -0.08545
-0.16122 0.06399 -0.01030
-0.16155 0.15436 -0.05686
0.03942 -0.10004 -0.06096
-0.13398 0.17142 0.08644
-0.14476 0.25351 0.01205
0.00394 -0.10004 0.02274
-0.19203 0.37226 -0.06682
-0.13212 -0.10004 0.01758
-0.16865 -0.06547 0.05206
-0.16172 0.07639 0.02662
-0.18313 0.33481 0.01332
-0.13878 0.21173 -0.00339
-0.14043 -0.10241 -0.10526
-0.13933 -0.09889 0.05808
0.17983 -0.05585 -0.05059
-0.17051 -0.09896 -0.04154
-0.20482 -0.42142 -0.10334
-0.13720 -0.06177 0.07441
-0.13593 0.19630 0.03319
-0.13020 0.05908 -0.00024
-0.15218 0.29018 -0.00892
-0.16330 0.02766 -0.10713
-0.16076 0.15474 0.07984
-0.15010 -0.07201 -0.10991
0.02844 -0.10004 0.12383
0.00885 -0.06020 0.12497
-0.17184 0.36180 0.02897
-0.12927 0.10046 -0.04227
0.18232 -0.26138 -0.17186
-0.13242 0.02035 0.08674
-0.14812 0.03639 0.10991
-0.16565 -0.03339 -0.03620
-0.16855 -0.07492 0.01730
-0.14600 -0.10004 0.02152
-0.16516 -0.01130 -0.08684
-0.18346 0.40022 0.08596
-0.13558 -0.03808 0.06354
-0.18242 -0.21366 0.10959
-0.05167 -0.10004 -0.10591
-0.16081 0.08108 -0.06385
-0.16991 0.25540 0.06196
0.12938 -0.06920 0.16288
-0.16028 0.12617 -0.01699
-0.16783 0.24599 -0.09815
0.18752 -0.09966 0.11517
-0.12913 0.10938 0.07513
-0.12690 -0.10004 0.01967
-0.14805 0.26677 -0.05783
0.13045 -0.10004 -0.03040
0.08442 -0.10004 -0.07326
-0.18930 -0.27345 0.09161
-0.17628 0.29651 -0.09537
0.02996 -0.10004 -0.10547
0.17396 -0.06849 0.17166
0.18862 -0.09962 -0.06432
0.08655 -0.10004 -0.08970
-0.13325 0.15712 0.10991
-0.13372 -0.00656 -0.00636
0.10133 -0.10004 0.12882
-0.13098 0.03628 0.09054
-0.13076 0.06718 0.09497
0.00017 -0.06042 0.03344
-0.17863 0.30891 0.02472
-0.09082 -0.10004 -0.04277
-0.17727 0.30175 -0.09602
-0.18208 0.39380 -0.06523
-0.00326 -0.06050 -0.10772
-0.17047 -0.14758 0.08027
-0.18201 -0.29348 -0.10991
-0.13117 0.13750 0.09160
0.13103 -0.05709 0.14317
-0.12120 -0.06350 0.08543
-0.15427 -0.21171 0.09078
-0.17405 0.28813 0.08673
-0.17258 0.27904 0.06138
-0.03430 -0.10004 -0.05353
0.03679 -0.10004 -0.10576
0.17834 -0.05634 -0.17151
-0.16374 0.00058 -0.00919
-0.15927 0.29438 -0.10991
0.18465 -0.21615 -0.14567
-0.20401 0.41142 0.09694
-0.13077 -0.06374 0.03744
-0.13263 0.16627 -0.03686
-0.18316 -0.22010 0.10140
-0.17660 0.37712 -0.00065
-0.06381 -0.10004 0.03854
0.20304 -0.29969 -0.17186
-0.19654 0.38571 -0.07778
0.13630 -0.05696 -0.00405
-0.00831 -0.06063 -0.07749
0.17436 -0.08242 0.17174
-0.13256 0.15553 -0.00958
-0.14496 0.25460 0.06368
0.20704 -0.33381 -0.15893
0.11153 -0.10004 0.09358
-0.13952 -0.09139 0.08342
-0.16475 0.33726 -0.05127
0.18210 -0.32516 -0.15109
-0.16853 0.24523 0.04779
-0.13747 -0.06530 -0.08797
-0.14148 -0.01704 -0.10991
0.17461 -0.10004 -0.15548
-0.16147 0.17252 -0.00030
-0.17046 0.25946 -0.10122
-0.11144 -0.10004 -0.06218
-0.15809 -0.15190 0.08048
-0.15091 0.28043 -0.00795
0.20704 -0.14448 0.15459
-0.14013 -0.09886 -0.05497
0.17025 -0.05609 -0.00793
-0.13737 0.20716 0.10252
0.11630 -0.05746 0.10872
-0.19757 0.38944 0.01910
-0.17608 0.29546 0.04052
-0.13462 0.16888 0.10991
0.20704 -0.28591 0.15022
-0.15998 -0.10004 -0.03664
0.20704 -0.39298 0.15786
-0.14894 0.22378 -0.10991
-0.13973 0.15242 0.10991
-0.18679 0.40714 0.10035
-0.16085 0.32591 0.01499
-0.16812 -0.05830 0.09943
-0.17519 -0.20910 0.10991
0.17686 -0.16167 -0.15371
-0.16302 0.03468 0.06178
-0.14563 0.25819 -0.09431
-0.20081 0.40357 0.02621
-0.18753 0.35068 0.03189
-0.04502 -0.10004 0.03969
0.17801 -0.19935 -0.15173
-0.16054 0.09384 -0.02429
-0.16123 0.16817 -0.04886
-0.02936 -0.10004 0.10902
-0.16029 0.12743 0.08103
-0.20180 0.40685 -0.09345
-0.15116 0.28161 -0.09158
0.20704 -0.18106 -0.14408
-0.00560 -0.10004 -0.03878
-0.16253 0.04830 -0.07781
-0.16153 0.08449 0.00596
-0.16173 -0.12646 -0.10991
-0.03788 -0.06138 -0.11009
0.06541 -0.10004 -0.01574
-0.14632 -0.06589 0.10991
-0.13200 0.01221 0.08569
0.14419 -0.05675 0.10968
-0.12636 -0.06363 -0.05086
-0.16822 -0.09851 -0.10991
0.20704 -0.26700 -0.15435
-0.13097 0.03653 -0.01582
0.20704 -0.07230 -0.14862
0.15512 -0.05648 -0.01963
0.20704 -0.33186 0.16737
-0.13788 0.20491 0.08016
-0.15667 0.20231 -0.10991
0.13792 -0.10004 0.05638
0.01071 -0.06015 -0.00699
-0.16371 0.19616 -0.10579
-0.13283 -0.06380 -0.00168
-0.16460 -0.00070 0.09814
-0.18390 -0.30646 -0.10991
-0.19915 -0.35724 -0.09302
-0.13679 -0.06704 -0.03781
-0.16108 0.12454 0.02841
0.10487 -0.05775 -0.00962
-0.19141 0.36983 -0.06283
0.00884 -0.06020 -0.08541
0.04390 -0.10004 -0.07125
-0.18388 0.40141 -0.04309
0.12617 -0.05721 0.00149
-0.19781 -0.34592 0.09694
0.20053 -0.05532 -0.15744
-0.12996 0.06714 -0.06592
-0.18885 0.35940 0.10283
-0.18030 0.32179 -0.07818
0.17550 -0.11750 0.16385
0.17291 -0.05602 -0.11255
0.16707 -0.05617 0.03675
-0.01858 -0.10004 0.08428
-0.17038 0.26483 -0.03496
-0.16762 -0.05111 -0.06277
-0.13248 0.01889 -0.01742
-0.09909 -0.06294 0.09791
-0.02477 -0.09940 0.13251
-0.16334 0.00872 -0.05685
-0.17205 0.27580 0.08278
-0.11191 -0.10004 0.05918
-0.13514 0.18243 -0.02661
-0.12672 -0.10004 -0.01214
-0.13650 -0.05201 0.09878
-0.16270 0.04289 -0.10290
0.10670 -0.05771 0.14610
-0.16854 0.35076 0.04218
-0.14247 -0.12480 -0.10295
-0.12937 0.09395 -0.01349
0.14718 -0.05668 -0.09513
0.10007 -0.06636 0.15710
-0.13692 -0.05794 0.02725
-0.13270 0.15731 -0.08076
-0.17082 0.26212 0.06299
-0.16364 -0.26393 0.10197
-0.14862 0.27357 -0.07633
0.15557 -0.10004 0.10314
0.06323 -0.10004 0.11235
-0.18248 0.33181 -0.07180
-0.16501 0.21206 -0.03756
-0.17406 0.31685 0.10991
-0.12912 0.11358 0.09523
-0.13351 -0.00242 0.00847
-0.13062 0.04614 0.05969
-0.16328 0.00995 -0.09375
0.20704 -0.42075 -0.15709
-0.14818 0.19630 -0.10991
-0.16060 0.09013 -0.04641
-0.16546 -0.03051 -0.01256
-0.18743 0.40973 -0.10991
0.02479 -0.05979 -0.05085
-0.09343 -0.06951 -0.11898
-0.17690 0.30408 -0.02553
-0.10001 -0.06296 0.05793
-0.17012 -0.09422 0.05529
0.01433 -0.06006 0.07683
-0.15973 0.31851 0.10038
-0.17353 0.36744 0.07740
-0.15153 0.28330 0.00331
0.20212 -0.10499 -0.14017
-0.16056 0.14767 -0.05097
-0.14725 0.26250 0.00457
-0.20431 0.41241 0.01408
-0.17101 -0.10004 -0.07213
0.10530 -0.05774 0.07528
-0.19219 0.42142 -0.08924
-0.16566 -0.02011 -0.08388
-0.16046 0.09917 0.09969
0.14005 -0.10004 -0.02056
-0.13921 -0.09734 0.03142
-0.14951 -0.18500 -0.09769
-0.17096 0.26908 0.05623
-0.12938 0.09299 0.06149
0.17596 -0.13252 0.15164
-0.20662 -0.41932 -0.09499
0.03987 -0.10004 0.13030
-0.17212 0.36550 -0.01307
-0.17869 -0.34664 -0.10835
-0.19489 0.37966 -0.09081
0.16464 -0.10004 -0.15228
-0.13463 0.17763 -0.01871
0.09186 -0.05809 0.14606
-0.17874 0.30948 -0.03116
-0.16030 0.13625 -0.10376
0.17671 -0.11127 0.17186
-0.01765 -0.10004 -0.03365
-0.12939 0.09246 -0.04144
-0.13119 0.03106 -0.06822
0.18348 -0.11392 -0.14059
-0.13933 -0.08913 -0.10973
0.20704 -0.19070 0.15765
-0.16427 -0.00976 -0.08245
0.20704 -0.07568 0.03495
-0.17277 -0.31432 -0.09389
0.17735 -0.05591 -0.10493
0.18484 -0.05572 0.11030
0.18482 -0.23766 0.17186
-0.16086 0.15814 -0.09834
-0.17344 0.36993 0.03366
-0.17802 -0.31320 0.08853
-0.18025 0.38823 -0.01969
-0.03683 -0.10004 -0.03759
-0.17005 -0.08364 0.00109
-0.18486 -0.38020 -0.10315
0.20310 -0.29567 0.17186
-0.17990 -0.35325 0.10516
0.12859 -0.06065 0.16272
0.16517 -0.10004 -0.02744
0.05580 -0.10004 -0.03598
0.14755 -0.10004 -0.16237
0.09192 -0.10004 0.09860
-0.16533 -0.02828 0.10641
-0.13171 0.03784 -0.01160
0.20356 -0.39140 0.15438
-0.13333 0.00125 0.00397
-0.16108 0.12499 0.00048
0.19231 -0.15160 0.17186
-0.17497 0.29373 -0.05783
-0.13151 0.15242 0.01706
-0.16404 0.01081 -0.06761
0.18437 -0.40599 -0.15544
-0.13672 -0.05518 -0.07247
-0.13944 0.21671 -0.04616
-0.17477 0.29254 0.06838
-0.15296 0.29381 -0.00337
-0.16857 -0.07512 -0.05795
-0.20259 -0.38594 0.09497
0.20247 -0.05527 -0.11010
-0.13143 0.02508 -0.02863
-0.13486 0.18192 -0.10991
-0.14980 -0.05814 -0.10991
-0.16053 0.14677 -0.01445
0.07774 -0.05844 0.04800
0.17951 -0.24816 -0.16229
-0.16896 -0.08023 0.01382
-0.17121 0.36247 -0.03077
-0.13444 0.17577 0.03674
-0.19387 0.37898 0.00838
-0.14804 0.08121 -0.10991
0.05306 -0.10004 -0.04098
-0.15597 -0.03916 -0.10991
-0.18688 0.34803 -0.01812
-0.19098 0.41885 -0.00033
-0.17120 0.26489 -0.00796
-0.07211 -0.06225 -0.05436
-0.17839 -0.17803 -0.08375
-0.16269 0.04322 0.10175
-0.17067 -0.09124 0.10948
-0.16321 0.01142 -0.02201
-0.14062 0.22931 0.00432
-0.08916 -0.10004 -0.01514
-0.17943 0.31309 -0.09703
-0.16115 0.14045 -0.00634
-0.16029 0.12759 0.06548
-0.14729 0.26270 0.01672
0.20704 -0.28750 -0.15461
0.18391 -0.07524 -0.17186
-0.07660 -0.10004 -0.02555
0.17685 -0.16163 -0.16889
-0.14413 0.05539 0.10991
0.11461 -0.10004 -0.00774
0.10408 -0.06520 -0.15789
-0.04292 -0.06151 0.04247
0.10919 -0.05764 -0.10343
-0.20330 0.40906 -0.06596
-0.20136 0.42142 0.01623
-0.16128 0.14472 0.06558
-0.13005 0.13140 0.06140
-0.16646 0.22668 0.02487
0.11199 -0.05757 0.03542
0.18767 -0.41965 0.17186
-0.13681 -0.06723 -0.05408
0.20704 -0.11745 -0.14485
-0.13578 0.05939 -0.10991
-0.19791 0.39071 0.09415
-0.13132 0.02779 -0.00380
0.19529 -0.11904 0.14086
-0.17679 0.30351 0.04301
0.00499 -0.06029 0.04044
0.10423 -0.05777 -0.06027
-0.17538 0.33288 -0.10991
-0.04655 -0.07746 -0.12821
0.18787 -0.28079 0.14889
-0.16612 -0.02798 -0.04968
-0.16093 0.16075 0.08015
0.20704 -0.06875 0.06163
-0.16960 -0.07819 -0.07204
-0.16211 0.06121 0.05311
-0.17243 0.27812 0.00598
-0.13850 0.21563 -0.06574
-0.06217 -0.09704 0.12513
-0.17971 0.31885 -0.06003
0.05211 -0.10004 -0.10920
-0.17030 -0.08667 -0.07340
-0.13003 0.11568 0.05637
-0.16923 -0.15020 -0.08040
-0.20618 -0.41572 0.10512
-0.16445 0.20523 0.06270
-0.13847 0.20935 -0.07639
-0.13118 0.05354 -0.08357
0.20704 -0.15570 -0.14588
-0.13023 0.05822 -0.07963
0.09515 -0.10004 0.07280
-0.16549 0.34305 0.09646
-0.16115 0.26147 -0.10991
-0.15159 0.28739 0.00710
0.18282 -0.35558 -0.15325
0.17685 -0.16147 -0.15961
-0.10663 -0.10004 -0.02309
-0.17364 -0.29370 0.10991
-0.18187 0.33477 0.10991
0.17830 -0.09994 -0.07903
-0.16591 -0.02437 -0.05763
-0.17162 0.26798 0.09916
-0.16748 -0.04902 0.08153
-0.20582 0.42015 -0.06158
0.00544 -0.06028 0.11588
-0.16650 0.23440 0.02055
-0.20639 0.41928 0.06051
-0.16359 0.20446 0.05034
0.11725 -0.05744 -0.00577
-0.16780 0.23901 0.10435
-0.17621 0.29614 0.09210
0.04066 -0.05939 -0.04227
-0.17099 -0.09508 -0.03420
-0.16375 0.01669 -0.04542
0.20704 -0.06195 -0.07432
-0.17965 0.38642 0.00943
-0.16110 0.06870 -0.03845
0.17847 -0.21410 0.16573
-0.14082 0.22546 0.09716
-0.13041 0.13821 -0.01920
-0.13427 -0.01621 0.02848
-0.13232 0.00567 0.00952
-0.13455 -0.03458 0.04390
0.14557 -0.08571 -0.16607
-0.14705 0.26576 -0.07364
-0.14238 0.23523 -0.07269
-0.17977 -0.19031 -0.10816
-0.16224 0.18648 0.07798
0.04548 -0.05926 0.11739
-0.16083 0.07999 -0.01791
0.20704 -0.10710 -0.15012
0.10560 -0.10004 -0.12586
-0.14668 0.26380 0.07183
0.19341 -0.05550 -0.16214
-0.13710 -0.07118 0.03299
-0.04906 -0.06167 -0.04772
0.13299 -0.05704 -0.07981
-0.16045 0.09985 0.00884
-0.18501 0.40454 0.05263
-0.19781 0.39337 -0.04032
-0.14389 -0.08266 -0.10991
-0.13012 0.09706 0.05571
0.11370 -0.10004 0.08802
-0.15375 0.29722 0.10098
-0.13958 0.21770 -0.08471
-0.16508 0.34153 -0.07658
-0.14093 0.22618 -0.00200
-0.13505 0.18920 0.08023
-0.14115 0.23262 -0.04428
-0.13654 -0.06361 -0.05112
0.12359 -0.07178 -0.16174
-0.18916 0.41614 0.05696
-0.06624 -0.08092 -0.12433
0.20704 -0.06105 -0.12127
-0.16173 0.07577 -0.05398
-0.18580 -0.24316 0.10786
0.17520 -0.10790 0.14085
-0.16838 -0.06179 0.00212
-0.17719 -0.19964 -0.10991
-0.13548 0.18563 0.02284
-0.16171 0.07679 0.06993
-0.19532 -0.40292 0.10991
-0.17724 0.30160 0.02849
0.20704 -0.29316 0.15845
0.03336 -0.05957 0.00558
-0.17783 0.30630 -0.10991
-0.19008 0.41872 0.08108
-0.13218 0.15081 0.03041
-0.08045 -0.10004 -0.02965
-0.18266 0.32890 0.02703
0.08724 -0.05820 -0.04938
0.14216 -0.10004 0.15712
-0.20565 0.41960 0.05516
-0.14876 0.27041 -0.04945
-0.18293 0.39638 -0.09991
-0.01175 -0.10004 -0.12331
0.18317 -0.12079 -0.17186
-0.13857 0.21014 -0.05711
-0.16685 -0.05160 -0.10848
-0.18235 0.39463 0.09737
0.14625 -0.05670 -0.11295
-0.18623 -0.37864 0.09179
0.14916 -0.10004 -0.13939
-0.03168 -0.06123 -0.11514
-0.13115 0.13704 0.00065
0.15087 -0.05659 0.15714
-0.16110 0.13578 -0.03377
-0.13219 0.16106 -0.02041
-0.13907 -0.09568 -0.03352
-0.12990 0.11165 -0.05392
-0.13742 -0.07539 0.01759
-0.00340 -0.06051 -0.01794
0.04585 -0.07506 0.14642
-0.15211 0.28983 -0.01778
-0.16386 0.19805 0.02631
-0.14151 0.23487 0.08883
-0.17409 -0.13752 -0.09088
-0.18041 -0.19590 -0.10825
-0.14647 0.25831 0.00266
-0.17319 -0.12849 0.09565
-0.03802 -0.06139 0.11152
-0.13502 -0.02938 -0.03010
-0.16107 0.12294 0.00522
0.16891 -0.05613 -0.12658
-0.16060 0.09052 -0.01846
-0.03243 -0.06124 0.09531
-0.16277 0.04079 -0.00678
-0.13008 0.13195 -0.09589
-0.16854 -0.07468 0.02409
0.17783 -0.19352 -0.15367
-0.13051 0.04961 -0.08878
-0.16478 -0.01862 0.10203
-0.15380 0.22411 0.10991
-0.13896 -0.08474 -0.10340
-0.13011 0.09780 -0.10525
0.08735 -0.05820 0.06847
-0.13634 0.19333 0.04039
-0.20526 -0.40809 0.09431
-0.02952 -0.06117 -0.04553
-0.13491 -0.03999 -0.03077
-0.03900 -0.10004 -0.06209
0.20203 -0.10114 0.17186
-0.15857 0.00571 -0.10991
0.15247 -0.05654 0.11899
-0.17004 -0.09324 0.01140
-0.17587 -0.24870 0.08531
0.12765 -0.10004 0.04081
-0.19639 -0.33393 -0.10590
-0.17184 0.27453 0.02118
-0.17194 0.36213 0.06070
-0.16352 0.02220 0.06359
-0.19358 -0.40889 0.09330
-0.13821 0.21345 -0.01499
-0.11830 -0.10004 -0.09485
-0.16181 0.16334 0.08546
-0.18123 -0.33588 -0.08966
-0.13484 -0.03897 -0.05263
-0.19341 0.37728 -0.07086
-0.15724 0.31163 0.10813
-0.13152 0.15255 -0.06096
0.20704 -0.09108 0.09304
-0.16305 0.01473 0.00023
-0.07067 -0.06222 0.07621
-0.19183 0.42142 -0.10500
-0.00380 -0.10004 0.05347
-0.16173 0.04831 -0.01827
-0.20481 0.41404 -0.07809
-0.13395 -0.02472 -0.03629
-0.16102 0.07198 -0.05742
-0.20297 0.42142 -0.07184
-0.16509 0.21304 0.05635
0.18577 -0.30376 0.17186
-0.17239 0.27292 -0.10865
0.03907 -0.10004 0.04471
-0.16065 0.08789 -0.03463
-0.14571 0.25424 0.04676
0.06583 -0.10004 0.08937
-0.13139 0.14074 0.07651
-0.16232 0.17346 -0.05035
-0.15779 0.31049 -0.09343
0.13722 -0.06164 -0.16442
-0.16325 0.19038 -0.00814
-0.13045 0.05146 -0.07058
-0.10112 -0.06299 -0.08441
0.19177 -0.05555 -0.06509
-0.17794 0.30957 -0.08951
-0.16330 0.00947 0.02430
-0.16159 0.32559 0.09129
-0.13416 -0.01441 0.06143
0.13933 -0.10004 -0.15769
0.03674 -0.10004 -0.04674
-0.08131 -0.10004 0.02126
0.17877 -0.22409 -0.15077
-0.07659 -0.10004 -0.06626
-0.13178 0.03612 -0.05368
0.04571 -0.10004 0.12237
0.16058 -0.05634 -0.00573
-0.16311 0.25165 -0.10991
-0.16570 -0.02071 0.00164
-0.19089 0.41860 0.05025
-0.12351 -0.10004 0.10289
0.16245 -0.10004 -0.01770
0.18915 -0.05561 -0.11623
-0.16277 0.19450 -0.02157
0.09673 -0.10004 0.03607
-0.16874 -0.06667 0.06438
-0.16223 0.05737 0.05022
-0.12989 0.11201 -0.08940
-0.13633 0.19934 0.02930
0.00191 -0.10004 -0.12616
-0.13428 -0.03044 -0.00433
-0.16029 0.13001 0.04822
-0.16549 0.33999 0.04084
-0.16588 -0.23745 -0.10991
-0.13253 0.01787 -0.02418
-0.05019 -0.10004 -0.07585
-0.16026 0.11367 0.02529
-0.17607 0.37550 0.08010
-0.16190 0.06858 -0.08195
-0.13090 0.13238 -0.03277
-0.17549 0.29664 0.02254
-0.16720 -0.12205 -0.10991
-0.13836 -0.07735 0.05061
0.18124 -0.28252 0.14896
-0.13927 -0.09808 0.09948
0.10820 -0.05767 -0.04899
-0.16170 0.04927 -0.02652
-0.16484 -0.01965 0.05691
-0.16206 0.33037 0.00466
-0.04111 -0.06146 0.09257
0.04028 -0.05940 0.07882
-0.12990 0.11130 -0.02285
0.19771 -0.41330 0.17186
-0.16702 -0.05416 -0.02086
-0.17380 0.28655 -0.07289
-0.15919 -0.04972 0.10991
-0.03991 -0.06143 0.07863
-0.19922 0.39832 -0.10784
-0.17778 0.38071 -0.02269
-0.17294 0.36547 -0.09189
-0.14210 0.23855 -0.10743
0.19608 -0.05544 0.04414
-0.18758 -0.29474 -0.08761
-0.16301 0.18602 0.04702
-0.05724 -0.06187 0.01155
-0.12344 -0.09735 -0.11306
-0.00122 -0.08454 -0.13714
-0.16719 -0.05660 0.05527
-0.20494 -0.40956 -0.10991
0.20704 -0.13552 0.17078
-0.06191 -0.10004 -0.02850
-0.18735 0.34991 -0.03703
-0.16164 0.17566 -0.02524
-0.16080 0.08119 -0.07497
-0.16144 0.08807 -0.10815
0.20534 -0.32174 -0.15093
-0.13089 0.03833 -0.03021
-0.17333 0.27871 0.06836
-0.14168 0.08565 -0.10991
-0.17272 0.27995 -0.00856
-0.17509 0.28951 -0.06302
-0.20096 0.40132 0.07560
-0.16942 0.32760 -0.10991
-0.18597 -0.24466 0.09950
-0.17260 0.27420 0.05871
-0.13111 0.05590 -0.08971
0.20704 -0.22581 -0.15940
-0.03291 -0.10004 0.05205
-0.12725 -0.06365 0.06024
0.19934 -0.15818 -0.17186
-0.08323 -0.06254 -0.01760
-0.12978 0.07484 -0.06013
0.12800 -0.05717 -0.11054
-0.16047 0.09879 0.09507
-0.15612 0.30359 0.10674
-0.16188 0.06963 0.01700
-0.13034 0.05484 0.10917
0.17660 -0.14373 -0.14206
-0.13477 0.18656 -0.03801
-0.16179 0.16269 -0.00849
-0.16359 0.02053 -0.02976
-0.13134 0.04869 -0.08442
0.17509 -0.10415 0.15559
-0.16182 0.07214 0.04942
-0.13310 0.16236 -0.01265
-0.16259 0.04615 -0.08879
0.16018 -0.10004 0.08888
-0.13772 -0.06868 -0.07449
0.16112 -0.10004 -0.09628
-0.13198 0.01250 0.06965
-0.13513 -0.03121 -0.02489
-0.15870 0.31765 0.06229
-0.16042 0.14293 0.00730
-0.16104 -0.22307 0.08403
-0.14821 0.27164 -0.10833
-0.13246 0.01948 0.09892
0.01825 -0.05996 -0.01846
-0.13164 0.14393 -0.03704
0.07059 -0.10004 -0.05979
-0.16482 -0.00516 0.05324
0.03611 -0.05950 0.13553
-0.12988 0.07079 -0.10498
-0.01572 -0.06082 0.13030
-0.17722 0.37902 0.10541
-0.19994 0.39797 0.05775
-0.16082 0.08067 0.07989
-0.15178 0.28831 -0.04738
-0.14347 0.24209 -0.03362
0.12990 -0.05712 -0.00653
0.19223 -0.31121 -0.17186
-0.19433 0.38065 -0.08076
-0.01505 -0.06080 0.02061
-0.17069 -0.10108 -0.07897
-0.08151 -0.06249 -0.03090
-0.16945 0.25197 -0.03430
-0.16051 0.09598 0.03655
-0.13490 -0.03988 -0.07818
-0.15589 0.11113 0.10991
-0.16209 0.18373 -0.00518
0.20352 -0.40115 0.17186
-0.15474 0.30132 -0.04291
-0.19601 0.38376 -0.01506
-0.13336 -0.01428 0.04211
0.19695 -0.09937 -0.03391
-0.17183 0.26943 -0.01056
-0.16154 0.15411 -0.10064
-0.13089 0.14461 -0.05293
0.00587 -0.06027 0.05067
-0.19470 -0.36285 -0.09100
-0.15487 0.30185 0.05127
-0.16106 0.11497 0.08941
-0.13340 -0.00008 0.03110
0.03784 -0.10004 0.00529
-0.18252 0.32824 -0.08391
-0.13071 0.06920 0.06230
0.09687 -0.05796 -0.00695
-0.12917 0.11447 0.00691
-0.11903 -0.06345 -0.10999
-0.00259 -0.06049 0.00854
-0.17031 0.35947 0.10880
-0.16771 -0.05249 -0.08447
-0.16631 0.23274 -0.05206
0.19038 -0.19126 0.17186
-0.13356 0.17505 -0.04553
-0.06559 -0.09327 -0.12446
-0.13589 0.19596 -0.10418
0.03300 -0.10004 -0.03091
-0.16930 -0.07418 0.03617
-0.01718 -0.10004 -0.01711
-0.15006 -0.04738 -0.10991
-0.19598 0.38668 0.07550
-0.13547 0.19286 -0.01254
0.18594 -0.37780 0.17186
-0.05301 -0.06177 -0.08260
0.10392 -0.05778 -0.08660
-0.00585 -0.09481 0.13623
-0.16420 -0.23682 0.10991
-0.13406 -0.02648 0.05920
-0.17689 -0.16437 -0.09820
-0.16326 0.33176 -0.01595
-0.16029 0.12772 -0.10116
-0.16082 0.32275 0.08384
0.18930 -0.23675 0.14670
0.18456 -0.36384 0.15301
-0.00223 -0.06048 0.08913
0.18690 -0.05567 0.05265
-0.04363 -0.06153 0.06733
-0.17936 0.31275 0.07406
-0.04495 -0.10004 0.02384
-0.15493 0.29870 -0.01946
-0.16106 0.11320 -0.00776
-0.16500 -0.02242 0.10756
0.20704 -0.19437 -0.16855
0.20200 -0.09921 0.01572
-0.03946 -0.06142 0.01524
-0.17049 -0.08902 0.07940
-0.12504 -0.10004 -0.04318
-0.13448 -0.10004 -0.01850
-0.01280 -0.06075 -0.04591
-0.13670 -0.05505 0.07577
0.06589 -0.05875 0.00881
-0.02516 -0.10004 0.04687
-0.13291 0.16006 -0.07273
-0.15699 -0.06708 0.10991
-0.16238 0.03059 -0.09355
0.17608 -0.13644 0.14579
-0.13484 0.18723 -0.05905
-0.19743 0.39198 0.07191
0.17636 -0.13840 -0.14180
0.20253 -0.34877 -0.15227
-0.16199 0.16751 0.03917
0.20704 -0.39258 -0.15845
0.16090 -0.10004 0.16825
-0.16219 0.05866 0.09240
0.09317 -0.05805 0.03442
-0.18856 0.35819 -0.00874
0.20704 -0.06522 -0.14558
-0.16335 0.02639 0.06070
-0.16354 0.33583 0.04325
-0.18372 -0.22575 -0.08417
-0.15208 -0.19944 -0.08519
-0.16569 0.22695 0.10702
-0.19630 0.38483 -0.10572
-0.14321 0.24523 0.10429
-0.18432 -0.31679 0.10991
-0.16156 0.15456 0.00137
0.18098 -0.29598 0.15946
-0.14227 0.23457 0.05205
0.15319 -0.05653 -0.13464
-0.16496 0.34110 -0.10171
-0.16943 0.25187 -0.03883
-0.16221 0.17149 -0.01109
0.20704 -0.24963 0.16677
-0.16111 0.10947 0.04781
-0.17999 0.32037 0.03351
-0.17955 0.38867 -0.07815
-0.13570 -0.03976 -0.00042
0.03786 -0.10004 -0.07430
-0.14197 0.23773 0.10477
-0.15670 -0.00866 -0.10991
-0.12979 0.07440 -0.01576
0.00616 -0.09630 -0.13860
-0.19449 0.42142 -0.06820
0.19921 -0.42142 -0.16388
-0.16372 0.33344 0.07859
-0.07790 -0.06240 0.02114
-0.16957 0.25291 0.05814
0.16781 -0.10004 -0.06428
-0.07699 -0.06238 0.09421
0.14539 -0.10004 0.00337
0.09985 -0.10004 -0.00590
-0.06657 -0.06211 -0.10850
-0.16213 0.06066 0.00759
0.18958 -0.11977 0.14089
-0.16592 -0.18242 0.08201
-0.14260 -0.12622 0.08420
0.19463 -0.32639 -0.17186
-0.11693 -0.06339 -0.03136
0.06740 -0.10004 -0.07936
-0.18213 0.33020 -0.09982
-0.17389 0.28711 0.10787
-0.17016 -0.08502 0.08624
0.20482 -0.40513 0.15507
-0.16773 0.23839 0.09882
0.20625 -0.29408 0.14956
-0.14017 -0.09975 0.03535
-0.19826 -0.34975 -0.09429
-0.16156 0.05341 0.09995
-0.18551 0.34199 -0.01242
-0.16262 0.04531 0.10933
-0.20024 0.40171 -0.06069
0.20704 -0.21486 -0.14650
-0.16298 0.01604 0.01426
-0.16575 0.22014 0.03324
0.18462 -0.05573 -0.08307
0.07917 -0.05841 0.05588
0.06941 -0.05866 -0.04926
0.03194 -0.05961 0.02572
0.01294 -0.06009 0.12944
-0.20333 0.41193 -0.01858
-0.17146 -0.11482 -0.07863
0.03789 -0.10004 -0.13566
-0.17010 0.26273 0.03040
-0.12619 -0.10004 -0.05451
-0.16248 0.19087 0.00522
-0.13822 0.20752 -0.09875
-0.13039 0.05337 0.00333
-0.16401 0.19992 -0.09307
0.11598 -0.05747 -0.12159
-0.16814 0.24211 0.04382
-0.19417 0.38006 0.05950
-0.15700 0.30724 -0.04498
-0.16824 -0.07075 -0.00968
-0.13461 -0.03548 0.02708
-0.18061 -0.35557 0.10991
0.19501 -0.09943 0.04582
-0.13139 0.14073 0.04046
0.18651 -0.41191 -0.15540
0.04571 -0.10004 -0.08338
-0.12929 0.09897 0.00449
-0.04245 -0.06150 -0.09761
0.10290 -0.05780 0.01937
0.12560 -0.08176 0.16213
-0.08507 -0.06258 -0.00401
-0.18613 -0.38708 0.10652
-0.13028 0.05664 0.08895
-0.12989 0.11200 -0.09431
0.20704 -0.13217 -0.15480
-0.13011 0.06201 0.03608
-0.16093 -0.10004 0.07199
-0.13828 -0.08614 0.03866
-0.13722 -0.07277 0.10708
-0.16638 0.23331 0.02942
0.19552 -0.25521 -0.14763
0.05934 -0.10004 -0.05257
-0.16275 0.18120 0.10938
0.17942 -0.07989 0.17186
0.18893 -0.20476 -0.17186
-0.13647 0.19426 -0.02713
-0.18921 -0.28996 -0.10991
-0.17706 0.30065 0.08812
-0.13253 0.01786 0.07696
0.01579 -0.06002 0.04488
0.15689 -0.05643 0.16395
0.17709 -0.16937 0.15929
0.01559 -0.10004 0.06716
-0.13762 0.04032 -0.10991
-0.19106 0.36837 0.09779
0.09602 -0.05798 0.11753
-0.12125 -0.06350 -0.05478
-0.08862 -0.06267 0.02151
-0.16413 0.21111 -0.05664
-0.15920 0.28247 0.10991
-0.13456 -0.02124 0.06506
-0.09979 -0.10004 0.05639
-0.15080 0.18693 0.10991
-0.14977 0.27510 -0.05029
-0.16106 0.11493 0.01729
-0.03134 -0.06122 0.11067
-0.13794 0.20535 0.02763
0.19775 -0.09934 -0.07509
-0.17290 -0.31500 0.09422
-0.13770 -0.06849 -0.03100
-0.16382 0.33688 0.00426
-0.16219 0.05878 0.10104
0.20704 -0.19801 0.16869
0.20704 -0.08193 0.14044
-0.15990 0.32240 0.03325
0.05876 -0.10004 0.02826
-0.13113 0.03247 -0.01041
-0.17897 0.31497 -0.02109
-0.13845 0.21532 0.05668
-0.14475 0.22171 0.10991
-0.16671 0.23641 0.00194
-0.13736 -0.06393 0.05824
-0.16145 0.32510 -0.00760
-0.13299 0.16105 -0.06620
0.18185 -0.32401 0.15131
-0.13850 -0.08878 0.02560
0.18294 -0.35956 0.16804
-0.16126 0.16867 0.08179
-0.16148 0.15205 0.10357
-0.13384 -0.00869 -0.07767
-0.16677 0.22951 -0.02867
-0.16681 -0.03881 -0.02447
-0.13052 0.07735 -0.10164
-0.16606 0.23037 -0.01736
0.18202 -0.05579 0.03498
-0.15586 0.01241 -0.10991
0.03487 -0.05953 -0.07830
-0.16029 0.12718 0.05889
-0.17317 -0.12824 0.08318
0.04430 -0.05929 0.01452
-0.13246 0.15431 -0.00430
-0.07865 -0.10004 -0.10458
-0.17967 0.38647 0.04371
-0.16511 -0.02444 -0.00444
-0.01717 -0.10004 -0.05904
-0.15443 -0.10004 0.02244
-0.17864 -0.18030 0.08359
-0.16106 0.11700 0.04550
0.07489 -0.10004 -0.11444
-0.13712 0.19916 0.00858
-0.16283 0.03919 0.06500
-0.16187 0.17976 0.09007
-0.13456 0.18457 -0.08149
0.19973 -0.40446 0.17186
-0.12967 0.07953 -0.01892
-0.16878 0.25304 0.10519
-0.13051 0.13974 -0.09957
0.03513 -0.10004 0.05707
-0.16132 0.09521 0.03058
-0.13120 0.14847 0.04274
0.07865 -0.05842 0.07123
0.20474 -0.41740 -0.17186
0.00136 -0.06443 -0.13765
-0.00629 -0.06650 0.13614
-0.16118 0.10487 0.02839
-0.16170 0.04910 -0.05168
-0.11534 -0.06335 0.08088
-0.12980 0.07385 -0.07573
-0.07605 -0.10004 -0.08045
-0.13192 0.14754 0.09978
-0.04285 -0.09439 0.12894
-0.12999 0.13029 -0.08114
-0.16522 -0.02636 -0.06860
0.01696 -0.10004 -0.07900
-0.16658 0.23516 -0.10627
0.04534 -0.09860 -0.14632
0.08408 -0.10004 -0.03036
-0.20530 0.41843 -0.07628
-0.17277 0.27524 -0.01993
0.18189 -0.32531 0.15812
-0.16142 0.14991 0.05682
-0.13667 -0.08563 0.11045
-0.16562 -0.01940 0.04988
-0.19087 0.36426 -0.03679
-0.03958 -0.10004 0.12167
-0.13206 0.02937 -0.03799
-0.15421 -0.19732 0.10991
-0.02259 -0.06099 -0.00705
-0.17271 0.36470 -0.00441
-0.19714 0.38788 -0.00087
-0.20123 0.40224 -0.05270
-0.16114 0.32392 -0.05030
-0.12997 0.06693 0.05054
-0.18754 0.35069 0.02388
-0.16303 0.01515 0.07057
-0.14389 0.24450 0.05657
-0.16014 0.32016 0.03892
-0.19423 0.38027 -0.03528
-0.14247 0.23578 -0.08225
-0.16621 0.22439 -0.09656
0.20536 -0.30849 -0.15027
-0.18891 0.41308 0.06313
-0.16619 0.22414 -0.10649
-0.18943 -0.27459 -0.09287
-0.13490 -0.03987 -0.01533
-0.13818 -0.07485 -0.01512
0.18248 -0.09981 -0.00193
-0.16537 -0.02893 0.02281
0.03827 -0.07238 0.14493
-0.01694 -0.06085 -0.06407
-0.09512 -0.10004 0.02262
-0.14782 -0.00810 0.10991
-0.17013 -0.09438 0.08448
-0.17607 0.29970 -0.02831
0.17744 -0.09997 0.00873
-0.03632 -0.06134 -0.06560
0.19507 -0.18993 -0.17186
-0.17832 0.38235 -0.03634
0.18407 -0.39638 0.16472
0.03560 -0.10004 0.13898
0.20704 -0.08286 -0.01276
-0.07680 -0.10004 0.10380
-0.17005 0.35860 0.01320
-0.06422 -0.06205 -0.12229
-0.13022 0.09082 0.05506
-0.13932 -0.08905 0.06632
-0.14636 -0.16284 0.10641
-0.12933 0.09642 0.08597
-0.13657 -0.05307 0.03683
-0.13419 0.17343 0.05453
-0.16673 0.23653 -0.02640
0.17675 -0.05593 0.03268
0.19750 -0.40728 -0.17186
-0.16848 -0.22936 -0.08435
-0.16996 -0.09227 -0.00826
-0.05732 -0.10004 0.08568
-0.13666 -0.05438 0.07045
-0.16794 0.24678 0.04024
-0.13213 0.00943 -0.03372
-0.15416 0.29553 0.07688
-0.16252 0.17714 -0.08659
-0.13809 0.02899 -0.10991
0.11554 -0.05748 -0.14217
-0.16770 0.23806 -0.01850
0.15155 -0.10004 0.03694
-0.15688 0.30675 0.05328
-0.16239 0.05242 0.04518
-0.17637 0.30128 -0.04243
-0.18286 0.32980 -0.06448
0.15490 -0.05648 -0.11046
-0.18965 -0.32062 0.08890
-0.16387 0.01428 0.00721
0.19496 -0.15744 -0.17186
-0.13810 -0.10004 0.06521
-0.19975 0.42142 -0.05168
-0.18164 0.32419 0.00623
-0.17178 -0.11319 0.08905
-0.17274 0.28003 0.08623
0.10660 -0.10004 0.12944
0.09242 -0.10004 0.01019
-0.17016 0.35897 0.08195
-0.16713 0.23285 0.06874
-0.19406 0.37665 0.02566
-0.13750 -0.10004 -0.01380
-0.16844 -0.23838 0.08480
0.13045 -0.10004 0.12610
0.04654 -0.05924 0.04337
0.02378 -0.07645 -0.14207
-0.13906 -0.08597 0.09297
-0.15525 0.30341 0.08231
0.00026 -0.06041 0.10090
-0.18546 0.40582 -0.03183
-0.18366 -0.22451 0.09326
-0.14692 -0.10004 -0.01866
-0.13076 0.06716 -0.03010
-0.16320 0.01165 0.08028
-0.16320 0.18944 0.05372
-0.08605 -0.06261 0.09923
-0.13400 -0.02552 -0.00601
-0.14011 0.08339 0.10991
-0.16238 0.17452 0.03311
-0.16838 -0.07259 0.06473
-0.07211 -0.08896 0.12318
-0.13198 0.14830 -0.07040
-0.16531 -0.01399 0.03691
-0.12917 0.10728 -0.04975
-0.16180 0.07295 -0.02059
-0.13491 -0.04006 0.00533
-0.16578 -0.03535 -0.05264
-0.07549 -0.06234 0.03075
-0.18430 0.33644 -0.03247
0.17970 -0.25419 -0.17127
0.06390 -0.10004 0.03400
-0.19491 0.37975 0.05030
-0.16110 0.10958 -0.02031
-0.02028 -0.10004 -0.02454
-0.19151 0.36688 -0.07133
-0.14916 0.27610 0.06026
0.14505 -0.10004 -0.07748
-0.13151 0.15247 -0.01744
-0.17647 0.37672 -0.03066
-0.18412 -0.35683 0.09070
-0.14330 0.05224 -0.10991
0.13823 -0.05691 0.14829
-0.05935 -0.10004 0.10157
-0.00014 -0.10004 0.05943
-0.13102 0.13458 -0.08410
-0.03221 -0.07411 -0.13104
-0.16462 0.33677 -0.10581
-0.06171 -0.06199 0.03071
-0.13494 0.18057 0.09687
0.18814 -0.12704 -0.14125
0.20281 -0.32688 -0.15119
-0.17120 -0.15351 0.08056
-0.02846 -0.10004 -0.12526
-0.19903 0.42142 -0.02380
-0.20099 0.40420 0.05788
-0.16826 -0.06022 -0.10574
-0.15796 0.31119 -0.05468
-0.17180 0.36165 0.06792
0.16424 -0.08673 0.16975
-0.16332 -0.15363 0.08057
-0.16163 0.17542 -0.10255
-0.18517 0.34043 -0.04524
-0.17159 -0.19331 0.08255
0.19354 -0.32843 0.15126
-0.16224 0.17206 0.09579
-0.08701 -0.06263 0.06176
0.18947 -0.34709 -0.17186
-0.16751 -0.28535 -0.09028
0.00659 -0.06025 0.07458
-0.16306 0.01453 0.08432
-0.13146 0.02447 -0.03778
-0.13610 -0.05763 -0.00594
-0.14963 0.27449 0.05093
-0.07558 -0.10004 -0.00998
-0.11515 -0.10004 0.09147
-0.11797 -0.10004 -0.07745
-0.00713 -0.10004 -0.05742
-0.18432 -0.37724 0.10140
0.03023 -0.10004 0.10963
-0.17133 -0.24821 -0.08529
-0.18906 0.41587 0.00624
-0.16405 -0.00568 -0.07597
-0.08848 -0.10004 -0.05453
-0.13547 -0.04848 0.00508
-0.13624 0.13040 0.10991
-0.17472 0.28723 0.04342
-0.13084 0.06404 -0.04997
0.19261 -0.30386 0.17186
-0.18812 -0.28266 -0.08700
-0.17998 0.38996 0.07261
-0.16182 0.17885 -0.07190
-0.13072 0.04303 0.06444
-0.16349 0.20328 0.03541
-0.02293 -0.10004 0.03999
-0.16029 0.11065 -0.05070
-0.15051 -0.10004 0.07792
-0.17221 -0.11787 -0.10156
-0.13077 0.14302 -0.10777
-0.17937 0.38810 0.01687
-0.03308 -0.10004 0.09811
-0.13640 -0.06166 0.01057
0.08689 -0.05821 -0.13369
-0.15538 0.30055 0.02618
-0.01587 -0.09803 -0.13426
-0.17819 -0.34393 -0.09967
-0.13152 0.14243 0.00838
0.20704 -0.07224 0.08099
-0.13535 0.18444 -0.01873
-0.16110 0.13285 -0.04929
-0.13414 -0.02792 0.08319
-0.16326 0.01027 -0.00322
0.15249 -0.10004 0.15193
0.11610 -0.10004 -0.14486
-0.19439 0.37783 0.08159
0.04195 -0.05935 -0.01248
0.19078 -0.22405 0.14607
-0.03094 -0.06121 0.03936
0.18413 -0.21806 0.17186
0.11624 -0.05747 0.01929
-0.14738 -0.04046 -0.10991
-0.13575 -0.05267 0.05842
-0.16489 0.21964 0.05982
-0.07153 -0.06224 -0.12193
-0.16028 0.12585 0.02246
-0.02000 -0.10004 -0.07492
-0.00866 -0.08327 -0.13568
-0.16363 0.01965 -0.07645
-0.20472 -0.40365 -0.09911
-0.14197 0.23771 -0.03295
-0.17456 0.29096 -0.10991
0.05448 -0.05904 0.12821
0.16236 -0.05629 -0.02016
0.16279 -0.05628 -0.10173
-0.12989 0.12820 -0.04675
0.07014 -0.05864 0.08191
-0.17129 -0.09864 0.01598
-0.17138 0.26621 -0.09501
0.06283 -0.10004 -0.06857
0.06919 -0.05866 -0.08956
0.20704 -0.09045 -0.02429
-0.18199 0.32579 -0.05122
0.19572 -0.05545 -0.03819
-0.16477 0.20910 -0.09087
-0.15444 0.29669 0.06202
-0.16922 -0.16651 0.10991
-0.16095 0.07509 0.00460
-0.19863 0.39637 0.06801
-0.01719 -0.06086 -0.04774
0.19256 -0.05553 0.16562
-0.09812 -0.10004 -0.04872
-0.18093 -0.20422 0.08309
-0.00454 -0.10004 -0.02050
-0.14951 0.27771 -0.07022
-0.16123 0.06363 -0.04386
0.03471 -0.10004 -0.12361
-0.14095 -0.10004 -0.07175
-0.17357 0.28512 -0.06581
-0.13683 -0.05678 -0.02134
-0.16031 0.13717 0.00695
-0.13285 0.01112 0.10499
0.19936 -0.34569 0.17186
-0.14431 0.24679 -0.03823
0.20579 -0.27690 0.14871
-0.17258 0.27410 0.06567
0.06098 -0.10004 -0.12991
-0.13128 0.05060 0.07688
0.03117 -0.05963 0.11522
0.15600 -0.05645 0.03936
-0.14733 -0.17178 -0.10602
-0.17675 -0.29446 -0.08759
-0.16142 0.14963 0.06580
-0.16220 0.17123 -0.04554
0.20704 -0.18093 -0.16988
-0.17408 0.28332 0.05457
-0.16487 -0.02026 -0.05635
-0.13493 -0.02783 -0.03938
-0.05429 -0.07552 0.12669
0.18720 -0.14216 -0.14200
0.20704 -0.19853 0.15925
0.14552 -0.07796 -0.16606
0.10947 -0.10004 0.00894
0.03860 -0.05944 0.09240
-0.16718 -0.05640 -0.07205
0.14960 -0.10004 -0.01586
-0.13032 0.08584 -0.01623
0.13830 -0.10004 0.03789
-0.18251 0.32821 -0.03915
-0.19187 0.36832 0.03007
-0.16035 0.14027 -0.01133
-0.00379 -0.10004 -0.06423
-0.16178 0.04672 -0.08444
-0.20424 0.41219 0.07825
0.13711 -0.06869 0.16440
-0.16661 -0.04798 0.05957
-0.11322 -0.06330 -0.01911
0.18399 -0.39379 0.17106
-0.10076 -0.10004 0.00920
-0.16329 -0.00898 -0.10991
-0.18288 0.39862 0.03260
-0.16649 0.23436 0.01129
-0.16697 -0.05349 0.02764
-0.16920 0.25608 -0.09567
0.10199 -0.10004 -0.10031
-0.18099 0.39048 0.05702
-0.05580 -0.06184 -0.05455
-0.16136 0.05977 0.06445
-0.06884 -0.06217 0.05897
-0.14127 -0.10004 -0.04927
0.12240 -0.05731 0.11294
-0.18191 0.32921 0.05712
0.20704 -0.30517 0.15543
-0.12996 0.06718 0.03508
0.12864 -0.10004 -0.00776
-0.12926 0.11617 -0.08159
-0.13164 0.03960 -0.05072
0.20419 -0.05523 -0.16940
0.11131 -0.05759 0.12809
-0.16170 0.15956 -0.01402
-0.14500 0.25046 0.03190
0.20704 -0.35116 0.17086
-0.13588 -0.05469 -0.10372
-0.16356 0.19429 0.04838
-0.16241 0.02989 -0.00800
0.05706 -0.09273 -0.14863
-0.13789 -0.07105 0.07730
0.17786 -0.19433 -0.16202
-0.19146 0.36668 0.03620
-0.13200 0.03089 -0.02397
0.18582 -0.19639 -0.14469
0.19597 -0.05544 -0.00439
-0.16306 -0.23112 -0.10991
-0.10076 -0.06298 0.02623
-0.13805 0.20623 -0.06554
0.20704 -0.08786 0.07064
0.19035 -0.21069 -0.17186
-0.13006 0.13150 -0.06380
0.01884 -0.07244 -0.14110
-0.18862 0.41226 -0.03545
-0.13004 0.13121 -0.02522
0.16273 -0.10004 0.05656
-0.13885 -0.09301 0.06325
-0.13432 -0.01710 -0.06024
-0.14085 0.19238 0.10991
0.18376 -0.38637 -0.15822
-0.16848 -0.07399 0.00159
0.09535 -0.09306 0.15617
0.01595 -0.10004 -0.10597
-0.14818 0.26744 0.08241
-0.13013 0.09646 0.02940
-0.18317 0.39943 -0.06007
-0.15421 -0.14598 -0.08019
-0.16100 0.07295 0.05614
0.03358 -0.05957 -0.10784
0.12495 -0.10004 0.10166
0.11153 -0.05758 -0.12408
-0.16633 -0.03152 -0.00338
0.06956 -0.05865 -0.00164
0.09966 -0.10004 0.10793
-0.05939 -0.06193 -0.05972
-0.13034 0.12168 -0.03365
-0.16432 -0.24018 -0.08489
-0.18643 0.34616 0.00599
-0.18916 0.35730 0.02059
-0.13114 0.14775 -0.06357
-0.13243 0.15395 0.02303
-0.13911 -0.08648 0.05324
-0.12931 0.11725 0.07325
-0.08169 -0.07035 0.12129
0.07571 -0.05850 -0.14948
-0.16396 -0.00394 0.00497
-0.13886 0.21824 -0.09056
0.19869 -0.23345 -0.14655
-0.14965 0.27835 -0.04243
0.12424 -0.05726 0.03124
-0.13038 0.08329 -0.05808
0.16154 -0.05631 0.14499
0.18054 -0.28160 -0.15474
-0.17787 0.30920 -0.00343
-0.13378 -0.02172 0.09638
-0.05612 -0.10004 0.12308
-0.02103 -0.07167 0.13324
0.03804 -0.05945 -0.08263
0.15160 -0.05657 -0.09654
0.00556 -0.10004 0.06604
0.18144 -0.27584 0.14863
-0.14961 0.06348 -0.10991
-0.16607 -0.03983 0.04762
-0.14071 0.22986 0.10194
-0.19834 0.39225 0.00123
-0.13624 0.19258 -0.06682
-0.16027 0.12188 0.09496
-0.14480 0.24941 0.02453
-0.11431 -0.06333 0.05470
-0.17231 0.30041 -0.10991
-0.18614 0.40535 0.02814
-0.16505 0.21255 -0.01934
-0.16306 0.19806 0.08367
-0.16578 -0.03534 0.06911
-0.16026 0.11679 0.00361
-0.18476 0.40386 -0.00629
-0.09826 -0.10004 -0.00394
0.06078 -0.10004 0.13177
0.13560 -0.05697 -0.10272
0.17780 -0.16388 0.17186
-0.14299 0.23906 0.02543
-0.17020 0.35633 -0.01816
0.17819 -0.20508 -0.15497
-0.13262 0.01582 0.00703
-0.18249 -0.36730 -0.09459
0.19891 -0.22876 0.17186
0.09767 -0.10004 0.09210
0.05200 -0.10004 -0.06204
-0.16042 0.10190 -0.07989
-0.16189 0.16557 0.08928
0.02609 -0.05989 -0.14185
-0.14348 0.19828 0.10991
0.20704 -0.18085 -0.15313
0.00008 -0.06042 -0.11610
-0.13991 0.21980 0.07569
-0.12915 0.10822 0.00328
-0.13560 -0.03826 0.03079
-0.13398 -0.10004 -0.08267
0.20704 -0.18676 0.16648
0.08698 -0.05821 0.03352
-0.13106 0.05725 0.07469
-0.20306 0.40827 0.06410
0.08273 -0.05832 -0.07513
-0.16109 0.11038 0.07524
-0.16029 0.13215 -0.03066
-0.12979 0.07440 0.02756
-0.19510 0.38346 -0.06864
0.06104 -0.05887 0.12872
-0.13763 -0.07827 -0.05597
0.19615 -0.05543 0.05476
-0.13059 0.12633 0.02468
-0.18324 0.39961 -0.09149
0.17832 -0.20941 0.16446
-0.13450 -0.02020 -0.05440
-0.19920 -0.35761 0.10451
-0.17269 0.36462 -0.01740
0.09763 -0.10004 0.09676
-0.13292 -0.00655 0.03776
0.18425 -0.10570 0.17186
-0.16411 0.21090 -0.09570
-0.16363 0.19520 -0.01485
-0.17199 0.27544 0.04446
0.13879 -0.05689 0.03867
0.20704 -0.07464 -0.16452
-0.17988 0.38967 0.02753
-0.17131 0.26571 -0.07482
-0.16440 -0.01196 -0.07457
0.20704 -0.06557 0.08897
-0.13320 0.17174 -0.06551
-0.15966 0.20848 -0.10991
0.02878 -0.05969 -0.11286
-0.13720 0.20586 0.09727
-0.17253 0.36411 -0.05914
-0.09420 -0.10004 -0.10201
0.17995 -0.26247 -0.15699
-0.17016 -0.09466 0.07312
-0.16714 0.34887 0.03241
-0.02037 -0.06094 -0.11887
0.08174 -0.05834 -0.12571
-0.13429 -0.03052 0.10395
-0.11014 -0.10004 0.00212
-0.18096 0.39038 -0.04084
-0.15581 0.30571 -0.01327
-0.02644 -0.10004 -0.09352
-0.10729 -0.10004 0.07739
-0.07272 -0.06227 -0.11509
-0.14869 0.27388 -0.03362
-0.15704 0.31077 0.07097
-0.13951 0.09241 0.10991
-0.18996 0.41600 -0.10324
-0.14508 0.25523 0.03789
0.18116 -0.30188 0.16650
-0.15889 0.31502 0.07777
-0.13025 0.08875 0.00491
-0.13037 0.12228 0.02990
-0.15328 0.29146 0.03823
0.16705 -0.10004 0.02315
-0.17946 0.31326 0.01246
-0.16342 0.02467 -0.04218
0.08527 -0.10004 0.12792
-0.16511 -0.02441 -0.01738
-0.16955 -0.29660 0.09349
-0.18180 -0.30836 0.10991
0.20325 -0.09917 0.04400
-0.13317 0.17143 -0.09418
-0.17466 0.28685 -0.04770
-0.13126 0.05124 0.10177
0.10961 -0.10004 0.03007
-0.14026 -0.09241 0.10991
-0.19622 0.38454 0.05233
-0.15035 0.27785 0.00826
-0.16250 0.04901 -0.10944
-0.16982 -0.08088 -0.04177
-0.16197 0.04071 -0.02760
-0.16293 0.01699 0.04488
-0.18142 -0.36150 -0.10582
-0.05896 -0.06192 0.01907
0.09472 -0.05801 0.09247
0.20704 -0.08326 -0.13092
-0.12954 0.08516 -0.07235
0.20330 -0.05525 -0.06338
0.20704 -0.07508 -0.07152
0.14960 -0.05662 0.03301
-0.16421 -0.10004 0.01555
-0.00285 -0.06049 0.12073
0.13806 -0.10004 -0.01218
-0.16120 0.10325 0.10348
-0.13292 0.00966 -0.07754
-0.08714 -0.10004 0.01365
-0.13308 -0.00955 -0.06403
-0.01358 -0.10004 0.00082
-0.16118 0.10493 -0.01336
-0.16349 0.00565 0.00531
-0.16028 0.11149 0.04056
-0.11453 -0.06954 -0.11482
-0.16853 0.24519 0.09967
-0.13231 0.15248 -0.07765
-0.18521 -0.27327 0.10991
0.18319 -0.08621 -0.17186
0.13946 -0.10004 0.01585
-0.16533 -0.01436 -0.03136
-0.18056 0.39174 -0.10501
-0.18061 0.38933 -0.03643
-0.16027 0.11933 -0.05866
0.12837 -0.06825 -0.16268
-0.01711 -0.06085 -0.01291
-0.13348 0.17431 0.03187
0.07559 -0.10004 -0.01924
-0.16168 0.07796 -0.09560
-0.05937 -0.10004 -0.03453
-0.16106 0.11382 -0.01692
0.20149 -0.33340 -0.15151
-0.14534 0.25228 0.09128
0.11345 -0.05754 -0.08803
0.01352 -0.06008 0.00958
-0.16366 0.01887 -0.01120
-0.18396 0.39926 -0.00112
0.20704 -0.06636 -0.10162
-0.12963 0.08123 0.09423
0.04914 -0.09039 0.14707
-0.16398 0.01194 -0.03081
0.19885 -0.08572 0.17186
-0.09657 -0.08569 -0.11836
-0.13613 -0.04637 -0.05849
-0.12921 0.10404 0.04906
-0.16719 0.34904 -0.00341
0.11847 -0.05741 0.06563
0.09327 -0.10004 0.04996
0.20704 -0.07203 0.04546
-0.17378 -0.13437 -0.10744
0.18585 -0.05570 -0.09929
-0.14533 0.25658 -0.07886
0.02947 -0.05967 -0.01604
-0.20324 -0.39132 -0.10164
-0.13089 0.06277 0.04867
-0.18253 0.32827 -0.03162
0.20704 -0.07957 0.04330
-0.19472 0.42142 0.09989
0.20704 -0.11583 -0.15073
0.10168 -0.08259 0.15742
0.18321 -0.28114 -0.17186
-0.10872 -0.10004 0.05164
-0.03871 -0.10004 -0.10659
-0.20269 -0.39940 0.10991
0.06502 -0.05877 -0.14655
-0.16867 0.25221 -0.00980
-0.18473 -0.23384 -0.10721
0.19331 -0.11080 0.17186
0.05247 -0.05909 -0.13354
0.17614 -0.13832 -0.14800
-0.16140 0.17120 0.01480
0.01526 -0.06003 -0.04210
-0.16099 0.07344 0.08110
-0.20418 0.41473 -0.05769
-0.10105 -0.10004 -0.06354
0.19712 -0.21267 -0.14552
0.03168 -0.10004 0.01131
-0.16232 0.03225 -0.03022
-0.16108 0.12694 -0.03528
-0.17051 0.25981 0.06985
-0.18931 0.36128 0.06433
-0.16391 0.20839 0.05327
-0.13607 0.19126 0.02503
-0.17174 0.26893 -0.03298
-0.15668 0.30593 0.01889
-0.16298 0.19704 0.07746
-0.14544 -0.15439 0.09617
-0.17780 0.30881 -0.04317
0.19811 -0.07322 -0.17186
-0.05446 -0.10004 -0.09111
-0.18798 0.35584 -0.09454
0.18857 -0.09963 0.02594
-0.16637 0.22582 0.04612
0.08211 -0.05833 -0.05850
-0.16027 0.12056 -0.04946
-0.16095 0.16144 0.09127
-0.19159 0.36718 0.02133
-0.16665 -0.04859 -0.07493
-0.16560 -0.01894 0.03906
-0.18885 -0.34511 -0.09012
-0.11933 -0.10004 -0.11116
-0.17391 -0.28025 0.10991
-0.13185 0.01509 0.04962
-0.14284 0.23814 0.06847
0.19547 -0.27190 0.14846
-0.16197 0.06574 -0.09447
0.00822 -0.10004 0.10772
-0.16419 0.00767 0.10799
-0.13020 0.05921 0.03205
-0.16519 -0.02584 0.08608
-0.14324 0.24542 0.01591
0.10746 -0.05793 -0.15799
-0.20028 0.40184 0.00055
0.05770 -0.05895 -0.00664
-0.15160 0.28745 -0.03046
0.11849 -0.10004 0.08078
-0.13970 0.22354 0.04835
-0.14591 0.25969 -0.01980
0.03661 -0.05949 -0.00331
-0.16156 -0.25238 -0.09731
-0.15252 0.18727 -0.10991
-0.13145 0.04535 0.05141
0.08573 -0.10004 -0.01715
0.20704 -0.05596 0.06572
0.14953 -0.10004 -0.11659
-0.20554 0.41921 -0.09674
0.04292 -0.05933 -0.03001
-0.12925 0.10181 -0.08644
-0.13481 -0.03854 -0.04422
-0.17269 0.36463 0.04674
-0.17857 0.31286 -0.10497
-0.16624 0.23204 -0.00705
-0.03845 -0.10004 -0.07090
-0.16195 0.16682 -0.06164
0.18247 -0.34426 -0.15512
-0.18600 0.34425 0.10811
0.19393 -0.09946 0.05324
-0.18535 0.34126 -0.08231
-0.12938 0.09338 -0.08006
-0.16624 0.34277 0.10946
0.05220 -0.10004 0.00689
-0.11342 -0.10004 0.07257
-0.16416 0.33816 -0.08213
-0.13092 0.06184 0.00404
-0.07682 -0.08463 0.12225
-0.13297 0.00859 0.05781
-0.13085 0.14406 0.02522
0.01900 -0.10004 0.03346
-0.05304 -0.08728 -0.12693
-0.13499 -0.01337 -0.10991
-0.16799 0.24714 -0.09310
-0.12385 -0.10004 -0.08958
0.05630 -0.05899 0.01880
-0.16346 0.19312 0.10862
-0.14565 0.25395 -0.05875
-0.07482 -0.06232 -0.05936
0.12016 -0.05737 0.01449
-0.16136 0.14778 0.01169
-0.16139 0.09124 0.05253
0.18107 -0.05582 0.06443
-0.16080 0.08121 0.04823
0.15897 -0.05638 -0.01409
-0.20434 0.41526 -0.08705
-0.19059 -0.35080 -0.10991
-0.17425 -0.13913 -0.08083
0.14946 -0.09351 -0.16684
0.03163 -0.10004 -0.07258
-0.13128 0.02891 0.08096
0.03562 -0.06910 -0.14440
