-0.20603 -0.00970 -0.16042
-0.09804 -0.40633 0.16567
-0.17889 -0.40633 0.05049
-0.20603 -0.05879 -0.20287
-0.03296 -0.38281 -0.16024
-0.14254 0.16904 -0.20603
-0.16836 -0.01717 0.06021
-0.17638 0.16596 -0.11446
-0.18316 -0.22834 -0.11446
-0.15079 -0.40633 0.20121
-0.13970 0.00603 0.09790
-0.13735 0.03002 0.13666
-0.16024 -0.38267 -0.20594
0.14966 -0.35868 -0.20603
0.18313 0.04318 -0.12419
0.20570 0.03111 -0.13504
-0.20603 0.03083 -0.14399
-0.20603 0.30334 0.15204
-0.19965 -0.31476 0.01877
-0.13735 0.13536 -0.02581
-0.13735 0.27529 0.10532
-0.13735 0.16864 -0.16458
0.20493 0.03530 -0.08708
-0.13735 0.34610 0.08034
0.06522 0.02919 0.20595
-0.05775 -0.40633 -0.18118
0.17894 -0.37061 0.20603
0.20603 -0.09409 -0.18882
0.17807 -0.34124 0.20603
-0.04464 -0.37920 -0.20603
-0.17332 -0.40633 -0.09630
-0.11962 0.01169 0.18314
-0.05124 -0.01717 -0.10507
-0.16024 -0.24174 -0.16603
-0.13735 0.16443 -0.03003
-0.13735 0.14026 -0.12265
0.20603 -0.02501 0.15389
-0.17525 -0.17621 0.20603
-0.13735 0.29842 -0.06931
-0.13735 0.14428 0.16017
-0.05675 -0.01717 -0.13103
-0.14324 0.05062 -0.18933
-0.20603 -0.17846 0.17990
-0.13735 0.34534 -0.18274
0.20603 -0.00445 -0.08324
-0.20603 -0.10104 -0.16432
-0.13380 -0.01717 -0.03311
-0.19036 0.16350 -0.20603
0.18394 0.05129 -0.18478
0.05495 -0.01717 0.18719
-0.20001 0.06197 -0.20603
0.16866 -0.40633 0.07678
-0.14071 0.32621 -0.07969
-0.06225 -0.34691 0.20603
-0.13735 0.02277 0.08980
0.16024 -0.10249 0.15619
-0.13735 0.16796 0.11207
-0.15751 0.40633 0.15952
-0.20603 -0.39779 0.16798
-0.19596 -0.10825 -0.11446
-0.16024 0.19694 0.11769
-0.20603 0.18993 -0.16634
-0.16024 0.12840 -0.10402
-0.07422 -0.38497 0.20603
-0.16024 0.37664 -0.14547
-0.16024 0.15224 0.14955
0.14120 -0.34266 -0.16024
-0.16024 0.20521 0.17782
-0.20603 0.39896 -0.16428
-0.16024 0.29361 0.00852
-0.18241 -0.31476 0.03456
-0.15242 0.20030 -0.05556
-0.13735 0.12508 0.12735
-0.16024 0.04178 0.20171
0.20603 -0.32126 0.11657
0.18270 -0.12796 0.11446
0.17465 -0.25689 -0.20603
0.03433 0.05151 -0.02518
0.20603 -0.34081 -0.05576
-0.13735 0.19725 0.18635
-0.16024 0.23841 0.20461
-0.20603 0.28761 -0.16428
0.16024 -0.21996 0.20160
-0.18382 0.00337 0.20603
0.19091 0.00308 -0.20603
0.03632 -0.01717 0.16396
0.16024 -0.32657 0.01923
0.20603 -0.36838 -0.19810
-0.05124 -0.01717 0.04307
-0.02894 -0.40287 0.16024
-0.18545 -0.28552 -0.20603
-0.19893 0.36434 -0.20603
0.02654 0.05151 -0.09900
0.20603 -0.38004 -0.13274
-0.14977 0.04769 0.08041
-0.03578 -0.01717 -0.06082
-0.09560 0.05151 -0.05999
0.16024 -0.38912 0.05354
-0.16051 0.06284 0.20603
0.16024 -0.36482 -0.11542
-0.15266 0.01175 -0.12954
-0.19431 -0.29962 -0.20603
-0.16024 0.03860 -0.11464
0.20603 -0.32937 0.08268
0.02591 -0.31927 -0.16024
0.11373 -0.40633 -0.16681
-0.20603 -0.11128 -0.20298
-0.15642 0.04104 0.03109
0.06175 0.05151 0.06889
0.20603 -0.12779 -0.16572
0.07583 0.02818 0.18314
-0.20603 0.28517 -0.14370
-0.16024 0.18118 -0.09506
-0.13735 0.28824 -0.13639
-0.20603 -0.00150 0.03667
0.16322 -0.01498 0.20603
-0.14696 0.04920 0.17285
0.13995 -0.31476 -0.19702
-0.13735 0.37404 -0.03535
0.16024 -0.20051 0.19245
0.16024 -0.38284 0.15408
0.16024 -0.04314 -0.20491
0.20603 -0.01578 -0.08595
-0.20603 -0.06584 0.18245
0.11328 -0.00743 0.20603
-0.20603 0.25808 -0.15818
-0.13735 0.26955 0.20136
-0.19038 -0.01717 -0.05538
0.09694 0.05151 -0.00655
0.07088 -0.31476 0.16330
0.18313 0.02996 -0.08114
0.16024 -0.09750 0.14970
0.20603 -0.04650 0.17053
-0.20603 -0.32947 0.11705
0.09534 -0.00403 0.20603
0.08697 -0.40633 0.20517
0.20273 -0.10691 0.11446
0.15704 0.04419 -0.18314
0.13171 -0.01717 0.00912
0.17415 -0.24975 0.11446
-0.06845 0.05151 -0.14342
-0.16595 0.13923 -0.20603
0.16024 -0.39866 0.16312
-0.17445 0.25440 0.11446
0.17411 0.01334 0.18314
-0.14527 0.13378 -0.20603
-0.12186 0.05151 0.03275
-0.20603 -0.31925 0.17892
-0.20603 0.26835 0.12626
0.08708 -0.01717 0.11773
0.07527 -0.01717 0.14960
-0.13735 0.25228 -0.03584
0.18313 0.00878 0.06610
-0.11603 0.05144 -0.18368
-0.18241 0.08667 -0.20603
-0.16024 0.38635 -0.12385
0.16024 -0.38903 0.02248
-0.20603 -0.34717 0.10512
0.08487 0.05151 -0.10558
-0.19958 0.38212 -0.20603
-0.13735 0.37025 -0.02536
0.16024 -0.12465 -0.20386
-0.10829 -0.01717 0.00646
0.20603 -0.20707 -0.18743
0.10465 -0.40633 0.16550
-0.16024 0.17453 0.17099
-0.17251 0.35402 0.20603
-0.17658 -0.17155 0.11446
0.07749 0.05151 -0.11225
0.07811 -0.01717 -0.13065
-0.09138 -0.01717 0.11750
-0.16024 0.27129 0.01602
0.20603 -0.00898 0.18180
0.20603 -0.23237 0.17855
-0.13735 0.14710 0.14829
-0.16024 0.25754 0.04072
0.11667 -0.34442 -0.20603
-0.19387 -0.39621 -0.11446
0.00617 0.05151 0.10323
0.20603 -0.21546 -0.16844
-0.14256 0.30110 -0.20603
-0.13735 0.24561 -0.11637
0.08418 0.04699 -0.19647
-0.13735 0.00897 0.06470
-0.05690 -0.01717 0.13561
-0.16926 0.22265 0.20603
0.18313 0.03164 0.17222
0.02548 0.00572 0.20594
-0.14902 0.30332 -0.08546
-0.16132 -0.26690 -0.11446
-0.13735 0.04255 -0.01966
-0.20198 0.13737 0.11446
0.13126 -0.31476 0.19656
-0.16024 0.28032 -0.08728
-0.11511 -0.31476 -0.17276
0.06038 -0.01717 -0.11711
-0.16024 0.39624 -0.09477
0.17681 0.05151 -0.12226
-0.06475 0.05151 -0.06863
-0.19828 -0.01717 0.05526
0.20603 -0.33726 0.05473
-0.15781 0.00572 0.03117
-0.16024 -0.37500 -0.09901
0.19949 0.01265 0.06687
-0.19266 -0.26547 -0.11446
0.02997 -0.35345 -0.16024
0.16024 -0.23541 -0.17584
-0.18244 -0.19436 -0.11446
0.20603 -0.40087 0.07230
-0.08033 -0.01717 0.19902
0.05393 -0.01717 0.09038
-0.06083 -0.01717 0.02337
-0.16024 0.19925 -0.16446
-0.18329 -0.20794 0.20603
-0.16024 -0.27913 -0.12879
0.16024 -0.37525 -0.08251
-0.16565 0.12749 0.20603
-0.13735 0.02580 -0.01548
-0.20603 -0.23590 0.13192
-0.06332 0.04992 -0.19101
-0.14702 0.30332 -0.05824
0.16974 -0.31492 0.20603
0.16024 -0.06542 -0.13950
-0.16024 -0.39750 0.00026
-0.19567 0.00572 0.17939
-0.20603 -0.08249 0.18757
0.08830 -0.31476 -0.16277
0.20603 -0.28717 -0.20468
-0.14589 0.37877 -0.20603
0.18533 -0.06260 0.11446
0.20404 -0.31476 -0.05518
-0.16024 0.22445 -0.01524
-0.16024 0.13670 0.05927
0.17175 0.00572 -0.20349
-0.14074 0.00572 0.13645
0.12628 0.04134 -0.18314
-0.20495 0.12301 -0.20603
-0.16577 0.08139 0.11446
-0.15930 0.32621 -0.20340
0.01373 -0.39931 -0.16024
0.10959 0.05151 0.15310
-0.01086 -0.01717 -0.09159
-0.16362 0.00572 -0.20323
0.03407 0.05151 0.10376
-0.18335 -0.26568 0.11446
0.19260 -0.31476 -0.10091
-0.14009 0.40633 0.03601
-0.20603 -0.32260 -0.01044
-0.20603 0.13071 0.16335
0.16024 -0.12227 -0.15204
0.20603 -0.10318 0.16409
-0.16877 0.40633 -0.13594
-0.16192 -0.40633 0.14234
0.18529 -0.26823 0.20603
-0.20603 0.19998 0.19676
0.01374 0.03722 0.18314
-0.10124 0.05151 0.16395
0.04620 -0.01717 -0.17835
-0.19738 -0.24566 0.20603
-0.05008 -0.33213 0.20603
-0.15923 0.02213 0.11307
0.18889 -0.34741 0.11446
-0.13735 0.24728 -0.09879
0.06205 -0.31476 -0.16315
0.01152 -0.01717 0.00378
-0.08498 -0.01717 0.14409
-0.18548 -0.38564 0.20603
-0.19066 0.17299 -0.20603
-0.16789 0.00572 0.18681
-0.16309 0.40633 0.16818
-0.16024 0.39349 -0.15590
-0.13735 0.30227 0.07775
0.20578 -0.04702 -0.20603
0.07445 -0.01717 -0.06922
-0.13735 0.01904 0.11328
-0.20032 -0.01717 0.17338
0.20603 -0.23562 0.20503
0.16640 -0.03706 -0.11446
-0.08597 -0.32158 0.16024
-0.17663 -0.03053 -0.11446
-0.15435 0.12018 -0.09134
-0.06961 0.05151 0.03370
-0.16024 -0.29700 -0.14961
-0.16602 0.34021 0.11446
-0.16024 0.04673 -0.16145
0.18313 0.00853 -0.03285
-0.20603 0.15236 0.13780
-0.16024 0.24137 -0.19718
-0.20603 0.26988 0.16245
0.20201 -0.36972 0.20603
-0.08129 -0.40633 0.17420
-0.09875 0.05151 -0.17105
0.20603 -0.33680 0.06141
-0.16024 -0.35360 -0.13207
-0.16024 -0.29163 -0.17506
-0.16024 -0.39842 -0.11342
0.16024 -0.01989 0.20341
0.18168 -0.40633 0.14268
-0.16024 0.22338 0.07252
0.03889 0.05151 -0.16344
-0.16024 -0.37138 0.05580
0.04267 0.05151 -0.09345
-0.05561 -0.01717 0.19702
-0.16024 -0.11660 0.16474
0.04826 0.05151 0.07120
-0.04771 0.05151 -0.04790
0.15774 -0.01717 -0.09982
-0.15315 0.40633 -0.04082
-0.20603 -0.06024 -0.18524
-0.20603 -0.03512 -0.12430
0.01098 0.05151 0.11352
-0.16024 0.15105 0.16049
0.08520 0.02420 -0.20545
-0.13735 0.18785 -0.19774
-0.14478 0.20030 0.10415
-0.16024 0.13161 0.06604
-0.16024 0.31968 0.19721
-0.18552 -0.11031 0.11446
0.18351 -0.12777 -0.20603
-0.16024 0.22817 -0.05535
0.07953 -0.01717 -0.06299
0.11160 0.01646 -0.18314
0.05935 0.04077 0.20241
-0.17100 -0.24863 0.11446
0.16024 -0.35400 -0.02081
0.19728 0.04637 0.14397
-0.20603 0.12762 -0.19303
-0.13735 0.23241 -0.19147
-0.16001 0.03037 -0.03556
-0.16024 -0.36502 -0.15912
-0.20603 -0.35573 0.12765
0.20603 -0.02865 0.17817
0.05866 -0.01717 0.13401
-0.07621 0.01436 -0.20081
0.13774 0.04181 -0.20162
-0.18470 -0.01717 0.05749
-0.16024 -0.07141 0.11897
0.20603 -0.00174 0.03318
-0.13735 0.02567 0.00264
0.16024 -0.13536 0.17496
-0.20223 -0.34330 0.20603
-0.18451 0.18865 0.11446
-0.15608 0.00572 0.05144
-0.19350 0.11257 -0.11446
0.04069 0.05151 -0.15652
-0.18994 -0.01717 -0.15920
-0.19862 -0.29375 -0.20603
-0.20603 0.36403 -0.18457
-0.14536 0.36614 0.20603
0.16024 -0.40507 0.07515
-0.12256 0.05151 -0.02833
-0.11863 0.05151 -0.15526
-0.16024 0.12977 -0.03009
0.10983 0.00634 0.18781
0.00875 0.03443 -0.18314
-0.15479 0.22320 0.00860
0.16024 -0.38755 0.12005
-0.09205 0.00736 0.19112
-0.04001 -0.01717 0.19066
-0.13735 0.05141 0.05298
0.06029 -0.01717 -0.09446
-0.05655 -0.33407 -0.16024
-0.16478 -0.01636 -0.20603
-0.20603 -0.26413 -0.19449
0.15267 -0.32948 -0.20603
0.17451 -0.40633 -0.07050
0.08647 0.04339 0.20040
0.20603 -0.38681 0.00439
-0.14045 0.33945 -0.20603
-0.00407 0.05151 0.17039
0.18096 -0.40633 -0.13026
-0.16430 -0.30100 0.20603
0.18837 -0.01717 -0.18062
0.16024 -0.39832 -0.13400
0.20603 0.00269 0.10739
-0.13735 0.14275 0.04472
-0.20603 0.39444 -0.20291
0.20047 0.00572 0.04813
-0.18924 -0.33019 -0.20603
-0.19695 -0.35990 -0.11446
-0.20603 -0.16182 0.11814
0.16987 -0.28472 -0.11446
-0.18851 0.40633 0.15824
-0.00710 0.05151 -0.18310
-0.15772 0.40633 -0.16181
-0.16024 0.31986 -0.16467
-0.16024 -0.35247 0.15846
-0.16024 -0.23738 -0.11881
-0.20603 0.06649 -0.15568
-0.20603 -0.22317 -0.17434
0.20551 0.02468 0.18343
-0.16024 -0.38793 0.01809
-0.13735 0.25343 0.13660
0.20556 -0.38435 0.20603
-0.16024 -0.23449 -0.14895
0.02866 0.00307 -0.20603
0.15216 0.05151 -0.17908
0.18468 0.00572 -0.15393
-0.00740 0.00766 0.19184
0.04272 -0.01717 0.07470
0.16024 -0.10377 0.11599
-0.16024 -0.36984 -0.08744
0.17550 -0.00806 0.20603
-0.16024 -0.38187 0.18524
0.16931 -0.05538 0.20603
-0.20603 0.27592 0.16424
0.09602 0.03222 -0.20555
0.20603 -0.04033 -0.16167
-0.20603 0.17685 -0.14226
-0.16024 -0.35226 -0.04228
-0.20603 -0.38157 0.04652
-0.16024 0.19740 -0.01944
-0.20603 0.38276 0.14039
0.20011 0.04377 0.18320
-0.20603 -0.01645 -0.10609
-0.17253 0.14375 -0.11446
0.03137 -0.01717 0.12446
0.20211 -0.27482 -0.20603
0.18313 0.01354 -0.17470
-0.14206 0.00572 0.09221
0.16855 0.01848 0.20350
0.17177 -0.01717 0.00796
-0.13823 -0.40633 -0.18082
-0.16024 -0.33385 -0.13349
-0.20603 -0.34437 0.05152
0.20603 -0.37562 -0.19881
-0.20603 -0.05059 -0.12806
0.20603 -0.21725 0.16890
-0.20603 -0.19043 -0.13719
-0.20603 -0.32144 0.19734
-0.16024 0.12323 0.01645
-0.13735 0.39132 0.11515
-0.13735 0.36793 -0.13100
-0.08964 -0.00924 0.20603
-0.14372 0.40633 0.13104
-0.03415 0.05151 -0.15719
-0.03180 -0.31476 0.19626
0.07061 -0.01717 0.06058
-0.13394 0.05151 0.17626
-0.00703 0.05117 0.18568
-0.10074 0.05151 0.04150
-0.20603 -0.05521 0.16641
0.19293 0.04913 -0.14580
0.05972 -0.32600 -0.20603
0.16024 -0.35259 -0.03144
0.16024 -0.40614 0.08313
0.16024 -0.19465 0.11872
-0.12554 -0.31476 0.18009
-0.18406 0.37345 0.11446
0.08381 -0.40633 -0.17239
0.16413 -0.36963 0.11446
-0.16024 0.34862 -0.16968
0.14717 0.00572 0.19364
-0.08923 -0.39133 0.16024
0.00500 -0.40633 0.18144
-0.06462 -0.31517 -0.20603
-0.20603 -0.26928 -0.13624
0.01463 0.03964 -0.20314
-0.16024 -0.10637 -0.12287
0.08061 -0.35874 -0.16024
0.19667 0.04684 -0.09647
0.20365 -0.31476 0.01284
-0.18305 0.00572 0.01562
0.07675 -0.01717 -0.20276
-0.15845 0.30332 -0.18691
0.03313 -0.37854 0.20603
0.20603 -0.28351 -0.19996
0.18152 0.01444 0.20087
-0.20389 0.10906 0.20603
-0.19518 0.23898 0.11446
0.13310 -0.33324 0.16024
0.14496 -0.01717 -0.12596
0.19087 -0.35481 -0.20603
-0.13735 0.37255 -0.09457
-0.14252 0.05083 0.17999
0.11017 -0.38869 -0.20603
0.16024 -0.32810 -0.15848
0.03209 0.02552 0.20562
-0.20603 -0.33965 -0.08370
-0.09903 -0.01717 -0.13938
0.01864 0.02842 -0.18314
-0.19433 -0.40633 -0.03261
0.13827 -0.31476 0.17545
-0.19299 0.40633 -0.20009
0.18017 -0.03607 -0.11446
-0.20175 -0.40633 -0.20417
0.18313 0.02618 -0.16599
-0.16024 0.32200 0.18404
-0.20603 0.25413 0.15030
-0.12041 -0.32431 0.20603
0.20603 -0.00201 -0.03954
-0.09874 0.02116 -0.18314
0.16024 -0.12203 0.19931
0.16024 -0.08475 0.16859
-0.20603 -0.26325 0.17958
-0.16024 0.22582 0.10671
-0.16024 0.37767 -0.07329
-0.17429 0.02663 -0.11446
0.20603 -0.17783 0.12135
-0.16024 0.29899 0.16041
-0.17567 0.39693 -0.20603
-0.13735 0.04673 0.00673
-0.17584 0.09133 0.11446
-0.16510 -0.16406 -0.20603
-0.14543 0.12018 0.05420
-0.20603 0.05855 -0.20108
-0.08954 -0.01717 0.05937
-0.13735 0.29759 -0.05961
-0.13735 0.35493 0.03567
-0.16024 0.29531 -0.03862
-0.12535 0.05151 0.06647
-0.20603 0.24610 -0.20550
0.06964 0.05151 -0.14735
0.10567 0.05151 -0.18251
-0.16024 0.22106 -0.16210
-0.13735 0.29333 0.10967
0.00125 -0.38933 -0.20603
-0.11456 0.05151 0.17936
-0.19595 0.39982 -0.20603
-0.15262 -0.01717 -0.17980
0.19116 0.00572 -0.07771
0.08247 -0.01717 0.03673
-0.03730 0.01302 -0.19978
-0.16024 0.22430 0.15366
0.20603 -0.40076 -0.16850
-0.16024 0.08822 -0.12334
-0.16024 0.40419 0.10177
0.17249 -0.25743 -0.11446
-0.20603 -0.15894 0.12382
0.20603 -0.39197 -0.20396
-0.18116 0.37002 0.20603
-0.14597 0.22320 0.19371
0.20603 -0.33309 -0.16900
-0.13735 0.30007 -0.16015
-0.17955 -0.23331 0.20603
-0.16024 0.12928 0.19048
0.16024 -0.34040 -0.16480
-0.20603 -0.37126 0.02000
-0.16634 -0.01717 -0.02489
0.15421 -0.01717 0.07525
-0.19934 -0.05093 0.20603
-0.11429 0.05151 -0.13230
0.19267 0.00572 -0.12323
0.13169 -0.34407 -0.20603
-0.13735 0.33348 0.09220
-0.13735 0.18282 -0.06567
0.03886 -0.38634 0.20603
-0.13735 0.17194 -0.07945
0.20603 -0.00648 -0.19555
-0.20229 0.24072 -0.20603
-0.20364 0.00572 -0.04759
0.16024 -0.33602 0.16378
-0.16024 0.39592 0.03718
0.05293 -0.01717 0.15940
0.18509 0.00572 0.03022
-0.15360 -0.39998 0.20603
0.14035 -0.01717 -0.14861
0.20603 -0.29902 0.14050
0.17742 -0.31476 -0.07630
0.20491 -0.01717 0.08347
-0.18800 -0.30539 0.20603
-0.16024 -0.20004 -0.12482
-0.15758 0.03908 -0.06585
-0.16024 0.24266 0.01492
0.20528 0.03430 -0.01429
0.16277 0.05151 0.11469
-0.20603 0.01513 0.11827
-0.16205 -0.40633 -0.20247
-0.13735 0.04287 0.10262
-0.20603 0.34874 0.13712
-0.13735 0.39496 -0.13641
-0.20603 0.12341 -0.13115
-0.15826 0.00572 -0.10894
0.01687 0.05151 -0.12392
-0.20603 -0.39320 -0.16207
-0.18471 0.22103 0.11446
-0.20603 -0.15616 0.20562
-0.16024 -0.23408 0.14683
0.16024 -0.38355 0.01660
0.15293 -0.38289 -0.20603
-0.13735 0.35142 -0.14812
-0.20603 -0.27840 -0.20549
0.16024 -0.34687 -0.11607
-0.13735 0.35061 0.09902
-0.16024 0.28489 -0.19519
-0.13735 0.00655 -0.06545
0.00396 0.04714 -0.19627
-0.16475 -0.31476 -0.08060
-0.06550 -0.01717 0.05248
0.20603 -0.21743 0.19157
0.12790 -0.32914 0.16024
0.20603 -0.01341 0.05903
-0.16329 -0.31476 0.11217
0.20517 0.02250 0.16222
0.16542 -0.40205 0.20603
-0.14230 0.40633 -0.19370
-0.16024 -0.14039 -0.15533
-0.15418 0.30332 0.17831
0.02534 -0.39166 0.20603
-0.16024 0.13578 -0.05209
0.20603 -0.30336 -0.20507
0.20603 -0.16863 -0.12998
0.06969 0.05151 0.10264
-0.14150 0.00572 0.19366
-0.20062 -0.26784 -0.11446
-0.20603 -0.35526 0.00772
0.20603 -0.34389 0.08226
-0.04213 0.05151 -0.12326
0.19165 -0.01717 0.02956
-0.17686 0.00572 -0.06019
0.20603 -0.35715 -0.15870
-0.16024 0.33866 -0.03288
-0.13735 0.22510 -0.01020
0.18363 -0.20871 -0.20603
-0.13955 0.12018 0.05623
-0.20603 0.39563 0.18221
-0.07389 -0.01717 -0.10360
-0.02429 -0.36298 0.16024
0.16024 -0.15417 0.18069
0.20603 -0.06850 0.18761
-0.20603 0.19905 0.12865
0.19871 -0.25986 0.11446
-0.17284 -0.14400 -0.11446
0.19059 -0.04689 0.20603
-0.20603 -0.27849 0.19248
0.00039 -0.34838 0.16024
0.16024 -0.05879 0.18728
0.16024 -0.02286 -0.12083
-0.16994 -0.31476 -0.03520
-0.01473 0.05151 -0.13273
-0.00140 0.03889 0.20345
-0.13735 0.01056 -0.09168
-0.14739 0.12018 -0.19936
0.19922 -0.40633 -0.07142
-0.20603 -0.05673 0.12000
-0.16556 -0.02553 -0.11446
-0.13735 0.34971 0.16217
-0.16024 0.36736 0.18688
-0.14038 0.40633 -0.02841
-0.16024 0.35050 0.13609
-0.18321 0.37925 0.20603
0.18842 -0.40633 0.13073
0.15746 -0.01717 -0.19264
0.20603 -0.00581 -0.00469
0.16024 -0.30087 0.17492
0.16024 -0.31436 0.19456
0.19996 -0.20336 -0.11446
0.16024 -0.21485 -0.14593
-0.16024 0.31086 0.16634
0.09133 -0.31476 0.17742
0.17702 -0.23144 -0.20603
0.09855 -0.38431 -0.20603
-0.16024 0.33259 -0.05761
-0.16024 0.17685 0.04383
0.18564 0.05118 0.15130
0.14135 -0.01717 -0.13115
-0.14482 0.32621 0.06168
-0.13112 -0.38656 -0.16024
-0.16024 -0.07889 -0.19083
-0.19695 -0.32820 0.11446
-0.20603 0.07511 -0.13488
0.05949 0.05151 0.18209
0.20603 -0.06528 -0.15559
-0.09299 -0.01717 -0.09692
-0.20603 0.30256 0.12652
0.17976 -0.32576 -0.20603
0.14944 0.05151 -0.00937
0.17897 -0.33687 -0.20603
-0.16936 0.11884 0.20603
-0.06102 -0.39128 -0.16024
-0.10279 0.05151 0.02878
-0.01897 0.05151 -0.09677
0.00356 -0.01717 -0.09188
-0.13735 0.38387 -0.01741
0.20237 0.00195 0.20603
-0.13788 0.20030 -0.06953
-0.18949 -0.23796 -0.20603
-0.13735 0.17224 -0.04026
-0.13772 0.32621 0.02130
0.10011 -0.01717 -0.03395
-0.03092 -0.40633 -0.16680
0.07955 0.05151 0.05043
-0.01238 -0.33979 0.16024
-0.16024 -0.01818 0.19839
0.18931 0.00572 0.10265
0.20210 0.04118 -0.09849
0.13016 0.00836 0.19355
-0.20603 -0.05159 -0.18856
-0.16024 -0.12027 0.13310
0.16024 -0.34720 -0.19283
-0.15100 0.02127 0.20466
0.03631 0.05151 -0.12118
-0.19450 0.01452 -0.20603
-0.01327 -0.01717 0.03273
0.15715 -0.01717 -0.05633
-0.16024 -0.04429 -0.20493
-0.20603 0.01342 -0.19360
-0.13735 0.26301 0.02067
0.20603 -0.20053 0.15641
-0.20350 0.19845 0.20603
-0.11640 0.05151 -0.03621
0.12707 0.05151 -0.05307
-0.20603 -0.39914 -0.18423
-0.16024 0.17181 -0.03801
-0.01370 0.05151 0.13394
0.14313 -0.01717 0.07210
0.18949 -0.11916 0.11446
0.17629 -0.30559 -0.11446
-0.16024 0.17514 0.11318
0.03670 -0.01717 -0.07534
-0.13735 0.26568 -0.08435
-0.16024 0.37824 -0.10528
-0.16024 -0.13295 0.19811
0.05698 -0.01717 0.02716
-0.08239 -0.01717 -0.17045
-0.06116 -0.01717 -0.01851
0.18771 0.05091 0.18712
0.17616 -0.15346 -0.11446
-0.16024 -0.14044 -0.11567
0.14363 0.05151 0.14639
0.06201 -0.00769 -0.20603
-0.16001 0.02688 0.03184
-0.13735 0.24351 0.07577
0.08040 -0.40633 0.17949
-0.16024 0.16898 0.10943
-0.16024 0.09771 0.13816
0.20603 -0.40213 0.16566
-0.16024 -0.30484 -0.18853
-0.15955 0.02337 -0.02964
-0.16024 0.30327 -0.07862
0.02411 -0.01717 -0.20566
-0.10893 -0.38135 0.20603
0.20603 -0.32053 -0.13470
0.17180 0.05151 0.14430
-0.20230 0.29283 0.11446
-0.16024 0.25923 0.15793
0.20296 -0.06357 0.20603
-0.13945 -0.31476 -0.16144
-0.13735 0.35340 -0.08165
0.10080 -0.01717 0.04412
-0.18823 0.02192 0.11446
-0.16024 -0.04358 0.20508
0.08532 0.05151 0.10004
-0.16024 0.05899 0.14868
-0.16024 -0.36988 -0.10859
-0.01992 -0.01717 -0.12800
-0.04743 0.05151 0.17922
-0.15229 0.30332 0.10036
-0.20603 0.26660 0.17021
0.19529 -0.40633 -0.20356
0.18956 -0.01717 0.04058
0.16024 -0.33145 0.19851
0.20505 -0.14123 -0.20603
-0.16024 -0.04934 0.13604
-0.03745 -0.36709 0.20603
-0.13735 0.04210 0.07458
-0.13735 0.37374 0.17488
0.00217 -0.39574 -0.16024
-0.16024 0.17938 0.02460
0.20603 -0.20777 -0.15992
0.10673 0.05151 -0.08056
-0.20560 -0.03374 0.11446
-0.02960 -0.01717 0.08179
-0.13735 0.39073 -0.11525
-0.16024 0.18065 -0.12829
-0.16024 0.16712 0.07145
-0.16024 0.17141 -0.08516
0.20072 0.00572 -0.13244
0.16024 -0.07346 0.14866
-0.20603 0.25413 -0.16399
0.20603 -0.25487 -0.20489
-0.17680 0.24529 -0.11446
0.07611 -0.40633 -0.19798
-0.16024 0.18858 0.00791
-0.18307 -0.03022 0.11446
-0.19968 -0.28352 -0.20603
0.08988 -0.39265 0.16024
0.12671 -0.40633 -0.19380
-0.20603 -0.28036 0.13948
-0.13735 0.22354 0.17571
-0.08038 0.02670 0.18314
-0.12032 -0.39190 -0.20603
-0.16024 0.06657 -0.15824
-0.07178 -0.01717 0.11845
0.20603 -0.39933 -0.13315
-0.00600 0.04648 -0.19714
-0.07874 -0.36164 0.20603
0.15391 0.05151 -0.12962
-0.16024 0.39470 -0.12016
0.20298 -0.21596 0.20603
-0.18695 -0.01717 -0.03307
-0.20603 0.34007 0.18510
-0.09153 0.05151 -0.16261
-0.13735 0.03862 -0.04925
-0.06248 -0.01717 -0.02780
-0.13735 0.23688 -0.04181
-0.13735 0.28917 -0.01304
0.16024 -0.10394 -0.12359
0.20603 -0.37624 -0.00941
-0.16024 0.19253 0.07594
-0.13735 0.39622 0.00946
-0.16979 -0.05440 -0.20603
-0.16024 -0.13729 0.12137
0.16691 -0.31476 0.03933
-0.16024 0.23078 0.13639
0.20603 -0.33890 0.10652
0.10592 -0.38053 0.20603
0.09470 -0.32999 0.20603
-0.13735 0.13616 0.11235
-0.16965 -0.33840 -0.11446
-0.20603 0.14352 0.15784
-0.13735 0.18779 0.09837
-0.16024 0.21215 0.17440
-0.19926 0.00572 -0.19992
0.20603 -0.31461 0.11820
-0.20603 -0.15802 -0.15438
-0.14422 -0.01717 0.09656
-0.14044 0.04228 0.20125
-0.18864 -0.13837 -0.20603
0.20603 -0.25919 -0.12597
-0.17985 -0.01717 0.10732
0.14282 0.05151 -0.12002
-0.04706 -0.01717 -0.19717
0.16024 -0.07077 -0.15554
-0.20603 0.12466 -0.17230
-0.13735 0.18871 0.03532
0.16803 0.05151 -0.14512
-0.20275 -0.40633 0.07426
0.03497 -0.31476 0.20320
-0.20603 0.17387 0.16075
0.20603 -0.15612 -0.15791
-0.18752 -0.40633 -0.06969
-0.20603 0.07013 0.15589
-0.20603 0.36614 -0.11764
0.16184 0.05151 0.02060
-0.20415 -0.04295 -0.11446
-0.16024 -0.29839 -0.14322
-0.13735 0.39433 0.02084
-0.05393 -0.35031 -0.20603
0.05044 0.05151 0.12794
-0.20250 -0.16556 -0.20603
-0.16024 -0.08651 0.12736
-0.16024 0.18581 0.20565
0.00878 -0.01717 -0.08441
-0.03983 -0.38556 0.20603
-0.13735 0.17579 0.09748
-0.11056 -0.34799 0.20603
-0.13735 0.19350 -0.17099
-0.08170 -0.31476 0.20426
-0.01012 -0.01717 0.11615
0.20603 -0.32493 -0.03584
0.20563 0.02562 -0.00845
-0.15297 0.37821 -0.20603
0.18313 0.01216 0.10904
-0.14587 0.22320 -0.10443
-0.20603 -0.21465 0.17601
-0.13735 0.04664 -0.11673
-0.19504 0.00572 0.01451
0.19424 0.04589 0.19790
0.09892 0.05101 0.18687
-0.20603 -0.09656 0.17893
0.19178 -0.08531 0.20603
0.16024 -0.02189 -0.20214
-0.20603 -0.19165 -0.11754
-0.13735 0.33119 -0.16985
-0.11629 0.04933 0.19244
0.16024 -0.14472 -0.17130
0.15944 -0.01717 0.03452
-0.19066 0.38551 0.11446
0.18529 0.00601 -0.17943
-0.13735 0.26225 -0.19660
-0.15539 0.37651 0.20603
0.19729 -0.31476 0.00227
-0.13735 0.13158 -0.04979
-0.20603 0.00472 -0.08797
0.20603 -0.23402 0.17299
0.18313 0.04388 -0.01088
-0.10771 -0.01717 0.10001
-0.13234 -0.38473 0.20603
0.20603 -0.14006 -0.15028
0.13060 0.05151 0.08315
-0.16024 -0.27033 -0.17100
-0.19841 0.37240 -0.11446
0.14806 -0.01717 0.18393
-0.07487 -0.01717 -0.12008
0.18313 0.03211 0.02055
-0.20603 -0.02741 0.20466
-0.16024 0.27234 -0.15537
0.20545 0.02422 0.11217
-0.15674 0.20030 0.05035
0.11848 -0.01717 0.19222
-0.02515 0.05151 -0.16207
-0.08008 0.05151 -0.03298
-0.20603 -0.40185 0.20037
-0.13735 0.18901 0.15933
-0.02881 0.03070 0.20575
-0.17054 0.20264 0.11446
-0.14697 -0.37362 0.16024
-0.18997 -0.21012 -0.20603
0.16024 -0.38788 -0.15257
0.16024 -0.08198 -0.14435
-0.16347 0.31639 0.20603
0.01044 -0.01717 -0.06625
-0.00940 -0.38285 -0.16024
-0.16024 0.21947 -0.18770
-0.20603 -0.22499 -0.15045
-0.13958 0.40633 0.19001
-0.00328 -0.39537 -0.20603
0.15130 0.00572 -0.18800
-0.20603 -0.36118 -0.02857
-0.20603 -0.27202 -0.20428
-0.14975 -0.01717 -0.06838
0.19382 0.04876 0.00920
0.05471 -0.01717 0.19973
-0.04867 -0.31476 -0.18961
-0.10416 -0.01717 0.15314
-0.09305 -0.37359 -0.16024
-0.20603 -0.05557 -0.11503
-0.20603 -0.19617 0.16729
-0.20603 -0.17982 -0.17298
0.00038 -0.34938 -0.16024
-0.20603 -0.33308 0.10472
-0.14445 0.01237 -0.19925
-0.12399 0.03521 -0.18314
-0.13735 0.04840 -0.09118
-0.06334 -0.01717 0.11886
-0.20603 -0.05973 0.13141
-0.13735 0.38075 0.10984
-0.04894 -0.37699 0.20603
-0.20603 0.34652 0.11845
-0.13735 0.25576 0.02050
-0.20603 -0.34143 -0.16112
-0.16024 -0.35895 0.18407
-0.16024 -0.39688 -0.15856
-0.20463 0.17319 -0.11446
-0.13735 0.34019 0.13109
-0.13905 0.00572 -0.11706
-0.20181 0.24280 -0.11446
-0.20603 0.32326 0.12385
0.03249 0.05151 -0.17036
-0.16024 -0.35776 0.10898
-0.16024 -0.32043 0.06382
0.07608 -0.01717 -0.04154
0.18629 -0.10096 -0.11446
0.11972 -0.01360 -0.20603
-0.00494 0.05151 -0.12654
-0.14162 0.30332 0.18547
-0.13735 0.26176 0.13684
-0.15246 0.00572 -0.18817
-0.16024 0.39417 -0.13031
-0.16024 0.26495 0.11177
-0.16024 -0.35272 0.13266
0.16024 -0.32960 -0.07024
-0.10431 0.03375 -0.18314
0.20603 -0.00220 -0.06122
-0.10723 -0.40633 -0.19164
-0.10382 0.05151 -0.06478
-0.16024 0.13519 0.14800
-0.13735 0.28260 -0.08499
-0.17822 0.40633 0.17053
-0.14583 0.12018 -0.13940
-0.01232 0.04612 0.18314
-0.17267 -0.15034 -0.20603
0.14260 0.05151 -0.10813
-0.16122 -0.31476 -0.11413
-0.19898 -0.39865 0.20603
-0.10309 0.00572 -0.19006
-0.13735 0.23976 0.08900
-0.05850 0.05151 0.04766
-0.13735 0.01431 0.06939
0.17968 0.01424 -0.18314
-0.16024 0.26085 0.07177
-0.17916 -0.31609 -0.20603
0.11107 0.03359 0.20537
-0.16024 -0.38542 0.06128
0.14675 -0.35089 0.16024
0.15641 0.05151 -0.05087
-0.20603 -0.31741 0.00636
-0.14318 0.12018 0.12451
-0.15462 0.22320 -0.07832
0.11667 0.02426 0.20545
-0.20347 -0.01717 -0.02207
0.20603 -0.09946 -0.11876
-0.14383 -0.36403 -0.20603
0.16024 -0.33379 0.04268
0.16024 -0.07511 0.20428
0.16024 -0.11250 -0.15696
-0.13735 0.28763 -0.18403
-0.09515 -0.39062 -0.16024
0.03071 -0.38781 0.16024
0.08413 0.05151 -0.11845
-0.14971 0.40633 -0.13446
0.16427 -0.12202 0.11446
-0.18229 -0.01717 -0.07421
-0.13735 0.19780 0.10828
0.16024 -0.32255 0.19959
-0.13146 -0.37470 0.20603
0.20371 0.03826 0.18812
-0.20603 -0.21946 -0.13046
0.13188 -0.01717 0.20056
0.07334 -0.34691 -0.16024
-0.19921 0.26869 -0.11446
0.11052 0.02372 0.18314
-0.16024 0.22858 -0.18847
-0.16024 -0.19155 -0.16145
-0.16024 -0.17061 0.17401
0.05644 -0.01717 0.15410
-0.20521 0.34009 -0.11446
-0.14377 0.00572 -0.06175
-0.15723 0.03994 -0.12022
-0.18813 0.20814 -0.11446
0.20603 -0.32368 -0.00645
0.20336 0.01813 -0.03643
-0.12796 0.00574 0.18329
-0.14597 0.12018 0.00598
-0.20603 -0.11363 -0.14213
0.16024 -0.06524 0.19398
-0.18948 -0.31476 0.03718
-0.20603 -0.00873 0.10165
-0.15605 0.40633 0.01647
-0.19316 -0.13301 -0.11446
-0.13735 0.34436 0.03361
0.04982 -0.35410 0.16024
-0.16024 0.16340 -0.02933
-0.10203 -0.01717 -0.20248
0.09268 -0.39969 -0.20603
0.05500 -0.33641 -0.16024
-0.20603 -0.28202 -0.18406
-0.01673 0.01582 -0.18314
0.15046 0.05151 0.14301
-0.14809 0.40633 -0.09347
-0.16024 -0.10301 0.16402
0.20603 -0.18137 0.16629
0.11339 0.05151 -0.13614
-0.04108 -0.31476 -0.16331
-0.16874 -0.08509 0.11446
-0.16024 -0.02021 -0.18275
0.05659 -0.38301 0.16024
0.19114 -0.40633 0.20146
0.04652 0.00572 0.20145
0.20603 -0.37568 0.04663
-0.09334 -0.31476 0.16474
-0.20603 -0.36520 0.18529
-0.16490 -0.24801 -0.20603
0.15112 -0.01717 -0.00766
-0.13735 0.29631 0.12282
-0.04081 0.05151 0.04784
-0.13735 0.18294 -0.03245
-0.16024 -0.34298 0.11099
-0.15818 0.20030 -0.01453
-0.09699 0.02770 0.20591
0.00900 -0.31476 0.18771
-0.15989 0.03129 -0.15852
0.12864 -0.33350 -0.20603
0.16024 -0.09834 0.14366
-0.20603 0.07057 -0.18288
0.20603 -0.34121 0.15404
-0.16024 0.39035 -0.20294
-0.20603 0.40267 0.17108
0.19743 -0.15619 0.20603
-0.16024 0.14884 0.05928
-0.01121 0.05151 -0.06967
-0.17340 -0.40633 0.07654
-0.17276 0.40633 -0.15686
-0.13735 0.26692 -0.11053
0.00624 -0.01717 -0.02284
-0.20603 -0.24507 -0.13197
-0.19564 -0.07588 0.11446
-0.20603 -0.34058 -0.11265
-0.16024 -0.02606 -0.19399
-0.12001 -0.31476 0.20298
0.04573 -0.31476 -0.16601
0.16024 -0.32775 0.07817
0.11007 -0.01717 -0.11044
0.08628 0.02035 0.20428
-0.12997 -0.36312 0.16024
-0.15057 0.30332 -0.03866
-0.20603 0.26168 0.19979
-0.16024 0.27281 0.20308
0.02002 -0.01717 -0.08066
-0.16024 -0.21856 0.16163
-0.11442 -0.00085 0.20603
-0.13735 0.39682 0.07692
-0.20603 -0.07418 0.16589
-0.19562 -0.40633 0.17124
-0.19895 -0.31476 -0.02894
0.02109 -0.01717 -0.17694
-0.14029 0.05112 -0.04238
0.16417 0.05151 0.07551
-0.14876 0.04841 -0.19462
0.09114 -0.01717 -0.05634
-0.03468 0.00572 -0.19584
0.16051 0.01649 -0.18314
-0.16024 0.05716 0.17093
-0.20059 -0.23046 -0.11446
0.20177 0.04161 0.15739
-0.16024 -0.15710 0.13080
0.09018 0.05151 0.03929
0.16024 -0.10476 0.20381
0.20603 -0.21179 0.12085
-0.16024 0.17296 0.13084
0.20603 -0.33436 -0.05688
0.16024 -0.17392 -0.20045
-0.09167 0.01446 -0.20089
-0.16884 -0.40633 0.03053
-0.08596 0.02390 -0.18314
0.17062 -0.01717 0.10019
-0.10394 0.03365 0.18314
0.20603 -0.03941 0.18335
-0.15298 0.26976 -0.20603
0.20603 -0.14389 -0.17280
-0.09042 0.00572 0.19679
0.16024 -0.06190 0.17328
0.09187 0.01295 -0.18314
0.20603 -0.36935 -0.05415
0.15262 -0.38273 -0.16024
-0.20603 -0.08050 -0.12482
0.20017 -0.07908 -0.11446
-0.08615 -0.31476 -0.18007
0.16024 -0.05763 -0.16234
0.15449 0.04906 -0.19308
0.09183 -0.31476 -0.18027
0.20603 -0.15328 0.17035
0.19301 -0.19829 0.20603
0.14461 -0.32852 0.20603
-0.08836 -0.01717 -0.07955
-0.14589 0.20030 0.14787
-0.16024 0.34152 -0.00338
-0.16024 0.17879 -0.01403
-0.16024 0.10120 0.19696
-0.16862 -0.40633 -0.15759
-0.16024 0.33054 -0.16914
-0.19276 -0.03616 -0.20603
0.16024 -0.35111 -0.07100
-0.02451 0.00572 -0.19669
0.12300 -0.38191 -0.16024
-0.09757 0.05151 -0.08954
-0.15711 0.12018 0.11436
-0.16024 0.25632 0.14569
0.12981 -0.31625 0.20603
0.16024 -0.28192 0.20136
0.16024 -0.03559 -0.16049
0.20561 0.02544 -0.03681
-0.16024 -0.09060 -0.13077
-0.20603 -0.37009 0.17557
0.19952 0.01268 -0.00720
0.16024 -0.33852 0.10456
-0.15063 0.01020 -0.06694
0.00619 0.05151 0.18138
-0.11602 -0.40633 -0.16363
-0.16024 0.36523 -0.06092
-0.04483 -0.00194 -0.20603
0.17156 -0.40633 0.06785
-0.16024 0.15208 -0.09301
-0.20603 0.27867 -0.14771
-0.20603 -0.34641 -0.00956
-0.14320 0.20030 -0.12097
-0.16024 0.01171 -0.12241
-0.20603 0.06465 -0.12500
-0.20603 -0.38991 -0.02703
0.16024 -0.40377 0.11829
0.16024 -0.02402 -0.16423
0.20603 -0.10691 -0.15562
-0.18105 0.39893 0.20603
-0.16024 0.17691 -0.11994
-0.20603 0.31757 0.13688
-0.10009 -0.35621 -0.16024
-0.07165 -0.35296 0.16024
-0.20603 -0.24370 0.14104
-0.13735 0.12187 -0.13279
-0.13735 0.18139 0.14511
0.18735 -0.01717 0.18207
-0.17988 -0.22138 0.11446
0.05225 -0.34209 0.16024
-0.17299 -0.26074 -0.11446
-0.16024 0.39011 0.18118
-0.16024 -0.32576 -0.11761
0.20603 -0.06855 -0.12794
0.20603 -0.02729 -0.12090
-0.17123 0.32900 -0.11446
0.20603 -0.38771 -0.04471
-0.04051 -0.31476 0.17373
-0.17683 -0.08663 -0.11446
-0.18007 0.15401 -0.11446
-0.15874 0.12018 -0.03052
-0.00990 -0.01717 -0.07858
-0.16024 0.30008 0.11151
-0.15793 0.01898 0.18457
-0.02489 -0.34618 0.16024
0.20603 -0.22273 -0.15466
-0.13735 0.04667 0.13112
0.09346 0.05151 0.05119
-0.17229 -0.12035 -0.11446
0.01326 -0.40633 -0.17914
0.16024 -0.06826 -0.20368
-0.13735 0.04276 -0.00388
-0.20603 -0.40281 -0.03059
-0.20603 0.24312 0.15377
-0.20603 -0.30603 0.19983
-0.00754 -0.31476 -0.19752
-0.18105 0.01727 -0.20603
-0.13735 0.19119 -0.11371
-0.16368 -0.12195 0.20603
0.16024 -0.20389 -0.14224
0.20603 -0.38014 -0.09855
0.18267 -0.30361 0.11446
0.15630 -0.01717 0.19096
0.20603 -0.01399 -0.09334
-0.18077 0.40633 0.12243
-0.16024 0.11307 -0.15291
-0.16628 -0.31476 0.06467
0.16024 -0.39239 -0.03652
0.03161 0.05151 0.03241
-0.17460 0.33732 0.11446
0.19587 -0.02284 -0.20603
0.20603 -0.19760 -0.17353
0.16789 -0.40633 -0.05542
-0.16024 0.20969 0.14218
0.11429 0.00572 0.19946
-0.13735 0.33055 0.05403
-0.19403 -0.04678 0.20603
-0.16024 0.37187 -0.15964
-0.18778 -0.01717 0.18302
0.00574 -0.32529 0.16024
-0.16024 0.36585 -0.08604
0.01580 -0.01717 -0.09680
-0.01250 0.01366 0.20027
-0.08845 -0.01717 -0.02060
-0.20603 0.23140 -0.12744
-0.16024 0.34244 -0.07335
-0.20603 -0.12350 0.16953
0.20386 0.01933 0.06702
-0.20166 0.25063 0.20603
-0.20603 -0.06704 0.19448
-0.14403 0.20030 -0.15858
-0.12428 0.00849 -0.19387
-0.16024 0.32964 0.00970
-0.19717 -0.15086 0.11446
0.08228 -0.39147 0.16024
-0.16108 -0.01717 -0.11778
-0.20603 -0.32161 -0.19150
-0.19278 -0.36209 0.11446
0.16553 -0.17044 -0.20603
-0.02690 0.03113 -0.18314
-0.16024 -0.33407 -0.01356
-0.16024 0.12875 0.12795
-0.16024 -0.11257 -0.12666
0.18763 -0.16211 -0.11446
-0.20603 0.23214 -0.13532
0.10336 -0.37707 -0.20603
0.20014 -0.38710 -0.11446
-0.16024 0.29417 0.13228
-0.20045 0.00572 0.07742
-0.16024 -0.21703 -0.18641
0.17663 0.03058 -0.20577
0.16958 -0.31476 -0.09337
-0.20601 0.40633 -0.12181
-0.20603 0.00134 0.15233
-0.16586 -0.40633 0.15812
0.18313 0.03292 0.13285
0.16024 -0.30799 -0.13172
-0.13844 0.22320 -0.12765
-0.16024 0.23237 -0.06828
-0.13735 0.38379 0.09870
0.06247 0.00572 0.19961
-0.20603 -0.39724 0.09562
-0.20603 -0.40515 -0.18399
-0.20011 -0.30609 0.20603
-0.10804 -0.38170 -0.16024
-0.20603 0.06222 0.17454
0.19848 -0.32181 -0.20603
-0.13735 0.39225 0.10319
0.20242 0.04077 0.01077
-0.18777 -0.40633 0.04931
-0.13735 0.24185 -0.19706
0.20076 0.01430 0.17407
-0.13735 0.02590 0.17601
-0.18412 -0.01717 0.15405
-0.16024 0.22765 -0.14328
-0.16024 0.12326 -0.20489
-0.07837 -0.36272 -0.16024
-0.02627 -0.01717 -0.17749
0.00119 -0.40275 -0.20603
-0.15854 0.12018 -0.16558
-0.20603 -0.33113 0.09149
-0.16024 0.38816 -0.09442
-0.17635 0.02907 0.20603
-0.15920 0.20030 -0.19996
-0.15305 0.30332 0.02799
0.18313 0.02180 0.09850
0.18799 -0.17361 -0.11446
-0.16024 0.05264 -0.12551
-0.08466 -0.01717 0.00010
-0.13735 0.01764 -0.13427
-0.19492 -0.07289 0.20603
-0.16365 0.00572 0.02838
-0.16024 -0.28258 0.13515
0.18524 0.02892 0.18524
-0.17089 -0.25160 -0.20603
-0.01046 -0.31476 0.17440
0.10450 0.05151 0.11978
-0.01882 -0.00654 -0.20603
-0.13735 0.13643 -0.19453
-0.20603 0.02277 0.12043
-0.13735 0.35172 0.18743
0.16024 -0.29978 0.13839
-0.16024 -0.20370 -0.16106
0.20603 -0.00506 0.14704
0.20603 -0.28793 -0.15550
0.08572 0.05151 0.08196
-0.16024 -0.10543 0.14643
0.11391 -0.01717 -0.17575
0.20603 -0.22091 0.12693
-0.19081 -0.14340 0.20603
0.20178 -0.20122 0.11446
-0.16024 0.27301 0.14720
-0.11448 -0.01717 -0.02677
-0.18705 0.15590 0.20603
-0.08489 -0.34192 -0.20603
-0.13735 0.34181 -0.14727
-0.19963 -0.30866 0.11446
0.18377 0.00581 -0.09857
0.13296 0.05151 0.07564
0.04581 -0.40633 0.18738
-0.15009 0.23191 -0.20603
0.17425 0.00572 0.18765
-0.20603 0.17843 0.17420
0.20603 -0.19167 -0.17673
-0.20603 0.16407 -0.12823
0.16024 -0.12955 -0.18562
0.13702 -0.01717 -0.16209
-0.13977 0.32621 -0.02421
-0.13735 0.29984 0.17889
-0.01496 -0.34684 0.20603
-0.16024 0.28167 -0.14625
0.14690 -0.31476 -0.16392
0.18177 -0.31476 0.04907
-0.14025 0.25729 -0.20603
-0.04456 -0.01717 -0.16498
-0.12471 0.04516 0.19885
0.16390 -0.28098 -0.20603
0.00432 -0.39650 0.20603
0.18313 0.04091 -0.05894
-0.05378 -0.35153 0.16024
-0.10662 -0.37594 -0.20603
-0.16024 0.28658 0.01253
0.20603 -0.31804 0.16616
-0.12319 -0.01717 0.09554
-0.08513 0.05151 0.06106
-0.19348 -0.01717 0.17638
-0.16024 -0.06140 0.13336
-0.16669 0.26803 0.20603
0.03438 -0.32372 -0.16024
0.01587 -0.32573 -0.16024
-0.16024 -0.38167 -0.00411
-0.20603 -0.34451 -0.04914
-0.13735 0.03331 -0.05422
-0.11091 0.00963 0.19567
-0.16024 0.05909 0.12981
0.20603 -0.37677 0.06397
-0.13735 0.35476 0.13599
-0.16024 -0.29911 -0.17073
0.19776 -0.40633 -0.09768
-0.16024 -0.21189 0.15399
-0.16024 0.36743 -0.01061
-0.20603 0.19687 0.17729
0.20603 -0.40000 -0.15440
-0.14580 0.32621 0.15638
-0.20361 0.33488 0.11446
-0.20603 0.10626 0.11999
-0.08739 -0.36294 0.16024
-0.17471 0.18952 -0.11446
-0.20603 0.37105 0.12530
-0.20603 0.36572 -0.13511
0.18313 0.00892 0.17611
-0.16024 0.29979 -0.02832
-0.05181 0.05151 -0.00658
0.15417 -0.31476 -0.17404
-0.19592 0.34503 -0.11446
-0.16962 -0.40633 0.18202
-0.16024 0.24670 0.19889
-0.02106 -0.32119 -0.16024
-0.16024 -0.11096 -0.20578
-0.13735 0.36151 -0.05928
-0.17057 -0.30869 0.11446
-0.20603 -0.07147 0.12582
-0.19693 -0.31476 0.03625
-0.13735 0.13780 0.07725
0.17446 -0.31476 -0.06826
0.09667 0.00572 0.19188
0.18620 -0.27524 -0.11446
-0.15694 0.20030 0.19674
-0.16024 0.08878 -0.19587
0.09469 -0.01717 -0.14381
-0.17617 0.30094 0.11446
-0.02502 -0.36192 -0.16024
-0.16024 0.38680 -0.05323
-0.16024 -0.19220 -0.11757
0.15632 -0.33287 0.16024
-0.16024 -0.39171 -0.12923
-0.06966 0.05151 0.09498
-0.13735 0.34275 0.20221
0.05619 0.00572 0.18583
-0.20603 -0.29261 -0.16006
0.11659 -0.36825 0.16024
0.19228 0.00572 -0.09264
-0.20603 -0.08707 -0.15319
0.20517 -0.01717 -0.03419
-0.18483 0.00572 0.06317
0.00908 -0.31476 0.17360
0.15470 0.00505 -0.20603
0.20603 -0.06840 0.16284
0.09368 -0.01717 0.11633
-0.13735 0.13643 0.01139
-0.16024 -0.37933 -0.18222
-0.13735 0.14058 0.03209
-0.20603 0.24653 -0.14796
0.06158 -0.32401 0.20603
-0.07955 -0.01717 -0.14768
-0.05274 0.05151 -0.08802
0.19187 -0.35518 0.20603
-0.13735 0.14096 0.05195
-0.13735 0.12491 -0.11265
-0.16551 0.09796 -0.20603
-0.13889 0.40633 0.01618
0.18313 0.04839 -0.02644
-0.16024 0.38681 0.08713
0.16079 0.05151 -0.09643
-0.13057 0.05151 0.08605
-0.16024 0.26270 -0.07991
-0.16024 0.32833 0.15462
-0.18809 -0.14685 0.11446
-0.20603 -0.00799 -0.09883
-0.16024 -0.18828 0.20556
-0.16442 -0.33045 -0.11446
-0.16024 -0.38474 -0.10186
0.02468 0.00572 0.18869
0.16024 -0.20211 -0.15933
0.16039 -0.22718 0.20603
0.16024 -0.38638 0.10235
-0.14786 -0.34299 0.20603
0.18532 -0.08055 -0.20603
0.13996 -0.01717 0.15705
0.16024 -0.36846 -0.17048
-0.02595 0.02232 0.18314
-0.16024 -0.03039 0.16774
-0.16024 -0.17556 -0.14470
-0.13735 0.38695 0.15284
0.10209 0.00031 -0.20603
-0.00370 -0.40255 -0.16024
-0.20603 -0.35446 0.03041
0.13330 0.05151 -0.05510
0.16024 -0.29212 -0.19392
-0.16024 0.25140 0.10901
0.20603 -0.32578 0.04993
-0.18118 -0.01717 0.01438
-0.16024 -0.14588 0.15345
-0.20603 -0.05471 0.13517
-0.20603 -0.39141 0.19001
-0.18474 0.39826 -0.11446
0.20603 -0.16338 -0.11977
-0.20290 0.03662 0.11446
-0.14492 0.00572 0.14552
-0.13735 0.27976 -0.16438
0.16024 -0.12112 -0.18000
-0.14415 0.22320 -0.07458
0.13856 -0.37100 -0.20603
0.20603 -0.10185 0.14539
-0.20603 0.20493 -0.13781
0.09914 -0.38473 0.20603
0.11565 -0.31476 0.18144
-0.16775 -0.40633 -0.05527
0.16024 -0.11618 0.19678
0.20603 -0.32800 -0.12098
0.19209 0.00572 0.06350
0.14228 0.05151 0.03021
-0.16024 -0.01907 0.15244
0.03607 -0.32641 0.20603
0.09640 -0.33112 -0.16024
-0.18089 -0.32297 0.20603
0.16024 -0.05255 -0.12459
0.16024 -0.34585 0.09893
0.16024 -0.38848 0.17289
-0.16024 0.25585 -0.03323
0.01246 0.05151 -0.10576
-0.16024 -0.07652 0.20413
-0.14550 -0.32991 -0.20603
-0.00846 0.01655 -0.18314
0.07009 0.05151 -0.11634
0.16024 -0.13369 -0.13614
0.20603 -0.00360 -0.12136
-0.17540 -0.40633 -0.06764
0.17145 -0.31476 -0.01134
-0.18438 -0.24001 0.20603
-0.20603 0.30541 0.16955
-0.06073 -0.01717 -0.06078
0.01314 0.05151 0.14530
-0.19747 -0.01717 -0.11087
0.00484 -0.01717 0.04259
-0.08487 -0.31476 0.19018
0.18699 -0.31476 0.09338
-0.14967 0.00946 -0.11967
-0.13735 0.18415 -0.17311
0.20603 -0.21946 -0.12493
-0.13735 0.26807 0.00871
-0.16024 0.33041 -0.11853
-0.16024 -0.12976 -0.15431
0.06841 0.05151 -0.09123
0.16557 -0.07950 -0.20603
-0.19697 -0.40633 -0.15885
-0.16024 0.26406 0.07760
-0.17820 -0.13461 0.20603
-0.13735 0.27526 0.05469
-0.16024 -0.39231 0.16707
0.16024 -0.39487 0.06775
-0.08723 0.04403 0.19991
-0.16024 0.37976 0.14204
0.16024 -0.26737 -0.12687
-0.14946 -0.33696 0.20603
-0.13735 0.01231 -0.02856
-0.16024 0.11754 -0.17532
-0.13863 0.18224 0.20603
-0.13735 0.18402 -0.19330
0.10797 -0.00087 -0.20603
0.15395 0.00572 -0.19840
-0.20603 0.16850 0.17696
-0.16024 0.23131 0.20166
0.15823 -0.32213 0.20603
0.18313 0.03076 -0.06726
0.19784 0.04594 0.13803
-0.16024 0.09175 -0.16554
-0.12041 0.05151 -0.04173
-0.20603 -0.38089 -0.04097
-0.16024 -0.31286 -0.19601
-0.18552 0.40633 -0.15697
-0.20603 -0.37385 -0.00818
0.20603 -0.00009 0.15780
0.16931 -0.40633 0.20598
-0.05672 -0.36636 -0.20603
0.18885 0.05076 -0.02764
-0.00495 0.04532 0.19865
-0.15256 -0.01717 0.14315
0.19581 0.01798 -0.20330
-0.16047 0.12712 -0.11446
0.19904 -0.40633 -0.03129
0.16024 -0.35245 -0.00829
0.16544 -0.23682 0.11446
0.19571 -0.13927 -0.11446
0.15697 -0.35352 -0.20603
-0.16024 -0.39745 0.10657
-0.16024 -0.19638 -0.17347
0.15177 -0.01717 -0.17084
-0.08633 0.00589 0.18442
0.19444 -0.06648 0.20603
0.20603 -0.07028 0.15380
-0.13735 0.33867 0.19598
0.20603 -0.30685 -0.13606
0.10885 0.05151 -0.05337
-0.17326 0.16090 -0.20603
-0.16024 0.23487 -0.12688
-0.16927 -0.36892 0.11446
0.07512 -0.36410 0.20603
-0.16024 -0.32054 0.02059
-0.11910 -0.01717 0.01325
-0.04304 -0.31476 -0.16988
0.20603 -0.23194 -0.13627
-0.18243 -0.40633 -0.11849
-0.14383 0.20030 -0.16846
-0.20603 -0.05320 0.18736
-0.16024 0.16070 -0.09034
0.19555 0.00953 -0.10238
0.16024 -0.29527 0.18231
-0.20603 0.31626 -0.18036
0.16097 -0.22492 -0.11446
-0.17289 0.01603 -0.11446
-0.01403 -0.01717 0.01085
-0.16024 -0.15949 0.16500
-0.18758 0.00572 -0.18644
-0.16024 -0.18374 -0.11766
0.20603 -0.01262 0.10128
-0.15504 0.04284 0.02245
-0.13735 0.01680 -0.00091
-0.16024 0.19001 -0.01643
0.16402 -0.01717 -0.08541
-0.20196 0.00572 0.10431
0.01482 -0.40633 0.16302
-0.14938 0.04799 -0.07457
0.20603 -0.32869 -0.02383
0.01968 -0.01717 -0.15186
-0.02101 -0.34773 -0.20603
-0.13735 0.25807 0.15301
0.20052 -0.14647 0.11446
0.20603 -0.07955 0.17533
-0.16024 -0.38749 0.06858
-0.16930 -0.01717 0.00041
-0.20587 0.37589 0.11446
0.16140 -0.38924 -0.11446
-0.07867 -0.34632 0.16024
0.18313 0.01081 -0.12010
0.09429 0.05151 -0.16847
-0.08766 -0.39495 -0.20603
0.06992 -0.35252 -0.16024
-0.20603 0.08193 -0.18719
-0.16024 -0.33217 -0.20165
0.20603 -0.27413 0.13728
-0.16024 -0.40451 0.09401
-0.19562 0.15136 -0.20603
-0.13735 0.26690 0.06204
-0.16024 0.35139 0.10661
0.19274 0.00572 -0.16736
0.19234 0.00786 -0.15555
-0.16024 0.13877 -0.11609
-0.16024 0.19506 -0.15570
-0.16024 -0.37708 0.05155
-0.13735 0.24881 0.10767
-0.16024 0.39573 0.09420
0.01183 -0.01717 0.08489
0.14983 -0.40633 -0.19357
0.20603 -0.00124 0.18831
0.20603 -0.30505 0.17821
0.16024 -0.19548 0.14639
-0.14146 -0.01717 0.20289
0.19372 -0.01717 -0.05166
-0.06570 0.01898 0.18314
0.03592 -0.32316 0.16024
-0.06809 -0.01717 -0.04415
0.01162 -0.31476 -0.18393
-0.12433 -0.01717 -0.16164
-0.16986 -0.29369 -0.20603
0.16024 -0.36698 -0.05056
-0.16024 0.39659 0.11307
-0.16024 0.35128 -0.09235
-0.15307 -0.34892 0.16024
0.13532 0.00572 -0.20445
-0.13735 0.38913 -0.13444
0.18626 -0.18413 0.20603
-0.14072 -0.37972 0.16024
-0.16981 -0.40633 0.12603
-0.00176 -0.01717 0.06707
0.16281 -0.22673 -0.20603
0.16178 -0.29193 0.20603
0.20603 -0.08570 0.12058
-0.15602 0.14054 -0.20603
-0.09488 0.05151 0.05047
0.13422 -0.34900 -0.16024
-0.20187 0.31247 0.11446
-0.20603 0.28974 0.18089
0.04174 -0.35404 0.16024
-0.20603 0.37418 -0.12347
-0.19078 0.21077 0.20603
0.16024 -0.37925 -0.12614
-0.13735 0.01576 0.12662
0.16723 -0.21150 0.20603
-0.17358 -0.40633 -0.12920
0.17058 -0.01717 0.15713
-0.20603 0.20442 0.12165
-0.17574 0.37781 -0.11446
-0.13839 0.32621 0.19303
0.02506 -0.33264 -0.16024
0.04761 -0.36686 0.20603
0.20603 -0.39060 0.10423
-0.20416 0.00572 0.13788
0.02635 0.05151 -0.02491
-0.15855 0.32621 -0.04828
0.18313 0.04447 -0.06877
0.20287 0.01705 0.00211
0.20500 0.03515 0.05004
-0.14680 -0.31476 -0.18535
0.12536 0.05151 -0.17136
0.15643 0.02532 -0.20559
-0.13735 0.14433 -0.08984
-0.20256 -0.40633 -0.11092
0.18313 0.01454 0.12025
-0.15206 -0.01717 0.11326
0.20603 -0.37867 0.01063
-0.19025 0.37848 0.20603
-0.14745 0.04900 0.03221
-0.20603 0.11205 -0.12328
-0.12997 0.05151 0.05192
-0.03604 -0.36551 -0.16024
-0.20603 -0.27285 -0.11579
0.18712 -0.40633 -0.01445
0.20534 -0.35278 -0.20603
0.03753 -0.40633 0.16832
0.05043 0.05151 0.17669
-0.20603 -0.32551 0.12464
-0.16024 0.35873 -0.00058
-0.20603 -0.31163 0.16914
0.20603 -0.37535 -0.04580
-0.18225 -0.01717 -0.15028
-0.05306 -0.00597 -0.20603
-0.15935 0.32621 0.16459
-0.13735 0.36035 0.14631
-0.03796 -0.01717 0.00192
-0.01123 0.05151 -0.09038
-0.14174 0.19874 -0.20603
-0.20244 0.11019 0.11446
-0.15529 0.22320 -0.19921
-0.16024 -0.09940 0.19064
0.18268 -0.36522 0.11446
-0.14076 0.20030 -0.12803
0.16071 -0.19719 0.20603
-0.16024 -0.20921 -0.14104
-0.16024 -0.17196 -0.12884
-0.18621 0.23857 0.11446
-0.15089 -0.40633 0.17344
-0.16024 -0.37965 0.16054
-0.14120 -0.32638 -0.16024
-0.10653 0.00572 -0.20413
0.18720 0.00572 -0.13439
-0.20603 0.06533 0.13834
-0.17956 0.21636 0.11446
-0.13735 0.13025 0.18760
-0.03034 -0.01717 0.16207
-0.20603 0.00440 -0.14280
0.18313 0.02412 0.15039
-0.10446 -0.32838 0.16024
-0.11409 0.05151 -0.06937
-0.16024 0.26915 -0.11028
-0.04311 -0.01717 -0.02863
-0.00780 -0.01717 0.13866
-0.19991 0.20931 -0.11446
0.16024 -0.07559 0.17676
0.17848 0.05151 0.08467
0.09297 -0.34550 -0.16024
-0.13735 0.03494 0.04310
-0.17419 -0.31731 -0.11446
-0.16024 -0.27482 0.15363
0.06746 -0.01717 -0.17962
-0.04389 -0.37056 0.16024
0.17776 0.05151 0.04358
-0.16024 -0.33615 0.07155
-0.20241 0.29557 -0.20603
0.00804 -0.40633 0.19769
-0.05054 -0.01717 -0.17151
0.18147 -0.19165 0.11446
0.18205 -0.14385 -0.11446
0.20257 -0.40633 0.07612
-0.13735 0.15084 -0.00713
-0.18990 -0.37446 0.20603
-0.15981 0.03188 0.16002
-0.19278 0.00572 0.07813
-0.14549 0.04981 0.15154
-0.02335 -0.01717 0.16695
-0.20603 0.02600 -0.20231
0.03774 -0.38578 -0.20603
-0.14725 0.00572 -0.03017
-0.16024 0.16345 -0.18154
0.14070 -0.38057 -0.20603
-0.16978 0.40633 0.15967
-0.13735 0.24135 -0.05308
-0.16024 0.08027 0.13248
0.16127 0.03432 -0.18314
-0.16024 0.09423 0.19567
-0.17317 0.25616 -0.11446
0.08375 -0.01717 -0.15635
-0.06802 0.03154 0.18314
-0.20603 0.04782 -0.14033
0.07644 -0.40633 -0.17729
-0.19290 -0.35191 0.20603
-0.20603 0.07348 0.18015
-0.20603 -0.17234 -0.16075
-0.16024 0.35211 0.17734
-0.02865 -0.01717 0.06063
-0.03612 0.05125 0.18507
-0.08606 0.00889 0.19470
0.20603 -0.35474 0.11240
-0.13735 0.24208 0.13122
-0.20603 -0.31324 -0.11848
0.05359 0.05151 -0.11100
0.06780 -0.01717 -0.17186
-0.16024 -0.12863 -0.19741
-0.16024 -0.34452 0.16458
-0.20603 0.05710 0.15214
0.16024 -0.37481 -0.19660
0.17740 -0.20962 0.11446
-0.08781 -0.32532 -0.20603
-0.19694 0.22707 -0.20603
-0.16024 0.30448 -0.16780
-0.13735 0.23592 0.11242
-0.15271 -0.01717 0.03258
0.12872 0.01534 0.18314
-0.20603 0.15484 -0.15095
-0.15009 0.22320 0.00519
-0.06211 -0.01717 -0.06982
-0.16024 -0.02144 0.15998
-0.13681 -0.01717 -0.13897
0.05915 -0.01717 0.06358
-0.17649 0.00572 0.01754
0.20603 -0.31152 -0.14667
-0.20603 0.33876 -0.15774
0.11609 0.05151 0.16118
0.16024 -0.05886 0.11776
-0.13758 0.05148 0.16438
-0.16024 -0.14086 -0.12818
-0.19715 0.15864 0.20603
-0.02952 0.05151 -0.09686
0.20603 -0.37834 0.14813
-0.16024 -0.19492 0.16028
0.06800 -0.38433 -0.20603
