0.23153 -0.10141 0.16291
0.14225 -0.04969 -0.01994
-0.22467 0.40265 0.10125
-0.09207 -0.08869 -0.11115
-0.21227 0.33768 0.11182
-0.14930 0.07668 0.01573
-0.06547 -0.04969 0.11332
-0.20113 0.08844 -0.15645
-0.18980 0.21988 -0.15666
-0.18986 0.22018 0.16173
-0.00192 -0.03674 -0.00275
-0.03115 -0.04969 -0.01627
0.05994 -0.03674 0.11719
-0.16016 0.13359 0.17652
-0.16732 -0.37127 0.14566
-0.10362 -0.06548 0.08847
-0.19950 0.27070 -0.05007
-0.21749 0.22919 -0.16483
-0.17489 -0.30654 -0.09525
0.03255 -0.03998 0.16401
-0.19714 0.25837 -0.14290
-0.20600 0.13185 0.14566
0.04972 -0.03674 -0.10094
0.21622 -0.08529 -0.03025
-0.17980 -0.10996 0.14786
-0.17980 -0.39875 0.14860
-0.18055 -0.07176 -0.14566
0.05732 -0.31284 -0.15997
0.06080 -0.03909 -0.17803
0.22519 -0.06484 0.08304
-0.20788 0.38375 0.01323
-0.09027 -0.06459 0.16509
-0.17744 0.15507 0.04888
-0.07895 -0.03674 -0.13126
-0.01531 -0.31284 0.15395
-0.19528 0.31767 0.15317
-0.00859 -0.04969 -0.13876
0.20933 -0.26861 0.16509
-0.22509 0.31548 -0.17156
-0.16349 -0.22484 -0.17156
-0.17252 0.19840 -0.07050
-0.17465 0.14043 -0.12667
-0.09406 -0.04969 0.02614
0.20937 -0.15069 0.14566
-0.21524 0.35322 0.11226
-0.15742 0.06687 0.14925
-0.17778 0.22594 -0.03193
0.23167 -0.04235 0.07283
0.21174 -0.19157 -0.14566
-0.15620 -0.34362 0.14566
-0.15997 0.13261 -0.04072
-0.03390 -0.04969 -0.06953
0.14171 -0.07362 -0.14566
-0.19538 0.03898 0.15391
-0.18595 0.26877 0.07976
0.18415 -0.04969 0.07571
0.22498 -0.04969 -0.13481
-0.21854 0.37662 -0.17803
0.21040 -0.30518 -0.00492
-0.18345 0.18659 -0.10261
-0.21041 0.32790 0.17009
-0.15842 0.06668 0.05323
-0.08942 -0.03674 -0.17294
-0.17489 -0.30430 0.05231
0.16095 -0.07018 -0.14566
0.22305 -0.03674 -0.10434
-0.13724 -0.17113 -0.16977
-0.17331 0.20250 0.06647
-0.17066 0.11954 0.11052
-0.17589 0.14692 -0.16173
-0.16092 0.06848 -0.07736
-0.21437 0.20233 -0.15295
0.03344 -0.04969 0.05014
-0.15410 0.10182 0.16079
0.02728 -0.04823 -0.17803
0.11974 -0.05969 -0.14566
0.20752 -0.23728 -0.16509
0.08812 -0.04969 -0.09400
-0.18127 0.14590 0.17156
-0.18037 0.17045 -0.04081
-0.17253 0.00529 0.14566
-0.16100 0.13798 0.09253
-0.16808 0.10600 -0.08988
-0.07219 -0.03674 -0.09273
-0.18918 0.28574 -0.06403
0.20616 -0.34042 -0.14904
0.14551 -0.04969 0.15383
0.11903 -0.04969 -0.14186
-0.19196 0.23118 0.16967
-0.21218 0.18350 0.16170
0.22519 -0.07496 -0.01529
0.05003 -0.03674 -0.07658
0.11895 -0.03674 0.11821
-0.16584 0.09428 0.16886
-0.08818 -0.06250 -0.02333
-0.02287 -0.03674 -0.06100
-0.17920 -0.37228 -0.17156
-0.15954 0.06647 0.07101
-0.16265 0.14665 -0.07742
0.04273 -0.03998 0.15934
0.19729 -0.04969 -0.10153
0.14011 -0.08797 -0.14566
-0.13953 -0.04367 -0.14954
0.15889 -0.08119 0.14566
-0.14292 -0.09639 -0.14566
0.10639 -0.30180 -0.14566
-0.18328 0.25478 -0.16137
-0.19988 0.34182 -0.05065
-0.18021 0.23872 0.16530
0.18575 -0.03674 -0.15895
-0.15643 -0.29342 0.13553
0.06812 -0.03674 -0.02209
0.08160 -0.03958 0.15861
0.22308 -0.04969 -0.00298
0.22826 -0.25287 0.15020
-0.17383 0.13615 -0.04269
-0.10362 -0.07476 0.01434
0.16060 -0.04969 0.11776
-0.19462 0.24515 -0.03118
-0.20534 0.37042 -0.03531
-0.20602 0.36736 -0.16236
0.02688 -0.04969 0.05736
0.17875 -0.04969 0.16967
-0.17489 -0.30010 0.13082
-0.17392 0.13665 -0.16707
0.16660 -0.29226 0.15307
0.20327 -0.06284 0.08112
-0.03113 -0.03674 -0.12324
-0.17702 0.15285 -0.01775
0.19727 -0.29226 0.16110
0.06880 -0.04969 0.08774
-0.19065 0.22434 0.12371
0.14994 -0.08938 -0.16509
-0.18038 0.17051 0.12304
0.21170 -0.08529 0.10848
-0.10362 -0.05098 0.12956
-0.14922 -0.07199 -0.14566
-0.17765 0.15619 -0.15425
-0.12912 -0.07067 0.14566
-0.04779 -0.04969 0.14631
-0.22361 0.39710 -0.16310
-0.17099 0.19038 -0.02261
-0.17576 0.21538 -0.17426
0.07524 -0.08606 -0.16509
0.17932 -0.03920 0.15861
-0.17215 0.12732 0.16552
0.17000 -0.03674 0.05274
0.06252 -0.04969 0.14693
0.22712 -0.30538 -0.15573
-0.14731 -0.00289 0.15999
0.03338 -0.03674 -0.05022
0.19113 -0.03674 0.00909
0.22519 -0.06515 0.14295
-0.18583 0.19905 0.14631
-0.10362 -0.08661 0.03622
-0.08960 -0.08869 -0.08002
-0.17980 -0.36951 0.16990
-0.19066 0.29350 0.13261
-0.01770 -0.06630 -0.14566
-0.15431 0.10292 0.06791
0.20048 -0.15305 0.14770
-0.22820 0.32127 0.17150
-0.13659 -0.09289 -0.17156
-0.11026 -0.03674 0.02922
-0.17563 -0.11853 0.17156
-0.16322 0.14964 -0.17112
-0.14927 -0.00475 -0.14566
-0.17797 -0.36448 -0.14566
-0.19517 0.24802 -0.16132
-0.13565 -0.11441 0.14566
0.09776 -0.30128 -0.14566
-0.18432 0.19111 -0.11444
-0.18819 0.21143 -0.06972
-0.19106 0.22648 0.00585
0.11971 -0.08903 -0.16509
-0.20296 0.35795 0.13117
-0.22442 0.40340 0.00220
0.23030 -0.03674 -0.10166
-0.19502 0.31632 0.17220
-0.18302 0.18432 0.10152
-0.20004 0.27355 -0.10645
-0.08370 -0.03674 -0.00382
0.18353 -0.29226 -0.15948
-0.05527 -0.29226 0.14759
-0.00171 -0.03674 -0.10968
-0.16930 0.18150 0.11346
-0.17980 -0.10978 -0.14983
0.18406 -0.31284 -0.15528
0.11364 -0.09500 -0.15155
-0.09747 -0.08869 -0.07174
0.13457 -0.03674 -0.15219
-0.11155 -0.06367 0.16509
-0.16804 -0.31284 0.11633
-0.16556 0.16190 0.00023
-0.03905 -0.29651 -0.14566
0.18904 -0.04969 -0.09305
0.17284 -0.09500 -0.14650
-0.19446 0.24428 0.10472
-0.07634 -0.31284 -0.15161
-0.08818 -0.05536 -0.04407
-0.22382 0.39820 0.05081
-0.14932 0.07674 -0.09435
0.21040 -0.30163 0.00401
-0.05442 -0.04969 -0.01077
-0.07013 -0.09500 -0.15217
0.07865 -0.04969 0.06097
0.14096 -0.04969 0.16447
-0.21548 0.21190 -0.15786
-0.06150 -0.03674 -0.14037
-0.03297 -0.04969 0.13348
0.20400 -0.03674 -0.09192
-0.15306 0.02728 -0.17079
-0.04492 -0.30996 -0.14566
-0.08962 -0.07477 0.16509
0.09787 -0.04969 -0.11923
0.03292 -0.04969 0.14476
-0.16694 0.16914 -0.08191
-0.19937 0.33912 -0.07262
-0.19425 0.24319 -0.10405
0.04383 -0.31284 -0.14666
-0.19303 0.30590 0.08609
-0.05106 -0.04969 0.08425
0.22665 -0.32719 0.15842
0.09235 -0.03674 -0.03847
-0.15876 0.12626 -0.17462
-0.17970 0.23604 -0.02866
-0.08276 -0.07354 -0.14566
-0.16088 0.13739 -0.05270
0.21040 -0.29351 0.03110
-0.19966 0.34066 0.04670
0.23167 -0.09142 -0.15631
-0.20724 0.36310 -0.00117
0.06279 -0.03674 0.11152
0.10008 -0.04969 -0.15846
0.15875 -0.04328 0.17803
-0.18974 0.01543 -0.14566
0.03591 -0.04969 -0.00649
-0.21180 0.40428 0.16753
-0.03381 -0.04969 -0.12044
-0.02407 -0.29776 0.14566
-0.22093 0.38303 -0.09016
-0.21278 0.39218 0.02420
-0.17980 -0.13821 -0.15099
-0.17077 -0.31284 0.00127
-0.17983 0.16760 -0.16584
0.16121 -0.03674 0.15313
0.22787 -0.04969 -0.16236
-0.22290 0.39341 0.04965
-0.17471 -0.00151 -0.14566
0.21872 -0.31202 -0.13112
0.21025 -0.23067 -0.14566
-0.07424 -0.04969 0.11588
0.20309 -0.15307 0.16509
-0.20418 0.29524 0.13137
-0.16317 0.14937 0.09855
-0.19126 0.24107 0.17803
-0.16714 -0.11244 -0.14566
0.18364 -0.04969 -0.15960
-0.18987 0.28935 0.00219
0.22045 -0.04969 0.06304
-0.17114 -0.34896 -0.17156
-0.17599 -0.28154 0.14566
-0.03367 -0.05992 0.14566
-0.19420 0.24292 -0.06600
-0.14524 -0.31284 0.15896
-0.16350 0.02601 0.14566
0.20327 -0.08308 0.08947
0.14571 -0.09500 -0.15800
-0.08499 -0.07915 0.14566
0.09403 -0.04969 0.07288
-0.19718 0.32766 0.01534
-0.05311 -0.03674 -0.03054
-0.21951 0.40433 0.06960
0.21156 -0.37215 -0.14566
-0.01622 -0.03674 0.04490
-0.22098 0.38330 -0.00618
-0.06019 -0.08247 -0.14566
-0.14872 0.07359 -0.16684
-0.05968 -0.03674 -0.04319
-0.20283 0.35726 0.15796
-0.21316 0.34231 -0.08682
-0.20911 0.32108 -0.07681
-0.17059 -0.29342 -0.05030
0.05108 -0.03740 -0.17803
-0.15132 0.00576 0.14566
0.22755 -0.04969 0.11917
0.11115 -0.03674 -0.05551
-0.14848 0.07235 0.10253
-0.00162 -0.07895 -0.14566
0.14114 -0.04969 0.09252
0.01181 -0.03910 0.16509
-0.22355 0.39680 0.00407
0.12771 -0.30932 -0.16185
0.02677 -0.04969 0.02856
0.22942 -0.04969 -0.05688
0.22901 -0.21821 0.15787
0.10031 -0.03674 0.11702
0.13405 -0.03674 0.16800
-0.10362 -0.08402 0.11326
-0.16245 0.07650 0.06276
-0.17893 0.16289 0.11595
-0.01400 -0.03674 0.06319
0.14047 -0.03674 -0.15072
-0.10229 -0.04969 -0.02499
-0.20762 0.38024 0.10479
-0.04881 -0.04969 0.12750
0.13778 -0.03674 -0.05249
0.12710 -0.06620 0.16509
-0.18722 -0.03114 0.17026
0.21678 -0.04969 -0.07992
0.21268 -0.27715 0.14566
0.16085 -0.04969 0.02997
-0.16392 0.15333 0.14006
-0.22317 0.27802 -0.15887
-0.17494 0.14196 -0.11510
-0.07814 -0.03674 0.04627
-0.21781 0.36672 -0.04787
0.07124 -0.04969 0.01468
-0.15894 0.06658 0.09190
0.21639 -0.29259 -0.00928
-0.16606 -0.33464 0.17156
0.10134 -0.29226 0.16075
0.22519 -0.06865 -0.03382
0.20375 -0.03674 0.06274
-0.19053 0.22169 -0.17156
-0.04112 -0.03674 -0.09824
-0.22878 0.32940 0.14566
0.03824 -0.04969 -0.04207
-0.21772 0.29222 -0.17156
-0.20134 0.28105 -0.17803
0.20327 -0.08308 0.11943
-0.16079 0.06781 0.10915
-0.15547 -0.30462 -0.05829
0.03996 -0.04969 0.01703
-0.21903 0.24241 0.14611
0.11929 -0.03674 0.04595
-0.15625 0.11310 -0.12730
0.18937 -0.03674 0.16728
-0.10362 -0.08240 -0.06753
-0.16808 0.17511 -0.02992
-0.09694 -0.03674 -0.13319
-0.10680 -0.03674 0.05799
0.22519 -0.08220 -0.13025
-0.21835 0.36953 0.10836
0.16616 -0.30900 0.16185
-0.16863 0.17798 0.15610
0.13674 -0.09336 -0.16509
0.00972 -0.04969 -0.17471
-0.16506 -0.04624 -0.14566
0.20327 -0.05098 0.02764
0.22300 -0.13643 -0.16509
0.12566 -0.03674 0.15615
0.05582 -0.30090 -0.14566
0.10452 -0.05495 0.16509
0.21486 -0.40282 -0.14566
0.21872 -0.03819 0.15182
-0.17489 -0.30857 -0.08338
-0.21143 0.17701 -0.16383
-0.19452 0.24460 0.09780
-0.15547 -0.30945 -0.05211
-0.09457 -0.09500 -0.14716
-0.09586 -0.03674 0.11797
-0.20060 0.34559 0.10441
0.21632 -0.19049 0.16509
-0.21729 0.36397 0.06817
0.11083 -0.05196 -0.14566
-0.10362 -0.06368 -0.10299
-0.05061 -0.30256 0.14566
0.18287 -0.03674 -0.01580
-0.21512 0.35258 -0.02465
-0.13015 -0.08309 0.16509
-0.16515 0.09066 0.15159
0.13994 -0.29226 0.16136
0.21315 -0.04969 -0.03898
0.09912 -0.04969 0.16305
-0.20988 0.39421 -0.05481
-0.11145 -0.04260 -0.16914
-0.16192 -0.29342 0.07464
0.15033 -0.03674 -0.02287
-0.19777 0.33075 0.05569
-0.17980 -0.37064 0.15011
0.12688 -0.04969 -0.07913
-0.19160 0.22932 0.10105
-0.17980 -0.37895 0.16365
-0.22221 0.38975 -0.01353
-0.07012 -0.30495 -0.16185
0.21653 -0.17490 -0.14566
-0.22228 0.39012 -0.08680
-0.15547 -0.30117 -0.01478
-0.02973 -0.08595 0.16509
0.22720 -0.24934 0.16509
-0.16818 0.10653 -0.02750
-0.19057 0.22390 0.17101
0.15912 -0.03674 0.12482
0.08519 -0.03674 -0.09543
0.02267 -0.04969 -0.09383
-0.18741 0.20732 -0.09161
0.21640 -0.08529 0.11271
-0.21365 0.34491 -0.10473
-0.21022 0.32693 -0.13091
0.02332 -0.06040 0.14566
0.15607 -0.03674 0.09069
-0.17614 -0.09877 0.17156
-0.14910 -0.29144 0.15826
-0.16307 0.14884 -0.05731
0.22894 -0.19661 -0.16509
-0.17272 0.13035 0.10179
-0.20995 0.37734 0.00270
0.18965 -0.04969 0.01123
-0.05558 -0.09500 0.16487
-0.14896 -0.05314 0.14566
0.21897 -0.04969 0.15480
-0.17489 -0.29553 0.02058
0.22519 -0.07066 0.07884
-0.19467 0.31449 0.03388
0.15211 -0.03674 0.07493
-0.19030 0.29158 0.05311
-0.14854 -0.01367 0.17156
-0.17489 -0.30600 -0.07363
-0.14869 0.07347 -0.07429
-0.09413 -0.04969 0.12779
0.13035 -0.04969 0.16384
0.10242 -0.04969 -0.15151
-0.04095 -0.08276 0.14566
-0.16870 0.10924 0.03132
-0.17860 0.23026 0.06648
0.19927 -0.04969 0.08139
0.18013 -0.03674 0.03690
0.20327 -0.06665 0.02202
0.04955 -0.03674 0.08682
0.20777 -0.39314 -0.15719
0.12112 -0.04969 -0.07927
-0.19863 0.33527 -0.10025
0.12240 -0.30278 -0.14566
-0.06747 -0.03674 0.02530
-0.08143 -0.04969 0.12805
-0.17493 0.03686 0.14566
-0.20045 0.34480 0.08789
-0.21217 0.33715 -0.13689
-0.04048 -0.04969 -0.15701
0.02845 -0.03825 0.14566
0.21888 -0.04969 -0.06238
0.17420 -0.09500 0.15964
-0.21286 0.32974 -0.17156
-0.17489 -0.30844 0.08082
-0.16748 0.10284 0.07231
-0.09763 -0.04969 0.06577
0.22595 -0.23083 -0.16509
-0.07053 -0.04969 -0.05733
-0.09035 -0.03674 0.05248
-0.18540 0.26593 -0.10914
0.06897 -0.04969 -0.04051
-0.15762 -0.37776 0.14720
-0.16626 0.16557 0.10179
0.08988 -0.03674 -0.13989
-0.01899 -0.04969 0.16888
0.11466 -0.04969 -0.04311
-0.17980 -0.10356 -0.14889
-0.19255 0.26831 0.17803
-0.17786 0.14664 0.14566
-0.13276 -0.12568 -0.15496
-0.19787 0.26217 -0.07921
0.14055 -0.03674 0.03890
0.06106 -0.03998 0.14577
-0.11145 -0.04141 0.14010
-0.20213 0.35360 -0.07195
-0.21245 0.33858 -0.15230
-0.02303 -0.04969 0.12909
0.21714 -0.31202 0.10139
-0.17333 -0.31284 0.08734
-0.17980 -0.21857 -0.15589
-0.13536 -0.08301 -0.14566
-0.16766 0.09789 -0.17156
0.21040 -0.29583 0.06842
0.14686 -0.04969 0.14883
0.20948 -0.04969 0.03540
-0.22306 0.35111 -0.16908
-0.18896 0.28459 -0.14932
-0.17506 0.21169 0.02582
0.02243 -0.03674 -0.01074
-0.20217 0.35384 -0.04636
0.17860 -0.08713 -0.16509
-0.05548 -0.29226 -0.15186
0.15373 -0.03674 0.12015
0.13120 -0.04969 0.15704
0.14330 -0.06869 0.14566
0.15191 -0.04969 -0.16395
0.20076 -0.16228 -0.16095
-0.03615 -0.03674 -0.08495
-0.10362 -0.08173 -0.11336
0.21121 -0.22263 0.14566
0.08047 -0.04969 -0.09467
-0.16387 0.15301 0.03185
-0.10704 -0.03674 -0.13662
-0.20281 0.15619 -0.17156
-0.17598 0.14740 0.00264
-0.21317 0.34237 0.15368
-0.22395 0.28472 0.16153
0.04851 -0.30346 0.14566
-0.22378 0.39799 0.07142
0.21690 -0.04969 -0.10161
0.00784 -0.06635 0.16509
0.21090 -0.29259 0.09554
-0.09416 -0.08869 -0.13620
0.15678 -0.04969 0.10752
0.06951 -0.09500 -0.15608
-0.22467 0.40265 0.13450
0.13432 -0.03674 0.07575
0.22624 -0.04969 0.15912
-0.06871 -0.31284 -0.15188
-0.19500 0.24714 0.16260
-0.18718 0.27522 0.16816
-0.19565 0.31961 -0.02391
-0.19059 0.29313 0.12253
-0.06357 -0.04969 0.02599
-0.15790 -0.34613 -0.17156
-0.20568 0.30313 -0.15167
0.21457 -0.29259 0.14515
-0.15116 0.08642 0.15856
-0.18122 0.24400 -0.02759
-0.17969 0.23594 0.04102
-0.02904 -0.31072 0.14566
-0.19854 0.06617 0.16589
0.07975 -0.31000 -0.16185
-0.17285 0.20012 0.11107
0.14415 -0.03674 -0.02793
0.02623 -0.04969 -0.13361
0.20382 -0.26323 0.15282
0.20731 -0.25558 -0.16509
-0.19842 0.33415 -0.04694
0.13841 -0.04969 -0.05342
0.22096 -0.30802 -0.02738
0.17820 -0.03674 0.01404
-0.20319 0.10618 0.15044
-0.00108 -0.04969 -0.16530
-0.00154 -0.04654 0.17803
0.21364 -0.09364 0.14566
-0.21943 0.24753 0.17156
-0.15524 0.02837 -0.14566
-0.19370 0.24031 0.09214
0.22537 -0.38666 -0.16410
-0.15115 0.08636 -0.12855
-0.10123 -0.04969 -0.06190
-0.17552 0.14499 0.15147
-0.21490 0.35145 0.08463
-0.08920 -0.03674 -0.02157
-0.18592 -0.04239 -0.17017
-0.08496 -0.03674 0.16513
0.00911 -0.30392 0.14566
0.05431 -0.03674 -0.08468
0.18201 -0.30912 0.14566
0.14399 -0.04969 -0.13854
0.20415 -0.29226 0.15656
-0.20583 0.23783 -0.17156
-0.10913 -0.04969 -0.02704
0.21867 -0.31202 0.00062
-0.18453 0.19225 -0.16961
0.11359 -0.03674 -0.06322
-0.11836 -0.05577 -0.14566
-0.20096 0.27837 -0.07714
-0.03165 -0.03674 -0.07988
-0.17489 -0.31112 0.07645
-0.07300 -0.04969 0.06222
-0.18466 0.19290 0.12853
-0.15751 -0.17989 0.14566
-0.20844 0.31759 0.08004
0.21210 -0.38250 0.14566
0.04595 -0.03674 -0.16366
-0.16296 -0.15453 0.14566
-0.20733 0.36361 -0.10528
0.01015 -0.03674 -0.14407
0.02728 -0.29692 -0.14566
0.20078 -0.03674 -0.03482
0.12649 -0.05625 -0.16509
-0.15670 0.04637 -0.15719
-0.20612 0.36075 -0.14539
-0.01575 -0.03674 -0.07090
0.21966 -0.03674 -0.12487
-0.16483 -0.12925 -0.17156
-0.17983 -0.09472 0.15924
0.20124 -0.17809 0.16126
-0.17081 0.18941 0.14228
-0.18985 0.22015 -0.03847
0.22096 -0.30323 0.01743
-0.15090 0.08504 -0.11594
-0.19365 0.15646 -0.14566
-0.19170 0.22980 -0.15158
-0.20614 0.22318 -0.14566
-0.17628 -0.25805 0.14566
-0.21847 0.37018 -0.17120
0.10849 -0.03674 0.01042
0.21040 -0.30965 0.00433
0.06257 -0.29226 0.15835
-0.16270 -0.16523 0.17156
0.10984 -0.30758 0.14566
0.00715 -0.03674 0.03579
-0.14905 0.06847 0.17596
0.22252 -0.36885 -0.14566
-0.21455 0.34962 -0.04594
-0.15522 0.10769 0.16987
0.19864 -0.05809 -0.16509
-0.17980 -0.31288 -0.16125
0.17447 -0.08972 -0.14566
-0.15490 -0.35025 -0.16907
0.06372 -0.04969 -0.14855
-0.09707 -0.04969 -0.04991
-0.18003 0.16863 0.15877
0.14810 -0.03674 -0.00651
-0.17277 0.13060 0.00526
0.20083 -0.04969 -0.04620
0.10356 -0.04969 0.16870
-0.02833 -0.29226 -0.14786
0.20327 -0.06361 0.06643
-0.15703 0.11718 0.07406
-0.19118 0.00287 0.16420
0.18283 -0.04969 0.13185
0.22096 -0.29758 0.08914
-0.20262 0.10129 -0.15495
0.20739 -0.38065 0.16211
-0.18630 -0.03912 -0.15836
-0.21040 0.16816 0.16737
0.05180 -0.04969 0.12319
-0.14143 -0.06327 0.14566
-0.17610 0.14804 0.04153
-0.17980 -0.14790 0.15330
-0.15547 -0.31283 -0.03452
-0.17980 -0.27546 -0.14760
-0.21148 0.40262 -0.16090
0.23167 -0.04406 -0.05122
-0.16085 -0.39165 0.14566
0.17002 -0.03674 -0.09194
-0.10362 -0.07280 0.10025
-0.16060 0.06679 -0.05291
-0.07367 -0.04969 0.05364
-0.17980 -0.25869 0.15751
-0.18321 0.25440 0.08060
-0.15490 -0.30391 -0.14566
-0.12450 -0.30405 -0.16185
-0.13986 -0.17663 -0.17156
0.02953 -0.04969 0.16539
-0.18689 0.20463 -0.02035
-0.16067 -0.25202 0.14566
-0.10362 -0.06202 0.10410
0.03702 -0.03819 0.15214
0.21068 -0.31202 0.03773
-0.17980 -0.20333 0.16195
-0.17055 0.11894 0.10421
-0.08818 -0.07020 0.02324
0.12989 -0.31182 0.16185
-0.15039 0.01326 0.17045
0.16423 -0.04969 -0.08409
0.19973 -0.04969 0.14755
-0.07192 -0.04969 0.03243
0.22519 -0.07368 -0.10771
-0.19057 0.22391 0.10393
-0.18276 0.25208 0.12048
-0.14868 0.07338 0.02187
-0.17640 0.14951 0.17156
-0.15546 -0.35585 -0.16721
-0.15007 0.08067 -0.10298
0.12977 -0.04969 0.03213
-0.17746 -0.04364 -0.17156
0.19188 -0.03674 0.09972
-0.01526 -0.04969 0.16160
-0.18099 0.24280 0.09593
-0.20099 0.27851 0.15160
-0.16958 -0.25997 -0.17156
-0.15449 0.10385 -0.01544
-0.01908 -0.03674 -0.08118
-0.15248 -0.07840 0.17156
0.22519 -0.06568 0.05593
-0.19143 0.29752 -0.09178
-0.17980 -0.30721 -0.15402
-0.15067 0.01475 0.16289
-0.21415 0.36225 0.17803
0.23167 -0.08110 0.15702
0.21439 -0.08529 -0.10855
-0.01453 -0.04969 -0.16464
-0.22381 0.39817 -0.07775
0.16484 -0.29226 -0.15368
-0.20345 0.29142 -0.06926
0.18963 -0.29226 -0.15105
-0.18634 0.27082 -0.14615
-0.17535 0.14410 -0.07312
-0.22237 0.39059 -0.12117
-0.01894 -0.03674 0.03670
-0.19363 0.23993 0.17046
0.02439 -0.03674 0.08639
0.05153 -0.04969 0.01964
-0.08818 -0.05686 -0.02736
-0.17258 0.19870 -0.07598
-0.16356 0.08234 0.11764
0.12009 -0.03674 -0.16237
0.20327 -0.06240 0.00429
0.03401 -0.03674 -0.16929
0.08262 -0.04969 0.12930
-0.16181 0.14224 0.14203
-0.20325 0.29037 -0.10919
0.11768 -0.05427 -0.16509
-0.18229 0.04299 -0.17156
-0.18407 0.25893 0.07339
-0.21945 0.37527 0.11143
0.23167 -0.03750 -0.00042
-0.17694 0.15247 -0.04844
-0.21630 0.35880 0.03682
0.11956 -0.04969 0.12017
-0.14982 0.01030 0.16026
0.22163 -0.34608 0.14566
0.14551 -0.04969 -0.13256
-0.16235 -0.26006 0.17156
-0.19192 0.23096 -0.02821
-0.17118 0.01420 0.17156
0.02002 -0.03674 -0.00049
-0.16071 -0.03095 0.14566
-0.19418 0.02866 -0.15848
-0.01652 -0.29226 0.15521
0.13654 -0.04969 -0.16002
-0.21161 0.38607 -0.12740
0.13433 -0.04969 -0.11349
0.20784 -0.04969 -0.13553
0.21684 -0.11777 0.16509
-0.17489 -0.29962 -0.14128
-0.05070 -0.03735 0.17803
-0.15614 -0.35471 -0.14566
-0.19935 0.26993 0.09271
0.22519 -0.05642 0.09843
0.02476 -0.03674 -0.03953
0.05746 -0.30305 0.16185
0.11858 -0.31284 -0.15851
-0.19284 0.30491 -0.00046
-0.19426 0.31233 -0.08395
-0.11145 -0.04372 -0.04001
0.18575 -0.04969 0.05105
-0.13889 -0.04703 0.15814
-0.15996 -0.40150 0.16049
-0.20733 0.36359 -0.01035
0.23167 -0.04863 -0.08283
-0.05184 -0.31284 -0.14963
-0.03155 -0.04969 -0.07515
-0.16328 0.14994 0.16625
-0.11964 -0.29590 -0.14566
-0.18803 0.27971 -0.02537
0.00433 -0.06872 0.14566
0.00775 -0.09109 -0.14566
-0.15335 0.09787 0.11842
0.06247 -0.31266 -0.14566
0.06912 -0.03674 0.11834
0.20697 -0.36696 -0.15022
-0.21233 0.33795 0.13495
0.20795 -0.39924 -0.15698
-0.04118 -0.03674 0.12620
0.23167 -0.03945 -0.09558
-0.20321 0.35924 0.15280
-0.19964 0.27142 0.02181
0.20459 -0.20581 0.14566
0.12027 -0.07777 0.16509
-0.15677 0.11583 0.11694
-0.04167 -0.03674 0.02966
-0.08818 -0.06031 -0.04614
0.22894 -0.03674 0.01134
-0.19535 0.11180 0.14566
0.21125 -0.35181 0.14566
-0.11073 -0.05445 0.16509
-0.17980 -0.29157 -0.17040
-0.15418 0.10227 0.03273
0.18617 -0.04969 0.17091
-0.20117 0.34859 0.14995
0.05795 -0.04969 0.12690
0.15297 -0.04969 -0.08129
-0.20169 0.35129 0.08242
0.16341 -0.03674 0.08554
0.16524 -0.03998 0.15188
0.21551 -0.19962 -0.16509
0.02964 -0.08760 0.14566
0.06393 -0.03674 -0.09057
-0.16876 0.17866 -0.00263
-0.14531 -0.19742 -0.14566
0.18940 -0.03674 0.05047
0.19627 -0.03674 -0.16470
0.21653 -0.23863 -0.14566
-0.21664 0.36055 0.16498
0.20327 -0.07473 0.04663
0.05707 -0.03996 0.17803
-0.15587 -0.31284 0.08954
-0.11710 -0.31252 0.14566
-0.19738 0.32870 0.08370
-0.20260 0.28697 0.07592
0.20327 -0.07966 0.00723
-0.15547 -0.30396 -0.13610
-0.21360 0.21552 -0.14566
-0.18680 0.27325 -0.05702
-0.10459 -0.06064 0.16509
-0.20962 0.32375 -0.14297
0.20905 -0.26947 -0.14566
0.19988 -0.13326 0.15058
-0.22231 0.27311 0.14566
0.06562 -0.03674 0.00024
-0.07829 -0.03674 0.16816
0.20293 -0.14770 -0.14566
0.03607 -0.29226 0.14877
0.10292 -0.03674 0.08788
-0.20969 0.32416 0.15088
0.21491 -0.04969 0.11546
-0.18573 0.26765 -0.07775
-0.18143 0.17600 -0.05098
0.20148 -0.18592 -0.15075
-0.17980 -0.30648 0.15278
-0.21212 0.26509 -0.14566
0.00746 -0.03674 -0.15196
-0.17494 0.05371 0.17156
0.00138 -0.04969 -0.14799
0.22740 -0.21768 0.14566
0.21430 -0.03674 -0.14867
0.17698 -0.08259 0.16509
-0.18827 0.21184 0.07086
0.01575 -0.03674 -0.01362
-0.03037 -0.04969 -0.17356
0.20113 -0.14082 0.16509
-0.01742 -0.03674 -0.10234
-0.17539 0.08399 -0.14566
0.06348 -0.04969 0.12591
0.23089 -0.04969 -0.13539
0.20248 -0.21889 0.16205
0.05283 -0.03674 -0.12590
0.06400 -0.30262 0.16185
0.23167 -0.04163 0.08180
-0.10362 -0.05347 0.11067
-0.19442 0.24410 0.06353
-0.16678 -0.36307 0.17156
0.22110 -0.03674 -0.08613
-0.08180 -0.07960 -0.16509
-0.09703 -0.03998 0.13565
-0.08574 -0.04969 0.00983
-0.17054 0.18799 0.16516
0.20563 -0.08365 0.16509
-0.15433 0.03362 -0.17156
-0.08818 -0.05146 0.11508
-0.14470 -0.24673 0.16450
-0.19679 0.25652 0.02102
-0.07357 -0.04969 -0.03899
-0.10362 -0.07160 -0.05422
-0.16956 -0.31450 0.17156
0.09309 -0.04969 0.15853
-0.19195 0.30024 -0.13293
0.01358 -0.09485 0.14566
-0.00619 -0.06625 0.14566
0.03596 -0.31284 0.15854
-0.00469 -0.09500 -0.15477
-0.17980 -0.28046 -0.15646
-0.15752 -0.15477 0.17156
-0.16666 -0.07739 -0.14566
-0.15678 -0.29342 0.03843
-0.16501 0.15900 -0.05075
-0.16177 0.06513 0.14566
-0.03301 -0.04969 0.14714
-0.15547 -0.30506 0.11619
0.22096 -0.29342 0.13700
0.08199 -0.08016 0.16509
0.22519 -0.08274 0.14035
0.02928 -0.29930 -0.16185
-0.09218 -0.04969 -0.07221
-0.18166 0.17723 -0.15602
-0.17142 0.08361 0.14566
-0.18769 0.20880 0.17275
-0.13812 -0.05107 0.15474
0.20109 -0.17332 0.14852
-0.18479 0.26270 0.12613
-0.00696 -0.04969 -0.12047
-0.17489 -0.29818 0.10226
-0.22861 0.32481 -0.16188
-0.14974 0.07866 0.17803
0.04706 -0.09500 -0.16192
0.21517 -0.21928 0.16509
-0.10362 -0.07962 0.08306
-0.18823 0.06575 -0.17156
-0.20984 0.16336 0.15345
0.23016 -0.16481 0.16406
-0.17125 0.12263 -0.06160
-0.14116 -0.21081 0.15897
-0.15596 0.11160 -0.08025
-0.21344 0.34377 -0.11968
-0.05949 -0.05357 -0.14566
-0.07315 -0.04969 0.10865
-0.05224 -0.08715 -0.16509
-0.21791 0.36723 -0.13440
0.13297 -0.08385 -0.14566
-0.13422 -0.04969 -0.15576
-0.15699 -0.29342 0.00713
-0.03186 -0.04969 0.04233
-0.21074 0.39871 0.04635
-0.16970 0.18358 0.14423
0.05648 -0.04969 -0.10801
0.21949 -0.18398 0.16509
0.22932 -0.20368 0.15595
0.23167 -0.04302 -0.00784
0.20552 -0.31900 0.14739
-0.15132 0.08724 -0.16972
-0.21202 0.33632 0.15765
0.21877 -0.04175 -0.17803
-0.17110 0.12184 0.15679
-0.16482 0.15802 0.11887
0.23167 -0.04721 0.15021
-0.22330 0.39548 -0.02107
0.09736 -0.04969 -0.10012
-0.16804 0.13733 -0.17803
-0.19390 0.31046 -0.04891
0.20018 -0.14319 -0.14640
0.22970 -0.18629 -0.15626
-0.17900 -0.16313 -0.14566
0.14342 -0.03674 0.07228
-0.19976 0.27208 0.06721
0.20516 -0.30719 -0.16335
0.22627 -0.34472 0.15110
-0.06530 -0.04272 0.17803
0.20811 -0.40466 0.15222
-0.03352 -0.09500 0.15900
0.09594 -0.04969 0.14755
0.01003 -0.07659 -0.16509
-0.15540 0.10865 0.02159
-0.19968 0.27167 0.08587
-0.08818 -0.08766 0.09886
0.00661 -0.07728 -0.14566
0.22204 -0.08529 -0.02189
0.03706 -0.31284 0.14649
-0.17980 -0.14311 0.16883
-0.21352 0.34419 -0.09950
-0.17980 -0.32112 0.14829
0.22995 -0.04969 -0.11369
-0.16831 0.10723 -0.07322
0.21408 -0.39521 0.16509
0.12302 -0.03674 0.06278
-0.15340 0.09813 -0.15125
0.22842 -0.24557 0.15572
0.08962 -0.03998 0.13819
0.21040 -0.29682 -0.10579
-0.11980 -0.06059 -0.16509
-0.17980 -0.28390 0.16527
0.01383 -0.03674 0.02204
-0.18206 0.17930 -0.00072
0.22070 -0.15266 -0.16509
-0.17980 -0.29496 0.16353
-0.20764 0.37365 0.08050
0.03454 -0.04969 0.16050
-0.08818 -0.06674 0.00933
0.05237 -0.03674 -0.09430
0.20295 -0.04969 0.05835
-0.20933 0.28368 -0.14566
0.21836 -0.03674 -0.16109
-0.19399 0.09999 0.14566
0.09512 -0.04969 -0.05334
-0.17898 0.13023 -0.17156
-0.16962 -0.29342 0.09984
-0.03806 -0.09500 -0.15286
0.19074 -0.03674 0.11541
-0.20048 0.17738 0.17156
0.22069 -0.04969 -0.11147
-0.20777 0.14556 0.14821
0.11450 -0.03674 -0.04253
-0.20456 0.25779 -0.17156
0.17803 -0.04969 -0.14900
-0.19041 0.22307 0.14216
-0.10382 -0.04969 0.10722
0.22557 -0.13729 0.14566
-0.13285 -0.12660 0.15840
-0.16368 0.15204 -0.00048
-0.16414 0.04705 -0.17156
0.03616 -0.03674 0.02018
-0.17380 -0.29342 -0.06168
-0.15970 -0.22160 -0.14566
-0.16598 0.16407 -0.08073
-0.15509 -0.19435 0.14566
-0.19485 0.31543 0.10068
-0.04188 -0.03674 0.15342
0.03670 -0.03674 -0.06933
-0.17850 -0.06282 -0.14566
0.08814 -0.30808 0.16185
0.21899 -0.31202 -0.12487
-0.17574 -0.24423 -0.17156
-0.14509 -0.11502 -0.17156
-0.17088 -0.09847 0.14566
-0.17751 0.12631 0.17156
-0.19374 0.24051 0.13567
-0.01532 -0.03674 0.02109
-0.02237 -0.05404 -0.14566
-0.05118 -0.03674 -0.13564
0.22886 -0.22491 0.16344
-0.17980 -0.20308 -0.16236
-0.10362 -0.08553 0.13124
0.15722 -0.04969 0.14784
-0.20899 0.21849 0.17156
0.21084 -0.03674 -0.07324
0.05431 -0.03674 -0.01839
0.22434 -0.04969 0.01817
-0.15661 -0.05456 -0.17156
-0.16154 0.07174 0.01831
0.20777 -0.04969 0.00907
-0.22163 0.38672 0.08120
-0.20879 0.15431 -0.14678
-0.13441 -0.14242 -0.14771
-0.11912 -0.06183 -0.14566
-0.16514 0.09061 -0.15772
-0.18839 0.28158 -0.06944
-0.01798 -0.04969 -0.00223
0.09785 -0.03849 0.13271
0.10876 -0.09500 0.15715
-0.15834 -0.31284 0.13201
0.06554 -0.04969 -0.15756
-0.10847 -0.03674 0.13925
-0.18658 0.27209 0.15229
-0.05308 -0.04969 -0.02759
-0.16920 0.18095 0.05233
-0.18430 0.19103 -0.03671
-0.15547 -0.29724 -0.02129
0.21040 -0.29890 0.03842
0.00201 -0.31284 0.15312
0.21293 -0.35322 -0.16509
0.20959 -0.03674 -0.12348
-0.19764 0.05848 -0.15146
-0.17030 0.18675 0.04705
-0.14186 -0.29226 0.16007
-0.08728 -0.04969 -0.12335
0.18329 -0.03674 0.08602
-0.19955 0.34005 -0.17158
-0.18902 0.21576 0.08846
0.15046 -0.04969 0.05045
-0.15547 -0.29530 -0.07548
0.06588 -0.03674 0.01218
-0.16390 0.08408 -0.01701
0.04509 -0.04969 -0.14891
0.17761 -0.04969 -0.03430
0.21468 -0.04969 -0.02413
0.03384 -0.04969 -0.02518
-0.08818 -0.07977 -0.00584
-0.16825 -0.29907 0.14566
-0.16468 0.15730 0.00498
-0.02579 -0.04969 0.07717
-0.16153 0.07169 0.07094
-0.19841 0.26500 -0.06891
0.12690 -0.04969 -0.03858
-0.00585 -0.04969 0.10797
-0.20997 0.39467 0.09429
0.20223 -0.15695 -0.14566
-0.03237 -0.03674 -0.17680
0.09231 -0.04969 -0.08493
0.18816 -0.03674 0.00313
0.10190 -0.04969 0.07024
0.22333 -0.04969 -0.07096
-0.18669 0.20356 -0.10227
0.17416 -0.07217 -0.16509
-0.16323 -0.14492 -0.17156
-0.13455 -0.29563 0.16185
0.06282 -0.04969 -0.08844
0.05155 -0.09500 0.14851
0.01436 -0.03674 0.09982
-0.08476 -0.03674 -0.07477
-0.14082 -0.03691 -0.16513
-0.20731 0.38076 -0.04586
-0.21027 0.39625 -0.03327
0.13618 -0.03674 0.17767
-0.21185 0.40457 -0.09476
-0.16886 0.17918 -0.11611
0.13570 -0.03674 -0.11830
0.21025 -0.04969 -0.02769
-0.21207 0.40568 -0.02042
-0.10759 -0.08016 0.14566
-0.15547 -0.31274 0.14503
-0.17135 -0.22085 0.17156
-0.11326 -0.08200 -0.14566
-0.11041 -0.03674 0.14580
0.11726 -0.29605 -0.14566
-0.17311 -0.22127 -0.14566
-0.21551 0.40510 0.05720
-0.17501 0.08802 0.14566
0.11572 -0.04969 -0.15088
0.03370 -0.04969 -0.16001
0.14046 -0.04969 -0.10642
0.22529 -0.39007 -0.16041
-0.16416 0.15456 -0.16137
0.22422 -0.23761 -0.16509
-0.16268 0.07770 -0.09275
-0.15265 0.09424 -0.00491
-0.16413 -0.31284 -0.07582
-0.20984 0.16338 0.14845
-0.17915 0.16405 0.16905
0.16448 -0.09500 -0.16225
0.00439 -0.29418 -0.14566
-0.19619 0.25339 -0.08398
0.22519 -0.08474 0.08717
-0.15991 -0.31284 0.14255
0.21601 -0.04969 0.04339
-0.17947 0.16573 -0.10916
-0.16352 -0.30868 0.17156
-0.08974 -0.04969 0.01658
-0.16745 -0.11479 -0.17156
-0.10362 -0.05865 -0.08727
0.21845 -0.04969 -0.14037
-0.13658 -0.09598 0.17156
-0.10362 -0.06493 0.04343
-0.05087 -0.05371 -0.14566
0.08571 -0.03674 0.10888
-0.17068 0.18874 -0.16618
0.20344 -0.25066 -0.15691
-0.21687 0.36175 -0.13931
-0.05083 -0.31284 0.15049
-0.20810 0.38488 0.03371
-0.15666 -0.36801 -0.15655
-0.01318 -0.09424 0.16509
-0.14497 -0.20222 -0.17156
-0.21499 0.35193 -0.13060
-0.18144 -0.08089 0.16192
-0.22062 0.38144 0.07761
-0.16216 0.07497 -0.06643
-0.16845 0.17707 -0.10317
-0.19654 0.32431 0.03150
0.20327 -0.05706 -0.09585
-0.18236 -0.00306 -0.17156
-0.03089 -0.04969 -0.12998
-0.19018 0.22185 -0.06806
0.00013 -0.04969 -0.14227
-0.20541 0.30170 -0.13469
0.04784 -0.08616 0.16509
-0.17216 0.12740 -0.09797
0.22519 -0.06481 -0.02449
-0.06647 -0.03674 -0.11947
0.04343 -0.04969 -0.15423
-0.19892 0.26768 -0.05647
0.16505 -0.07155 -0.16509
0.16917 -0.04969 0.07390
0.08325 -0.04969 0.14042
-0.09960 -0.03674 0.02199
0.22497 -0.40504 0.14850
-0.18759 0.20830 0.00427
-0.14338 -0.23334 0.16983
-0.16052 -0.31284 0.02803
-0.08191 -0.03674 -0.10447
0.09287 -0.03674 0.14056
-0.08673 -0.09024 -0.14566
-0.05731 -0.29875 -0.16185
0.22096 -0.30706 0.14180
0.10248 -0.08588 0.16509
-0.09601 -0.04969 0.15486
-0.04945 -0.04969 0.08925
0.21183 -0.21972 -0.16509
-0.17323 0.19018 0.17803
-0.14396 -0.18549 -0.17156
-0.15847 0.12473 0.17476
-0.01402 -0.03674 0.17180
0.09808 -0.29226 -0.15425
0.22519 -0.05439 0.08048
0.04705 -0.06471 -0.16509
0.09370 -0.08548 0.16509
-0.22237 0.27116 0.15966
-0.15705 -0.02287 -0.14566
-0.18431 0.26021 -0.03440
-0.09207 -0.04969 0.14885
-0.22049 0.38076 -0.15185
-0.15235 -0.30840 0.14566
-0.17627 0.14895 -0.02810
-0.19837 0.26480 0.13003
0.21987 -0.29259 0.08383
-0.02615 -0.03674 0.04788
-0.17313 -0.37900 0.17156
0.06140 -0.06117 -0.16509
0.12709 -0.08386 -0.16509
0.21358 -0.32523 0.16509
0.04907 -0.04969 -0.15766
-0.09554 -0.04969 -0.02313
-0.19452 0.24462 -0.16775
0.20988 -0.08529 -0.00024
-0.14802 -0.28041 -0.15747
0.14159 -0.31284 0.14863
0.14962 -0.03998 0.16153
0.12964 -0.04969 -0.14303
0.10626 -0.04969 -0.17458
0.05422 -0.03674 -0.06499
-0.21505 0.35224 -0.08459
-0.19348 0.23915 0.01085
-0.14503 -0.03625 -0.17156
0.18438 -0.03674 0.02711
-0.21525 0.24093 -0.14566
-0.17202 0.12666 -0.15075
-0.17588 0.21599 0.08713
-0.03088 -0.06554 -0.16509
-0.16530 0.16054 -0.07335
0.22410 -0.09573 0.16509
0.23167 -0.04149 0.15147
-0.09296 -0.09074 0.14566
0.07186 -0.03674 0.12247
-0.21150 0.39268 -0.01471
-0.17409 0.20662 0.08755
0.22730 -0.04729 0.17803
-0.16737 -0.31284 -0.04530
0.22136 -0.27361 -0.16509
0.01762 -0.04969 -0.06700
-0.21155 0.40296 -0.04842
0.07560 -0.04969 -0.01979
-0.05817 -0.04969 -0.07416
-0.16191 -0.20046 -0.14566
0.22282 -0.19469 0.14566
-0.17502 0.21149 0.17458
-0.05795 -0.03674 -0.12328
-0.18309 0.18470 0.07713
-0.08818 -0.05073 -0.00676
-0.19766 0.18319 -0.14566
0.22761 -0.04969 0.13315
0.17642 -0.04969 -0.02499
-0.16811 -0.29342 -0.05543
-0.21240 0.40569 -0.13260
-0.16883 0.17905 -0.14955
0.20898 -0.13321 0.14566
0.20406 -0.22908 -0.14566
-0.21072 0.39861 0.11055
-0.20523 0.36987 0.10240
0.20791 -0.06423 -0.16509
-0.08754 -0.30856 -0.14566
-0.20062 0.27658 -0.13985
-0.17980 -0.21283 0.15732
0.19622 -0.29763 -0.16185
0.22017 -0.29259 -0.13789
0.20173 -0.03674 0.09918
-0.13772 -0.06289 0.17156
0.23079 -0.13551 -0.15286
0.03430 -0.03674 -0.13022
0.22957 -0.19230 -0.15432
0.19006 -0.29959 0.14566
0.15704 -0.31284 -0.15323
-0.18117 0.22852 -0.17803
0.14123 -0.04969 0.12132
-0.18388 0.17334 0.17156
0.22138 -0.09453 -0.14566
0.22045 -0.31202 -0.10077
0.00961 -0.03674 -0.12287
0.08448 -0.04969 0.01555
-0.15467 -0.13428 0.14566
-0.17980 -0.12120 -0.16711
-0.16317 0.14935 -0.12092
0.12315 -0.29676 -0.14566
-0.16822 -0.23941 -0.17156
0.23167 -0.04646 0.15886
-0.16635 -0.31284 -0.04011
-0.13309 -0.12907 0.15229
-0.16493 0.08950 0.10758
-0.19095 0.22587 0.15445
0.08522 -0.03674 0.13973
-0.16536 0.08512 0.14566
0.20793 -0.04969 -0.01736
-0.16333 0.08110 -0.01055
-0.17120 0.19144 -0.04822
0.21492 -0.31202 -0.07341
-0.19902 0.33731 -0.06546
0.15814 -0.03674 0.16567
-0.13950 -0.07951 0.14566
-0.02413 -0.04969 -0.09947
-0.16796 -0.31284 -0.13446
0.21700 -0.04969 -0.15320
0.11722 -0.04969 -0.03278
-0.18379 0.18838 -0.04170
0.00642 -0.04969 -0.10369
-0.03849 -0.03998 0.15997
0.22736 -0.04969 0.17185
-0.16587 0.09442 0.00376
0.13694 -0.04550 -0.17803
0.12124 -0.03812 0.16509
-0.14863 -0.28661 -0.14949
-0.01045 -0.03674 -0.01338
0.07297 -0.04969 0.14622
0.00667 -0.03674 0.01249
0.14888 -0.08659 -0.14566
-0.21534 0.35373 0.06260
-0.04027 -0.04969 -0.07559
0.07203 -0.04969 0.15344
0.22887 -0.11975 -0.14566
-0.16740 0.17152 -0.13171
-0.15129 -0.31364 0.15945
-0.05765 -0.04969 -0.10909
-0.15282 0.09510 -0.07323
-0.18867 0.18588 0.17156
-0.15906 0.12783 0.02841
-0.20497 0.29938 -0.00757
-0.07917 -0.06110 0.16509
0.03097 -0.04969 -0.09131
-0.18699 0.20516 -0.13423
0.07657 -0.29226 0.15254
-0.18332 0.18588 -0.07583
-0.09221 -0.08916 -0.14566
-0.14856 -0.28595 0.14958
-0.18094 0.24254 0.04822
-0.05489 -0.03674 -0.16221
-0.05132 -0.04969 -0.15590
-0.16932 0.18161 -0.07382
0.21751 -0.05431 0.16509
-0.21557 0.21270 -0.16780
-0.14847 -0.29989 0.16185
0.00035 -0.03674 -0.17493
-0.14943 0.07734 0.09456
0.10215 -0.08200 0.14566
-0.16764 0.10371 -0.16848
0.01094 -0.03674 0.02912
-0.05304 -0.03674 0.02099
-0.19331 0.23827 0.16333
-0.11145 -0.03784 -0.12118
-0.10912 -0.03674 -0.10373
0.02634 -0.03674 -0.02991
-0.18337 0.18618 -0.11727
0.00911 -0.03674 -0.02110
0.13088 -0.04969 0.17029
-0.17587 0.14686 -0.06220
-0.21744 0.36477 0.04421
-0.21074 0.39872 -0.00975
-0.17921 0.23347 0.11675
0.18246 -0.03674 0.04631
0.21420 -0.29230 -0.16509
-0.20322 0.35933 -0.17265
-0.15709 -0.31284 -0.10917
0.10882 -0.29226 0.14927
-0.19921 0.33830 -0.10752
0.22222 -0.37074 0.14566
-0.20456 0.11795 0.15400
-0.16387 -0.10021 0.17156
-0.19919 0.33819 0.11731
-0.21810 0.23437 0.16415
-0.16426 0.15509 -0.06147
0.12162 -0.29578 0.16185
-0.18834 0.21222 -0.16863
-0.06444 -0.07452 -0.16509
0.17382 -0.03674 0.14438
-0.15547 -0.31097 0.13630
0.07110 -0.04969 -0.13457
-0.20807 0.31566 0.16886
-0.21208 0.39257 0.10842
0.22180 -0.08529 0.05152
-0.16263 0.07746 0.15429
-0.06552 -0.05277 -0.16509
-0.09072 -0.08695 -0.16509
0.06135 -0.04969 0.03378
0.10368 -0.30974 -0.16185
-0.20044 0.27563 -0.14831
0.17242 -0.03674 0.02040
0.02243 -0.03674 0.04193
-0.04122 -0.04969 -0.12443
-0.08303 -0.04969 -0.04654
-0.00880 -0.31109 0.14566
-0.16529 0.09137 -0.05112
-0.02249 -0.03998 0.15133
-0.20327 0.10688 -0.16114
0.22519 -0.05898 0.12470
0.20327 -0.08175 0.03989
-0.17744 0.15508 -0.17061
-0.21257 0.39107 0.12488
-0.01498 -0.04969 -0.03560
-0.19689 0.32614 -0.08057
0.22290 -0.08529 -0.13731
-0.07489 -0.04969 -0.15641
-0.08272 -0.07020 0.16509
0.21009 -0.23416 0.16509
-0.03455 -0.29226 -0.16156
-0.09308 -0.03674 -0.08440
0.19770 -0.04969 0.03825
0.22433 -0.26397 0.16509
-0.06963 -0.31284 0.15921
0.20634 -0.21601 0.14566
-0.17980 -0.16745 -0.16322
0.21040 -0.30710 -0.01819
-0.18079 0.17263 0.03426
0.17358 -0.04969 -0.07231
0.22519 -0.06523 0.00558
0.08421 -0.29226 0.14948
-0.06304 -0.03674 0.12160
-0.14123 -0.31284 -0.15150
-0.17489 -0.30158 0.10698
-0.09568 -0.04969 -0.01567
-0.15738 -0.08743 0.17156
-0.17245 -0.20932 -0.14566
-0.17771 0.15649 0.15419
0.08910 -0.04969 0.11557
0.12040 -0.04969 0.04985
-0.22966 0.33383 0.15964
0.09253 -0.04969 -0.12324
-0.14500 -0.24509 0.17156
-0.14731 -0.27326 0.16998
0.00886 -0.04969 0.07728
-0.09345 -0.03674 0.15292
-0.17486 0.14154 -0.15446
-0.08818 -0.07919 0.08442
-0.11339 -0.29226 0.15334
-0.15921 0.06653 0.16440
-0.17124 -0.16531 0.14566
-0.19965 0.27152 -0.01653
-0.16351 0.15113 -0.07546
-0.08818 -0.05031 -0.05675
0.00922 -0.05051 0.16509
0.10345 -0.03674 -0.14959
0.03545 -0.09500 0.15293
-0.05703 -0.29226 -0.14616
-0.15794 -0.29342 0.04397
0.12792 -0.04969 -0.15146
0.20463 -0.28970 0.15080
-0.08877 -0.04969 -0.09723
-0.19393 0.20976 0.14566
-0.10904 -0.03674 0.11672
0.13412 -0.06339 0.16509
-0.20713 0.31906 0.17803
-0.03893 -0.04969 0.00043
-0.04939 -0.05673 0.16509
0.21085 -0.29259 0.07700
0.04347 -0.03674 0.00980
0.02285 -0.03998 0.16401
-0.16653 -0.25242 -0.14566
-0.12672 -0.07456 -0.14566
-0.03637 -0.04969 0.16367
0.20983 -0.04969 0.02808
0.22651 -0.19083 0.14566
0.21355 -0.38163 -0.16509
0.07364 -0.05045 -0.16509
-0.15231 0.09245 0.10709
0.15793 -0.03674 -0.16214
0.21169 -0.29259 -0.02583
-0.17278 0.19976 -0.05509
-0.21162 0.33426 -0.16886
-0.14987 0.07966 -0.07950
-0.18264 0.06877 0.14566
-0.10362 -0.05027 0.08803
-0.11145 -0.04386 0.00566
0.13897 -0.04969 0.04180
-0.21849 0.23779 -0.14967
-0.15246 0.09323 0.05469
0.09358 -0.05481 0.16509
-0.14267 -0.19235 -0.17156
0.09041 -0.03998 0.14779
-0.18747 0.19416 0.17156
0.10405 -0.07003 -0.14566
-0.21509 0.20854 -0.15061
-0.13627 -0.06073 0.15707
-0.21446 0.29103 0.14566
0.13373 -0.03674 -0.15949
0.07556 -0.08462 -0.14566
0.22635 -0.04969 0.04840
-0.21690 0.36194 0.14677
-0.17153 0.19321 0.12284
-0.14806 -0.29226 -0.14866
0.02049 -0.04969 -0.16062
0.03147 -0.05688 0.14566
0.22519 -0.07660 0.05382
-0.20972 0.32428 -0.04351
-0.18809 0.21089 0.09280
-0.13634 -0.16196 0.16482
-0.08818 -0.05355 -0.01233
-0.17980 -0.12485 -0.15071
-0.13869 -0.18583 -0.15147
-0.04906 -0.04969 -0.14320
-0.15443 0.01761 0.17156
-0.22187 0.38799 0.12362
-0.21483 0.40523 -0.10731
-0.10362 -0.07539 -0.08399
-0.09601 -0.30565 -0.14566
-0.15299 0.09603 -0.05430
-0.16377 -0.38595 0.14566
-0.09959 -0.04969 -0.05524
0.21282 -0.39507 -0.16509
0.04410 -0.04969 0.11843
-0.22577 0.30040 0.16981
0.10029 -0.04969 -0.10616
0.22784 -0.04969 -0.14407
0.16886 -0.04969 -0.05199
-0.07492 -0.03674 -0.01045
-0.17718 0.22281 -0.03873
0.07626 -0.05971 0.14566
0.22519 -0.06953 -0.04735
0.20327 -0.08468 0.07304
-0.16381 -0.40575 -0.16304
-0.20253 0.20746 0.14566
-0.15963 0.13080 -0.05378
-0.17960 -0.35982 -0.17156
0.07738 -0.09500 0.15374
0.23119 -0.04969 0.09486
-0.21653 0.35997 -0.00219
0.14055 -0.03674 -0.10353
0.13691 -0.29867 -0.14566
-0.18379 -0.06071 0.16423
0.04064 -0.09500 -0.15770
0.18138 -0.06935 -0.16509
-0.19505 0.15045 0.14566
0.22096 -0.29431 0.04319
-0.17980 -0.09861 -0.15126
-0.16339 0.15054 0.14770
0.07708 -0.04969 0.01759
-0.06906 -0.04969 0.14475
-0.13364 -0.07454 -0.14895
0.05914 -0.04969 0.16152
-0.00652 -0.03674 0.00094
0.20555 -0.04969 -0.08379
-0.05825 -0.04969 -0.16703
-0.16418 -0.12657 0.17156
-0.18366 0.18770 0.02161
0.00583 -0.04969 0.11407
-0.15760 0.01745 -0.17156
0.22420 -0.29408 0.14566
0.22172 -0.04969 0.11527
-0.15696 -0.06433 -0.14566
-0.14825 0.07117 0.06125
-0.15808 0.12268 -0.12560
-0.11145 -0.04464 0.01057
-0.19051 0.29269 0.17274
0.00447 -0.05644 0.16509
0.04950 -0.04969 -0.08529
0.10403 -0.30768 0.16185
0.03236 -0.03674 0.02759
-0.18337 0.18614 0.01357
-0.08172 -0.04969 -0.15616
-0.01221 -0.31284 0.16142
0.20189 -0.04969 -0.13675
-0.17979 0.16739 -0.03002
-0.18223 -0.07411 -0.16755
-0.18768 -0.02721 0.15434
-0.17980 -0.22367 -0.16841
0.23046 -0.15094 0.14649
0.01133 -0.03674 0.12417
0.20327 -0.06002 0.02233
0.20500 -0.30197 -0.15141
-0.19456 0.31394 0.08978
-0.16779 -0.25810 0.17156
0.00559 -0.04969 -0.14135
-0.14103 -0.14778 0.14566
-0.21125 0.40139 0.17385
-0.22823 0.32158 0.16617
-0.20450 0.29694 -0.07354
0.14593 -0.03674 0.15392
-0.17474 0.21000 0.16253
-0.09346 -0.03674 0.02932
-0.17864 0.16136 -0.03900
-0.22527 0.29607 -0.16383
0.07424 -0.03674 0.04809
0.14690 -0.04969 0.13256
-0.20872 0.31908 -0.00706
-0.17980 -0.24948 -0.16851
-0.17734 -0.07784 0.17156
-0.01016 -0.03674 -0.12604
-0.11021 -0.31258 -0.14566
0.20614 -0.33942 0.15113
-0.02485 -0.04969 -0.04333
-0.13106 -0.08809 0.15006
-0.22420 0.28685 -0.16715
0.13925 -0.03998 0.13797
-0.19680 0.32566 0.09947
0.07370 -0.04969 -0.09915
-0.04176 -0.04969 0.12161
0.21012 -0.04978 -0.16509
-0.11124 -0.04969 -0.04855
-0.18959 0.13786 -0.14566
0.22821 -0.25489 0.16245
0.13580 -0.03998 0.15954
-0.13464 -0.14472 -0.16512
-0.18080 0.24178 0.10353
-0.17980 -0.23593 0.16326
-0.18918 0.28573 0.10702
0.21708 -0.15098 0.14566
-0.03140 -0.03674 -0.16590
-0.10524 -0.04969 -0.05322
-0.16305 0.07964 0.01183
0.04936 -0.03674 0.05470
-0.08818 -0.05388 -0.08021
0.06064 -0.03674 0.16681
-0.19730 0.13487 -0.17156
-0.19299 0.23657 -0.10063
-0.08818 -0.07259 0.04107
-0.20297 0.35800 0.04101
-0.18720 0.20625 0.04757
-0.18499 0.19463 0.07842
0.01280 -0.04969 0.12913
-0.20111 0.27917 -0.09525
-0.08993 -0.09500 -0.15465
-0.10358 -0.03674 0.13206
-0.15779 -0.31284 0.08267
-0.08818 -0.06367 0.09953
-0.06856 -0.03674 0.14350
0.22764 -0.09123 0.14566
-0.18013 0.12148 0.14566
0.17089 -0.03674 -0.16974
0.22078 -0.04969 -0.12642
-0.14161 -0.14416 -0.17156
-0.16959 0.18305 -0.12336
-0.20904 0.37997 0.09577
-0.19780 0.33088 -0.01395
0.02126 -0.07768 0.16509
0.12216 -0.04969 -0.12125
-0.10362 -0.05522 0.02806
-0.13822 -0.09773 -0.17156
0.05566 -0.04969 -0.08500
0.22020 -0.09416 -0.16509
0.02210 -0.04969 0.12743
0.22674 -0.32300 0.16406
-0.01999 -0.03674 -0.16354
-0.17768 0.22545 -0.06052
0.05968 -0.07580 -0.16509
-0.20782 0.31431 0.13081
-0.13548 -0.06487 -0.17067
-0.21519 0.35295 -0.11473
-0.06241 -0.04969 0.08874
0.21905 -0.29259 0.06881
-0.20782 0.14602 -0.15596
0.20654 -0.04969 0.13590
0.16631 -0.31284 -0.14871
-0.17552 0.21410 0.05928
-0.15032 0.08202 0.14236
-0.15981 0.13177 0.02078
0.20327 -0.06767 -0.03085
-0.14582 -0.24810 -0.14566
-0.15133 -0.28944 -0.14566
-0.19142 0.29743 -0.05045
0.14851 -0.07493 0.14566
-0.19125 0.29655 0.02444
-0.19379 0.09202 0.17156
-0.14484 -0.24822 0.14599
-0.09433 -0.04969 -0.13742
-0.17119 -0.29342 -0.09926
-0.17274 -0.31284 0.13860
-0.08818 -0.07726 0.03367
0.22897 -0.17952 -0.14566
0.23096 -0.12770 0.14770
0.22096 -0.29661 0.01255
-0.19240 0.30262 0.11230
-0.01064 -0.04969 -0.07599
0.12091 -0.03674 0.12566
0.14597 -0.04969 -0.01286
-0.10362 -0.08129 -0.03169
-0.17162 0.12458 0.01411
0.17757 -0.04969 0.17766
-0.15755 -0.37705 -0.16086
-0.20609 0.36076 0.06727
-0.18002 0.16863 -0.05757
-0.15547 -0.30390 -0.11945
-0.14988 0.06831 -0.14548
0.22840 -0.08316 0.16509
-0.18567 0.19820 -0.08750
-0.21715 0.36327 0.00408
0.16453 -0.09500 0.15891
-0.00033 -0.03674 -0.06672
-0.14521 -0.25195 0.17022
0.21334 -0.35951 0.16509
-0.18512 0.26442 -0.16852
0.07825 -0.31284 0.15341
-0.16331 -0.09655 -0.14566
-0.16888 0.11023 -0.10743
-0.15849 0.06667 -0.03542
-0.20286 0.28836 -0.15993
-0.14533 -0.01326 -0.15864
0.13252 -0.29668 0.16185
-0.17633 0.21838 0.13907
-0.20021 0.08056 -0.17133
-0.19409 0.24235 0.00331
0.20586 -0.08529 -0.05387
-0.22408 0.39957 -0.08986
-0.20727 0.31146 0.14507
-0.15965 -0.39836 0.16712
0.22519 -0.07432 0.09117
0.21738 -0.31202 -0.14504
-0.08609 -0.31284 -0.15474
0.18999 -0.04969 0.02573
-0.07071 -0.04969 -0.17343
0.04508 -0.30906 -0.16185
-0.08611 -0.03674 -0.15237
-0.22229 0.31013 0.17156
-0.16661 0.09830 0.11727
0.19635 -0.04969 -0.05371
-0.09494 -0.04969 0.04218
-0.08818 -0.07315 -0.01785
-0.19410 0.31153 -0.00238
-0.17464 0.17295 0.17803
0.03933 -0.04969 0.17161
-0.07398 -0.03674 0.14181
0.20913 -0.08529 0.08831
-0.02959 -0.04871 0.17803
0.15756 -0.03890 0.13919
-0.18868 0.21401 -0.04065
0.21475 -0.16774 0.16509
0.22150 -0.03674 0.03713
0.20425 -0.08512 -0.14566
-0.10365 -0.29545 -0.16185
-0.20235 0.29912 -0.17803
0.20067 -0.15915 -0.15230
-0.04722 -0.04969 0.05708
-0.19055 -0.00257 -0.16314
-0.17445 -0.31207 -0.17156
0.01749 -0.04969 -0.01580
-0.19408 0.21715 0.17156
-0.08695 -0.03674 0.02972
-0.15056 -0.30621 -0.14716
0.22103 -0.38353 -0.14566
-0.01672 -0.03674 -0.03394
-0.19751 0.26030 -0.17166
0.13420 -0.05464 -0.14566
-0.15388 -0.24079 -0.14566
0.22800 -0.26496 0.14590
-0.19907 0.26844 -0.10920
-0.07662 -0.03674 -0.00285
0.21040 -0.30620 -0.14484
-0.16297 0.14830 0.14091
-0.13708 -0.16950 -0.16246
-0.17969 0.23599 -0.06413
-0.09744 -0.08869 0.01531
-0.09050 -0.04969 0.15548
0.05051 -0.03674 -0.14660
0.05785 -0.09500 0.15641
-0.15522 -0.28277 -0.14566
0.06024 -0.03674 0.08060
-0.19291 0.30526 0.16258
0.20416 -0.27429 -0.15584
-0.00680 -0.03674 0.14077
-0.06093 -0.03674 0.05019
-0.21164 0.20097 -0.17156
0.20736 -0.36361 -0.16509
-0.01699 -0.04969 0.14836
-0.17980 -0.18592 -0.16795
0.22590 -0.31688 -0.16509
-0.19538 0.31823 0.00965
-0.15154 -0.11048 0.17156
0.09409 -0.04969 0.17484
0.20546 -0.04960 -0.17803
-0.22412 0.39980 0.15564
0.22655 -0.33172 -0.15589
0.22519 -0.05677 -0.08935
-0.17023 0.18640 0.05905
-0.22386 0.28393 0.14893
0.16820 -0.09500 0.15512
-0.21889 0.37237 -0.05220
-0.18118 -0.06977 0.14566
-0.17115 0.12212 0.16900
-0.19666 0.32492 0.14934
-0.17294 -0.20052 -0.14566
0.12044 -0.09500 -0.16184
-0.09098 -0.04969 -0.04682
0.12886 -0.08977 0.16509
-0.20652 0.36068 0.00838
-0.03446 -0.29266 0.16185
-0.20542 0.37084 0.16198
-0.00483 -0.04969 -0.13433
-0.17563 0.10249 -0.17156
-0.15899 -0.39170 0.15477
-0.14192 -0.03111 -0.16274
-0.21001 0.32581 -0.08000
-0.19799 0.07113 -0.14566
-0.08818 -0.06847 0.13305
-0.17797 0.22698 -0.15931
0.23142 -0.03674 0.04732
-0.16233 0.07589 0.07791
-0.07887 -0.03674 0.05804
-0.20634 0.18032 0.17156
-0.18454 0.26139 -0.08267
-0.19758 0.26066 0.07632
-0.16300 -0.29375 0.17156
0.22100 -0.04969 0.04148
-0.17980 -0.17807 -0.15614
-0.22056 0.38112 -0.16775
-0.09782 -0.04969 0.03577
-0.19164 0.22950 0.05466
0.21804 -0.16011 0.14566
-0.18482 0.19377 -0.05921
-0.17497 -0.12039 0.14566
-0.16472 0.08840 -0.02605
-0.09682 -0.03674 -0.08804
0.17181 -0.04969 -0.04401
0.06723 -0.04969 -0.16793
-0.21512 0.22811 -0.14566
0.22043 -0.04969 0.02193
-0.20948 0.37488 0.04610
0.14773 -0.29298 0.16185
0.16406 -0.04969 -0.07018
0.07150 -0.03674 -0.14817
0.01537 -0.04969 -0.02039
-0.19405 0.17969 -0.17156
-0.13323 -0.08860 -0.17156
0.11688 -0.03674 -0.01453
0.02245 -0.29226 -0.15660
0.03286 -0.29229 -0.14566
-0.16932 0.18163 0.02141
-0.18724 0.27554 0.03248
-0.20355 0.29194 0.10769
-0.16943 0.11310 0.04603
0.22512 -0.08529 -0.07641
0.09141 -0.08970 -0.14566
-0.01622 -0.04969 0.11253
-0.16516 -0.10534 0.14566
-0.21134 0.33278 0.06234
-0.20473 0.36102 -0.15295
0.22909 -0.04969 0.01105
0.01296 -0.04969 0.10342
0.22187 -0.03674 -0.06049
-0.19515 0.31703 0.11374
0.21306 -0.04969 -0.00896
0.21715 -0.03674 0.12101
-0.15204 0.06790 0.04989
0.05600 -0.04969 -0.04193
