-0.11993 0.41379 0.14767
-0.12116 0.42799 0.07522
0.17033 0.13090 -0.11978
-0.05544 0.14973 -0.11722
-0.07775 0.11929 0.15441
0.08636 -0.13680 0.15437
0.04197 0.07901 0.13075
0.17065 0.11823 -0.03440
0.14451 -0.14987 0.13442
-0.10226 0.26533 -0.04342
-0.10111 0.20232 0.00023
0.16428 -0.42072 -0.15545
-0.02695 0.15416 0.03973
0.16373 0.01783 0.15437
0.10304 0.15416 0.04820
0.14357 0.15416 -0.00712
0.17065 0.11787 -0.12066
-0.11420 -0.09685 -0.13360
0.16317 0.07901 -0.06767
-0.10273 0.27055 -0.15529
-0.03953 0.15416 -0.04173
0.11297 -0.16002 -0.14066
0.00410 0.12207 0.12785
-0.13339 -0.06521 0.04310
0.09813 0.15416 -0.07265
0.16703 0.05819 0.12781
0.14409 -0.13864 -0.14094
-0.09995 0.23934 -0.03311
-0.11769 0.38896 0.14092
0.13600 0.09426 0.15441
-0.14477 0.44297 0.10952
-0.11379 0.39509 -0.13170
-0.11182 -0.06966 0.06634
0.16551 0.07901 0.03089
0.17107 -0.20245 0.14433
0.14431 -0.29490 -0.12889
0.16528 -0.20446 0.15437
0.08787 0.15416 -0.00871
0.16198 0.15416 -0.08130
-0.13185 -0.30189 0.13246
0.14436 0.14153 0.12781
-0.09969 0.18628 0.07525
-0.13594 0.41696 -0.06671
-0.11054 -0.05836 0.13887
-0.01224 0.10381 0.12785
-0.09620 0.14251 0.00718
-0.03284 0.12327 0.15180
0.15737 0.11437 -0.04172
-0.10952 0.34701 0.09863
0.14409 -0.37473 -0.15412
-0.14792 0.43011 -0.09272
0.07137 0.15416 0.07397
-0.04909 -0.16002 0.14640
0.17059 0.13782 -0.03182
-0.11549 0.36418 0.05704
-0.10428 0.23805 -0.07317
-0.00468 0.15416 0.01183
-0.06791 0.13310 -0.15545
-0.14968 -0.25804 0.15545
0.17065 -0.39743 -0.15102
0.17107 -0.08775 -0.07070
0.14451 -0.39499 0.13737
0.15823 0.11950 0.12781
0.13108 0.13714 -0.11557
-0.11031 0.35587 -0.11838
0.17034 0.13681 -0.11766
0.17065 0.10311 -0.11224
-0.10108 0.25202 -0.01382
0.00759 0.09827 0.15441
-0.12569 -0.12778 0.12889
-0.10055 0.18738 -0.14161
-0.12513 -0.09281 -0.15545
-0.03965 -0.13356 0.14170
-0.05787 0.12327 0.13047
0.02938 -0.13394 -0.15545
-0.10112 0.25247 -0.05813
-0.11180 0.37266 0.14780
-0.04124 0.08434 -0.15545
-0.15997 -0.31646 -0.12984
-0.12239 0.44184 -0.12055
-0.11496 0.40828 -0.12438
0.17107 0.09384 0.15117
0.01621 0.15416 0.06379
0.15737 0.11249 -0.00487
-0.12926 0.03127 0.13760
0.17065 0.06933 -0.15533
0.12352 0.13167 -0.12889
-0.09928 0.23173 -0.12424
-0.09945 0.23370 -0.11148
-0.11988 0.41363 -0.05984
-0.04680 0.15416 -0.02535
-0.04855 0.09806 0.15441
-0.11515 0.36040 -0.13428
-0.12563 -0.01315 0.15545
0.14409 0.05631 -0.15191
-0.03149 0.15033 0.15437
-0.10964 0.23386 0.12785
0.17065 0.02154 -0.14355
-0.11469 -0.10245 -0.15246
-0.12325 0.14812 -0.05970
-0.03478 0.12327 -0.12319
0.15693 0.14865 -0.01803
-0.09461 0.10103 -0.15545
0.05756 0.09415 0.15441
0.13013 0.09448 -0.12889
0.02756 0.07901 0.13686
0.11276 0.07901 0.14760
-0.11800 0.44245 -0.15131
-0.02316 0.15416 -0.14649
-0.12049 0.15597 -0.15545
-0.14910 -0.20211 0.15545
0.16351 -0.06616 0.10932
-0.11184 -0.06987 0.01798
-0.10104 0.05024 0.14576
-0.11560 0.19300 -0.15545
-0.14889 -0.18984 -0.13976
-0.11135 0.13468 -0.15545
0.13960 -0.15134 -0.15545
0.17107 -0.07501 -0.01739
-0.14003 -0.08855 -0.05802
0.11091 0.15416 -0.01541
-0.11024 0.12327 0.00055
0.17035 -0.41689 0.15437
-0.11718 0.38317 0.12613
-0.12281 -0.12312 0.15545
0.15276 -0.07715 0.15437
0.00877 0.12327 0.14389
-0.11229 0.32818 0.04043
-0.09295 0.16045 0.07226
-0.11254 -0.07794 -0.15173
0.15456 -0.06616 0.01223
0.17107 0.12513 0.15255
-0.10311 0.27489 -0.01519
0.07744 0.15416 0.01931
-0.09601 0.14029 0.04060
-0.03411 0.15416 -0.00620
0.17065 0.10759 -0.06832
-0.03456 0.11564 0.12785
0.16629 0.07901 -0.12195
-0.12625 0.06899 -0.14680
0.09881 0.12865 0.11457
0.16064 -0.09151 0.09384
0.10159 0.15416 -0.05494
0.09132 0.15416 0.09737
0.13773 0.12327 0.14728
-0.11278 0.33371 -0.01677
-0.11546 0.41053 -0.15545
0.03979 0.15416 -0.15000
-0.12865 -0.06521 -0.02539
-0.11586 -0.09167 0.00963
-0.11160 0.32042 -0.11966
0.15895 0.07204 0.15437
0.15676 0.13372 -0.15545
0.15379 0.01527 0.12781
0.15431 -0.42684 -0.15545
0.03469 0.14973 0.15161
-0.10852 0.28577 0.13216
0.15664 0.14424 -0.11510
-0.14705 0.42012 -0.00116
-0.10289 0.27233 0.13427
0.15385 -0.06616 0.11483
-0.11878 0.40117 0.02840
-0.11625 0.42284 0.01180
-0.13026 -0.06521 0.03905
-0.09405 0.17286 0.13208
0.09145 0.12327 -0.14228
-0.11583 0.28792 -0.12889
0.15351 -0.11876 0.15437
-0.14870 0.43902 -0.03370
-0.16531 -0.40650 0.12889
-0.11155 -0.06664 0.11893
-0.10296 0.14071 -0.11557
-0.10393 0.23401 0.12682
0.14451 -0.07314 0.13863
-0.09881 0.10093 -0.07623
-0.07440 0.15416 -0.02484
-0.12234 0.13776 -0.04468
0.14063 0.08298 0.12785
-0.02486 0.15416 -0.05890
-0.10573 0.25428 -0.07096
-0.08082 0.13899 -0.12884
0.16948 -0.30471 -0.12889
0.13142 -0.15155 -0.15545
-0.01120 -0.15838 -0.12889
0.16777 0.08255 -0.12889
-0.10658 0.31388 0.12394
0.16002 -0.06616 0.04664
-0.12063 -0.17041 -0.14964
-0.06287 0.12327 0.13263
-0.08295 0.15416 -0.12587
-0.16054 -0.32302 -0.15206
-0.10261 0.26928 -0.14462
0.17107 -0.06568 0.14008
0.16870 -0.33715 -0.15545
-0.10476 0.24344 0.07183
-0.09585 0.13853 -0.03995
-0.08151 0.12684 -0.11557
-0.11792 0.44158 0.06957
-0.10185 0.20570 0.12785
-0.09764 0.16684 -0.15545
0.16221 -0.15071 0.15437
-0.11033 0.14973 0.12393
-0.01164 0.15416 -0.02418
-0.10848 0.33528 -0.15253
0.07758 0.14973 -0.13573
-0.00498 -0.13356 -0.14669
-0.10490 0.24497 0.00639
-0.11614 0.37156 -0.01910
-0.15695 -0.38976 0.15545
0.02333 0.07901 -0.13096
-0.09554 0.15416 0.06206
-0.12730 0.21414 -0.12889
0.14409 -0.05028 -0.13597
-0.12403 -0.21250 0.14285
-0.12347 0.10069 -0.13896
0.15713 -0.16770 0.12781
0.15707 0.14239 0.02889
-0.09850 0.22296 0.09424
0.17065 0.09629 -0.13527
0.15737 0.10361 0.01175
-0.10014 0.24139 0.07793
-0.14139 -0.26446 0.12889
-0.10503 0.00466 0.13082
-0.09875 0.22576 -0.10779
0.15704 -0.35200 0.15437
-0.12034 0.41879 0.10672
-0.12067 -0.11030 0.12889
-0.12896 0.29299 -0.12889
-0.14450 -0.39353 -0.12889
-0.13310 0.41708 -0.04477
-0.10535 -0.13356 0.14860
-0.11762 0.43820 0.00598
0.17065 -0.37092 -0.13302
-0.04467 0.13451 -0.11557
-0.10812 0.07532 0.12889
-0.12940 0.24068 0.15441
-0.12885 -0.26431 -0.14376
0.13106 0.15416 0.10192
-0.09338 0.16538 0.08411
0.16580 0.07901 -0.10480
-0.11799 0.38677 -0.13354
-0.14369 0.37695 -0.15000
-0.11450 0.35301 0.01903
-0.10478 0.29369 -0.01296
-0.15145 -0.21905 -0.14681
-0.11179 0.37257 -0.04916
0.07767 0.10391 -0.12889
-0.10998 0.35222 0.02187
-0.10904 0.29163 -0.12270
-0.11050 0.30801 -0.11082
-0.08309 0.07994 0.12785
0.12616 -0.14245 -0.12889
-0.09296 0.15450 -0.08923
0.15178 -0.42522 0.12781
-0.09525 0.13169 -0.08125
-0.11330 0.38961 0.11749
0.00638 0.12661 0.11457
-0.11606 0.36952 0.14621
0.04247 0.15416 0.08024
-0.13783 -0.29163 0.12889
0.07970 0.14973 0.11756
0.13610 0.14973 -0.15303
0.07508 0.13033 -0.12884
-0.11209 0.09143 -0.03858
-0.08385 -0.15175 0.12781
0.15735 0.12361 0.11980
-0.10385 0.28322 0.02509
0.17107 -0.15357 0.14277
0.02947 0.15416 0.06727
-0.12094 0.42549 0.09131
-0.09265 0.15708 0.03430
0.00972 0.12317 -0.12889
0.15069 -0.08608 0.12781
-0.13159 -0.29561 -0.13491
-0.08759 0.09081 -0.12889
0.16038 -0.03825 -0.12889
-0.05064 0.11538 -0.12889
-0.01637 0.14439 0.12785
0.07926 0.10188 0.12785
-0.10695 0.31815 0.04659
0.16108 -0.18659 0.12781
-0.09658 0.10447 -0.15195
-0.13104 -0.06966 -0.15545
-0.13625 0.41695 0.00540
-0.12269 0.14176 0.05159
-0.11872 -0.15332 0.14248
-0.09821 0.21974 0.01674
-0.09536 0.13288 0.15234
0.14409 0.01246 -0.14830
0.00093 -0.13356 -0.13829
0.00288 -0.14619 0.15437
-0.11981 0.41280 0.06212
-0.11207 -0.07254 -0.01134
-0.10202 0.21252 0.14668
0.01902 0.15416 0.11210
0.03849 0.15416 -0.00654
0.17107 0.02142 0.13360
-0.10582 0.07901 0.03444
0.15721 0.12644 0.07398
-0.10587 0.18403 -0.12889
-0.11673 -0.12910 0.14215
-0.09540 0.12856 -0.13696
-0.09691 0.15499 -0.13606
-0.06648 0.10689 0.12785
0.15797 -0.04688 0.15437
-0.10276 0.22085 -0.03946
-0.13262 0.25038 -0.13623
-0.13479 0.41913 0.12785
-0.07947 0.13259 0.12785
-0.10927 0.34426 -0.04723
-0.00658 -0.15095 0.15437
-0.08786 -0.16002 0.13237
0.01074 0.15416 0.15376
-0.16685 -0.39832 0.14109
-0.09881 0.11014 0.02713
-0.11474 0.35577 -0.01820
-0.11653 0.37587 -0.00650
0.14451 -0.23627 0.13363
0.17065 -0.15535 -0.13487
-0.09496 0.12836 -0.08516
-0.10230 0.21572 -0.04177
-0.10519 0.00284 0.15343
0.10578 0.12937 -0.12889
-0.11874 0.09586 -0.15545
0.14451 -0.42106 0.15077
0.16734 -0.09151 -0.10294
0.17065 -0.11633 -0.14392
0.15053 -0.06711 0.12781
-0.11181 0.31612 -0.14651
-0.07842 0.08679 0.15441
-0.13724 0.30325 -0.13351
-0.13834 0.42284 -0.12889
-0.08958 0.14973 -0.15202
-0.00167 0.14973 -0.12399
-0.14375 -0.38430 -0.12889
-0.11209 0.10585 0.01087
-0.02332 0.15416 -0.00736
-0.11486 -0.01165 -0.15545
0.14788 0.14496 -0.12884
-0.09778 0.21487 0.01779
-0.11209 0.32588 -0.07574
-0.10513 0.24756 -0.07436
0.00645 0.15416 -0.10740
0.16363 -0.34415 0.15437
0.15920 0.14973 -0.14498
0.16281 0.02226 -0.15545
0.16944 0.14973 0.02381
-0.14747 0.42492 0.07297
0.17107 -0.07457 0.04765
-0.11620 0.33169 0.15441
-0.11900 -0.15179 -0.14989
0.15713 0.14119 0.04779
-0.14747 -0.30625 -0.12889
0.14451 -0.23031 0.13177
-0.02779 -0.14643 0.12781
-0.10806 0.27326 -0.13164
-0.10468 0.12327 -0.00272
0.14409 -0.32820 -0.13999
-0.14175 -0.11149 0.14771
-0.13945 -0.08189 -0.11768
-0.14004 0.33527 -0.13808
-0.09756 0.21234 -0.12320
-0.11209 0.11036 -0.04097
-0.09881 0.08573 0.09420
-0.11265 0.33225 -0.04902
0.14451 -0.07131 0.03066
-0.07549 -0.14886 0.12781
0.01971 0.14098 -0.11557
-0.13283 0.42824 -0.15545
0.07269 0.07901 0.13130
0.16894 -0.18228 0.15437
-0.14425 0.41662 -0.06283
-0.12021 0.14973 0.10393
0.16947 -0.09151 -0.05946
-0.13580 -0.34707 0.14111
-0.11353 0.34218 -0.13036
-0.10799 0.13442 -0.12889
-0.10867 0.33746 0.03900
-0.10084 0.12327 -0.13070
-0.10808 0.27831 0.15315
-0.11245 -0.07684 0.10638
-0.10824 -0.16002 -0.15396
-0.11301 0.12327 -0.10837
-0.04891 0.15416 -0.08075
-0.14252 0.44297 0.11942
-0.11467 0.05847 -0.15545
-0.12595 -0.06521 0.11590
0.14409 -0.11219 -0.13449
-0.09859 0.16980 0.13869
0.15609 0.03777 -0.15545
0.16761 0.12327 -0.04730
-0.15696 -0.34018 -0.15545
-0.12098 -0.17438 -0.13601
-0.13713 -0.35899 -0.13892
-0.09596 0.10828 0.13656
0.11409 0.14250 -0.15545
-0.09881 0.11680 0.08531
-0.06029 0.13235 -0.15545
0.13520 0.15416 0.02772
0.15335 0.15416 0.09116
0.14451 0.09218 0.12985
0.14451 0.07992 0.15164
-0.11366 0.34354 0.05254
-0.13918 -0.07880 -0.01684
0.10926 0.15416 -0.12486
-0.09094 0.15416 -0.09748
-0.10161 0.20797 -0.10888
0.17065 -0.15582 -0.14632
-0.11973 0.12327 0.09648
0.02953 0.13450 -0.11557
-0.10410 0.02329 -0.15545
-0.09495 0.12317 -0.14607
0.14409 0.09103 -0.13331
-0.15604 -0.27160 -0.14727
0.00414 0.12161 -0.12889
-0.11209 0.08168 0.08945
-0.14445 -0.27604 -0.12889
-0.14058 -0.09483 -0.14872
-0.13855 -0.07625 -0.12889
0.14757 -0.02173 0.15437
0.17107 -0.08606 -0.11035
-0.11364 0.39342 -0.05380
-0.10008 0.19076 0.02642
-0.15391 -0.25011 -0.15545
-0.11209 0.09797 0.04450
0.08350 0.15416 0.03479
-0.11255 0.33106 -0.11492
0.10098 0.13331 0.12781
-0.13167 -0.13861 -0.12889
0.14409 -0.17316 -0.15058
0.17107 0.09233 0.13305
0.17045 0.12327 0.04865
0.05080 0.07901 0.13028
0.15683 0.13387 -0.05324
0.02241 0.15416 0.00235
-0.10735 0.27257 0.11329
-0.05000 -0.13876 0.12781
0.17107 -0.23021 0.15327
-0.11232 -0.07539 0.01212
0.16912 0.12327 0.00280
-0.13320 -0.09167 0.01339
-0.10811 0.33112 0.05246
-0.14845 0.43616 -0.06944
0.14473 -0.04433 -0.12889
-0.11811 0.14973 0.06143
-0.11704 0.37589 -0.13924
-0.13079 -0.09167 -0.01311
-0.09686 0.15000 0.14696
0.17065 0.12039 -0.14455
-0.12197 0.11460 0.14706
-0.14747 0.44297 0.13859
-0.07039 0.12327 0.14957
0.15195 0.10996 -0.15545
-0.14850 0.43670 0.05396
-0.10271 0.27036 -0.06765
-0.14129 -0.10293 -0.15401
-0.00921 0.14973 -0.15003
-0.01300 0.15416 0.10380
-0.13151 0.24257 0.14999
0.14882 -0.05211 -0.12889
-0.15021 -0.20818 0.13410
-0.09479 0.18125 0.11566
0.00762 0.07901 0.14346
-0.13674 -0.25739 0.15545
-0.08582 0.12327 0.12625
0.07920 -0.13356 -0.15099
-0.06609 0.13833 -0.12889
-0.11287 0.38473 0.04110
-0.11701 0.38134 0.13742
-0.12190 0.44302 -0.13561
0.16010 0.12327 0.05713
0.04544 0.15416 0.06913
0.15941 0.10388 0.15437
-0.14485 0.41214 0.12785
0.16416 -0.13229 0.12781
0.16675 0.07693 -0.12889
0.00721 -0.16002 0.13210
0.14775 -0.37915 0.12781
-0.10244 0.26734 0.04055
-0.00602 0.12814 -0.15545
-0.11093 0.36287 0.07494
-0.11286 -0.06521 -0.11515
0.11563 0.15416 -0.13847
-0.15696 -0.44336 -0.15251
-0.11636 0.42400 0.03599
0.14409 -0.14961 -0.13855
0.08997 0.15416 -0.11200
0.17065 -0.32805 -0.13122
0.16886 -0.14488 0.12781
-0.10682 0.31660 0.14461
-0.02440 0.14562 -0.15545
0.10106 0.12565 -0.12884
0.08515 0.12327 0.13194
0.15277 -0.02676 0.12781
-0.13779 -0.06297 -0.13078
0.09283 0.15416 -0.02337
-0.13276 -0.00875 0.13140
0.15700 0.12557 0.00329
-0.09821 0.21975 0.15159
0.16904 -0.42429 0.12781
-0.10372 0.28176 0.11745
-0.10558 0.30269 0.04244
-0.06639 0.14141 -0.15545
0.00608 0.12327 0.15400
0.04733 0.13234 -0.15545
-0.06066 0.08439 0.15441
-0.10870 0.12327 -0.01234
-0.02788 0.15416 -0.14859
-0.12567 0.17574 0.14580
-0.11512 -0.06521 -0.04809
0.07197 0.11237 0.12785
-0.10003 0.19010 0.14812
0.03269 0.09805 -0.12889
-0.09583 0.19287 0.09230
-0.11265 -0.16002 0.15304
-0.11132 0.31731 -0.10446
-0.12086 0.42442 -0.00345
-0.09369 0.16880 -0.04951
0.14409 0.04905 -0.15340
-0.10162 0.25814 0.08630
-0.09894 0.22794 0.04142
-0.08946 0.08300 -0.12889
-0.11620 0.42225 0.01880
-0.11182 0.32292 -0.04790
0.15737 0.11227 -0.12366
0.14409 -0.32042 -0.13239
-0.05859 -0.14050 0.15437
0.17107 -0.09488 0.13045
0.16478 -0.28984 0.15437
0.03372 0.11394 0.12785
-0.02944 0.14470 -0.15545
0.12543 0.13303 0.15437
-0.13515 -0.09167 -0.11341
0.14409 -0.16652 -0.13849
0.15023 -0.09151 -0.02483
-0.02972 0.09018 0.15441
-0.10216 0.25756 0.15438
0.03828 0.15416 0.10452
-0.09218 0.15416 -0.11997
0.16020 -0.40502 0.15437
-0.14160 -0.41332 0.15433
-0.13650 0.38111 0.15441
-0.11358 0.00094 0.12889
-0.00374 0.15416 -0.11630
-0.13944 0.33836 0.15441
0.10415 -0.15740 0.15437
-0.06409 -0.14541 -0.15545
0.00670 -0.16002 -0.13304
0.16596 0.01214 -0.12889
0.14207 0.15416 -0.09310
-0.11644 0.37489 -0.07679
-0.11326 0.13659 -0.11557
-0.12727 -0.09167 0.02697
-0.10276 0.27091 -0.12445
-0.07440 0.15416 -0.07592
-0.10327 0.22666 0.08995
-0.11400 0.34118 -0.15082
-0.05169 0.15416 0.01559
0.10340 0.12327 -0.15141
-0.09700 0.09643 0.13514
-0.14803 -0.17999 -0.14893
-0.14685 0.41785 0.00308
0.11618 -0.16002 0.12918
-0.00423 0.11119 -0.12889
-0.11549 0.41420 -0.14345
-0.11517 0.36059 0.13096
0.03792 0.11237 -0.12889
-0.06088 0.13887 0.15437
-0.11256 0.32464 -0.15364
-0.10212 0.21369 -0.00449
-0.12238 0.11320 -0.13467
0.14451 -0.41311 0.13150
-0.10258 0.26891 0.03352
0.17107 -0.25264 0.13299
0.06436 0.10230 0.15441
0.15016 -0.00637 -0.15545
-0.09008 0.12327 -0.11856
0.14409 -0.06660 -0.14456
-0.12716 -0.24824 0.14019
0.05256 0.12327 0.15361
-0.08499 0.15416 -0.04328
0.17065 0.12013 0.09720
0.14447 -0.30961 -0.12889
0.17107 -0.37772 0.14272
0.17065 0.10358 -0.02692
-0.10186 0.21071 -0.07100
-0.14630 -0.16353 0.14472
0.14451 -0.07090 -0.11903
0.14451 0.08477 0.14319
0.17065 0.10243 0.08510
0.06052 -0.16002 0.14181
-0.02227 -0.16002 0.13592
-0.12188 -0.15355 -0.15545
-0.11843 0.13647 0.11457
-0.11091 0.36272 0.09771
-0.10358 0.14973 -0.00506
0.17065 0.03535 -0.13765
-0.14264 -0.42521 0.13310
0.17065 0.10452 -0.02113
-0.16040 -0.32460 0.14618
-0.16157 -0.37597 -0.15545
-0.09596 0.13493 -0.14222
-0.10062 0.19676 -0.10249
0.15640 -0.19119 0.12781
-0.00107 0.07901 -0.13106
-0.16478 -0.37471 0.15182
-0.09789 0.21609 0.05685
-0.11403 -0.02832 -0.12889
0.06615 -0.16002 -0.13868
0.14409 0.09847 -0.13388
-0.03816 0.15416 -0.05284
-0.11249 -0.07730 0.11145
-0.06942 0.13759 -0.15545
-0.10624 0.31015 -0.03268
-0.15401 -0.36683 -0.15545
0.17107 -0.29917 0.14610
0.07554 0.11052 0.15441
0.10235 0.10863 0.12785
0.14209 -0.13720 -0.15545
-0.09881 0.09480 0.00935
-0.10049 0.19537 -0.05756
-0.11364 0.28214 0.15441
-0.11343 0.24122 -0.15545
0.11166 0.12871 0.12785
-0.09320 0.16330 -0.05206
0.05048 0.07901 0.14689
0.15939 -0.28748 0.15437
-0.05588 0.15416 0.13508
-0.02623 0.15416 -0.10869
0.14451 -0.21015 0.14000
0.13659 0.12062 0.12785
-0.10955 0.29728 0.00486
-0.09679 0.14921 0.13099
-0.11138 0.14020 0.11457
0.14921 -0.31767 -0.15545
-0.09494 0.08795 -0.14444
0.16614 -0.37461 -0.12889
-0.16645 -0.39378 0.13904
-0.11756 0.43748 -0.00867
-0.13700 0.44297 0.02565
0.00277 0.07901 -0.15037
0.14409 -0.19108 -0.15455
-0.12603 0.06819 0.13116
0.04779 -0.14533 -0.12889
-0.09505 -0.16002 0.15410
-0.13537 -0.03851 0.14856
-0.10793 0.32908 0.12714
-0.11209 0.08662 -0.00907
-0.07464 0.12592 0.12785
-0.12046 0.41979 -0.09764
0.02325 0.12399 0.12781
-0.06378 0.14973 -0.12904
-0.12496 0.39747 0.15441
0.00193 0.12327 -0.13464
-0.10765 0.19190 0.12785
0.14451 -0.41669 0.13841
0.06742 -0.13356 -0.14637
-0.09868 0.17495 0.03672
-0.09880 0.12327 0.04440
0.15691 -0.09506 -0.15545
-0.09462 0.12440 0.07171
-0.11289 0.38497 0.00729
0.09428 0.07901 0.14680
-0.11112 0.31494 0.12115
0.14451 -0.34938 0.14915
-0.05075 0.08804 -0.15545
0.01205 -0.13356 -0.13895
0.07815 0.12327 0.13142
0.14451 0.10921 0.13758
-0.00904 0.12053 0.15441
0.04415 0.09607 -0.12889
0.16555 -0.09151 -0.00371
-0.14557 0.44297 -0.09247
0.14451 -0.07966 0.14264
-0.10841 0.28447 0.00012
-0.11552 0.36456 0.10572
-0.13711 0.41691 0.06967
-0.09881 0.08731 -0.08269
-0.00776 0.07901 0.14061
0.01618 0.15416 -0.07773
0.16442 0.02247 0.12781
0.13058 -0.15085 0.12781
-0.11558 0.36401 0.14750
-0.10884 0.33934 0.10338
-0.13830 -0.07209 0.15077
-0.10072 0.05716 -0.14110
-0.06979 0.08987 0.12785
-0.11417 0.39934 0.00676
-0.01306 0.12346 0.15437
0.14451 -0.08317 0.05466
0.17107 -0.03919 0.13209
-0.10753 0.32459 0.08213
-0.10127 0.04768 0.13172
0.15511 -0.06616 -0.09367
0.14409 -0.33953 -0.14267
0.14409 -0.10047 -0.12972
-0.15141 -0.44332 0.13803
-0.10824 0.12677 -0.12884
0.15456 0.14973 0.12352
-0.12134 0.42988 0.15355
-0.13886 -0.07521 -0.07646
0.15703 0.13901 0.01432
0.03562 0.15416 -0.03227
-0.11804 0.44294 -0.01693
-0.10366 0.28104 -0.14163
-0.08010 0.15416 0.02634
-0.10461 0.01275 -0.14733
-0.02820 0.15416 -0.09683
-0.12156 0.43240 0.10345
0.00644 0.12327 0.13452
-0.04946 0.15370 0.15437
-0.11311 0.29089 -0.15545
-0.11134 0.31744 0.11079
-0.12206 0.32957 -0.12889
-0.16657 -0.39187 -0.14767
0.09691 0.15416 -0.00251
0.05958 0.15274 -0.15545
-0.04573 0.15416 0.09288
-0.10239 -0.13602 -0.12889
0.08154 0.14461 -0.12889
-0.11213 0.16624 0.12785
-0.14036 -0.38232 0.12889
0.17065 -0.29668 -0.14160
0.17060 0.14969 -0.03049
-0.13466 -0.06521 -0.08044
0.14569 -0.09210 -0.12889
0.14409 -0.27607 -0.13487
-0.14889 0.44120 -0.10588
-0.14126 0.40710 -0.12889
-0.09903 0.22895 0.01940
0.11641 0.15416 -0.03574
-0.02275 -0.15845 -0.12889
-0.13355 0.26100 -0.15152
-0.10872 0.12327 0.10934
-0.13800 -0.06540 -0.11937
-0.09459 0.17899 0.15176
-0.12402 -0.17921 -0.15545
-0.12866 0.26905 -0.15545
-0.10697 0.31827 0.06269
-0.10507 0.24684 0.11785
-0.13101 0.01124 0.14394
-0.10104 0.20153 -0.01119
0.14868 -0.15535 -0.12889
-0.13461 0.44297 -0.09996
-0.11478 0.08078 0.15545
0.14475 0.04387 -0.12889
-0.13429 0.41703 0.01894
0.17065 0.15052 -0.15475
0.17017 0.12327 0.05923
-0.16248 -0.34838 0.13169
-0.10413 -0.16002 -0.14285
0.17065 0.09417 -0.10019
-0.10623 -0.00902 0.13414
0.01788 0.15350 -0.15545
0.16198 -0.12944 -0.15545
0.04682 0.14973 0.12731
-0.10318 0.09378 -0.15545
0.14409 -0.23476 -0.15190
-0.15534 -0.26356 -0.13069
-0.10269 0.03143 0.13973
0.02076 0.10385 -0.12889
-0.14656 -0.36358 -0.12889
-0.09366 0.16848 -0.05587
-0.04007 -0.13943 -0.12889
-0.00346 0.14355 -0.12884
0.15726 0.13011 0.08958
-0.11934 0.40219 -0.15089
-0.10189 0.26109 0.12130
0.17065 0.09424 0.00364
-0.06524 0.11426 -0.12889
0.12592 0.15416 0.02797
-0.11556 0.36495 -0.12895
-0.11582 0.36792 -0.09937
-0.09881 0.11312 -0.08085
-0.13158 -0.19391 0.12889
-0.09820 0.21957 -0.15149
-0.11570 0.36660 -0.09237
0.17107 -0.07611 0.00336
-0.10818 0.04836 0.12889
-0.11669 -0.12539 -0.15465
-0.11807 0.39323 0.00926
-0.08019 -0.13816 -0.12889
-0.04110 0.14973 0.11745
-0.02056 -0.16002 -0.15483
-0.10183 0.20684 0.13675
0.14573 -0.08459 0.15437
-0.00223 -0.13620 -0.12889
-0.08164 0.14973 -0.13602
-0.09922 0.18109 -0.11548
-0.10361 0.23048 -0.12722
-0.10312 0.27501 -0.02482
-0.09499 0.12865 -0.01636
0.14764 -0.06616 0.03091
-0.11743 0.08971 -0.12889
-0.11244 -0.07390 0.12889
-0.08530 -0.14497 -0.12889
-0.11347 0.39153 0.07882
0.13573 0.15416 0.05798
-0.11950 0.30922 -0.15545
-0.13986 -0.11432 0.15545
-0.09929 0.17298 -0.13006
-0.09606 0.11041 -0.15129
0.15178 -0.20519 -0.15545
-0.02403 0.14458 0.11457
-0.11654 0.42610 -0.08818
0.06810 -0.16002 0.13733
0.14451 -0.05086 0.13976
-0.09593 0.19402 -0.03634
0.16651 -0.39707 0.12781
-0.00151 0.14817 0.11457
-0.12245 0.13420 -0.15377
0.15806 -0.09151 -0.06330
-0.11209 0.09858 0.03200
0.17065 0.10580 0.04040
-0.15181 -0.25865 -0.12889
-0.14822 -0.24139 -0.15545
0.17069 0.14659 -0.00106
0.17065 -0.34151 -0.14705
0.15737 0.14036 0.12588
0.10898 0.15416 0.05934
-0.09998 0.18954 0.00609
0.16293 -0.08859 -0.15545
-0.11209 0.09002 0.06388
0.14504 -0.19723 -0.12889
-0.11119 -0.06247 -0.13597
0.17107 -0.07208 -0.04942
-0.10566 0.25059 0.13244
-0.10800 0.27989 0.05851
0.16587 0.15416 -0.13826
-0.11350 -0.08891 -0.11283
0.14409 -0.14849 -0.13253
-0.15549 -0.26851 0.15147
-0.10349 0.27913 0.08045
-0.03846 -0.14897 -0.12889
-0.12232 0.11390 -0.14241
0.12371 0.13929 0.12781
-0.11220 0.14973 -0.08438
0.17107 -0.34223 0.14420
-0.12387 0.09295 0.15211
-0.09603 0.14058 0.09182
0.08484 0.13906 -0.12889
0.14409 0.10694 -0.14323
-0.08069 0.12327 0.11712
-0.14882 0.44043 -0.03833
-0.09791 0.21638 -0.05176
0.12431 0.09449 -0.15545
0.15737 0.12233 -0.01841
-0.11985 -0.09167 -0.02425
0.10020 0.13923 -0.12884
-0.09977 0.23728 0.08610
-0.15187 -0.31136 -0.12889
-0.13427 -0.24002 0.12889
-0.11340 0.39073 0.10170
-0.16793 -0.42694 0.12889
-0.11546 0.41387 0.08587
0.15764 -0.38266 -0.15545
-0.14827 -0.22567 0.12889
-0.03453 0.12334 0.12785
-0.02207 0.15416 -0.00055
-0.12260 0.44297 0.11578
0.15093 -0.23242 -0.12889
-0.00557 0.15416 0.06487
-0.12452 -0.21484 -0.13773
0.14451 -0.20294 0.13971
0.05342 0.07901 -0.13342
-0.12608 -0.08462 -0.15545
0.17107 0.00031 0.13922
-0.10509 0.14744 0.12785
-0.08329 0.12761 0.12781
0.15692 0.12787 -0.02129
-0.12119 0.42836 0.02526
-0.11904 -0.15349 -0.12889
0.17065 0.15090 0.03085
0.14564 -0.22992 -0.15545
0.16044 -0.09151 0.12570
0.16231 -0.06616 -0.07710
0.12678 0.07971 0.12785
0.01952 0.14098 0.12785
-0.12350 -0.06521 -0.03732
-0.09683 0.15365 -0.08547
-0.11906 -0.09167 0.10487
-0.13570 0.43471 0.12785
0.17107 0.08275 0.14541
-0.09452 0.09661 0.14383
-0.13698 0.30504 0.14823
-0.10349 0.22101 -0.15100
0.05292 0.15416 0.10261
0.00215 0.10964 0.12785
-0.07962 0.15416 0.05194
-0.11820 0.07389 0.15545
-0.04998 0.15416 0.14361
-0.09472 -0.16002 -0.14090
-0.11937 0.14973 -0.06903
0.05104 0.15416 -0.11524
0.12821 0.15416 -0.01452
-0.13489 0.28114 0.13143
0.17024 0.07901 0.10582
-0.11302 0.38642 0.05402
0.07107 0.15416 -0.10543
-0.11544 0.36364 0.04230
0.08034 0.12327 -0.13891
-0.10847 0.33518 -0.12068
0.02229 0.14973 -0.15294
0.14409 -0.02763 -0.14667
-0.15331 -0.42952 0.12889
-0.09990 0.18872 -0.00390
0.16213 -0.07973 0.15437
-0.01531 0.11359 -0.15545
0.16555 -0.09151 0.07198
0.14774 -0.32271 -0.15545
0.15516 0.13300 0.12781
0.14451 -0.31310 0.14661
0.14905 0.07338 -0.15545
0.14451 -0.15970 0.14697
-0.14337 -0.41501 -0.15545
0.14409 -0.07201 -0.12954
-0.10813 0.28135 0.10093
-0.06898 0.12327 0.12943
0.11186 -0.15066 -0.15545
0.12070 0.12327 -0.11661
0.17065 -0.41221 -0.14600
-0.13503 0.28948 0.12785
-0.03076 0.14758 0.12781
-0.13992 0.41587 0.15441
-0.11531 0.36216 0.13665
0.14451 -0.16978 0.14076
-0.05700 0.12327 0.14526
-0.09541 0.13345 0.02538
-0.13734 -0.06110 0.15241
-0.11516 0.12327 0.10354
-0.09881 0.10994 -0.08472
0.15844 0.12327 -0.14480
0.03125 0.14973 0.13666
0.15998 -0.14970 -0.12889
-0.10658 0.31392 -0.12388
0.14409 -0.22348 -0.15179
-0.12318 -0.17369 0.12889
-0.16123 -0.33089 -0.15526
0.14409 -0.21798 -0.15364
0.16704 -0.06220 -0.12889
-0.11717 0.12327 -0.06681
-0.12892 -0.09167 0.05669
-0.09491 0.18255 -0.13774
-0.12415 0.18519 -0.15545
-0.10245 0.11249 0.12785
0.09559 -0.13356 -0.15541
-0.11364 -0.09045 -0.09969
-0.11209 0.10636 0.12615
-0.10547 0.25140 -0.03152
-0.10202 0.21254 -0.01686
-0.04305 0.15416 0.03105
0.10326 0.14939 0.12781
-0.13353 0.36384 -0.15545
0.05333 0.13033 -0.11557
0.17065 -0.38565 -0.12892
-0.09326 0.16397 0.14299
-0.13886 -0.09167 0.01736
0.17053 0.12682 -0.05354
0.15737 0.11023 0.03406
-0.12083 0.42401 -0.11031
0.10418 -0.13356 -0.14541
-0.13629 -0.04908 0.13985
-0.11348 0.30302 -0.15545
-0.14302 0.37409 0.13860
0.17065 0.15115 -0.11283
0.17035 0.12327 0.03037
0.14451 -0.07157 -0.00005
0.15737 0.08088 -0.06415
-0.15110 -0.34551 0.15545
0.08412 0.12642 -0.12889
-0.12577 -0.18282 0.12889
-0.10900 0.29114 -0.15065
-0.08737 0.15416 -0.03532
-0.09827 0.16621 0.13164
-0.04797 0.15416 -0.04841
-0.10787 0.32848 0.01879
0.15820 -0.21124 0.15437
-0.16986 -0.43277 0.14025
-0.10003 0.24020 -0.04031
0.15710 -0.06616 -0.08546
-0.07814 0.15416 0.03110
-0.01213 0.14766 0.12785
0.04667 0.12327 -0.12843
-0.10494 0.17498 -0.15545
-0.10634 0.26125 -0.06020
-0.11905 0.40429 -0.07111
-0.10274 0.12327 -0.11463
-0.13723 -0.36011 -0.13041
-0.10562 0.30308 0.05233
-0.13801 -0.06545 0.05083
0.10477 0.08275 0.15441
-0.09877 0.22604 0.03314
-0.14139 -0.15288 0.15545
0.10237 0.15416 -0.04353
-0.10116 -0.13356 0.14399
0.09896 0.14510 0.15437
0.15331 -0.26674 -0.12889
-0.09520 0.13104 -0.00023
-0.10252 0.26822 0.06956
0.15737 0.08768 0.08571
-0.11335 -0.08713 0.04216
-0.11875 0.23023 -0.12889
-0.10153 0.25711 0.03807
0.15737 0.10796 -0.03956
0.12890 0.13120 0.11457
-0.11935 0.31239 -0.12889
0.14858 0.12694 -0.12889
0.16099 0.15416 0.09295
-0.08215 0.15416 -0.05728
0.09106 -0.16002 -0.14754
-0.01271 0.12327 0.14567
-0.11292 0.38524 0.01921
0.15498 -0.01010 0.12781
0.17107 -0.23254 0.13508
0.15309 0.09064 0.15437
0.11011 0.07901 0.13280
0.16650 0.14973 0.10062
0.14409 -0.27980 -0.14520
-0.10727 0.12327 -0.03673
-0.11469 0.35521 -0.13460
0.17065 -0.05996 -0.13429
-0.13821 -0.06777 0.08465
0.12847 0.12327 0.14288
-0.10310 0.27470 0.02055
-0.10129 0.25439 -0.11720
0.17065 0.06675 -0.13071
-0.00724 0.14865 -0.12884
-0.13513 0.44297 -0.02951
0.17107 -0.35045 0.15246
0.15737 0.08167 -0.02836
-0.10786 0.07901 -0.07978
-0.09913 0.23007 -0.07681
-0.00523 0.08792 0.12785
-0.01281 0.15416 0.06672
-0.12191 0.12801 -0.13907
0.16919 -0.26381 -0.12889
-0.07238 0.15416 0.12591
0.12422 0.15416 -0.09707
-0.05241 0.12327 -0.14535
0.17065 0.04871 -0.13342
0.08454 -0.16002 0.14029
-0.09690 0.15494 -0.03438
0.15961 -0.09151 -0.08170
-0.11967 -0.15898 0.15545
-0.10080 0.05304 0.15355
-0.12229 0.44076 -0.10610
-0.11183 0.12327 -0.02057
-0.10715 0.12327 -0.05831
-0.07302 -0.13356 0.13888
0.07356 0.14253 -0.11557
-0.11694 -0.06521 0.00763
0.12363 -0.16002 -0.14749
0.14451 -0.08754 0.08748
0.08522 -0.13356 0.13620
0.17065 0.08990 0.06325
0.15951 -0.01306 0.12781
-0.11549 0.41418 -0.08925
-0.10392 0.23397 -0.10499
0.15683 -0.09151 0.01116
0.11582 0.15416 0.08079
-0.10429 0.23809 -0.05249
-0.11732 0.43484 0.13622
-0.12459 0.05754 -0.12889
-0.04057 0.10108 -0.12889
0.09606 0.14319 -0.12889
0.08476 0.15416 -0.06912
-0.09751 0.16174 0.12401
0.03580 -0.15231 0.12781
-0.14287 0.40287 0.12785
0.07711 0.12327 0.11558
-0.12116 -0.17099 -0.15545
-0.10647 0.26268 0.14970
0.05016 0.13944 0.12781
0.16195 -0.06616 0.08777
-0.09453 0.15436 -0.14615
-0.13465 -0.09167 -0.02613
0.15228 -0.37689 -0.12889
0.14694 0.15416 0.06050
0.08049 0.12327 -0.14541
0.17065 -0.21056 -0.15223
0.17065 -0.34492 -0.13255
0.03919 0.12924 -0.12889
0.14409 -0.05772 -0.14558
-0.12253 -0.05735 -0.12889
-0.11080 0.36146 0.15439
0.12225 -0.13356 0.15402
-0.11375 0.39468 -0.12359
-0.12190 0.13267 0.14372
0.01797 0.15416 -0.02627
-0.13436 -0.33061 0.13633
0.16937 -0.36387 -0.15545
-0.12837 0.04466 -0.13301
-0.10730 -0.01808 -0.14461
0.15759 -0.28710 -0.15545
-0.09694 0.10039 -0.14367
0.14451 -0.10448 0.13975
-0.10989 0.04124 -0.12889
0.11725 0.12327 0.14250
0.17079 0.13240 0.03306
0.07860 0.15416 0.11489
-0.13479 -0.12920 0.12889
-0.13935 -0.08079 0.04466
0.16412 0.10223 0.15437
0.07907 0.15416 0.07147
-0.11225 -0.07467 -0.08634
-0.10998 0.30211 -0.03444
-0.03887 0.07901 0.13967
-0.10793 0.27911 -0.02634
0.17065 0.11323 -0.01727
0.01538 0.14508 -0.12884
-0.10283 0.22173 -0.00278
0.14533 -0.35284 -0.12889
0.15844 -0.43056 0.15437
-0.12262 0.22321 -0.12889
-0.11701 0.38128 0.03982
0.15737 0.10444 0.04831
-0.12045 0.42007 -0.01007
-0.09822 0.21987 0.04011
-0.02838 0.08771 -0.12889
-0.11951 0.12327 -0.14660
0.02821 0.14973 -0.13436
-0.16590 -0.38756 0.13276
-0.10816 0.33175 0.03387
0.17064 -0.06616 0.05056
-0.00222 0.13155 -0.11557
-0.07962 0.12327 -0.13799
0.14101 0.09105 -0.12889
0.09205 0.15416 0.06236
0.14683 0.03759 -0.15545
-0.14787 0.42954 -0.01505
0.09908 0.07901 0.13788
-0.11137 0.34582 0.15439
-0.11209 0.10779 0.05238
-0.09494 0.11051 -0.14524
-0.09804 0.16773 -0.03949
0.15737 0.09074 0.03232
-0.08982 0.09487 0.12785
-0.11429 0.35070 -0.11467
-0.13993 -0.08740 0.02840
-0.11178 0.37242 0.01001
-0.11993 0.22340 -0.15545
-0.12891 0.34183 0.15441
-0.09979 0.18751 0.04189
-0.10336 0.22763 0.12635
-0.11268 -0.06521 0.02356
0.06423 0.14312 0.11457
-0.00075 0.15050 -0.15545
0.17107 -0.07834 -0.09245
-0.09638 0.14451 -0.03466
-0.06826 0.15416 -0.04988
0.16081 -0.37137 -0.12889
0.14451 -0.27784 0.13082
0.03710 -0.13356 -0.13519
-0.12232 0.13753 -0.06601
-0.13023 0.22787 0.14370
-0.12847 -0.06232 0.15545
-0.12962 0.41012 -0.12889
-0.11183 -0.06521 -0.09963
-0.14574 -0.15712 0.14034
0.16872 -0.09853 0.15437
-0.07660 0.12327 0.13312
-0.07965 -0.16002 0.13855
-0.09879 0.13591 -0.12884
-0.09749 0.08926 0.14399
-0.10950 0.34675 -0.07087
-0.11296 0.38580 -0.00285
0.07767 0.15416 -0.11685
-0.15556 -0.26932 0.13723
-0.10469 0.24261 -0.02598
0.16670 -0.42711 -0.15545
0.17045 0.14621 -0.07821
0.09297 -0.16002 -0.13973
-0.12602 -0.07411 -0.15545
-0.11220 0.37723 -0.14706
-0.11126 0.17957 0.12785
-0.10575 0.25459 0.13833
-0.11819 0.39459 0.15329
0.15737 0.09604 -0.11053
-0.10701 0.26872 0.09129
-0.14415 0.38703 0.13979
0.07947 0.14973 0.14841
0.17065 0.12127 -0.07021
-0.01925 0.14973 0.13075
-0.11244 0.32983 -0.01155
0.00690 0.15416 0.09765
-0.12535 0.06309 -0.15545
-0.12091 0.42524 0.05998
-0.05363 0.14848 0.11457
0.09657 0.07901 -0.14106
0.04022 0.09816 0.12785
-0.09703 0.15637 0.10208
0.04630 0.08734 0.15441
-0.13210 -0.30473 0.13852
0.15640 -0.23990 -0.15545
-0.11672 0.42806 0.13024
-0.04670 0.15416 0.13709
-0.12503 0.08287 -0.14587
-0.14879 -0.43882 0.15545
-0.02031 0.15416 -0.02752
-0.10084 0.24933 0.04740
-0.11209 0.08772 -0.08833
-0.13931 -0.08032 0.09983
-0.14337 -0.28590 0.12889
-0.06237 0.15416 -0.06218
0.16789 0.15416 -0.12026
0.12701 0.08257 -0.12889
0.07863 0.14973 -0.15050
-0.11376 0.13939 -0.12889
-0.00861 0.07901 -0.14431
-0.07999 0.12327 -0.13202
0.17059 0.12891 -0.03094
0.16193 0.10144 0.12781
0.00477 0.15416 -0.15388
-0.12837 -0.20541 -0.12889
0.02034 0.12327 -0.13468
0.17107 -0.22279 0.14952
-0.12816 -0.25967 0.14428
-0.10848 0.28286 0.15146
0.15737 0.10487 -0.02325
-0.10960 0.29794 -0.10175
-0.11594 0.11930 0.15545
-0.09912 0.22991 0.14419
0.06935 0.14212 -0.15545
-0.14021 -0.09059 -0.12717
-0.11531 0.36219 0.04699
-0.08635 0.15416 -0.13774
0.14553 0.05734 -0.12889
0.15460 0.01722 -0.12889
0.17107 0.02086 0.14000
-0.09881 0.10086 -0.06362
0.15147 -0.09151 -0.12565
-0.12243 0.44234 -0.02011
-0.11732 0.12343 -0.11557
-0.03250 0.15416 -0.03239
0.08335 0.13559 -0.15545
0.10773 0.15416 -0.15036
-0.10691 0.26762 -0.01800
0.08717 0.15416 0.04562
0.00912 -0.14487 0.15437
0.05732 0.10912 0.12785
0.16531 -0.17803 -0.15545
-0.03249 0.15416 0.12250
-0.13647 0.29926 0.13389
0.17107 -0.36873 0.14680
0.14409 -0.01527 -0.15506
0.14409 -0.31575 -0.13072
-0.09511 0.18485 0.04991
0.08771 -0.16002 -0.14154
0.16820 0.12327 -0.11810
0.14451 -0.14655 0.14515
-0.01625 0.15416 -0.14446
-0.09881 0.08002 0.08103
-0.12397 0.43981 0.12785
0.07516 -0.13356 0.13716
0.05817 -0.13356 -0.14571
-0.14235 0.42586 0.12785
-0.04037 0.12577 0.12781
-0.13094 -0.09167 -0.10817
0.04438 0.08659 -0.15545
-0.10722 0.27109 0.06572
-0.11366 0.08616 -0.12889
-0.10467 0.24243 -0.07590
-0.10742 0.32337 0.12947
-0.14506 0.42059 -0.12889
-0.11037 0.30658 0.13355
-0.11974 -0.10660 -0.12889
-0.13890 -0.07563 0.12246
0.15737 0.09510 0.11749
-0.12342 0.44297 0.04411
-0.11209 0.08168 0.00141
-0.10621 0.25971 0.06590
-0.12048 0.42008 0.09662
0.14451 -0.06419 0.13567
0.17107 -0.00718 0.15143
0.04901 0.11477 -0.15545
0.17065 -0.38983 -0.14282
-0.09881 0.12080 -0.06177
-0.11097 0.14895 0.15441
-0.09881 0.08635 -0.11685
0.17036 0.14497 -0.10922
0.14805 -0.39278 0.12781
-0.07980 0.12327 0.15157
-0.11282 -0.04330 -0.12889
0.17065 -0.21292 -0.14474
-0.11564 0.36594 0.12704
0.16523 0.14855 -0.12887
-0.13342 -0.21896 0.12889
-0.13654 -0.10889 -0.15545
-0.13217 -0.21660 0.15545
0.02319 0.15416 -0.11619
-0.01835 -0.16002 0.14551
-0.15267 -0.23302 -0.13059
0.03189 0.12327 -0.13589
0.07403 -0.13356 -0.13256
-0.10487 0.24468 -0.15178
-0.04767 -0.14103 -0.15545
-0.10244 0.21731 0.05653
-0.14048 0.41677 0.11073
0.00264 0.12327 -0.15332
-0.10971 0.32910 -0.15545
0.10918 -0.16002 -0.14355
-0.09881 0.08737 -0.02273
-0.10287 0.27220 -0.05290
-0.13485 -0.09167 -0.05215
0.16225 0.11556 -0.12889
-0.10523 0.07901 0.09957
-0.11099 0.12327 -0.02679
0.00947 0.14783 -0.12889
-0.11172 0.32173 -0.12554
0.11778 0.15416 -0.00215
0.14409 -0.29831 -0.14512
0.13071 0.10368 -0.12889
-0.11233 0.32864 0.10475
0.13632 0.12803 0.12785
-0.12204 0.44301 0.10966
0.07602 0.13414 0.12785
-0.04124 -0.13356 -0.15516
-0.03254 0.15416 0.09935
0.12755 -0.15852 -0.15545
-0.12191 -0.18498 -0.13159
0.02450 0.10764 -0.15545
0.14843 -0.28441 -0.15545
-0.13452 -0.09160 -0.12889
-0.09331 0.16458 -0.09312
-0.09881 0.10510 -0.08648
0.05938 0.12876 0.15437
-0.04702 0.15416 0.03756
-0.09549 0.18907 -0.13824
-0.11964 -0.15908 -0.15093
-0.12034 -0.09167 -0.11688
-0.09843 0.22223 0.13788
0.16801 -0.42967 -0.12889
-0.09741 0.16065 -0.04480
-0.01827 0.07901 -0.13207
-0.10618 0.14973 0.09166
-0.05924 0.08984 -0.12889
-0.14048 -0.24847 0.15545
0.11657 0.15416 -0.15178
0.10638 0.15416 -0.08455
-0.01712 0.07901 -0.14579
-0.14161 -0.33094 -0.12889
0.11485 0.07901 -0.14556
-0.10998 0.03860 0.15545
0.15554 0.15416 -0.14794
0.10230 0.10662 -0.15545
0.11235 0.15416 0.11177
-0.10229 0.20730 -0.14341
0.14409 -0.09612 -0.14176
-0.16722 -0.42178 0.12889
0.16723 0.15416 0.09840
0.17107 0.13039 0.13963
-0.10595 0.07657 0.15545
0.06395 0.07901 -0.13298
0.15437 -0.32347 0.15437
-0.09881 0.08988 0.07315
-0.11209 0.08007 0.12503
-0.02015 0.08881 0.12785
-0.04223 0.07901 -0.14251
0.17071 0.13251 0.00802
-0.11372 0.34425 0.00114
-0.11209 0.11820 -0.05245
-0.12968 -0.15279 0.15545
0.12218 -0.13843 -0.12889
-0.13792 0.41042 0.12785
-0.11209 0.09839 -0.11193
-0.01282 -0.15481 -0.15545
-0.11704 0.43165 -0.01943
-0.09881 0.09286 0.08312
-0.11209 0.10284 -0.11864
-0.10292 -0.13356 -0.14669
-0.11267 0.38246 0.09477
0.17065 0.09647 0.02220
-0.15115 -0.21566 -0.13112
-0.11941 0.40834 0.05490
0.14451 -0.44116 0.13841
-0.10720 0.12453 0.11457
0.00274 -0.13356 0.13980
0.17107 -0.07217 0.11510
-0.11209 0.09096 0.11149
0.13597 0.15416 -0.10973
-0.00411 0.13633 0.12781
-0.09533 0.13258 0.05383
0.08061 0.14366 0.12785
0.16843 -0.28449 -0.15545
-0.11646 0.37507 0.04874
0.14374 0.15416 -0.06147
-0.14557 -0.15856 0.12889
0.14598 0.15416 -0.07142
-0.10323 0.22622 -0.09663
0.05645 0.09418 -0.15545
0.11175 0.13637 0.12785
-0.07649 0.13284 0.11457
0.17065 0.11829 0.09039
-0.11636 0.37401 0.07167
0.02884 0.08799 -0.12889
0.14409 -0.38411 -0.13852
0.16304 0.07904 0.12785
-0.10082 0.14973 0.12549
0.15316 -0.25701 0.15437
-0.10389 0.28360 -0.01951
-0.10712 0.26996 0.12458
-0.06940 0.15416 -0.13602
-0.01617 -0.14977 -0.12889
0.05788 -0.14595 0.15437
0.08629 0.14831 -0.15545
0.15737 0.08713 -0.01140
0.17065 0.10063 -0.14420
0.09884 0.14778 0.12781
-0.10744 0.32359 0.10970
0.16101 0.14973 -0.00270
-0.15990 -0.31564 -0.15341
-0.12957 -0.27581 0.13190
0.13848 0.14973 0.14756
0.16739 0.07735 -0.15545
0.10318 0.07901 0.14094
0.17065 0.01148 -0.15018
-0.15948 -0.31089 -0.14281
0.16369 -0.05847 -0.12889
0.14451 -0.08534 -0.12452
-0.10490 0.24502 -0.04309
0.17107 -0.04934 0.12891
-0.12552 0.07730 -0.13993
-0.10656 0.07901 -0.09414
-0.11407 0.34819 0.05563
0.17107 -0.08195 0.04237
-0.13842 -0.07018 -0.06323
0.02959 0.15416 0.15365
-0.12147 0.42647 -0.13059
-0.12615 0.18129 0.13756
-0.11209 0.37597 0.04325
-0.12799 0.19751 -0.15292
-0.11477 0.40613 -0.15034
-0.12083 0.42402 0.04859
0.05412 0.12327 0.12917
-0.14493 -0.25512 0.12889
-0.14807 0.43178 -0.03146
0.05105 -0.13356 0.12942
0.16377 0.12327 0.07935
0.15477 0.12327 0.12750
0.10153 0.12327 0.12389
-0.10919 0.34334 0.03272
0.14652 0.03111 0.15437
-0.09206 0.15416 -0.13192
-0.11033 0.35615 0.13580
0.17065 -0.26747 -0.14297
0.02176 0.12803 0.15437
0.07600 0.15416 0.10913
-0.11410 0.39862 0.09344
-0.12758 -0.07837 0.12889
-0.07330 0.14337 0.12785
0.17062 0.14657 -0.02365
-0.11289 -0.08198 -0.04936
-0.14064 -0.39915 -0.14078
0.03776 0.13052 0.12785
-0.10888 0.25471 0.12785
0.17065 0.09769 -0.03471
-0.11339 0.34056 -0.10552
-0.04723 0.14973 0.14763
0.03578 0.14973 -0.14431
-0.02383 0.12327 0.14902
0.14421 0.11063 -0.12889
-0.12726 0.18920 -0.13388
0.17107 -0.23966 0.14333
0.02891 0.11035 -0.15545
0.00049 0.15416 0.08236
0.12004 0.15416 0.02666
-0.13079 -0.17316 0.15545
0.12451 0.12327 -0.13547
-0.11034 0.12327 0.04126
-0.06940 0.15416 -0.00086
0.15218 -0.16662 -0.12889
-0.09624 0.19750 0.08572
-0.14155 0.44297 0.13764
-0.08257 0.14973 0.14003
-0.11810 -0.01918 0.15545
-0.13688 0.31581 -0.15545
0.14451 -0.07793 0.13064
-0.13439 0.43789 0.15441
-0.02885 -0.15555 -0.12889
0.07085 0.10900 -0.12889
-0.13870 -0.09167 -0.04351
0.14409 -0.15053 -0.15310
0.06470 0.09865 0.12785
-0.12221 0.13623 0.07362
0.16090 0.14973 0.02721
-0.09974 0.18301 0.14548
0.14453 -0.42730 -0.12889
-0.15088 -0.28418 0.12889
-0.11344 0.34111 -0.14559
-0.09642 0.19955 -0.11807
-0.09905 0.17031 -0.14743
-0.13652 -0.24418 0.15545
-0.12529 0.07661 0.13309
-0.12927 -0.06891 0.12889
-0.11320 -0.08550 0.07577
-0.11359 0.39280 0.12979
-0.12613 0.17620 -0.15402
-0.11209 0.08031 -0.07564
0.10865 0.15416 0.05443
-0.09881 0.11706 -0.07215
-0.10735 0.14973 0.11731
0.03556 0.13812 -0.15545
-0.10578 0.25484 0.06012
-0.05587 0.12894 0.12785
0.14451 -0.07560 0.11578
-0.10986 0.35089 -0.14731
-0.11613 -0.04964 -0.15545
-0.04495 -0.13521 0.15437
0.03771 0.12327 0.12406
-0.12125 0.42881 0.00266
0.17065 0.10057 0.09265
-0.10480 0.24391 -0.11912
-0.09894 0.14973 0.06763
0.17065 -0.18507 -0.14003
-0.10018 0.24189 0.13887
-0.11588 0.36859 0.01219
0.17107 -0.37619 0.14938
-0.16101 -0.33160 0.13157
-0.12005 0.41552 -0.14094
-0.13751 0.44297 0.04396
-0.10237 0.03826 -0.13087
-0.10548 0.30149 -0.12910
0.02453 0.15416 0.01362
0.15737 0.08856 0.04337
-0.13892 -0.07590 -0.15370
-0.09468 0.18001 -0.06416
-0.09881 0.08504 -0.06412
0.07255 0.15416 -0.02400
0.17065 -0.19866 -0.15094
0.11858 0.14289 0.15437
0.08349 0.12327 -0.14939
0.14718 -0.11379 -0.15545
-0.01876 -0.15460 0.15437
-0.01404 0.12327 -0.14473
0.02280 0.12899 0.11457
-0.11209 0.11948 0.09494
-0.09769 0.16378 -0.07404
-0.12175 0.43457 0.03770
-0.04562 -0.13356 -0.14353
-0.09330 0.16447 0.12021
-0.13567 0.29013 0.14402
-0.13805 -0.06594 -0.15163
0.14904 0.12534 0.15437
-0.03136 0.07901 -0.14567
0.00510 -0.13825 0.12781
-0.03235 -0.13425 -0.12889
0.01273 0.10027 0.12785
-0.13546 0.44297 0.12116
-0.10647 0.26266 0.09507
-0.13409 0.41704 0.04086
-0.10118 -0.16002 0.14227
-0.14416 -0.13572 -0.14333
0.08415 0.15416 0.07962
-0.10491 0.24510 -0.05016
-0.16976 -0.42841 -0.13119
-0.13569 0.41697 -0.05810
-0.13359 -0.14711 -0.15545
-0.07308 0.13523 -0.12884
-0.10419 0.19432 0.15441
0.00766 0.15416 -0.02276
0.10128 0.14761 -0.15545
-0.13072 -0.09167 0.04535
0.17107 -0.05174 0.14208
-0.12140 -0.18246 0.13072
0.17065 0.10895 0.05196
0.14451 -0.04660 0.13214
-0.09881 0.10492 0.08823
-0.06097 0.08962 -0.15545
-0.08753 0.12327 0.14656
0.16960 0.12327 -0.14033
0.16627 -0.35875 0.12781
-0.14490 0.44297 0.07320
-0.04191 0.10349 0.15441
0.15722 0.14430 0.07691
0.01717 -0.16002 -0.15101
0.16801 0.15416 0.00097
0.00032 0.14367 -0.11557
0.16872 -0.06616 -0.08029
0.17107 0.03222 0.13839
-0.11651 0.37573 0.13980
-0.14120 0.34844 -0.14806
-0.13495 0.33946 -0.12889
-0.12562 0.44297 0.07670
-0.07330 0.15416 -0.00736
-0.11812 0.39380 -0.11353
-0.10654 0.07901 -0.08898
-0.09389 0.17107 0.05986
-0.16168 -0.40438 0.15545
-0.12171 0.43417 0.00980
-0.12681 0.18881 0.15401
-0.09668 0.14805 0.15142
0.16357 0.09317 -0.15545
-0.11558 0.01443 -0.15545
-0.14888 0.44297 0.10364
0.11552 0.14973 -0.14101
0.14409 -0.41701 -0.15299
-0.12040 0.41912 0.14752
-0.09662 0.20184 -0.07592
-0.11209 0.08790 0.12785
-0.12838 0.41183 -0.15545
-0.10480 0.24390 0.09172
0.02244 0.11421 0.12785
-0.11861 0.39380 -0.15373
0.14451 -0.02111 0.14661
-0.11941 0.02878 0.12889
-0.11056 0.12327 0.05438
0.16329 -0.13969 0.15437
-0.09910 0.17969 0.09401
-0.12438 0.09028 -0.15350
-0.11254 -0.07795 0.08352
0.15387 -0.05154 0.15437
-0.13758 -0.36741 0.14073
-0.09530 0.07901 0.14866
0.13483 0.14973 0.11565
0.16502 0.12327 0.12060
-0.12495 -0.07317 0.12896
0.08918 -0.14272 0.12781
-0.13834 0.31585 -0.13480
-0.11757 0.38762 -0.14943
-0.10140 0.20193 0.13640
-0.09999 0.23977 -0.06902
-0.07467 0.07901 -0.14480
-0.10252 0.26825 0.10596
-0.12260 0.14073 0.11703
-0.10119 0.25331 -0.09229
0.14451 -0.01222 0.14763
-0.11413 0.39897 -0.04729
0.06465 0.14973 0.13551
-0.09860 0.17402 0.15282
-0.12226 0.44035 0.00978
-0.10270 0.08839 -0.12889
-0.15240 -0.36433 0.15545
-0.04683 0.15416 0.04357
-0.12260 0.14072 -0.08178
-0.13981 -0.08604 0.06715
-0.04110 0.11709 -0.15545
-0.02313 0.12327 -0.15255
0.17107 -0.07301 0.10090
0.16774 -0.07266 0.12781
-0.11266 0.03139 -0.15545
-0.09838 0.17156 -0.01102
-0.11679 -0.06521 -0.09857
0.14722 0.06300 0.12781
0.03284 0.14973 -0.12251
0.09640 0.09336 -0.12889
-0.02119 0.15416 0.03263
-0.09724 -0.13356 -0.14178
0.16624 -0.22185 -0.12889
-0.12579 0.31168 0.15441
-0.12274 0.14230 -0.02998
-0.10192 0.21148 0.11458
-0.09418 0.17435 -0.05512
0.15867 -0.15823 0.15437
-0.11560 -0.11613 0.13616
-0.16158 -0.41754 0.12889
0.16828 -0.11802 -0.12889
-0.12587 0.17332 -0.13098
0.07311 -0.16002 0.12834
0.07142 0.13220 0.12781
-0.00907 -0.14574 0.12781
-0.10308 0.22449 -0.01429
-0.00961 0.15416 -0.08994
-0.09676 0.20340 0.07094
-0.11733 0.11222 0.12889
-0.11215 0.32663 0.11968
-0.02869 0.13301 -0.12884
-0.12906 0.24510 -0.12889
0.16190 -0.09151 -0.02719
-0.09590 0.13902 0.02553
-0.11800 0.44248 0.04601
-0.11431 0.40096 0.01915
0.16412 0.14973 0.07031
-0.10049 0.19537 0.04825
-0.09383 0.17045 0.07458
-0.11265 -0.07922 -0.13456
0.15737 0.09006 -0.02979
-0.14541 0.44297 0.08317
-0.10604 0.25782 -0.13744
-0.04820 0.07901 -0.13493
-0.11152 0.31952 -0.02972
-0.14904 -0.20643 -0.12889
0.17107 -0.08206 -0.10107
-0.11040 0.30691 -0.02447
0.15737 0.11583 -0.06874
-0.12141 -0.06521 -0.08385
0.09316 0.12327 0.11976
0.06931 0.10154 0.12785
-0.07775 0.15416 0.10354
0.17065 0.01768 -0.12903
-0.11299 0.33600 -0.14788
-0.11428 0.40060 -0.01058
0.17065 0.03604 -0.14408
-0.07626 0.15416 0.02261
-0.11355 0.39236 0.08436
0.14451 -0.09519 0.13806
-0.11668 -0.13356 0.13039
-0.09849 0.17287 0.07245
-0.09824 0.22008 -0.10822
0.15969 0.07901 0.03366
-0.14561 -0.15555 0.14997
-0.09881 0.09136 0.02827
-0.10688 -0.01644 0.15331
0.06923 0.12739 0.12785
-0.05920 0.15416 -0.05600
0.13640 0.13340 -0.12889
-0.10669 0.26519 0.08249
0.16109 -0.38500 0.15437
-0.14724 0.42233 0.13893
0.01897 -0.15258 0.15437
-0.11665 0.42731 -0.06566
-0.10116 0.20286 -0.14173
-0.11209 0.11435 0.09196
-0.10397 0.28454 -0.03390
-0.14911 -0.34157 0.12889
-0.12469 0.27141 0.12785
-0.10403 0.28526 -0.12434
-0.10707 0.26943 -0.08930
-0.10842 0.28456 -0.06804
-0.11003 0.35274 -0.04178
-0.13169 -0.30008 0.14758
-0.01327 0.07901 -0.13177
-0.00139 0.15416 0.10807
0.00126 0.10138 -0.15545
0.15078 0.15416 -0.06735
-0.16296 -0.35071 -0.14635
-0.11749 -0.04827 -0.12889
-0.11538 0.12407 0.12785
-0.05851 0.15416 -0.11965
0.14986 0.12327 0.14752
-0.09109 -0.14767 -0.15545
0.12483 -0.15107 0.15437
-0.12463 -0.14399 -0.12889
-0.13434 -0.32253 0.15545
-0.11534 -0.02493 0.15545
-0.12306 0.14597 0.04039
0.17065 0.08105 0.11836
-0.09407 0.14313 -0.12889
0.00147 0.13334 -0.12889
-0.11246 0.33006 0.01620
-0.10371 0.28163 0.00964
-0.11829 -0.14364 -0.15515
-0.10733 0.32239 -0.14741
0.16436 -0.33498 -0.15545
-0.10975 0.29743 0.14765
-0.11905 -0.15562 0.13375
-0.04889 -0.14903 0.12781
0.11341 -0.16002 0.13829
0.14451 -0.08943 0.03273
-0.00014 0.15416 -0.07230
-0.10142 0.25580 0.04873
0.14451 -0.00586 0.13794
0.00982 0.12649 -0.11557
-0.00453 0.10502 0.12785
0.06365 -0.14429 -0.15545
-0.11600 0.09904 0.12889
0.00712 0.14973 -0.14264
-0.12202 0.13410 -0.09456
-0.16170 -0.33629 -0.14509
-0.14164 -0.10699 -0.13003
-0.13503 -0.06521 -0.09747
-0.11586 -0.11914 0.15185
-0.10768 0.32632 0.06910
0.13522 0.15416 -0.14111
-0.11325 -0.08460 -0.15545
0.15737 0.08507 -0.08252
0.17076 0.13098 0.02259
0.17065 -0.03730 -0.13714
-0.12041 0.02478 -0.12889
0.04579 -0.13428 0.12781
-0.12322 -0.13608 -0.15545
0.01907 0.15416 0.14596
0.17057 0.14725 -0.03802
-0.07545 0.14973 0.14381
0.14409 -0.17680 -0.13095
-0.10832 0.33347 0.13589
-0.11010 0.35353 0.15354
-0.09849 0.15466 0.12785
-0.10613 0.30884 -0.07644
-0.12235 0.13783 -0.10288
0.15970 -0.21343 0.12781
0.14409 -0.43592 -0.13817
-0.09683 0.15054 -0.07875
0.15737 0.09847 -0.07998
0.15060 -0.09151 0.03651
-0.04272 0.14668 0.12781
0.16203 0.12567 0.12783
-0.09463 0.17942 0.13805
0.06743 0.07935 -0.12889
0.15704 -0.42503 0.12781
0.13305 0.09954 -0.12889
-0.10729 0.27184 -0.13845
0.13397 0.15416 0.12642
0.02346 0.09418 -0.12889
0.09099 0.07996 0.12785
0.15936 -0.09151 -0.01827
-0.04108 0.15416 0.09865
-0.13864 0.31925 -0.14156
0.16913 0.04069 0.12781
-0.11957 0.41013 -0.08861
-0.09655 -0.14314 0.15437
0.15913 -0.07532 0.12781
0.14451 -0.06710 0.02223
0.08761 0.14688 -0.12889
-0.11184 0.37309 0.02744
-0.09752 0.09376 -0.13306
0.16262 -0.26053 -0.12889
0.04886 0.15416 0.03126
-0.06936 0.14973 0.14819
-0.10084 0.24931 -0.00009
0.11980 0.09244 -0.15545
-0.10883 0.14047 -0.12884
0.15737 0.09090 0.10336
-0.10330 0.12327 -0.06635
0.14226 0.15416 0.12354
-0.09881 0.11753 0.10876
-0.09449 0.17786 0.04034
