-0.25864 -0.00500 -0.01501
-0.26396 -0.17454 0.03337
-0.18727 0.22590 0.00146
-0.26396 -0.06844 -0.00039
0.24287 -0.18535 -0.06435
0.23234 -0.28112 0.04812
-0.25864 0.25356 -0.14807
-0.20984 0.31024 -0.07748
-0.26396 -0.07464 -0.05691
-0.15778 0.05326 0.00337
-0.21372 -0.05002 -0.00443
0.23961 0.03100 -0.03209
-0.25864 0.20600 0.13148
-0.11731 0.03115 -0.10016
0.02286 0.03647 0.17522
-0.25864 -0.01297 -0.11617
0.21481 -0.09488 0.00000
-0.25864 0.14729 0.11893
0.19740 0.03115 0.02902
-0.11176 0.03647 0.03859
-0.24744 -0.09534 -0.00443
0.25335 -0.09013 -0.10836
0.21111 -0.05893 0.00098
-0.18202 0.20007 0.13445
-0.25864 0.03604 0.03805
-0.26396 0.21910 -0.03815
0.07348 0.03115 0.10257
-0.20616 0.29215 -0.16749
0.23074 -0.24701 -0.07547
-0.25864 -0.12080 0.05599
0.21415 -0.35697 -0.09510
-0.11740 0.03647 -0.15905
-0.25864 -0.10433 -0.14183
0.23265 -0.22966 0.14267
0.22182 -0.32808 -0.08816
0.10918 0.03647 0.08300
0.02863 0.03647 0.14224
-0.12764 0.03115 -0.08973
-0.26396 0.24973 0.06475
0.26009 -0.02892 -0.02236
-0.25864 -0.11822 -0.10627
0.01217 0.03115 0.06625
-0.25864 0.21822 -0.03991
0.23965 0.03503 0.18288
-0.26396 -0.32764 -0.03091
0.13672 0.03115 -0.02024
-0.26396 -0.14128 -0.12996
-0.25864 0.22624 -0.16375
0.19079 0.02063 0.00000
0.15443 0.03115 -0.11090
-0.17401 0.13398 0.02795
-0.26396 0.21449 -0.06911
-0.25864 -0.08762 0.11430
-0.00855 0.03647 -0.02825
-0.26396 0.20300 -0.13967
-0.25864 0.21457 -0.05238
-0.05445 0.03647 -0.13853
0.10708 0.03647 0.01059
-0.25864 -0.19298 0.15926
-0.26396 -0.17497 0.13592
-0.26396 0.16670 -0.04682
0.23034 -0.29931 0.18151
-0.15348 0.04023 0.15462
-0.26396 0.19259 0.07613
-0.08574 0.03647 0.01576
-0.25864 -0.04064 0.10741
-0.17598 0.14366 0.00740
0.25126 -0.06058 -0.13050
0.14431 0.03115 0.01227
0.25775 -0.05014 0.09860
-0.25864 -0.20000 -0.01815
-0.20057 0.29134 0.09529
-0.26396 0.32972 0.05250
-0.25864 0.02466 0.02839
0.23353 -0.27032 0.15636
0.23548 -0.20391 0.00499
-0.26269 -0.33021 0.17722
-0.26395 0.33332 0.15883
-0.17163 0.14897 -0.03379
0.24966 -0.07505 0.02944
-0.16771 0.12967 0.06221
-0.26396 -0.22306 -0.12945
-0.25864 0.04055 -0.12739
-0.25310 -0.11815 0.00000
-0.25864 0.10106 0.10752
-0.07760 0.03115 -0.01316
-0.16364 0.08295 -0.16420
-0.17103 0.14602 -0.02942
-0.25381 -0.36229 -0.09730
0.26391 0.00565 -0.08191
0.24118 -0.20077 0.16630
-0.15392 0.04096 -0.07160
-0.26396 -0.01378 0.09439
0.25513 -0.02533 0.12106
0.21236 0.03647 0.00527
-0.26396 -0.18984 0.11359
-0.20190 0.27121 0.03549
-0.25864 -0.28064 -0.02886
0.25298 -0.04488 0.08547
0.23160 -0.23922 0.12242
0.24549 -0.11296 0.07876
-0.26396 0.20709 0.03490
0.22729 -0.27840 -0.11406
0.21700 -0.15133 0.00000
0.22027 -0.36229 -0.01391
-0.24324 -0.12290 0.00443
0.23273 -0.27753 -0.04105
-0.17088 0.11859 0.11762
0.21767 -0.36229 0.15295
-0.25864 0.32278 0.11854
-0.21464 0.33388 0.04801
-0.21403 0.33088 0.07158
-0.25864 -0.15917 -0.10693
0.24970 -0.07468 0.04535
-0.17543 0.16768 0.12804
0.23064 -0.24795 -0.12000
0.13551 0.03115 -0.04469
-0.25864 0.27032 0.02205
0.22823 -0.27076 0.00379
-0.03148 0.03647 0.04862
0.21103 0.03647 0.08782
-0.26396 0.20509 0.09630
-0.02532 0.03115 0.08878
-0.04727 0.03647 -0.10145
0.21938 -0.17149 -0.00443
-0.02480 0.02474 0.00000
0.22839 -0.31697 0.12476
0.24752 -0.09448 0.06276
0.22961 -0.14800 -0.00443
-0.25864 0.29391 0.09517
0.21116 -0.16508 -0.00038
-0.11165 -0.00375 -0.00007
0.24434 -0.17206 0.02289
-0.26396 0.25613 -0.03807
-0.24745 -0.36032 -0.09104
-0.23021 -0.06381 0.00443
0.12884 0.03647 0.13874
-0.25864 -0.00534 0.13095
0.24359 -0.13022 -0.11099
0.24020 -0.20964 -0.12866
0.11120 0.03115 0.14950
0.24826 -0.08778 -0.00755
-0.23670 0.36222 0.06091
-0.25882 -0.36229 -0.17050
-0.26396 -0.02153 -0.13076
0.26379 0.00954 0.01717
-0.19108 0.21795 0.00537
0.24426 -0.17278 -0.04632
-0.25864 -0.04037 0.01982
-0.16348 0.08131 -0.00186
0.24724 -0.09707 0.13514
-0.01509 0.03115 0.06960
0.24408 -0.12577 0.11835
0.24922 0.02533 0.00128
-0.16181 0.07394 -0.12024
-0.16170 0.07343 0.16159
-0.26144 0.30155 -0.17722
-0.18179 0.17226 -0.11416
-0.25864 0.27304 -0.13879
-0.26396 0.33084 -0.02450
-0.25864 -0.35122 -0.17369
0.26226 -0.00918 -0.05941
-0.26396 -0.12677 0.10433
0.23218 -0.23392 0.06069
0.22616 -0.33728 0.02718
-0.16000 0.01505 -0.00443
-0.19861 0.25502 0.11379
0.24372 -0.17763 -0.12144
-0.26396 0.10522 0.15980
-0.16162 0.07302 -0.09975
-0.26396 -0.19933 0.13544
0.25233 -0.05076 0.18400
-0.26396 -0.13165 -0.10382
-0.01245 0.03647 -0.06676
-0.02881 0.03115 -0.03256
-0.25864 -0.28576 -0.00487
-0.25008 -0.26623 0.00443
0.21768 0.03115 -0.01608
-0.18800 0.20282 0.03334
-0.18831 0.23102 -0.15782
-0.25056 0.35194 -0.10935
0.24422 -0.17311 0.09151
-0.26396 0.11914 0.06186
-0.25864 0.08950 0.01941
-0.25864 0.17793 0.11118
-0.26396 0.29504 0.09785
-0.26396 0.25917 -0.06109
-0.25864 0.20760 -0.04539
-0.02786 0.03027 0.00118
-0.18956 0.23719 0.15117
0.08161 0.03115 -0.07443
0.25743 -0.05303 0.00501
-0.09864 0.02865 0.00443
-0.26396 0.24528 -0.13222
-0.25864 0.16270 -0.13594
-0.25864 0.10687 0.12426
-0.20759 0.32590 -0.12331
-0.25864 0.19987 -0.02932
0.25527 -0.07264 0.14484
-0.25864 0.21750 -0.13293
0.21702 -0.19575 0.00000
0.14003 0.03115 -0.06035
-0.25864 -0.24474 -0.11051
-0.25864 -0.13983 0.13949
0.25860 0.00479 0.00229
0.24450 -0.12197 -0.03734
-0.18771 0.22807 -0.16373
-0.26396 0.18979 0.02453
-0.25864 -0.03899 -0.00287
-0.19960 -0.04258 0.00443
0.23611 -0.19824 -0.07962
-0.22962 0.35544 0.16840
0.23366 -0.26911 0.18813
0.06495 0.03115 -0.02446
-0.00142 0.03115 0.16493
0.23063 -0.29661 -0.14370
-0.19647 0.27117 -0.08210
-0.26396 0.05246 0.15448
0.13982 0.03115 0.18953
-0.26396 -0.06875 -0.12037
-0.16212 0.07548 0.04598
-0.25864 -0.12746 0.07687
-0.19365 0.23062 0.13159
-0.26396 -0.20332 0.16861
0.23300 -0.27508 -0.03150
-0.26396 -0.35163 0.00962
-0.26396 -0.12040 -0.17669
0.25788 -0.04895 -0.06379
0.10943 0.03647 -0.14767
0.23792 -0.18264 0.00300
0.24851 -0.13412 -0.04299
-0.26396 0.14767 0.04730
-0.00092 0.03115 0.05789
0.23542 -0.20454 -0.16001
0.22563 -0.06376 0.00000
0.25860 -0.04246 -0.15074
-0.26396 -0.16080 0.05786
-0.25864 0.29666 0.11705
-0.19337 0.25594 0.09891
-0.20728 0.32436 0.04421
-0.26396 0.09961 -0.16135
-0.26396 0.07356 0.02356
0.23111 -0.24369 -0.02458
0.24704 -0.09887 0.18359
-0.18171 0.17184 -0.03924
-0.26396 -0.21919 -0.16771
-0.25430 -0.35697 -0.13647
-0.21021 0.33877 -0.06290
0.22743 -0.27711 0.09018
0.22626 -0.33633 0.05676
-0.07628 0.03647 0.04096
0.21638 -0.01801 -0.00443
-0.25864 0.14613 -0.03359
-0.24193 0.36188 0.06473
0.25786 -0.00057 0.15757
-0.25654 0.34438 0.06407
-0.26178 0.34619 0.15811
-0.14329 0.03233 -0.09036
0.15159 0.03115 -0.03671
0.07678 0.03115 0.12688
-0.16811 0.04289 -0.00443
-0.26396 -0.02163 -0.14401
-0.26287 -0.10372 -0.17722
0.25517 -0.02495 0.03678
0.23581 -0.20098 0.09113
-0.07255 0.03647 -0.07899
-0.25864 -0.25389 0.08609
-0.24620 -0.01554 -0.00443
-0.25864 0.16207 0.11023
-0.26396 -0.10564 -0.03695
-0.25864 0.18491 0.08916
-0.26396 0.25766 0.13725
-0.25864 0.11463 0.04934
-0.25864 -0.33740 0.07919
0.22921 -0.30956 0.16804
0.22608 -0.33803 0.13150
-0.25864 -0.27652 -0.00543
-0.20549 0.31555 -0.13540
0.04508 0.03115 -0.08559
0.26046 -0.02549 -0.01448
-0.25864 -0.30558 -0.03712
-0.25864 -0.22016 0.11221
0.25828 0.00012 -0.20955
-0.19235 0.25091 0.14394
-0.25864 -0.21038 0.05055
-0.07998 0.03647 -0.05116
0.23674 -0.24113 0.04392
-0.25864 0.22463 0.03575
0.24605 -0.10790 0.15638
0.03639 0.01326 -0.00100
-0.26396 0.19929 -0.17580
0.05761 0.03647 -0.05549
-0.04542 0.03115 -0.06207
0.18057 0.03647 0.09137
-0.26396 0.02935 0.08518
-0.26396 -0.14410 0.07497
0.24077 -0.20446 0.02915
0.22562 -0.29352 0.17035
-0.26396 -0.04049 0.03957
-0.04680 0.03647 0.10600
0.26323 0.01318 -0.09435
-0.17384 0.01197 0.00443
-0.20468 0.28489 0.07663
0.23214 -0.28293 -0.13896
-0.21729 0.34378 -0.14663
-0.26396 0.11674 -0.12229
-0.26396 0.30722 -0.03883
-0.25864 -0.13144 0.11447
0.26024 -0.02754 -0.04480
-0.02234 0.03115 0.16261
-0.26396 -0.31791 -0.02040
-0.19870 0.28212 -0.16397
-0.23910 -0.23908 0.00000
-0.12896 -0.00967 0.00443
-0.26396 0.08096 0.10629
-0.26396 -0.13112 -0.01214
-0.26396 -0.03955 -0.10930
0.10972 0.03647 0.13103
-0.25864 0.33375 -0.10546
-0.22720 -0.01776 0.00330
0.22772 -0.32306 -0.02934
-0.17767 0.15197 0.17609
-0.26396 -0.34165 0.16693
0.20006 0.03647 0.13668
0.08608 0.03115 0.16100
-0.19906 0.25723 0.04087
0.25612 -0.01631 -0.12165
0.22016 -0.34323 0.07070
-0.25864 0.17551 -0.01435
0.24765 -0.09334 -0.00427
-0.19163 -0.03222 0.00443
-0.20413 0.30887 0.04631
0.01141 0.03115 -0.18430
0.26260 -0.00607 0.14471
0.23677 -0.24083 0.00493
0.23836 -0.17779 0.16128
-0.20542 0.28850 -0.12552
-0.15637 0.07390 -0.01064
0.07247 0.03647 -0.00483
0.24093 -0.20301 -0.12561
-0.02674 0.03647 0.08257
-0.15120 0.04842 -0.08813
-0.25864 0.19920 -0.04299
-0.25864 0.04654 -0.04756
-0.26396 0.18967 -0.05540
-0.17356 0.13178 -0.04149
0.23724 -0.23655 0.03741
-0.25864 0.23958 -0.13131
-0.25864 0.21360 0.07997
0.26010 0.02142 0.09293
0.15070 0.03647 0.13807
0.24521 -0.11552 -0.05876
-0.26396 0.14142 -0.17187
-0.26396 0.28137 -0.04669
-0.25864 -0.20101 0.04712
0.22143 -0.36229 -0.13024
0.25826 0.00242 0.03594
-0.26396 0.10321 -0.14799
0.00569 0.03115 -0.07456
0.22379 -0.31024 0.08418
0.03467 0.03647 0.19576
0.23977 -0.16501 0.08308
0.15343 0.01546 0.00443
0.23533 -0.25387 0.01551
-0.08891 0.00509 -0.00443
-0.12337 0.03115 -0.12681
0.23666 0.03647 -0.19843
-0.25864 -0.15327 0.10743
0.22396 -0.23360 -0.00443
0.25059 0.02511 -0.13947
-0.12132 0.03647 -0.00559
-0.19284 0.22660 -0.13494
-0.26396 0.26948 0.14647
-0.26396 0.11140 0.09324
-0.26396 -0.04779 -0.17381
0.23419 0.03115 0.10541
-0.15659 0.04773 -0.05619
-0.25864 0.07933 -0.06186
0.02199 0.03115 0.14611
0.00050 0.03647 -0.17831
0.25446 -0.03142 -0.13861
-0.24805 0.36001 0.17474
-0.26325 0.34133 -0.08848
0.24114 -0.19208 0.19791
0.19923 0.03647 0.15611
-0.25864 0.03607 -0.16676
0.22171 -0.32909 0.10210
0.24058 -0.06223 0.00443
-0.26396 -0.00521 -0.02580
-0.17482 0.16464 -0.17133
-0.26396 0.07375 -0.01239
0.00867 0.03115 -0.14646
-0.06535 0.03647 0.09731
-0.26396 0.01629 0.08574
-0.24078 0.35642 -0.12943
0.16626 0.03115 -0.08864
-0.18942 0.20981 0.01875
0.02788 0.03647 0.05358
0.23518 -0.20669 0.14902
0.12568 0.03647 0.03490
0.17044 0.03647 0.01135
0.22515 -0.14043 -0.00443
0.23874 -0.22292 0.18897
-0.25864 0.11252 -0.17309
0.18049 0.03115 -0.20530
-0.26396 0.02736 0.07351
0.08390 0.03647 -0.15949
-0.19156 0.22033 -0.12721
-0.17579 0.14275 -0.01923
-0.19929 0.25837 -0.08411
-0.01307 0.03647 0.05064
-0.25864 0.09414 0.01522
-0.25864 0.00059 0.13692
0.23347 -0.27087 -0.13686
0.08592 0.03647 -0.03205
0.01129 0.03647 -0.14583
0.18628 0.01078 0.00000
-0.05107 0.03115 -0.00140
0.22829 -0.26931 0.16947
-0.26396 0.17225 0.14746
-0.03976 0.03647 0.05434
-0.25864 0.32822 0.08145
-0.19318 0.25497 -0.07860
-0.24522 -0.19363 0.00443
-0.26396 -0.28463 -0.17164
-0.19520 0.23824 -0.12200
0.23911 -0.17093 -0.19928
0.01783 0.03647 0.01805
-0.26396 -0.15610 -0.03829
-0.21673 0.35309 -0.00892
-0.25864 -0.29630 -0.14050
0.23575 -0.25011 -0.12806
-0.20185 0.27096 0.06855
-0.26396 -0.05765 0.04055
-0.18196 0.04776 0.00000
0.24163 -0.14807 0.07013
-0.26396 0.06115 0.05223
0.17452 0.03647 -0.11506
-0.20725 0.32423 0.01823
-0.21699 0.34305 0.14045
-0.25864 -0.16233 0.06988
-0.26396 -0.22778 -0.13780
0.26029 -0.02703 -0.21108
0.24532 -0.11452 0.01705
0.23062 -0.24813 -0.05534
0.20237 0.03115 -0.21614
0.24120 0.03604 0.17201
0.15528 0.03647 -0.20874
-0.21351 0.32831 -0.13116
-0.23295 0.36193 0.17044
0.01465 0.03647 0.07568
-0.06897 0.03115 -0.16483
-0.25864 -0.05203 0.10778
-0.16778 -0.04130 0.00000
-0.17754 0.15137 -0.02772
-0.01856 0.03647 -0.08820
-0.01179 0.03647 0.10170
0.26325 0.01310 -0.20967
0.14455 0.03647 0.04791
-0.17415 0.13467 0.10038
0.24277 -0.18463 -0.19892
0.23915 -0.21916 0.18527
-0.17083 0.11834 0.04581
0.25291 0.02266 -0.00329
0.23673 -0.24122 0.12413
-0.09026 0.02806 0.00443
0.23502 -0.20809 -0.15570
0.25993 -0.03029 0.00089
0.25545 -0.07107 -0.08018
-0.26396 0.19863 0.05388
0.25859 0.00523 -0.07259
-0.26396 -0.03371 0.08187
0.10578 0.03647 0.16330
-0.19571 0.24074 -0.05062
-0.26396 -0.04018 0.17007
-0.02253 0.03115 0.10542
0.22811 -0.31957 0.04965
0.02981 0.03115 -0.10754
-0.26396 -0.01040 -0.15143
-0.21063 0.31416 0.07909
-0.12897 0.03647 0.17079
0.25996 0.02166 -0.13095
0.02770 0.03647 -0.02072
0.22547 -0.34356 -0.11987
-0.25864 -0.30139 -0.00651
0.22200 0.03647 -0.09939
-0.26396 -0.33681 0.13506
-0.25864 0.08617 -0.06981
-0.26396 0.04909 0.07376
0.09292 0.03296 -0.20430
-0.06563 0.03647 -0.17422
-0.26396 -0.27663 -0.03037
0.23233 0.03647 -0.05088
0.23598 -0.19937 0.01790
-0.26396 -0.21131 0.12760
-0.26396 0.21938 0.04824
-0.15804 0.05540 0.06043
-0.25864 0.06722 -0.02292
-0.20362 0.27967 0.11051
0.24661 -0.10282 0.03830
-0.19243 0.22461 -0.03641
-0.16564 -0.02421 -0.00443
-0.18967 0.23770 0.04807
0.22985 0.00097 -0.00443
-0.09212 0.02869 -0.00443
-0.17048 0.11660 -0.06313
-0.18078 0.16728 -0.16914
0.03441 0.03647 0.17426
-0.24799 -0.35697 0.13407
-0.25864 -0.08673 0.12716
-0.19877 0.28249 -0.01675
-0.25864 0.10147 -0.02114
-0.19648 0.24451 -0.09417
-0.25864 0.16446 0.14837
-0.25864 -0.14385 0.14612
0.17418 0.03647 0.02065
-0.26396 0.06156 -0.02645
-0.26396 -0.31156 -0.08952
0.02146 0.03115 -0.18940
-0.02215 0.03115 0.13657
-0.20509 0.31358 0.16397
0.22822 -0.26993 0.18623
0.20941 -0.36229 -0.03971
-0.17887 0.18460 0.00077
-0.25846 0.33690 -0.03012
0.04549 0.02066 0.00000
0.24669 -0.10206 -0.10937
-0.25864 -0.21943 0.12874
0.24916 0.03270 0.01764
-0.26396 -0.25207 0.17497
-0.21424 0.34950 0.06026
0.13076 0.03647 0.02436
0.24726 0.02765 -0.17816
0.23011 -0.30141 0.14851
-0.26396 -0.13088 -0.14791
-0.26396 0.29779 0.02825
-0.26396 -0.03430 -0.03986
-0.19531 0.26546 -0.14419
-0.25864 0.15177 0.10241
0.09522 0.03647 0.12911
0.03609 0.03647 -0.19563
-0.17055 0.11695 -0.10813
0.23764 -0.18433 0.17372
-0.26396 0.28122 -0.17570
-0.25864 -0.15402 -0.12887
-0.25864 0.07823 -0.11795
0.26321 -0.00049 0.21877
-0.16166 0.07320 -0.11364
-0.11787 0.03647 0.04893
-0.17857 0.18310 0.07734
0.23241 -0.23182 -0.10641
-0.25864 0.02352 0.14352
0.00904 0.03115 0.16749
-0.17495 0.13861 -0.05371
-0.11364 0.03647 0.05341
0.23028 -0.29979 -0.17458
-0.20176 0.29719 0.02181
-0.14208 0.03196 -0.02455
-0.25864 -0.14620 -0.06917
-0.20147 0.29579 0.07877
-0.15277 0.05619 0.14492
-0.26396 -0.31506 0.14794
-0.17385 0.15987 0.02550
-0.25864 0.17200 -0.13088
0.25860 0.00811 0.09502
-0.21198 -0.03723 0.00000
-0.20380 0.28052 0.04008
-0.26396 -0.01363 -0.01636
0.24936 -0.05727 0.00000
-0.17578 0.14271 0.13804
0.15432 0.03647 -0.00012
-0.16036 0.06682 -0.04268
-0.18240 0.17528 -0.09082
-0.25864 -0.16692 -0.05102
0.16295 0.03647 0.04305
0.25634 0.02679 0.13621
-0.19555 0.26665 0.16554
-0.25864 -0.27883 -0.04474
-0.06787 0.03647 0.00699
-0.21996 -0.12008 0.00167
0.20082 0.03115 -0.02432
0.21653 -0.08341 0.00443
0.22919 -0.26110 -0.06621
-0.26396 0.21922 0.15653
0.24359 0.01378 0.00000
-0.18767 0.22788 0.15185
0.23379 -0.21935 -0.15280
-0.25864 -0.13678 0.16033
-0.23102 0.02334 0.00000
-0.25864 0.07347 -0.12738
0.14324 0.03647 -0.06202
0.22987 -0.12380 0.00000
0.08561 0.03647 0.18975
-0.01963 0.03115 -0.11849
-0.26396 -0.25033 -0.09454
0.25393 -0.08483 0.15322
0.22666 -0.28408 0.06689
0.21985 -0.26130 0.00443
-0.18529 0.18948 -0.09619
-0.20514 0.31384 0.06109
0.24188 -0.19438 0.01615
-0.26396 0.32056 0.02296
-0.18912 0.23499 -0.04104
0.24986 -0.07323 0.14631
-0.24994 0.35890 -0.01699
0.25942 -0.03498 -0.00479
0.23875 -0.17428 -0.10058
0.06190 0.03115 -0.14228
-0.26396 -0.08936 0.11681
0.11912 0.03115 -0.03757
-0.26396 0.27948 0.01119
0.23965 0.03381 0.04694
-0.15693 0.07667 -0.15629
0.25770 -0.00202 -0.01974
0.09730 0.03115 0.07792
-0.24841 -0.00425 0.00000
-0.01690 0.03312 -0.19162
0.24473 -0.16852 -0.07157
0.20377 0.03647 -0.00024
-0.18692 0.22421 -0.03189
-0.12724 -0.00021 0.00000
-0.25864 -0.20579 -0.00730
-0.26396 0.29115 0.13508
0.10329 0.03115 -0.06263
-0.25864 -0.19498 -0.10558
0.24079 0.03065 -0.10533
-0.26370 0.33924 0.04757
-0.25864 -0.13050 0.13118
0.22261 -0.32090 0.06072
-0.26396 -0.34284 -0.10841
-0.14403 0.03861 -0.12285
-0.13445 -0.01332 0.00000
-0.26396 0.09441 0.04637
-0.26396 0.24262 -0.16271
0.23094 -0.29386 0.17289
-0.25864 0.01208 0.11388
-0.25864 0.02839 0.06284
0.23665 -0.24196 0.11801
-0.26396 0.25955 -0.07646
-0.24027 0.01593 -0.00443
-0.25864 -0.33343 0.14492
-0.20758 0.29911 0.08575
-0.26396 0.08415 -0.07658
-0.26396 -0.05118 -0.11520
-0.25864 0.24549 0.10029
0.09019 0.03115 0.06373
-0.25864 0.02100 -0.16856
-0.11799 0.03027 -0.00319
-0.25864 0.17023 -0.10108
0.11789 0.03115 0.08130
-0.08793 0.03216 0.18332
-0.18657 0.22249 -0.05401
-0.25864 0.17873 -0.00992
-0.18583 0.21882 -0.11262
-0.25864 -0.07443 0.08035
0.25325 -0.04247 0.15940
0.24819 -0.08839 0.20405
-0.26396 -0.08263 0.13937
-0.25864 0.03927 0.06292
0.10322 0.02956 0.00443
0.24122 -0.15174 -0.17687
-0.25864 -0.27659 -0.14803
-0.26396 -0.04195 -0.16817
-0.26396 0.30247 0.15544
-0.23167 -0.14046 0.00000
-0.26396 -0.09248 -0.15519
-0.22181 0.35048 -0.15332
-0.10948 0.03647 -0.13410
0.26085 -0.02196 0.05936
0.25262 -0.09676 -0.04876
-0.16808 0.13152 -0.09011
-0.19400 0.25901 0.01372
-0.20306 0.30361 -0.16311
-0.25864 0.05096 -0.01979
-0.19981 0.28762 -0.08121
-0.19868 0.28206 -0.10659
-0.24616 -0.21393 0.00443
-0.26396 0.12853 -0.13116
-0.25864 0.30984 0.10829
0.22538 -0.29572 0.13515
-0.26396 -0.01107 -0.16995
-0.21080 0.31499 -0.00025
-0.04713 0.03480 0.18870
-0.24552 0.35501 0.09012
-0.26396 0.32458 -0.15904
-0.15297 0.05714 -0.11377
-0.13401 0.03115 0.00484
-0.25864 0.09863 -0.11089
-0.26396 -0.04044 -0.07046
0.09908 0.03115 -0.07741
0.04214 0.03647 0.09249
0.22665 -0.33276 0.15429
-0.26396 -0.26921 -0.03818
0.13431 0.03115 0.15447
-0.26396 -0.00746 -0.16137
-0.19900 0.28364 -0.11607
-0.25864 -0.06140 -0.00175
0.22339 -0.31382 -0.16547
0.24397 -0.17536 -0.08789
0.25700 0.01552 0.02701
-0.26396 0.03151 0.09100
0.23313 -0.27394 0.05660
-0.19674 0.27251 0.16754
-0.16297 0.10637 0.05484
-0.26396 0.04283 0.06062
0.25511 -0.02558 0.11512
0.23267 -0.27806 0.06721
0.25245 -0.09833 0.19808
-0.26396 -0.34135 0.11976
0.20911 -0.35818 -0.13321
-0.25850 0.35172 -0.06620
-0.07283 0.03115 0.17822
-0.25864 0.15298 0.03028
0.23693 -0.19079 0.16664
0.24455 -0.12147 -0.01331
-0.26396 -0.32942 -0.13122
-0.19037 0.24116 -0.12493
0.04503 0.03115 -0.10762
-0.18826 0.23080 -0.10238
-0.20947 0.30844 0.16265
0.19222 0.03647 -0.04325
-0.25864 -0.00450 0.17066
-0.20632 0.31964 0.06495
-0.25320 0.34934 0.04487
-0.24004 -0.26938 0.00000
-0.18469 0.21322 -0.13007
-0.25407 -0.36229 0.11165
0.20080 0.03115 -0.03580
0.10650 0.03115 0.09253
0.23954 -0.16706 -0.18343
-0.26396 -0.19885 0.06169
0.25491 -0.02739 0.16543
0.24403 -0.12623 -0.00280
-0.25864 -0.21718 -0.12524
-0.24915 -0.36229 0.09921
-0.18440 0.18507 0.08008
0.25267 -0.04768 0.00068
-0.26396 0.02643 -0.12205
-0.26396 -0.24161 0.10818
0.18502 -0.00235 -0.00443
0.07564 0.02017 0.00000
-0.26396 0.03724 -0.17104
-0.26396 -0.16166 -0.16798
0.25626 -0.06368 0.15888
-0.26396 -0.25358 -0.11501
-0.24228 -0.02351 0.00443
-0.25864 -0.06838 -0.01398
-0.26396 0.17856 -0.16074
-0.25864 0.06882 0.15754
0.06333 0.03115 0.01424
0.25176 -0.10456 0.12662
-0.20829 0.32934 -0.09048
-0.25864 0.26445 -0.00910
-0.03810 0.03647 -0.17146
-0.26396 0.26323 -0.06507
-0.10675 0.03647 0.02311
0.25404 -0.08391 -0.03766
0.25746 -0.05277 -0.04306
-0.15651 0.07458 0.11797
-0.26396 0.18837 -0.03452
0.09831 0.03115 0.08314
-0.24564 -0.20193 -0.00443
0.00211 0.03647 -0.18586
-0.18598 0.05166 -0.00443
-0.17484 0.16474 -0.11030
-0.16273 0.07849 0.02484
-0.26396 -0.19925 0.01400
-0.15905 0.08706 0.11587
-0.26396 -0.30362 -0.10487
-0.20894 0.30583 0.17011
-0.25864 0.29067 -0.02726
-0.18080 0.16740 0.10334
-0.25864 0.26984 -0.14931
-0.17991 0.18969 -0.16770
-0.25864 0.33376 0.15773
-0.26338 0.20491 -0.17722
0.22600 -0.29009 0.09606
0.21091 0.03115 0.18462
0.24919 -0.12793 0.08558
0.06834 0.03115 0.10612
-0.26396 0.25722 0.17606
0.06812 0.03647 -0.18104
-0.26396 -0.34377 0.04676
-0.25864 -0.34609 -0.08085
0.24158 -0.19709 0.03919
-0.20696 0.32278 0.09411
0.24127 -0.19991 0.01413
0.17177 0.03647 0.19171
0.23164 -0.18024 -0.00443
-0.19297 0.22726 -0.14428
0.13634 0.03115 0.04567
-0.26396 -0.03342 0.14127
0.26213 -0.01034 0.01507
-0.26396 -0.05317 0.10291
-0.25864 0.24554 -0.11555
0.24808 -0.13803 0.13314
-0.18014 0.19081 -0.02305
0.23396 -0.21777 0.00916
-0.25864 0.07789 -0.00997
0.24093 -0.15445 -0.09946
-0.25864 -0.31110 -0.03022
-0.18775 0.20159 0.05685
0.25632 -0.06312 0.15080
0.24572 -0.15945 -0.14601
-0.18371 0.20839 -0.00116
-0.25864 -0.30053 -0.03110
-0.04733 0.03115 -0.08402
0.17503 0.03115 0.00117
0.22558 -0.34252 0.03430
-0.17678 0.17429 0.06102
0.24149 -0.19793 0.06910
0.22788 -0.27301 0.14419
-0.26396 -0.23326 -0.13674
-0.25864 -0.34218 0.11279
0.24953 -0.12484 0.10813
-0.26396 -0.11635 0.02917
-0.25864 -0.29478 0.07850
-0.26396 -0.30364 0.07041
0.11001 0.03115 -0.05836
0.22481 -0.30089 0.02979
-0.21324 0.32701 -0.14419
-0.26396 -0.10828 -0.02240
-0.21453 0.33335 0.09287
-0.01918 0.03115 -0.14030
0.24708 -0.09849 0.02783
-0.26396 -0.14758 0.00159
0.24832 0.03320 0.03638
0.23239 -0.28068 -0.00574
0.14796 0.03647 0.01807
-0.15812 0.05578 0.03028
0.23675 -0.24100 0.03047
0.00493 0.01589 0.00443
-0.21966 -0.04654 0.00443
0.03773 0.03115 0.01290
-0.14954 0.04412 -0.14581
-0.20611 0.31860 -0.06254
0.19099 0.03647 0.13837
-0.25864 -0.19411 0.09661
0.23309 -0.22568 -0.01124
-0.26396 -0.25086 -0.03571
0.26067 -0.02360 0.14861
0.26241 -0.00776 -0.20552
0.10112 0.03647 -0.05008
-0.25864 0.13109 0.01884
0.24299 -0.18427 0.06536
-0.22271 -0.06770 0.00443
-0.01685 0.03115 -0.04113
-0.26396 0.26862 0.03550
0.21128 -0.35697 -0.05970
0.25862 -0.04225 0.11129
-0.26396 0.23178 0.05440
-0.20119 0.26771 -0.07264
-0.26396 -0.10384 -0.02764
0.25678 -0.01036 0.09006
-0.18925 0.23566 0.15760
-0.25864 -0.18945 0.02461
0.22147 -0.33125 -0.00574
-0.26396 0.08392 -0.12069
0.02622 0.03647 -0.16708
0.24488 0.03484 0.21362
-0.19847 0.28102 0.09173
0.25404 -0.08384 -0.17733
0.08278 0.03647 -0.17211
-0.25864 -0.09792 -0.11399
-0.16894 0.10904 -0.06718
0.07240 0.03115 -0.12957
-0.25864 0.33135 -0.16767
0.07853 0.03647 -0.19708
-0.21214 -0.04767 0.00000
-0.25864 -0.27757 0.07830
-0.05532 0.03647 0.08243
-0.25864 -0.34847 -0.13730
-0.00884 0.03115 -0.13570
-0.25864 -0.21736 0.00996
-0.19022 0.21374 -0.13315
-0.26396 0.16153 -0.12812
-0.25864 0.19498 0.14813
-0.25864 0.03260 0.04886
-0.17959 0.02289 0.00443
-0.25864 -0.24453 0.12853
-0.13534 0.03648 0.08722
0.21300 -0.22096 -0.00443
-0.10855 0.03647 -0.02925
-0.26396 0.00337 -0.01408
-0.26396 -0.29800 0.01865
0.23917 -0.21900 0.13952
-0.09744 0.03115 0.06097
-0.26396 0.26340 0.06095
-0.26396 0.16985 0.12295
-0.26396 0.28088 0.06703
-0.26396 0.19967 0.12583
-0.26396 0.29778 0.00611
-0.26396 -0.14673 0.02614
-0.26396 0.07185 0.03690
0.10398 0.03115 -0.12048
0.02470 0.03115 -0.16848
-0.25524 0.34651 -0.10860
-0.26396 0.06697 0.14739
0.19929 0.03115 0.16738
-0.02475 0.03115 0.09919
0.18295 0.03115 0.01896
-0.17869 0.15703 -0.01318
0.24711 0.03390 -0.17742
-0.10639 0.03321 -0.18163
-0.25864 -0.34026 -0.11283
0.08279 0.03115 0.18299
0.23341 -0.22277 -0.05076
0.23796 -0.18144 0.18997
0.22515 -0.34649 -0.00239
-0.25864 0.14099 -0.08806
0.23521 -0.20644 -0.08306
-0.26396 0.32537 0.08499
0.18018 0.03647 0.17433
0.21796 0.03647 -0.15602
-0.25864 0.13755 0.00948
-0.26396 -0.05972 -0.05743
-0.25864 -0.03888 0.04980
0.26391 0.00576 -0.07341
0.25688 -0.05800 0.12733
-0.26396 0.00129 0.02918
0.16636 0.02109 -0.00443
0.24991 -0.07276 -0.19009
0.24934 -0.07796 -0.11351
-0.26396 0.24490 -0.05318
0.24310 -0.18325 -0.13874
0.14280 0.03647 0.00995
-0.17899 0.15847 0.17052
0.18599 0.03027 0.00058
0.17099 0.03115 0.15685
-0.18934 0.23608 -0.17488
-0.26396 0.25939 0.03559
-0.18341 -0.05586 0.00000
0.09370 0.03115 0.05864
-0.24864 -0.36229 -0.16342
0.23704 -0.18975 0.00995
-0.26396 0.09951 0.10811
-0.26396 -0.29306 0.07898
-0.16340 0.08179 0.00639
-0.26396 -0.24598 -0.08520
0.24384 -0.12795 -0.11786
0.24559 -0.16070 -0.03098
0.25550 -0.07064 0.16022
-0.12305 0.01583 0.00443
-0.17492 -0.00205 -0.00443
-0.25864 -0.32918 0.13103
-0.25044 -0.35824 -0.17722
-0.26396 0.24535 0.05365
-0.23143 0.35593 -0.08996
-0.25864 0.10283 0.01540
-0.19685 0.04241 0.00000
-0.26396 -0.31022 -0.03508
-0.25864 -0.27025 0.02413
-0.25864 0.08014 0.00871
-0.26396 0.28627 -0.15185
-0.21307 0.34775 -0.05987
0.20911 -0.35905 0.14970
0.25000 -0.07195 -0.01557
-0.26396 -0.05339 -0.08022
-0.19715 0.24782 0.12957
0.25811 -0.04685 0.09348
0.23452 -0.26132 -0.04255
-0.25864 -0.02052 -0.05118
0.21116 -0.25840 -0.00023
0.25215 -0.05246 -0.06001
-0.26281 0.34279 -0.16922
0.23425 -0.21514 0.02290
-0.25914 0.34533 0.17722
-0.26396 -0.17622 0.04614
0.06420 0.03115 -0.00763
0.11879 0.03647 0.16002
0.01412 0.03647 -0.18204
-0.26396 0.20697 -0.17009
-0.26396 0.18602 -0.14132
-0.25864 0.13130 0.05330
-0.16204 0.07511 0.05474
-0.25864 -0.17930 0.07720
-0.26396 -0.21130 -0.06239
-0.26396 -0.00077 0.12296
-0.21270 -0.08160 0.00000
0.23176 -0.28638 0.09740
-0.12700 0.03647 -0.11418
-0.08587 0.03647 -0.00678
0.20988 -0.04729 0.00443
0.18881 0.03647 -0.06679
-0.25864 -0.26418 -0.17080
-0.16899 0.10927 -0.17177
-0.25687 -0.35697 0.16083
-0.25864 0.15077 -0.11616
-0.19353 0.01252 0.00000
0.22949 0.03115 -0.05798
0.03468 0.03647 -0.09066
0.21116 -0.11745 0.00293
-0.25864 0.07699 -0.00144
-0.07912 0.03647 -0.15436
-0.26396 -0.33560 0.01380
-0.26396 0.05846 0.13328
-0.01299 0.03115 -0.12958
0.03019 0.03027 -0.00120
-0.17687 0.14804 -0.10335
0.13814 0.03280 0.20958
-0.25864 0.22398 -0.13295
-0.24638 0.36059 -0.08111
0.22563 -0.34208 -0.12624
0.22646 -0.07612 -0.00443
-0.03966 0.03115 -0.03793
-0.02444 0.03647 -0.09085
-0.26396 -0.00234 -0.00162
-0.25864 -0.03742 -0.04794
-0.17168 0.12253 0.03429
0.20955 0.03647 0.11598
-0.26396 -0.09635 -0.12444
-0.25864 0.16396 0.10515
0.24568 -0.15980 0.10101
-0.17952 -0.00070 0.00000
0.25527 -0.02408 -0.01456
-0.26396 -0.03755 0.11589
-0.18714 0.22527 -0.17187
0.23877 -0.17400 0.15151
-0.25864 -0.33504 -0.14723
-0.26396 0.21586 0.03205
-0.25864 -0.22332 -0.17189
0.09769 0.03647 -0.11664
-0.16075 0.09542 0.01180
0.25660 -0.06062 -0.01053
-0.10980 0.03115 0.17110
-0.05714 0.03647 0.09031
0.25095 -0.11195 0.19368
-0.07659 0.03115 0.07487
-0.26396 -0.15774 -0.11384
-0.19101 0.24432 -0.16796
-0.25864 -0.24500 0.08019
-0.14730 0.03428 0.12491
-0.25864 0.19849 0.11863
0.25492 -0.02725 0.06187
-0.20726 0.29754 0.15174
0.22766 -0.32365 -0.07731
0.21521 -0.36229 -0.03271
-0.25864 0.22525 -0.17380
-0.26396 -0.23212 -0.05377
-0.19101 0.21760 -0.10953
-0.26396 0.28203 0.12431
0.22597 -0.29040 -0.03114
0.17731 0.03563 -0.21424
0.14861 0.03115 0.04545
-0.24815 0.01698 -0.00443
-0.26396 0.18635 -0.07011
-0.07799 0.03115 0.06020
-0.26396 -0.23393 -0.07254
-0.15206 0.05268 0.06557
-0.26396 -0.20637 -0.03045
-0.14739 0.04129 -0.11611
0.24813 -0.13756 -0.05960
0.23881 -0.22226 0.15550
-0.15758 0.05313 0.06988
-0.26396 0.09637 0.00349
-0.25864 -0.23625 -0.04587
-0.18732 0.22614 0.06502
-0.18684 0.19711 -0.13244
0.25963 -0.03309 -0.17414
-0.23330 0.00869 0.00443
-0.26396 0.22137 0.04197
-0.25864 -0.14992 0.08903
-0.26396 0.17505 0.13273
-0.20191 0.29791 0.12868
0.24373 -0.17757 -0.06690
0.25681 -0.05871 0.21008
-0.11894 0.03647 -0.10865
0.23528 -0.25435 0.05052
-0.12921 0.03115 -0.13769
-0.25864 -0.00258 0.12049
0.25563 -0.06939 0.17179
0.23965 0.03513 -0.13871
-0.24211 -0.02384 -0.00443
0.22612 -0.33763 -0.14548
-0.25864 0.09592 -0.10648
-0.16712 0.12680 -0.17146
0.22326 -0.31497 -0.14600
-0.12611 0.03115 -0.17011
-0.23102 0.35584 0.09668
0.25369 -0.03844 0.00482
-0.25864 -0.32217 0.00531
-0.26396 0.24756 -0.04576
-0.13313 0.03647 0.12863
-0.26395 0.33341 -0.08098
-0.17455 0.16334 -0.08025
0.08835 0.03115 -0.12159
-0.25864 -0.01519 0.04005
0.24235 -0.19015 0.18346
-0.26396 -0.20770 -0.09946
-0.21076 0.34145 -0.05477
-0.26396 0.17055 -0.16339
0.21997 -0.34492 0.13645
0.14204 0.03647 -0.14710
-0.26396 0.24384 0.06639
-0.26396 0.05872 -0.11777
-0.25864 0.06456 -0.05514
0.11070 0.01549 0.00443
0.22434 -0.21570 0.00443
-0.18462 0.21289 0.17663
-0.25864 -0.25656 -0.17108
-0.17261 0.15377 -0.09609
-0.00889 0.03115 0.03076
-0.25864 -0.22070 0.17287
-0.26396 0.14902 -0.03265
-0.15140 0.04940 0.08608
-0.26396 0.19625 0.16364
0.22460 -0.35145 -0.15131
-0.19690 0.24659 -0.13356
-0.26396 0.15451 -0.02228
-0.26396 -0.24487 0.08291
-0.26396 -0.10587 -0.09650
-0.25123 -0.36229 -0.08201
-0.11972 0.03647 -0.12583
-0.25864 0.16050 -0.06906
-0.07888 0.03115 -0.06621
0.24800 -0.09014 -0.18363
0.22986 -0.25503 -0.13701
-0.17125 0.14711 -0.01639
-0.25357 0.34897 -0.02450
-0.18379 0.20876 -0.17324
-0.25864 0.12737 0.05842
-0.25864 -0.27525 -0.15680
0.24573 -0.15940 0.02373
0.23792 -0.18175 -0.01194
-0.25864 -0.25909 -0.14665
-0.25864 -0.22383 -0.00646
-0.26102 -0.20672 -0.17722
-0.26396 0.27160 -0.04245
0.26361 0.00232 0.00095
0.25705 -0.05651 0.18337
-0.26396 -0.09366 0.14728
0.15543 0.03647 0.07193
0.16832 0.03647 -0.07820
-0.25864 -0.24179 0.04803
-0.14665 0.04044 0.10403
-0.19990 0.26137 -0.02734
-0.25864 0.21688 0.05257
0.25494 -0.07565 -0.05537
-0.03777 0.03115 -0.07532
-0.02019 0.01375 0.00000
0.23781 -0.23133 -0.03564
0.26079 -0.02255 -0.08219
-0.25864 -0.11388 -0.04137
-0.20998 0.31400 -0.17722
-0.22811 0.02978 0.00000
-0.19117 0.21839 0.10825
0.09907 0.03647 0.13474
0.22909 -0.25958 -0.00443
-0.16234 0.07659 0.09091
-0.25864 -0.10264 0.02005
-0.26396 -0.22151 -0.04696
-0.25864 0.23570 0.08096
0.22891 -0.31227 0.17660
0.09958 0.03115 -0.11106
-0.19477 0.23613 -0.04702
0.24778 0.02733 0.12218
0.11138 0.03115 0.09497
-0.24765 -0.36229 0.06099
-0.25864 -0.35254 0.05833
0.25703 -0.00811 0.12184
-0.24591 -0.12782 -0.00443
0.23566 0.03647 0.14491
0.11669 0.03115 -0.20086
0.15780 0.03115 -0.03581
0.25856 0.00424 -0.13948
-0.19032 0.21420 0.17630
-0.20055 0.26454 -0.12302
0.02622 0.03115 -0.02009
0.22814 -0.28306 -0.18643
-0.25864 0.26744 -0.17254
0.26234 0.01646 -0.18343
0.25863 0.00656 -0.20761
-0.18153 0.17095 0.03867
0.20926 -0.36229 -0.09902
-0.26396 0.03120 0.01755
0.23032 0.03115 0.18927
-0.26396 0.02146 -0.17007
-0.21841 0.34619 0.15232
-0.25864 -0.29373 -0.17578
-0.00488 0.03115 -0.09440
-0.26396 -0.34893 0.09455
0.22610 -0.28921 0.18129
0.23740 -0.14978 0.00443
-0.11545 0.03115 -0.05731
-0.25864 -0.26005 -0.10128
-0.18807 0.22984 0.14066
0.17988 0.03647 -0.06514
-0.26396 -0.12888 -0.02117
0.19472 0.00619 -0.00443
-0.02226 0.03647 0.13558
0.04769 0.03115 -0.00588
-0.17386 0.07169 -0.00443
0.05657 0.03115 0.18612
-0.20637 0.31988 -0.17405
-0.26396 -0.05768 -0.06928
-0.25864 -0.15897 -0.00623
-0.20749 0.32538 -0.04115
0.23923 -0.16990 -0.03395
-0.25864 0.05880 -0.06187
-0.16260 0.10456 -0.04277
0.25772 -0.05037 0.12023
0.19366 0.03115 -0.08439
-0.26396 0.12304 0.07494
0.22941 -0.30776 0.15766
-0.25864 -0.04678 -0.05453
-0.19563 0.02438 0.00443
-0.12225 -0.00890 0.00064
-0.26396 -0.08287 0.02276
-0.00061 0.01739 0.00000
0.07483 0.03647 -0.04734
0.25501 0.02815 -0.00640
-0.25864 -0.32448 0.17447
-0.25864 0.02883 0.01441
-0.08170 0.03647 -0.06877
0.22680 -0.33141 0.06940
-0.25541 0.35492 0.16473
0.21477 0.03647 -0.00376
0.21116 -0.10077 0.00208
0.00986 0.01738 0.00443
0.17508 0.03647 0.15089
-0.18366 0.20816 -0.13861
-0.25410 -0.35697 -0.03370
0.25758 -0.00305 -0.17439
0.24459 -0.16978 -0.14140
-0.26396 -0.06284 -0.10847
-0.05421 0.03115 0.01272
-0.24095 0.36208 -0.08648
-0.21651 0.35278 0.16864
-0.25864 -0.05504 -0.05795
0.11754 0.03647 -0.12841
-0.25864 -0.10832 0.16597
0.15775 0.03115 0.18774
0.25695 0.01565 -0.01452
-0.21391 0.33029 -0.05347
0.07955 0.03647 -0.06384
-0.25864 -0.31726 0.15819
-0.26396 0.20574 -0.10389
-0.19494 0.26364 -0.09651
0.18540 0.03115 0.19883
0.14178 0.03115 0.10417
-0.26396 -0.25986 -0.11220
-0.26396 -0.10919 0.03059
-0.25864 -0.18219 0.00079
0.16932 0.03647 -0.15119
-0.26300 0.13365 0.17722
-0.26396 0.14133 -0.07566
-0.19222 0.25028 0.13329
0.08170 0.03647 0.19579
0.23912 -0.21945 -0.17243
-0.20332 0.27819 -0.12459
0.24799 -0.09029 0.19020
-0.26396 -0.20400 -0.01325
0.24993 0.00392 -0.00443
0.24312 -0.13448 0.14592
-0.25864 0.29432 0.14107
0.24607 -0.15629 0.01433
-0.26396 -0.14423 -0.09074
0.25522 -0.02451 -0.15855
-0.25864 -0.20506 0.13198
-0.18505 0.18832 -0.17450
-0.25864 -0.08906 0.06222
0.24706 -0.09867 0.20405
-0.26396 -0.21917 -0.05932
-0.26396 -0.11622 -0.03605
-0.21254 0.34631 -0.02192
0.18799 0.03115 0.07571
0.24942 -0.07722 -0.02712
-0.15398 0.06213 -0.04304
0.20242 0.03647 0.20472
-0.24143 0.35623 0.17684
-0.26396 0.30592 0.07925
0.24735 -0.14470 0.07506
0.16144 0.03647 0.20736
0.26297 -0.00272 0.08114
-0.26396 0.20516 0.04755
0.24070 -0.15652 -0.19741
0.21334 -0.35697 -0.10661
-0.22249 -0.11377 0.00000
-0.22997 0.35560 -0.15227
-0.08191 0.03115 -0.09666
-0.20647 0.29367 0.04937
-0.26396 -0.05393 0.11456
-0.05031 0.03115 0.06792
0.15206 0.03647 0.15094
0.00557 0.02208 -0.00443
0.23001 -0.25368 -0.16190
-0.26396 -0.26749 -0.06241
0.23763 -0.23300 -0.17814
-0.25864 0.09969 0.04547
-0.26396 -0.11865 -0.16196
-0.07560 0.03115 0.08764
0.26005 -0.02926 0.11953
-0.26396 -0.16612 0.11523
-0.25864 -0.14129 0.01120
-0.20252 0.27424 0.01429
0.23103 -0.24441 -0.05141
0.17838 0.03115 0.07614
-0.15911 0.08736 -0.11290
-0.19890 0.25645 -0.05160
0.19476 0.03115 -0.12844
-0.25702 -0.35697 0.03145
0.26132 -0.01767 0.06333
-0.25864 0.17137 0.00328
-0.15298 0.05720 -0.04490
-0.25864 0.12938 -0.14415
-0.25864 -0.20863 0.11498
-0.26396 0.09708 0.02629
0.24924 -0.12746 0.14964
0.23495 -0.20880 0.15978
-0.08372 0.02802 -0.00443
-0.23046 -0.11428 0.00000
-0.26396 -0.19653 0.12585
0.01063 0.03647 -0.05453
-0.25864 -0.14349 0.05426
0.23922 -0.10094 0.00443
0.24353 0.02965 -0.21637
0.22511 -0.34678 0.11941
-0.24205 0.02651 0.00000
-0.25864 -0.26474 0.04006
-0.26396 -0.14167 -0.00690
-0.26396 -0.27605 0.14885
-0.18416 0.18392 0.16651
-0.26396 0.03396 -0.00208
-0.26396 -0.04047 -0.13340
-0.25864 0.27161 0.00637
-0.19321 -0.05523 -0.00443
-0.25864 0.25737 0.08548
-0.23894 0.36214 0.11953
-0.26396 -0.23148 0.15289
0.22224 -0.22342 0.00000
0.20063 0.03647 -0.07722
-0.25864 -0.17434 -0.15846
-0.19912 0.25751 -0.16420
0.23975 -0.21371 0.11021
-0.17730 0.15017 -0.11239
-0.25864 0.18261 0.13730
0.24506 -0.16551 -0.12017
-0.25864 0.01245 -0.16920
0.13940 0.03115 -0.17241
0.26354 0.01175 -0.13709
-0.25864 0.03467 -0.13335
0.25562 -0.06952 -0.18456
0.23212 -0.28308 -0.03502
-0.01110 0.03647 0.17019
-0.26024 0.17005 0.17722
-0.25864 0.26710 0.15557
0.15159 0.03647 -0.07388
-0.19080 0.21660 0.03688
-0.22678 0.36022 -0.15203
0.23839 -0.17746 -0.10597
-0.25864 -0.01444 0.15188
0.24776 -0.09233 -0.11846
-0.26396 -0.06356 -0.09156
0.22708 -0.28027 -0.15004
-0.24364 0.36139 -0.10106
-0.18991 0.23889 0.07804
-0.14551 0.02339 0.00443
-0.17431 0.16214 -0.11547
-0.26396 0.32012 -0.03869
0.25117 -0.06134 -0.11148
-0.06990 0.01383 0.00000
0.21929 -0.35110 -0.08515
-0.25864 -0.00507 -0.09499
-0.25864 0.07170 0.08310
-0.25864 -0.26289 -0.10931
-0.25209 0.35764 -0.09724
-0.25864 0.31458 0.14600
-0.15996 0.09156 0.13464
0.23199 -0.28430 0.08260
0.24934 -0.12659 -0.19675
-0.25864 -0.02474 -0.10464
-0.25864 -0.26628 -0.09062
-0.20718 0.32388 -0.09169
0.23527 -0.20582 -0.00506
0.01322 0.03115 -0.16320
-0.18833 0.23113 0.11338
-0.04452 0.03115 -0.11161
-0.11366 0.03647 0.15053
-0.26396 0.00224 0.06633
-0.26396 -0.31086 0.15098
-0.21814 -0.08393 -0.00443
0.23802 -0.18090 0.03099
0.16841 0.03647 0.15891
-0.26396 -0.29235 -0.16409
-0.21462 0.35006 0.09243
0.14838 0.03647 -0.08016
0.23666 -0.19327 0.03315
0.25302 -0.09313 0.01530
0.26294 -0.00300 -0.06644
0.24368 -0.12940 0.14967
-0.25864 0.21204 0.10265
-0.21241 0.32291 0.01365
-0.25864 -0.28089 -0.16775
-0.24300 -0.10461 -0.00443
0.02577 0.03647 0.11887
-0.25845 -0.24296 -0.00443
0.24529 0.02886 -0.19970
0.24116 -0.15231 -0.06415
-0.25864 -0.03014 0.13549
-0.23273 0.36188 0.15526
-0.26396 -0.06583 -0.14682
-0.24942 -0.14678 0.00000
-0.25343 0.35685 -0.03985
-0.25864 0.18169 0.00733
0.07448 0.03647 -0.06297
0.01364 0.03647 0.08455
-0.26396 0.28419 0.08151
-0.13569 0.03650 -0.14226
0.02327 0.03115 0.01046
-0.25864 0.11195 -0.13617
-0.26396 -0.32030 0.08293
0.07212 0.03647 0.02471
0.22236 -0.32320 0.06887
0.15812 0.03115 0.12345
-0.21025 0.31229 -0.08280
0.14549 0.03115 0.04051
-0.03214 0.03647 -0.10075
-0.26396 -0.26396 -0.05187
-0.23356 -0.05480 0.00000
-0.25864 0.17645 0.06033
0.10428 0.03115 0.04194
-0.26396 -0.30917 0.11542
-0.16196 0.10142 0.08303
-0.22878 0.35503 -0.10931
0.14721 0.03647 -0.14776
-0.25864 0.31965 0.11421
-0.26396 0.21888 0.01953
0.01153 0.03647 -0.18805
0.22408 -0.30757 -0.09421
-0.26128 0.34709 -0.04213
-0.17929 0.18663 0.13442
-0.18651 0.19548 0.02082
-0.12165 0.03115 -0.06418
-0.26396 0.10694 0.04463
0.20911 -0.36074 0.11437
-0.26396 0.12343 0.14688
-0.18108 0.16874 0.10845
-0.11272 0.03115 -0.16658
-0.15619 0.04616 -0.03667
-0.26396 0.02381 -0.01306
-0.25864 -0.12172 -0.11491
-0.25864 -0.04818 -0.09726
0.24749 -0.14342 0.11342
-0.25892 -0.19220 0.17722
-0.04923 0.03115 0.09604
0.24849 -0.08571 0.08866
-0.25864 0.04950 -0.15984
-0.26290 0.34248 0.06687
0.25208 0.02354 0.01432
-0.23523 -0.08925 -0.00443
-0.26396 0.09586 0.13865
-0.06046 0.03647 0.15799
0.23669 -0.24159 -0.06603
-0.25864 -0.24105 -0.07945
-0.20149 0.26918 0.11675
0.24450 -0.12193 0.02648
-0.15204 0.05259 0.05528
-0.01769 0.03647 -0.17210
0.25868 0.02376 -0.16054
-0.26396 -0.21178 0.05924
-0.25864 -0.23568 -0.13347
0.26359 0.01128 -0.04566
0.21090 0.03647 -0.13993
-0.26396 0.09453 -0.06536
-0.25222 -0.23125 -0.00443
-0.21855 0.35481 -0.10594
-0.25864 -0.34624 -0.07552
0.03183 0.03115 0.10528
-0.26396 -0.03607 -0.04953
-0.20548 0.31550 0.08745
0.23683 -0.19168 -0.02363
-0.25864 0.27630 0.12429
-0.26396 -0.01481 0.05911
-0.26396 -0.09311 -0.16885
0.24152 -0.19766 0.15243
-0.25864 -0.07327 0.15082
-0.26396 0.17617 -0.12819
-0.25864 -0.22713 0.12381
-0.26396 0.13441 0.17079
-0.26396 0.10981 0.15373
-0.10127 0.03115 -0.02735
0.23856 -0.17598 -0.03074
-0.26109 0.34741 0.05851
-0.26396 0.10907 0.09952
-0.16753 0.12879 0.07102
-0.26396 0.23558 -0.04051
0.24643 0.02816 0.08131
0.22889 -0.29470 0.18525
0.24738 -0.14443 0.17491
0.10640 0.03611 -0.20634
-0.14465 0.03288 0.11518
-0.26396 0.21256 0.10309
-0.25864 0.20269 0.13712
0.01360 0.03647 -0.16940
-0.25858 0.35158 -0.11042
0.21410 -0.22742 0.00000
0.23452 -0.26133 0.13576
0.19787 -0.01882 0.00015
-0.19434 0.23398 0.09040
-0.18912 0.23501 0.13406
-0.23794 -0.17771 -0.00443
0.05942 0.03647 -0.16436
-0.26396 -0.12348 -0.05722
-0.07114 0.03647 0.02193
-0.26396 -0.20292 -0.17012
-0.26396 -0.22520 0.10646
0.07104 0.03115 0.00656
-0.15163 0.05056 -0.10662
-0.25864 0.03047 -0.09954
-0.16370 0.10995 0.10714
0.26279 0.01494 0.01442
-0.26396 0.28248 -0.12738
-0.25864 0.30051 -0.03100
0.26084 -0.02203 0.15756
0.25531 -0.02376 -0.11904
-0.24741 -0.35972 0.00426
-0.26396 0.18079 0.10998
-0.16010 0.06555 0.14684
-0.16415 0.08550 -0.05455
-0.23943 -0.07779 0.00000
-0.25864 0.11676 -0.09983
0.09574 0.03647 0.19620
0.23011 -0.30132 -0.06272
0.25784 -0.04936 0.03450
-0.25864 0.11240 -0.15827
-0.25600 0.34526 -0.07927
-0.26396 -0.12626 0.08509
0.22995 -0.30277 0.16405
-0.25864 -0.25992 0.09253
-0.25296 -0.24920 0.00000
-0.19793 0.25166 -0.06757
0.22883 -0.04243 0.00443
0.26328 0.00011 0.02398
-0.26396 -0.04309 -0.05742
0.00571 0.03647 0.05462
0.24858 0.03291 -0.22153
-0.25864 -0.22641 -0.06377
-0.25864 0.33342 0.08318
0.23207 0.03115 0.07335
0.06166 0.03115 -0.10517
-0.22390 0.35877 0.02782
-0.20757 0.29910 0.02561
-0.25864 -0.14635 0.04530
0.01795 0.03115 -0.14506
-0.21899 0.01320 -0.00443
0.25467 -0.07814 -0.18612
0.22693 0.03647 0.12362
-0.26396 0.16264 -0.09080
0.18131 0.03647 0.16232
0.15414 0.03115 0.06926
-0.26396 0.01373 0.15751
-0.08476 0.03115 -0.11087
0.15951 0.01541 -0.00443
-0.19471 0.23584 0.13167
0.13516 0.03647 0.06621
0.17951 0.03647 -0.15385
-0.04873 0.03115 -0.14306
0.24047 -0.20718 -0.17754
-0.20748 0.29863 0.04646
-0.25864 0.28801 0.14454
-0.25083 -0.18700 -0.00443
0.24873 -0.13214 -0.17410
-0.25864 -0.03045 0.06677
-0.26396 0.12153 -0.02140
0.26039 0.02090 -0.20474
-0.25864 -0.07108 0.15598
0.00928 0.03647 -0.03646
-0.26396 -0.06723 -0.16159
0.02950 0.03115 0.06764
-0.25864 -0.05239 -0.02336
0.23968 -0.21437 -0.08685
0.24365 -0.04640 0.00443
0.11120 0.03647 -0.13539
-0.25864 -0.09734 0.06757
-0.25864 0.16857 0.07165
-0.25864 0.21195 0.02004
-0.14202 0.03194 0.16300
0.22485 -0.30059 -0.08263
0.15215 0.03115 -0.09919
-0.25864 0.14790 -0.07563
-0.26396 -0.33762 -0.09673
-0.14681 0.04063 -0.08079
0.24900 -0.12964 0.11739
-0.02977 0.03115 -0.07730
0.01513 0.03115 0.18576
0.05588 0.03115 -0.05748
-0.26396 0.24014 0.16656
-0.25864 -0.31412 0.15119
-0.25864 -0.11485 0.15179
-0.05275 0.03115 -0.10909
0.01780 0.03115 0.03174
-0.25864 -0.07250 -0.03617
-0.25864 0.04419 -0.08544
-0.26210 -0.15847 0.17722
0.24891 -0.08281 0.00121
0.22997 -0.25401 -0.04537
0.24557 -0.11225 0.13164
-0.26396 0.10930 0.11232
-0.26396 -0.17336 0.12226
0.22130 -0.33286 0.04129
0.00587 0.03115 0.09909
0.22504 -0.02822 0.00000
0.11322 0.03647 0.10418
0.08365 0.03115 -0.12907
-0.17594 0.14349 0.12885
-0.24957 0.01461 0.00000
0.24660 -0.10288 -0.07366
0.15641 0.03115 -0.19890
0.24098 -0.15395 0.11088
0.24359 -0.13028 0.11469
0.26391 0.00546 -0.01020
-0.26396 0.04914 0.12261
0.25383 -0.08572 0.18043
-0.26143 -0.19011 -0.17722
-0.19651 0.24465 0.00150
-0.20774 0.32661 -0.14445
-0.07446 0.03115 -0.16126
-0.19158 0.22042 -0.09378
-0.17574 0.16917 0.10131
-0.26396 -0.15504 0.10884
-0.25864 -0.23264 -0.02362
-0.16695 0.12595 0.00976
-0.23820 -0.20236 0.00000
0.22285 -0.00878 0.00443
-0.25864 0.32471 -0.14126
0.14443 0.03647 -0.08407
-0.01479 0.03115 0.13631
-0.20855 0.33060 -0.12135
0.05655 0.03115 0.16952
0.22825 -0.26965 -0.03820
-0.25864 -0.28440 -0.08415
-0.25864 -0.32266 -0.00963
0.23640 -0.19560 -0.12814
0.24176 -0.14686 -0.03272
-0.23818 -0.08087 0.00443
-0.25864 -0.12134 -0.06216
0.04070 0.03115 -0.06418
-0.25375 -0.36229 -0.06708
-0.25864 -0.14052 -0.14359
-0.25864 -0.28731 -0.11776
-0.25864 0.04796 -0.11357
-0.25864 -0.23217 0.06836
0.24012 -0.21035 -0.07252
0.03974 0.03647 -0.03709
-0.25864 -0.14217 0.11253
-0.25864 0.01951 0.10716
-0.26396 0.14711 -0.00865
-0.26396 0.30561 0.09068
-0.26396 0.24738 0.15645
0.21902 -0.35359 -0.11241
0.11286 0.03115 -0.13652
-0.25581 0.35453 0.02276
0.24358 -0.13037 0.02552
-0.09130 0.03647 -0.02505
0.25209 -0.05301 -0.21386
0.22930 -0.26009 0.10143
-0.26396 0.26970 0.13421
-0.16271 0.10508 -0.06876
-0.20630 0.29284 -0.00291
0.23239 0.03647 -0.08040
0.18724 0.03476 0.21539
-0.25864 0.26714 -0.05820
-0.07893 0.03115 0.17113
-0.19339 0.25604 -0.09895
-0.26396 -0.35660 -0.11655
0.25933 -0.03583 -0.11209
-0.10513 0.03647 -0.15287
0.25354 0.02958 -0.04722
0.22154 0.03115 -0.02931
-0.25864 -0.26177 0.11556
0.25784 0.01289 0.13429
-0.04851 0.03115 0.11894
-0.25864 0.04985 0.00828
-0.17595 0.17024 0.03245
-0.18257 0.20281 -0.14186
-0.25864 -0.02256 -0.11711
0.25548 -0.07077 0.08386
-0.25864 0.29419 0.05714
-0.15109 0.03735 0.06936
-0.25864 -0.06005 0.11060
0.16440 0.03647 0.12576
-0.12450 0.01740 -0.00443
0.23283 -0.27661 0.00061
0.16269 0.03647 0.11325
-0.20777 0.30010 -0.00417
-0.02808 0.03647 0.01073
0.23879 -0.22250 -0.18754
-0.07154 0.03647 -0.11968
0.23594 -0.24837 -0.01731
0.19480 0.03115 0.12909
-0.26396 -0.26358 -0.07163
-0.03234 0.03115 0.02599
0.18741 0.03115 0.09156
0.25791 0.01260 -0.13164
0.23298 -0.22665 0.05028
0.22875 0.03647 -0.16622
0.25871 0.02373 0.11241
0.14222 0.03647 -0.18965
-0.16323 0.10766 -0.08729
-0.14963 -0.01426 -0.00443
-0.25864 0.22775 0.05855
-0.22617 0.35991 -0.01649
-0.00683 0.03027 -0.00319
0.23823 -0.17898 -0.14814
-0.16047 0.06736 0.06004
-0.16430 0.08621 -0.12596
-0.26396 0.25587 0.05419
0.25414 -0.03436 -0.00280
0.23766 -0.23271 -0.01607
0.03823 0.03647 -0.06052
-0.25864 0.30568 -0.16212
0.06331 0.03115 -0.19247
-0.26396 -0.24073 0.16477
0.25299 0.03001 0.14040
0.21955 -0.34872 -0.12749
0.06989 0.03115 0.03472
-0.11660 0.03647 -0.11815
-0.25864 0.02448 -0.02000
0.20088 0.03647 0.21197
0.20490 0.03647 0.18983
-0.00500 0.03115 -0.14905
-0.26396 -0.34279 -0.06144
0.22344 -0.11403 -0.00443
0.00322 0.03115 -0.15651
-0.26396 0.23189 -0.07157
0.20430 0.03647 0.09079
0.16801 0.03647 -0.17651
-0.04060 0.01357 0.00006
-0.26396 0.05697 0.06177
0.25017 -0.11904 0.13331
-0.25864 0.02379 -0.10713
0.24376 0.03531 -0.18947
-0.26396 0.08686 0.10379
0.09728 0.03115 0.19893
-0.25864 0.09327 -0.10160
0.25527 -0.02413 -0.15198
-0.13444 0.03115 0.08031
0.22440 0.03115 0.10185
0.04094 0.03115 -0.02534
-0.26396 -0.02756 -0.12060
-0.26396 -0.13587 0.14944
-0.26396 0.22857 -0.13860
-0.25864 0.07012 0.11255
-0.16317 0.10736 -0.15302
-0.13863 0.02409 -0.00443
0.10655 0.03115 0.06507
0.18086 0.03115 -0.06521
-0.16204 0.07509 -0.13999
-0.26396 0.10349 -0.00589
-0.25864 0.06358 0.11421
-0.25864 -0.14769 -0.10384
-0.20235 0.30009 -0.00285
-0.25864 -0.34601 -0.14815
0.05960 0.03647 -0.08842
0.25036 -0.06869 -0.20862
-0.25864 -0.01025 0.03468
-0.18326 0.17949 -0.07958
-0.26396 -0.15212 -0.08741
-0.15335 0.04003 -0.16686
0.19992 0.03647 0.07691
-0.03495 0.03647 -0.14801
-0.25864 -0.25043 -0.13289
-0.26396 -0.19443 -0.17386
-0.03062 0.03647 0.09363
0.23665 0.03647 -0.11212
0.24563 -0.16027 -0.07333
0.21712 -0.35697 0.17553
-0.25864 -0.20574 0.07342
-0.26396 0.09512 0.06825
0.09015 0.03647 0.01514
-0.19145 0.24649 -0.16031
-0.16978 0.11316 0.15357
0.20523 0.03647 -0.14289
0.06932 0.03647 0.18814
-0.25864 -0.17940 -0.11873
0.00386 0.03115 -0.03992
-0.22833 -0.05358 0.00000
-0.16773 0.10306 0.09790
0.15072 0.03647 0.09527
-0.20745 0.32517 -0.08463
0.13159 0.03115 0.00940
-0.24757 -0.36173 0.05513
-0.15466 0.06546 0.12515
-0.26396 0.24072 0.02475
-0.25864 -0.28742 -0.13146
-0.26396 0.31625 0.12414
-0.25864 -0.07797 -0.09450
-0.24001 -0.22201 0.00443
0.24247 -0.18905 0.10255
-0.25864 0.02106 -0.00628
-0.16887 0.10869 0.17271
0.25116 0.02452 -0.07662
-0.17641 0.14578 0.07992
-0.26396 0.02389 -0.05912
-0.18471 0.21329 0.10912
0.25568 -0.06892 0.10685
-0.25864 0.00798 0.00874
0.04434 0.03115 0.11216
-0.26396 -0.01011 0.16486
-0.07388 0.03647 0.09298
-0.24978 0.35254 -0.08392
-0.15754 0.07965 -0.05504
-0.25666 0.35369 -0.09321
-0.17096 0.11897 0.02523
-0.02583 0.03647 0.11527
0.22038 -0.34114 -0.05242
-0.22314 -0.05587 -0.00443
0.23901 -0.22050 -0.02393
-0.16761 0.10250 0.11808
