-0.16645 -0.01349 0.10665
-0.21234 -0.14702 -0.11122
-0.13178 0.08656 0.17049
-0.04329 -0.14702 0.17667
-0.13178 0.18322 -0.17631
-0.21016 0.35071 -0.09613
0.16448 -0.30984 0.20805
-0.13178 0.14408 -0.08158
-0.14052 -0.39407 -0.12640
-0.15208 -0.32845 -0.19753
-0.05796 -0.21330 -0.13525
0.19388 -0.39407 0.12171
0.19831 -0.39203 -0.19579
-0.22678 -0.21903 -0.19705
0.22153 -0.14702 0.08872
0.02733 -0.18407 -0.19753
0.21613 -0.34831 0.19084
-0.22678 -0.33130 0.11310
-0.18373 -0.12555 -0.14683
-0.22678 0.10559 0.19804
-0.22678 -0.03377 -0.18660
-0.13178 0.06411 0.08686
0.03157 -0.14702 0.00885
-0.22678 0.13471 0.06188
-0.22678 0.30896 0.19914
-0.16600 -0.36466 0.17631
-0.03976 -0.21330 -0.14394
-0.22678 0.32094 0.18194
-0.22678 -0.15896 0.03671
-0.22678 0.24704 -0.19240
-0.20276 -0.10944 -0.09613
-0.14621 -0.21330 0.07143
-0.15283 0.34110 0.10665
0.06120 -0.14702 -0.14663
0.11530 -0.14702 0.18150
0.22678 -0.37304 -0.15059
-0.19005 0.18164 -0.04544
-0.17792 0.18502 0.15735
-0.07888 -0.14702 0.05551
0.16071 -0.25774 -0.19328
-0.16343 -0.00376 -0.09613
-0.14125 0.17856 0.10665
0.22678 -0.16848 -0.19583
-0.13264 -0.11227 -0.04544
-0.22678 0.29437 0.06039
0.16071 -0.31894 0.12582
-0.15990 0.25683 0.10665
-0.18072 0.28807 -0.04544
-0.03407 -0.21330 0.08389
-0.13295 -0.01238 0.02612
-0.09660 -0.15578 0.20805
-0.18088 0.16572 -0.02131
-0.15956 -0.02396 0.10665
-0.20670 -0.28611 0.20805
-0.02422 -0.21330 -0.00706
0.14051 -0.21330 0.06755
-0.13606 0.07004 0.13751
0.16225 -0.14702 -0.15319
0.16071 -0.36825 -0.15906
-0.14294 -0.07889 -0.09613
-0.15921 -0.01544 -0.19753
-0.15078 -0.01391 -0.20476
-0.22678 0.33185 -0.15799
0.22678 -0.16574 -0.01316
-0.13706 -0.09469 -0.04544
0.15552 -0.14702 -0.07607
0.16140 -0.14702 0.03202
-0.04037 -0.14702 -0.03926
-0.18714 0.13737 0.20805
-0.18802 0.39042 -0.03813
-0.21257 0.07004 0.14312
-0.14865 0.00234 0.10665
-0.13178 0.30468 0.07503
-0.13512 -0.32375 -0.09786
0.22511 -0.39407 -0.17022
0.08526 -0.21330 0.00751
-0.22643 0.11790 -0.14683
-0.17834 0.17723 -0.14683
-0.14089 -0.29531 0.16012
-0.22678 -0.10318 0.16854
-0.22678 -0.17284 0.20603
-0.17569 0.07004 0.12903
-0.17416 0.14192 -0.04544
-0.13178 0.03206 -0.18992
-0.14605 0.18440 0.10665
-0.13178 0.15746 0.00996
-0.02792 -0.14702 -0.04543
-0.13178 -0.27325 -0.15954
-0.13834 -0.08425 -0.14683
-0.20251 0.06758 0.15735
0.21800 -0.28059 0.20805
-0.13178 -0.09286 -0.19662
-0.22678 0.10620 0.09207
0.00127 -0.19211 -0.10624
-0.13178 0.24676 -0.06868
-0.20514 -0.13200 0.10665
-0.13178 -0.29289 0.13351
-0.17273 0.02065 0.10665
-0.14498 -0.18579 0.20805
-0.19571 -0.11242 -0.20805
0.18602 -0.14702 -0.09841
0.07468 -0.15456 0.04382
-0.18203 0.01774 -0.19753
-0.19280 -0.36365 -0.18504
-0.15504 -0.02849 0.10665
-0.10897 -0.14702 0.07057
0.22646 -0.34831 0.13423
-0.21688 -0.39407 0.11555
-0.13178 0.09452 0.18394
-0.14553 -0.39407 0.13710
0.01484 -0.18650 -0.19753
-0.13178 -0.22072 -0.17539
0.10461 -0.17823 0.20805
-0.19398 0.10665 -0.02483
-0.22052 0.02598 -0.09613
-0.04552 -0.14702 0.11448
-0.15479 0.10138 -0.11961
-0.13751 0.24354 -0.04544
0.08935 -0.14702 -0.03175
-0.22678 -0.13172 -0.08311
-0.19367 -0.31548 0.10673
-0.16468 0.38925 -0.04401
-0.17333 -0.34157 -0.08452
-0.13797 -0.12813 0.20805
-0.21658 0.06968 -0.14683
-0.19163 0.39295 0.02229
-0.21585 0.26760 0.15735
-0.19981 0.10138 -0.12241
-0.22678 0.00259 -0.04924
-0.02584 -0.14702 -0.10285
0.03383 -0.18277 -0.03783
-0.22678 -0.15932 0.12799
-0.22678 0.16331 0.20675
0.10722 -0.21330 -0.02652
-0.15559 0.12055 0.00198
-0.13198 0.30470 0.15735
-0.13577 -0.13143 0.05596
0.12409 -0.14702 -0.17914
-0.22515 -0.30933 -0.19753
-0.19824 -0.02355 -0.04544
-0.18929 0.10138 -0.10738
-0.01463 -0.14702 0.15590
0.18097 -0.18782 0.20805
-0.13178 0.21162 0.19655
-0.22178 0.03049 -0.19753
-0.13178 -0.21388 -0.15524
0.14322 -0.14702 -0.16966
-0.18398 -0.12695 0.15735
-0.15639 0.26793 0.10665
0.10824 -0.14702 -0.03040
-0.00354 -0.14702 0.07267
0.08253 -0.14702 0.19998
-0.16442 0.15294 0.15735
-0.22678 0.10996 0.20786
-0.15898 0.17057 -0.19753
-0.02635 -0.21330 0.19585
-0.09884 -0.21330 -0.04476
-0.22678 -0.19389 0.03990
-0.22678 0.17465 -0.17001
0.20492 -0.21330 -0.08564
0.16859 -0.14702 -0.19390
0.16071 -0.27712 0.13528
-0.14776 -0.06753 0.20805
-0.22678 -0.19801 -0.04020
-0.22678 -0.13995 -0.04745
-0.18722 0.10138 0.12676
0.16397 -0.39407 -0.17806
-0.18560 0.32226 -0.18350
-0.20949 0.05067 0.20805
-0.13178 0.11245 0.20009
0.11414 -0.14702 -0.03157
-0.13930 0.25280 -0.04544
-0.13994 -0.32084 0.12410
-0.16387 0.13611 -0.04544
-0.15664 0.03780 0.20805
-0.15543 -0.39054 0.10673
0.19187 -0.21330 0.08756
-0.14908 -0.13156 0.05596
-0.22149 0.23372 0.15735
-0.16296 -0.39407 -0.18281
-0.20293 -0.14702 0.00168
0.08252 -0.14702 0.15050
0.21547 -0.39356 0.11950
-0.18210 -0.19678 -0.19753
-0.16066 0.25502 -0.19753
-0.17079 -0.05049 0.00501
-0.17633 0.29532 0.05596
0.19993 -0.36614 0.14294
-0.16443 -0.29531 -0.10088
-0.18066 -0.07718 -0.14683
-0.20329 -0.08550 -0.09613
0.14954 -0.14702 -0.19161
0.21514 -0.16449 0.20805
-0.16736 0.26731 0.15735
-0.21164 0.16391 -0.04544
-0.09902 -0.14702 0.05097
-0.22678 -0.07639 0.17249
-0.13178 0.02128 -0.02555
0.20895 -0.21330 -0.01602
-0.18053 0.32748 -0.17756
-0.13178 -0.10907 0.18798
-0.21511 -0.00543 -0.14683
-0.15576 0.31154 0.10665
-0.22238 0.27280 0.10665
0.22678 -0.19570 -0.11031
-0.14273 0.17214 -0.00502
-0.14019 0.25776 -0.14683
-0.22678 0.22726 -0.07277
-0.22678 -0.21623 -0.13593
-0.21841 -0.39407 -0.15811
0.12762 -0.16184 0.04382
-0.14192 0.11750 -0.20002
-0.13178 -0.03045 0.20189
-0.06448 -0.15344 0.20805
-0.13178 -0.00351 -0.07068
0.17290 -0.21330 -0.10773
-0.13178 0.14679 0.06104
0.00326 -0.14702 -0.03172
0.02496 -0.17655 -0.19753
-0.13178 -0.13020 -0.19107
-0.17227 0.09695 0.04148
-0.21323 0.39070 0.04724
-0.13276 -0.07668 0.02627
-0.18396 -0.14702 0.01182
0.22099 -0.34531 -0.17599
-0.15289 0.34439 -0.09613
-0.18745 -0.07668 -0.04315
-0.21332 0.19774 0.10665
-0.22669 -0.30909 0.12410
-0.22678 -0.00741 -0.01849
-0.14144 -0.36475 -0.19753
-0.21504 0.25438 0.20805
-0.22678 -0.16728 0.09998
-0.19956 -0.03626 0.15735
-0.22678 -0.30258 0.19298
-0.19986 -0.14702 -0.09742
-0.21918 0.32998 0.15735
-0.13178 -0.26249 0.17866
-0.22678 0.29900 0.18258
-0.22166 0.09489 0.10665
-0.19412 -0.23776 -0.19753
-0.18402 -0.01690 -0.09613
0.22678 -0.19986 0.00834
-0.19866 0.27791 0.15735
-0.15348 0.08873 0.20805
0.16939 -0.32005 0.19701
0.18168 -0.14702 0.07711
0.20963 -0.23137 -0.12459
-0.20170 0.15334 0.15735
-0.19170 -0.09272 -0.14683
-0.19802 0.12196 -0.14683
-0.13178 -0.37461 0.14196
-0.19571 -0.27896 0.20805
-0.22678 -0.01957 0.05682
-0.17538 -0.18645 -0.19753
-0.15135 -0.36466 -0.10278
-0.21549 0.38708 0.06542
-0.13746 -0.39407 -0.18152
-0.15875 -0.01367 0.05596
-0.02354 -0.20390 -0.19753
-0.15077 0.29859 0.15735
-0.21870 0.39141 0.04367
0.17661 -0.23009 0.20805
-0.22451 0.07692 0.04438
-0.13178 0.07015 -0.07359
-0.22678 -0.10318 0.16152
-0.22678 -0.05538 0.06788
0.22678 -0.38809 0.19819
-0.19103 -0.10822 -0.20805
-0.22678 -0.16828 -0.01341
0.15100 -0.14702 -0.18513
-0.22678 -0.36690 -0.10686
0.21112 -0.14702 -0.10739
-0.13178 -0.07214 -0.02143
0.17539 -0.35276 0.20805
-0.22238 0.03293 -0.14683
0.06074 -0.15964 0.20805
-0.17639 -0.21330 -0.00285
-0.22678 -0.23238 -0.10048
-0.19850 0.24135 0.15735
-0.22678 0.22355 -0.19284
-0.17735 -0.29531 -0.17637
0.13433 -0.21130 -0.11156
0.22678 -0.21152 -0.11222
-0.19871 -0.03519 -0.09613
0.20694 -0.21330 -0.07807
-0.13178 -0.04950 0.09581
-0.14111 0.04988 -0.01828
-0.21570 -0.06675 -0.14683
-0.00652 -0.14702 -0.10623
-0.13178 0.36378 0.04859
-0.22678 0.25707 -0.16864
0.00421 -0.18375 0.20805
-0.08382 -0.21330 -0.14159
-0.19656 0.21221 -0.04544
-0.04494 -0.14702 -0.08884
-0.20269 -0.38528 -0.19753
-0.17706 -0.21678 -0.08452
-0.11502 -0.21330 0.19773
-0.19675 -0.12498 -0.04544
0.22678 -0.35305 0.17078
-0.16484 -0.14674 -0.20527
0.00527 -0.21330 0.20334
-0.14079 0.24025 -0.19753
-0.19858 0.17749 0.05596
0.20878 -0.34831 0.18371
-0.22678 0.22326 -0.14958
-0.18663 0.06728 0.15735
0.18418 -0.21330 0.02477
-0.18069 0.10418 0.03728
-0.22678 0.35846 0.10491
-0.18649 -0.39407 -0.12212
0.22678 -0.22766 -0.13928
-0.09408 -0.21330 0.03408
-0.17099 -0.26059 0.10673
0.10693 -0.14702 0.04219
-0.12785 -0.14702 -0.17749
0.19338 -0.32005 -0.13595
0.22678 -0.15493 0.08140
-0.21041 0.36460 -0.00142
-0.22678 0.08934 0.08629
-0.13178 0.00884 -0.17243
-0.22678 0.04007 -0.08043
-0.14482 0.20710 -0.04544
-0.11233 -0.14702 0.18906
-0.14491 -0.39407 0.16217
-0.22442 -0.35682 0.12410
-0.22678 -0.20750 -0.15227
0.22678 -0.28354 0.19921
-0.22678 0.25698 0.19176
-0.17344 -0.09415 0.10665
-0.20263 0.22673 -0.04544
-0.13178 -0.06869 -0.02990
0.21116 -0.38108 0.19377
-0.16363 -0.20644 -0.19753
-0.14046 0.08393 -0.09613
-0.06118 -0.21330 0.02716
-0.15810 -0.11473 -0.09613
0.18650 -0.39407 0.17984
-0.12414 -0.21330 0.14799
-0.10172 -0.14702 0.02307
-0.22137 0.03879 -0.09613
-0.17753 0.10138 0.13368
-0.14049 0.19257 0.20805
-0.11221 -0.14702 0.12448
-0.22678 0.06688 -0.19475
-0.17676 0.17778 -0.19753
-0.20101 0.37931 0.09412
-0.14960 -0.11649 0.05596
0.08908 -0.16515 0.20805
-0.22678 -0.18216 -0.06170
-0.20073 0.10138 0.15084
0.22678 -0.37742 0.13994
-0.15623 0.19171 -0.09613
-0.14954 -0.28508 0.10673
-0.17519 -0.14702 -0.01750
-0.13178 -0.36919 0.15761
-0.13178 0.13162 -0.04458
-0.18631 0.09844 0.15735
-0.15577 -0.05049 0.00765
0.22678 -0.19337 -0.10011
-0.16469 0.24777 0.10665
-0.15965 -0.00354 -0.19753
-0.09061 -0.14702 0.00123
-0.13178 0.01441 0.18643
-0.06111 -0.14702 -0.01469
0.15146 -0.21330 0.08231
-0.21579 0.27394 0.20805
-0.20336 -0.04870 0.15735
0.17808 -0.14702 0.05719
-0.18154 0.08830 -0.09613
-0.22678 -0.29388 0.12372
0.22678 -0.16990 -0.11606
-0.17836 0.31761 -0.04544
0.19727 -0.37238 0.14163
-0.22678 -0.00913 0.20369
-0.04725 -0.14702 0.05523
-0.13178 0.04339 0.01784
-0.20330 0.15134 -0.03719
-0.22678 0.13951 0.00467
0.01529 -0.14702 -0.17830
-0.21562 0.04582 0.02176
0.07803 -0.21330 0.18805
-0.20741 0.36101 0.02662
-0.19622 -0.08289 0.05596
-0.22678 -0.21482 -0.14425
-0.03913 -0.21330 0.09209
-0.16531 0.05546 0.03455
-0.22678 -0.18730 -0.03899
-0.19807 0.02721 0.10665
-0.22678 0.00221 0.06559
0.04965 -0.20480 0.20805
-0.20547 0.21198 0.10665
-0.22678 -0.26543 -0.09335
-0.22678 -0.24963 0.17893
-0.14144 -0.18839 -0.19753
-0.18336 -0.21330 0.10139
-0.22678 -0.24454 -0.11830
-0.14311 0.03980 0.20805
-0.17208 0.03935 -0.19753
-0.20178 -0.32119 -0.18504
0.17219 -0.14702 -0.00277
-0.19279 -0.32240 0.18964
-0.06059 -0.14702 0.15219
-0.13178 0.37910 -0.06899
-0.18205 -0.05049 -0.03903
-0.15644 0.05599 0.10665
-0.09422 -0.14702 -0.07764
-0.22004 0.00232 0.05596
-0.03930 -0.14702 -0.06858
-0.21381 0.22365 0.15735
-0.17140 0.34177 -0.15879
0.00366 -0.14702 -0.18295
-0.13178 0.09592 -0.07499
-0.13319 -0.29531 -0.13164
-0.13431 0.28556 -0.19753
-0.13446 -0.05049 0.01015
0.11525 -0.19819 0.20805
-0.15791 0.00848 0.15735
0.22678 -0.28847 -0.13763
0.00213 -0.19819 0.20805
0.11144 -0.14702 0.16088
-0.22287 -0.14702 -0.00196
-0.13178 0.18296 0.07818
-0.19142 -0.14778 0.20805
-0.13178 0.05948 -0.04215
-0.20588 -0.29531 -0.12712
0.22678 -0.21297 -0.09115
-0.15904 0.09467 -0.09613
0.22678 -0.18801 -0.17611
-0.21497 -0.39349 -0.08452
0.00841 -0.21330 -0.15488
-0.13178 0.11511 0.03241
-0.22678 0.23130 -0.06601
-0.21646 -0.17028 0.20805
-0.01395 -0.21330 -0.08780
-0.18644 0.35500 -0.02728
0.07293 -0.14702 -0.14707
0.20886 -0.35619 -0.19753
-0.18536 -0.13993 -0.04544
-0.14415 0.31516 0.10665
-0.21095 -0.14702 -0.12863
-0.22428 -0.23867 -0.19753
-0.15035 -0.04399 0.10665
-0.13365 0.19271 -0.14683
-0.16916 0.39327 0.01739
-0.03004 -0.14702 -0.02554
-0.18892 -0.09818 0.20805
0.09058 -0.21330 -0.15859
-0.19414 0.13124 -0.20193
0.21738 -0.14702 0.04391
-0.17283 0.00922 -0.19753
-0.18254 0.07004 0.13875
0.21121 -0.39020 -0.19424
-0.16466 0.15383 0.10665
0.08936 -0.16521 -0.03783
-0.14813 -0.31189 0.12410
-0.17353 -0.00808 -0.02376
-0.22678 -0.20915 -0.02871
0.17986 -0.36033 -0.12459
-0.18920 -0.21330 -0.03622
-0.15812 0.25763 -0.14683
-0.14594 0.24762 -0.09613
0.19436 -0.14702 0.19622
-0.18542 0.00735 0.15735
-0.13987 0.07182 -0.14683
0.22678 -0.19843 -0.18303
0.18947 -0.14702 0.02228
0.10847 -0.17311 0.14292
-0.16537 -0.26116 0.20805
0.06791 -0.15874 0.14292
-0.17715 0.19679 -0.14683
-0.21407 0.18576 -0.14683
-0.21682 -0.10916 0.20805
-0.22678 -0.24596 -0.18993
-0.22678 -0.38778 -0.14553
0.02721 -0.16999 -0.19753
-0.19376 0.32775 0.18777
-0.13245 0.29096 0.05596
-0.22458 -0.21330 -0.08053
-0.13178 -0.07677 0.18504
-0.13178 -0.01136 -0.06072
-0.19689 0.27620 -0.19753
0.00127 -0.19228 0.11767
-0.19702 0.07004 -0.10111
-0.13784 0.02347 -0.09613
-0.15067 0.05988 0.03796
-0.20938 -0.29336 0.20805
-0.05170 -0.15782 -0.19753
-0.20918 0.14749 0.10665
-0.13178 0.07891 -0.11510
0.06215 -0.17052 0.04382
-0.13178 -0.08621 -0.05833
0.22678 -0.19288 -0.01287
-0.18091 -0.30997 -0.19753
-0.21388 0.24475 0.10665
-0.22678 0.25800 -0.09405
-0.13412 0.24546 -0.19753
-0.14008 -0.01640 -0.09613
-0.10674 -0.14702 0.18302
0.09000 -0.21330 0.15515
-0.22678 -0.00930 -0.14867
0.17386 -0.36606 0.20805
0.13433 -0.16976 -0.06040
-0.07099 -0.14702 0.01182
0.13433 -0.18688 0.07905
-0.14445 -0.05049 -0.01219
-0.22223 0.04198 0.15735
-0.13178 0.20839 0.09542
-0.19399 0.20381 -0.19753
0.13222 -0.21330 -0.12014
-0.22678 0.27137 0.06894
-0.15545 -0.13296 -0.20078
-0.16938 -0.13212 -0.14683
-0.22678 -0.21866 0.11499
-0.22678 -0.29188 0.16206
-0.12437 -0.14702 0.02493
-0.01349 -0.21330 0.09542
0.15068 -0.14702 0.06373
0.22549 -0.34863 -0.12459
-0.22678 -0.14919 -0.09280
-0.19765 0.07482 -0.14683
-0.13178 0.33307 0.16668
-0.20622 -0.36466 -0.14170
-0.05378 -0.21330 -0.15401
-0.13178 -0.38720 -0.12885
-0.13178 0.07527 -0.12822
0.22678 -0.14735 0.11076
-0.22678 0.03847 0.00110
-0.18039 0.00755 0.05075
-0.15449 -0.25035 -0.19753
-0.14449 -0.33967 -0.08452
-0.22678 -0.02008 -0.19581
-0.13727 0.35291 -0.03023
0.08929 -0.18666 0.04382
-0.20759 -0.33864 0.10673
-0.22678 0.14631 0.19105
0.13312 -0.20841 0.20805
-0.13281 0.12042 -0.19753
0.00127 -0.18369 -0.06394
-0.13178 -0.22441 -0.11762
0.00180 -0.20708 0.04382
-0.22301 -0.30468 -0.09786
-0.20323 -0.29531 0.18671
-0.17012 0.36443 -0.00335
-0.18988 -0.29531 0.12434
-0.13178 0.16367 -0.02023
-0.13178 -0.35622 -0.19411
0.00127 -0.16618 -0.04474
-0.13178 -0.32516 0.11461
-0.13178 0.24375 0.19002
-0.14855 0.00363 -0.03697
-0.22678 0.03676 -0.04345
-0.21162 -0.30888 -0.09786
-0.22678 0.14018 -0.16228
-0.13180 0.22201 0.20805
0.03594 -0.14702 0.19662
-0.06101 -0.21330 -0.06603
-0.22678 -0.07385 -0.00259
-0.16959 0.16834 -0.01691
0.09607 -0.18965 -0.11768
-0.15901 0.05136 -0.01993
0.16033 -0.14702 0.13487
0.22199 -0.14702 -0.18533
-0.13178 -0.21901 -0.19231
-0.22678 -0.38792 -0.19099
0.22678 -0.16366 -0.06087
-0.13178 0.09083 0.06934
-0.19018 -0.29655 -0.09786
-0.22678 -0.20654 -0.01636
-0.22598 -0.00466 -0.04544
-0.22678 0.31098 0.17335
-0.13178 0.03051 -0.00282
-0.21967 -0.37586 0.20805
-0.13346 -0.08341 -0.09613
-0.22678 0.27350 0.05738
-0.13735 -0.32711 0.10673
-0.21141 0.10678 0.15735
0.14753 -0.21330 0.00074
-0.13912 -0.03627 -0.09613
0.22145 -0.39407 0.13350
-0.13178 0.12391 -0.16229
-0.20206 0.28467 0.15735
-0.13946 -0.08441 -0.09613
-0.21608 0.00559 -0.14683
-0.13178 0.05549 -0.08457
-0.19665 0.21255 -0.14683
-0.13178 -0.03002 -0.15096
0.19004 -0.36395 -0.19753
0.20727 -0.39407 0.17910
-0.14118 0.04831 0.02605
-0.18749 0.08989 -0.14683
-0.15522 0.09670 -0.19787
-0.18815 -0.25560 0.20805
-0.22678 0.27906 -0.05004
-0.22477 0.24717 0.10665
-0.18249 0.19911 -0.19753
-0.20213 -0.33604 -0.19753
-0.20090 -0.07668 -0.03431
-0.14938 -0.12598 0.20805
-0.20518 -0.16060 -0.19753
-0.13178 -0.07143 0.02521
-0.13178 0.07150 0.09370
-0.20534 -0.12351 0.20805
-0.13782 0.11299 0.10665
-0.18881 0.33724 -0.14683
-0.13178 0.02808 -0.15581
0.16670 -0.36614 -0.13862
-0.21048 0.33693 -0.14683
-0.13178 -0.23033 -0.13485
-0.21044 -0.10104 -0.04544
-0.22678 0.21790 -0.04825
0.03984 -0.17018 0.04382
0.16877 -0.36614 0.18904
-0.13178 0.04893 0.03797
-0.22678 0.26857 -0.18466
-0.22081 0.29955 0.15735
-0.19101 0.03832 -0.14683
-0.15430 -0.27826 -0.08452
-0.15737 -0.03684 0.05596
0.19053 -0.27241 0.11897
-0.22678 0.26014 -0.17873
-0.18311 -0.36333 -0.19753
-0.14107 0.00176 0.20805
0.22678 -0.17499 0.09714
-0.17065 -0.21330 0.06928
-0.07395 -0.14702 0.07686
0.21526 -0.35521 0.11897
-0.13178 -0.05705 0.00447
0.17598 -0.39407 -0.12731
-0.20463 -0.24605 -0.19753
-0.20422 -0.29808 -0.18504
-0.13178 0.14752 -0.18648
-0.15011 0.12107 -0.19753
-0.14401 -0.39407 -0.11457
0.08519 -0.21021 -0.19753
0.04623 -0.19955 0.14292
0.00127 -0.21051 -0.08080
0.22267 -0.27474 -0.12459
-0.22678 0.08220 0.15313
-0.21184 -0.36466 0.12915
0.14789 -0.21330 0.07307
-0.22678 0.06456 0.19393
-0.19481 0.39328 -0.00675
-0.22678 0.26854 -0.08192
-0.03443 -0.14702 -0.14303
-0.19375 0.16369 -0.20805
-0.22678 -0.21404 -0.17444
-0.14246 -0.21330 0.05792
0.03716 -0.21330 0.16140
0.22053 -0.14702 -0.04765
-0.22678 0.20149 0.20447
-0.13696 -0.09923 -0.09613
0.00127 -0.20490 0.13994
-0.22678 -0.19653 -0.02750
-0.22678 -0.17667 -0.04101
0.19156 -0.32403 -0.14234
-0.17125 -0.21330 -0.01862
-0.22678 0.28264 0.20455
-0.22635 -0.29531 0.17950
-0.10099 -0.14702 0.10030
0.18722 -0.35795 -0.19753
-0.21103 -0.04909 -0.04544
-0.22678 -0.34908 0.11386
-0.17091 0.09833 -0.09613
-0.19863 -0.14702 -0.02412
-0.04202 -0.14702 0.14618
-0.13178 0.36605 0.03340
-0.19545 0.22318 0.10665
-0.19263 0.00055 0.15735
-0.17896 0.26144 0.20805
-0.21857 -0.00526 -0.19753
0.03244 -0.16608 0.14292
-0.22678 0.14363 0.10418
-0.17231 -0.39407 0.19390
-0.18386 0.10138 -0.12008
-0.22265 -0.02553 0.10665
-0.21824 0.19433 -0.19753
-0.13636 0.26088 -0.19753
-0.22678 0.14290 0.18441
-0.22678 0.10937 -0.07575
-0.22678 -0.08888 0.16463
-0.13935 0.06726 -0.09613
0.16932 -0.36614 0.12802
0.20391 -0.14702 0.16362
-0.14975 0.28608 -0.14683
-0.17767 -0.29531 0.14176
-0.13178 0.29251 0.06937
-0.15585 -0.00669 0.10665
-0.13178 -0.26349 0.15141
-0.13950 0.07453 0.15735
-0.14225 0.29668 0.05596
-0.16134 -0.09810 -0.04544
-0.22678 -0.02593 -0.17373
-0.21700 0.08097 -0.09613
-0.13178 -0.01491 0.06164
-0.19127 0.11142 -0.19753
-0.22678 -0.08015 0.05658
-0.22240 0.10138 0.14563
-0.22171 0.14961 0.04890
-0.16123 -0.00240 -0.03123
0.19810 -0.21330 -0.11277
0.17197 -0.30143 0.11897
-0.22678 0.17157 0.18558
-0.21356 -0.05049 0.05070
-0.18744 0.33859 -0.04339
-0.17927 -0.05049 0.01025
-0.22678 0.12029 -0.08630
0.21485 -0.21986 -0.12459
-0.14322 0.21097 -0.19753
-0.12047 -0.17420 -0.19753
-0.17990 -0.12221 -0.09613
-0.13362 0.08044 0.10665
-0.22678 0.10679 -0.16964
-0.20910 0.03485 -0.09613
0.12147 -0.21330 0.17281
-0.13178 0.06089 0.17232
-0.18993 0.04302 -0.00234
-0.22678 -0.07361 0.07934
-0.22678 -0.23379 -0.11020
-0.21089 0.04670 -0.01274
0.22572 -0.33835 -0.17599
-0.20362 -0.37794 -0.08452
0.13465 -0.14702 0.09670
-0.13715 -0.14702 0.01314
0.03318 -0.19404 -0.19753
0.09294 -0.21330 -0.12118
-0.13178 0.17342 -0.07422
-0.13178 -0.25988 0.11448
0.22678 -0.25779 -0.12767
-0.13178 0.22573 -0.15550
-0.22678 0.06116 -0.07364
0.16386 -0.21460 -0.19753
-0.14555 -0.11349 -0.14683
-0.13387 -0.07668 0.04186
-0.20197 -0.18628 -0.19753
-0.19350 0.06842 0.04226
0.12447 -0.15618 -0.11768
-0.15158 -0.39096 -0.19753
-0.16201 -0.34466 -0.19753
-0.22340 -0.33113 -0.19753
-0.22343 0.19258 -0.19753
-0.22678 0.11762 0.20237
0.22678 -0.19432 0.05264
-0.22264 -0.39407 0.10911
-0.17662 0.15692 -0.19753
-0.19101 -0.39407 0.20208
-0.15173 -0.21330 -0.08153
0.14081 -0.17438 0.20805
0.17267 -0.14702 -0.05077
0.12613 -0.16427 -0.11768
-0.17160 0.07004 -0.14102
0.00127 -0.20054 -0.10097
0.15785 -0.14702 -0.14824
-0.14605 -0.09917 -0.09613
-0.22678 -0.19190 0.15983
0.17378 -0.14702 -0.02020
0.12504 -0.14702 0.18950
-0.22678 0.26662 0.17528
0.07316 -0.21330 0.17641
-0.13178 0.34872 0.04742
-0.18539 -0.00647 -0.09613
0.03034 -0.14702 -0.03430
0.22678 -0.19371 0.00978
-0.22378 0.15142 -0.14683
-0.21643 -0.36230 -0.09786
-0.13178 0.16474 -0.08024
0.02415 -0.21304 -0.11768
0.07544 -0.17501 0.20805
-0.20082 -0.10968 0.10665
-0.14430 0.33001 -0.09613
-0.14317 0.20254 -0.09613
-0.22678 -0.00570 0.17505
-0.13547 0.10587 0.20805
-0.07328 -0.15555 -0.19753
0.13016 -0.17508 -0.19753
-0.13730 0.21381 0.20805
0.16071 -0.28527 0.17014
0.22678 -0.15857 -0.03586
-0.13178 0.09269 -0.05163
-0.13178 0.22428 -0.18059
-0.13178 0.09853 0.16286
0.22678 -0.30388 0.19784
-0.22678 0.08805 -0.13746
-0.21795 0.15842 -0.09613
-0.22393 -0.07668 0.02015
-0.13208 0.32882 0.15735
-0.15422 -0.29531 0.14438
-0.22678 -0.38776 0.20282
-0.19196 -0.37172 0.20805
0.11612 -0.21330 0.15332
-0.20863 0.38203 0.08612
-0.21240 -0.29531 -0.10651
-0.22678 -0.07189 -0.06523
0.18695 -0.32664 0.15004
-0.13178 0.30956 -0.08324
0.15740 -0.21330 0.12513
-0.15035 0.34608 0.15735
-0.21541 -0.36717 -0.08452
-0.22678 -0.29866 -0.08592
-0.02267 -0.18371 -0.19753
-0.13178 -0.27104 -0.14461
-0.20747 0.00068 0.20805
-0.22678 0.09261 0.20762
-0.19860 -0.34547 -0.19753
0.16071 -0.37850 0.19045
-0.19894 0.34238 -0.15787
-0.17942 -0.14702 0.15522
0.08023 -0.16547 -0.11768
-0.19222 -0.10748 -0.19753
-0.21055 0.27493 -0.09613
0.07433 -0.21330 -0.18607
-0.22556 0.39177 0.04025
-0.18787 0.26189 0.05596
-0.19933 -0.21330 0.07635
-0.13178 0.36564 -0.03144
-0.21298 0.05797 0.20805
-0.22678 -0.06234 0.16613
-0.19379 0.12057 0.00784
-0.19283 0.17283 0.10665
-0.15640 -0.16027 -0.19753
-0.16440 -0.33864 -0.19753
-0.20322 0.07004 0.15185
0.16071 -0.24558 0.20428
-0.17381 0.10138 0.14435
-0.22678 0.38063 -0.05804
-0.18201 0.26116 0.10665
-0.00880 -0.21330 0.07561
-0.13178 0.07942 -0.06422
0.15407 -0.21330 -0.11032
-0.21572 0.27494 -0.04544
-0.17946 0.26318 0.15735
-0.20266 0.14306 -0.20721
-0.01022 -0.14702 -0.04073
0.15531 -0.14702 -0.09441
-0.19917 -0.31647 0.12410
-0.19192 -0.13597 0.10665
-0.16408 0.03943 -0.20532
-0.22678 -0.27863 -0.17948
-0.13178 0.23763 0.07168
-0.22678 -0.22764 0.16055
0.19873 -0.39407 -0.15829
-0.17961 -0.08868 -0.04544
-0.00495 -0.21330 -0.17468
-0.14248 -0.13753 0.10665
-0.22678 -0.13052 0.08491
-0.17029 -0.33241 -0.18504
-0.18654 0.27682 -0.04544
-0.13178 0.26776 0.15816
0.18751 -0.34831 0.14174
-0.22678 -0.15695 -0.04884
-0.19140 0.21221 -0.20805
0.22678 -0.26763 0.13348
-0.03360 -0.14702 0.03634
-0.22678 -0.00175 0.18802
-0.22678 0.00862 -0.03192
-0.13178 -0.05496 -0.02570
-0.13178 0.26182 0.06765
0.10676 -0.21330 -0.00278
-0.22678 0.09069 -0.17753
0.07642 -0.20437 -0.11768
-0.19642 0.36460 0.01196
-0.13178 -0.22792 0.16722
-0.02576 -0.21330 -0.12677
-0.15867 -0.31874 -0.08452
-0.20727 -0.36466 -0.17235
-0.13178 0.28329 0.10282
-0.17318 -0.05022 -0.19753
-0.20264 -0.21330 -0.07729
0.16922 -0.21330 -0.08238
0.02095 -0.15211 -0.19753
-0.04923 -0.21295 -0.19753
-0.15244 -0.07978 0.15735
-0.17375 0.00603 0.20805
-0.21598 -0.09385 -0.14683
-0.22575 0.33275 -0.09613
-0.14254 0.35901 -0.02035
-0.08219 -0.21330 -0.05398
-0.14408 0.01793 0.10665
0.17633 -0.34831 -0.18779
0.15014 -0.21330 0.09985
-0.01470 -0.21330 0.19350
-0.19107 0.07004 0.12913
-0.22678 -0.04892 -0.16363
-0.01070 -0.21330 -0.13695
-0.16395 -0.07668 0.04133
0.03475 -0.21330 -0.15630
0.18741 -0.38405 -0.13368
0.21940 -0.14702 0.06429
-0.22604 -0.12051 -0.19753
-0.16870 -0.02736 -0.04544
0.21050 -0.31278 0.11897
-0.15056 -0.28287 -0.08452
-0.15113 0.21295 -0.19753
-0.22678 -0.03599 -0.06011
-0.13178 -0.05144 -0.08417
-0.15202 -0.21330 -0.05487
-0.14390 -0.29811 -0.19753
0.13974 -0.14702 -0.10127
-0.06976 -0.21330 -0.13240
-0.22603 0.23628 -0.09613
0.01138 -0.21330 0.17582
-0.15799 0.02725 -0.09613
0.10533 -0.21330 0.02153
0.17212 -0.24024 -0.12459
-0.22678 -0.17569 -0.00509
-0.18113 0.16976 0.02332
-0.15974 0.00280 0.04680
-0.22678 0.27684 0.08176
-0.11885 -0.21330 0.15932
-0.13178 -0.11241 -0.18662
-0.00484 -0.21330 0.20497
-0.16054 -0.29249 0.20805
-0.22678 -0.08116 -0.19516
0.07308 -0.21330 -0.00346
0.19029 -0.29943 -0.12459
0.07467 -0.18606 0.20805
0.17046 -0.34831 0.14192
-0.20945 0.11547 0.02454
-0.16641 0.07666 0.10665
0.18588 -0.22811 0.20805
-0.17756 0.25333 0.05596
-0.17913 -0.39407 -0.12791
0.05158 -0.20617 -0.03783
-0.14477 0.34695 0.04729
-0.22678 0.14991 -0.18158
-0.13178 -0.02501 -0.08095
0.22003 -0.34831 0.20456
-0.09219 -0.20543 0.20805
-0.19195 -0.24679 -0.19753
-0.15516 -0.36466 -0.17917
-0.22678 -0.16359 0.19643
-0.18546 0.38694 -0.05563
-0.19300 0.11548 0.02453
-0.22678 -0.25889 -0.15332
-0.13178 -0.06849 0.20482
-0.19295 -0.36466 0.16324
-0.02184 -0.14702 -0.11314
-0.07841 -0.21330 -0.19531
-0.13178 0.22505 0.09236
0.19070 -0.14702 0.04862
-0.22678 -0.19926 0.05726
-0.18724 -0.29531 0.14313
-0.13178 -0.01808 0.09567
-0.20326 0.33404 -0.09613
0.16071 -0.28941 -0.15551
-0.14188 0.27795 0.05596
-0.00840 -0.20441 0.20805
-0.21055 0.15176 0.20805
0.18449 -0.32005 0.14809
-0.00823 -0.14702 0.04504
0.16071 -0.27000 0.15781
-0.05561 -0.14702 0.12463
-0.19606 0.09434 0.15735
-0.22498 0.24710 -0.09613
0.10473 -0.14702 0.18155
-0.13187 0.28491 -0.09613
-0.15522 0.13232 -0.19924
-0.16541 0.34750 -0.14683
-0.13178 0.35063 0.06763
-0.15801 0.07783 0.20805
-0.18005 -0.29531 -0.15560
-0.17668 -0.00582 -0.14683
-0.18492 0.13463 -0.14683
-0.19285 0.27014 -0.04544
-0.13681 0.00884 0.15735
-0.19409 0.08997 0.04347
-0.14749 0.31971 -0.04544
-0.13178 0.26999 -0.14825
-0.14755 0.03799 -0.19753
-0.15351 -0.39407 0.18654
-0.21010 0.10138 -0.10446
0.22031 -0.15749 -0.19753
-0.21355 -0.39407 0.17182
-0.17789 0.33247 0.05596
-0.06543 -0.14702 0.00904
-0.20223 -0.21330 -0.00021
-0.16361 0.19917 -0.14683
-0.18129 0.18237 -0.09613
-0.15207 -0.05798 0.15735
-0.15776 -0.11456 -0.14683
-0.13178 0.12706 0.05159
0.15437 -0.14702 0.04526
-0.15949 -0.24925 0.10673
-0.22678 0.22576 -0.09099
-0.16830 -0.02030 0.10665
-0.12381 -0.14702 -0.19682
-0.14790 0.07753 -0.14683
-0.18302 -0.32202 0.10673
-0.14366 -0.18745 -0.20805
0.04522 -0.14702 0.01436
-0.15160 0.10934 -0.14683
-0.15374 0.07004 -0.09613
0.22678 -0.20171 0.19568
-0.16545 -0.05049 0.02541
0.16071 -0.27270 -0.12898
-0.13329 -0.14702 -0.03372
-0.18478 0.11237 -0.20805
-0.16716 -0.21330 0.10627
-0.22678 -0.24983 0.14493
-0.21802 0.20785 -0.09613
-0.14039 0.02265 -0.19753
-0.22678 -0.24243 0.15406
-0.22678 0.10584 0.07807
-0.16022 0.35042 -0.09613
-0.22678 -0.00740 -0.15850
0.16071 -0.37535 0.14360
-0.19634 0.33328 0.15735
0.16121 -0.14702 0.14021
-0.20977 0.10735 -0.09613
-0.13217 -0.14702 0.12526
-0.22678 -0.15472 -0.00539
0.19554 -0.25529 0.11897
-0.06565 -0.14702 0.09769
-0.05345 -0.19395 -0.19753
-0.18174 0.27212 -0.20708
-0.14079 -0.03920 0.15735
0.07433 -0.20435 0.04382
-0.15886 -0.35739 -0.09786
0.00127 -0.16878 0.12065
-0.20782 0.23088 -0.09613
-0.15667 0.10138 0.12476
0.16319 -0.39407 0.12674
-0.22678 0.36656 0.00569
-0.13198 0.27410 0.05596
-0.15271 0.32681 -0.17832
-0.22678 0.37596 -0.01661
0.21885 -0.23252 -0.12459
-0.15084 0.39161 0.04261
-0.16606 0.23941 0.10665
-0.14910 -0.01608 0.20805
-0.21065 0.00763 -0.04544
-0.13178 -0.28675 -0.15103
0.07572 -0.14702 -0.13725
-0.13178 -0.35623 0.10926
-0.19274 -0.18842 -0.19753
-0.19609 0.38555 0.07311
0.22678 -0.16325 -0.16244
-0.15784 0.17458 -0.14683
0.02461 -0.14702 -0.01317
-0.13178 0.13166 -0.15472
-0.22678 -0.17648 -0.01569
0.16071 -0.36326 -0.12477
-0.15097 0.04236 0.00753
-0.22035 -0.14702 0.11054
-0.17602 -0.21330 0.01450
-0.22678 0.01740 0.02571
-0.22678 0.01416 -0.09195
-0.20408 -0.35822 -0.08452
0.15683 -0.16526 -0.19753
-0.13178 0.02835 0.04468
-0.20930 0.07025 -0.09613
0.10792 -0.21330 0.19812
0.19366 -0.39407 -0.13897
-0.22678 0.02681 0.06103
-0.13178 -0.27211 -0.17094
-0.16304 -0.29531 -0.13541
-0.21837 0.24496 -0.09613
-0.13873 0.12709 -0.09613
-0.21370 -0.06402 -0.09613
-0.14627 0.07675 -0.09613
-0.13178 -0.02402 -0.17200
0.22678 -0.23002 -0.18868
-0.13665 0.18167 -0.14683
-0.15051 -0.12000 0.10665
-0.18391 -0.34337 -0.08452
-0.15167 -0.38415 -0.08452
-0.22678 0.16098 0.18701
-0.13178 -0.07770 -0.09198
-0.15108 0.04518 -0.19753
-0.22136 -0.16706 -0.19753
-0.17356 -0.01371 -0.01119
0.22678 -0.17190 -0.14147
-0.14206 0.22667 -0.20805
-0.20668 -0.22069 -0.08452
0.17560 -0.14702 -0.12188
-0.13628 0.10138 -0.14546
-0.14708 0.17214 0.15735
-0.21287 0.19827 -0.14683
0.11449 -0.18317 0.14292
-0.02192 -0.14702 0.11006
0.09603 -0.21330 0.00074
-0.13178 0.36153 0.08382
0.17424 -0.36614 0.19858
-0.21299 0.05092 -0.19753
-0.13178 0.02178 -0.03802
-0.16841 -0.35312 -0.09786
-0.22678 -0.15168 0.20644
-0.20920 0.21722 -0.09613
-0.20788 -0.01267 0.02516
-0.13178 0.10290 -0.16630
0.01565 -0.18462 -0.03783
-0.16198 0.08064 0.10665
0.22678 -0.15574 -0.13662
-0.22678 0.20584 -0.04830
-0.15274 -0.39407 0.15922
-0.17155 0.08031 -0.03384
0.13396 -0.21330 0.15596
-0.15609 0.14479 -0.04544
-0.21056 0.31418 -0.09613
0.02922 -0.15328 0.04382
0.22678 -0.26371 0.15574
0.20397 -0.32005 -0.19208
0.00311 -0.18426 0.04382
0.12373 -0.18859 0.04382
-0.13178 0.00824 -0.01469
0.20454 -0.21330 -0.00521
-0.15839 -0.39407 0.18917
-0.08353 -0.14702 0.17361
0.20029 -0.32005 0.19302
-0.20243 0.28376 -0.14683
-0.13178 -0.03982 0.06579
-0.14333 0.24830 -0.20805
0.18195 -0.34831 0.13672
-0.13178 -0.39407 -0.09372
-0.02903 -0.21330 -0.05657
-0.22678 -0.12876 -0.05490
-0.03539 -0.21330 0.15663
0.22678 -0.32320 0.16125
-0.22678 0.20364 -0.16183
-0.22678 -0.13896 -0.18283
-0.15313 0.10138 -0.11017
0.22678 -0.38855 0.18131
-0.14570 0.24473 0.20805
-0.20596 0.12777 -0.19753
0.16122 -0.22412 0.20805
-0.22678 -0.06508 0.03458
-0.08904 -0.21330 -0.06228
-0.19917 0.19084 0.05596
0.05418 -0.21330 -0.13433
0.00323 -0.20992 -0.11768
-0.17034 0.07834 -0.09613
0.16071 -0.31148 0.19464
0.13433 -0.16149 -0.07857
-0.21927 -0.14832 0.20805
-0.13178 -0.12455 -0.15404
-0.13178 0.28584 -0.15213
-0.21326 -0.21330 0.00211
-0.19423 0.23831 -0.14683
0.06480 -0.21330 -0.14493
-0.14454 0.05701 -0.19998
0.04527 -0.21330 0.14372
-0.20993 -0.29531 -0.17513
0.16805 -0.14702 0.02936
-0.13178 0.13378 -0.03589
-0.22678 0.03770 -0.17917
-0.20142 -0.04630 0.20805
-0.18890 0.13808 -0.19753
0.16059 -0.14702 0.05930
-0.22371 -0.39407 -0.11560
0.05214 -0.18218 -0.11768
-0.15779 0.13148 -0.09613
0.00127 -0.16212 -0.09547
-0.15961 -0.25116 -0.20805
0.13643 -0.14702 0.18190
-0.15709 0.04260 0.01137
-0.10167 -0.14702 -0.12725
-0.18788 0.08528 -0.19753
0.22678 -0.36614 0.12672
-0.22678 -0.05652 -0.15149
0.17308 -0.36614 -0.19446
-0.13178 -0.02452 -0.18171
-0.17398 0.28837 0.05596
-0.21522 0.03925 0.10665
-0.20421 0.07773 0.10665
-0.22678 0.01730 -0.05333
0.16165 -0.34831 -0.12940
-0.21079 0.08331 -0.19753
-0.19662 0.11356 0.10665
0.00631 -0.14702 -0.16946
0.08971 -0.18994 0.20805
0.04858 -0.21330 0.16274
-0.14588 0.27326 0.05596
0.22678 -0.17846 0.16804
-0.12384 -0.21330 0.10745
-0.18774 -0.12468 0.05596
0.18181 -0.14702 -0.10707
0.16216 -0.39407 -0.12565
-0.03866 -0.14702 0.05855
-0.21068 0.31778 0.19911
-0.22310 0.07769 0.15735
-0.18400 0.09173 -0.03247
-0.22678 0.15896 -0.04618
-0.15357 -0.07668 -0.01256
0.19712 -0.21330 0.02708
-0.19523 -0.07668 0.05067
0.09905 -0.21330 -0.03557
-0.15506 -0.29981 0.18964
0.16507 -0.23728 -0.12459
-0.19628 -0.12039 -0.14683
-0.16658 -0.32051 0.10673
-0.20866 -0.32882 0.20805
-0.08503 -0.14702 -0.19522
-0.15773 -0.01635 0.00669
-0.17732 0.37859 0.09622
-0.22628 -0.38077 0.10673
0.22678 -0.20276 0.15533
0.22678 -0.17045 0.04748
-0.15721 0.28300 -0.04544
-0.22090 0.09013 -0.09613
-0.13178 0.25420 -0.08037
-0.21669 -0.07934 0.10665
-0.22678 -0.15156 -0.04620
-0.13178 0.15987 0.06077
-0.13178 -0.21468 0.13439
-0.18185 0.17094 -0.00928
0.16441 -0.21330 -0.06010
-0.22678 -0.19456 0.11610
-0.13178 0.33671 0.17248
-0.13448 0.20018 -0.04544
-0.09801 -0.18424 0.20805
-0.16623 -0.29531 0.16545
-0.20338 0.35528 0.10665
-0.22678 0.15623 0.19139
-0.22678 0.06921 -0.08248
-0.13178 0.16231 0.17035
0.13433 -0.21205 0.11444
-0.14297 0.38142 0.08790
0.20190 -0.32005 0.14169
-0.14389 0.25809 0.10665
-0.19800 -0.36466 -0.10202
-0.16063 -0.08464 -0.19888
0.19844 -0.21330 0.09110
-0.22521 0.15921 -0.19753
-0.22678 0.18285 -0.07505
-0.10092 -0.21330 -0.18591
0.17174 -0.36614 0.17960
0.05724 -0.21330 -0.14893
-0.19093 -0.23079 -0.08452
-0.21484 -0.14702 -0.03145
-0.22678 -0.37439 0.13640
-0.19928 -0.13285 -0.20805
0.21386 -0.21330 0.06407
-0.14885 -0.23478 -0.19753
-0.22678 -0.38865 0.13497
0.18477 -0.21330 -0.12357
-0.13178 0.31846 -0.08361
-0.13881 0.17829 -0.09613
-0.20740 0.08941 0.15735
-0.15150 -0.21330 0.04584
0.22678 -0.24073 0.12338
-0.13404 -0.14702 -0.01951
-0.19382 -0.12801 -0.20805
-0.04105 -0.21330 0.03006
0.00127 -0.15936 0.10770
0.09868 -0.15983 0.14292
-0.12477 -0.21330 0.16271
0.04631 -0.20998 -0.19753
-0.19886 0.18304 0.05596
0.16934 -0.37235 0.18417
-0.13178 0.26656 -0.19293
-0.20181 0.13705 0.20805
-0.21604 0.27975 -0.19753
-0.21945 0.10062 0.03935
0.19006 -0.33687 -0.14234
0.03868 -0.21330 -0.17408
0.17354 -0.39407 0.13251
-0.15197 -0.09569 -0.20135
-0.20238 -0.29531 0.17074
-0.14285 0.21811 0.05596
-0.17352 0.26619 0.05596
0.08525 -0.14702 -0.16187
-0.18429 0.16133 0.20805
-0.13856 -0.22799 0.10673
0.00569 -0.14702 0.16174
-0.12056 -0.16447 -0.19753
-0.18718 0.12307 0.10665
0.14944 -0.14702 -0.14008
-0.20664 -0.10769 -0.19753
0.22678 -0.22756 0.14195
-0.22678 -0.00814 0.03304
-0.13178 -0.21996 -0.14919
-0.13389 -0.34003 0.10673
0.16071 -0.23682 0.16789
0.13433 -0.18887 0.08986
0.17524 -0.14702 -0.13773
-0.21267 -0.14702 -0.11909
-0.17638 -0.29657 -0.18504
-0.16026 0.01710 -0.19753
-0.18178 0.21673 0.20805
-0.14635 0.30871 0.05596
-0.13182 -0.29531 -0.10825
0.16071 -0.37391 0.16781
-0.04224 -0.21330 -0.00343
-0.03927 -0.14702 -0.16457
0.03559 -0.14702 -0.18405
0.22678 -0.16879 -0.05550
-0.22678 0.28162 -0.15833
-0.18946 -0.31438 -0.09786
0.15752 -0.14702 0.17304
0.22678 -0.30018 -0.16158
0.16517 -0.29878 -0.19753
-0.16830 0.16983 -0.19753
-0.14214 -0.24275 -0.08452
-0.13178 0.14352 -0.06216
0.22598 -0.29334 0.20805
-0.13178 -0.14030 -0.04887
0.06720 -0.14702 0.14909
-0.13178 0.08533 0.10468
0.21067 -0.27613 -0.19753
-0.22678 0.33439 0.17000
-0.20647 -0.39407 -0.18819
0.05685 -0.14702 -0.19202
-0.22678 -0.06798 0.18961
0.00725 -0.19896 0.14292
-0.13178 -0.22304 0.13190
-0.13178 -0.39321 0.13499
-0.16011 0.31111 -0.04544
0.14565 -0.21330 0.05140
0.00587 -0.21330 -0.03563
-0.14651 -0.30000 0.18964
-0.15890 -0.05937 -0.19753
-0.06062 -0.21330 -0.12491
0.18528 -0.38353 0.12998
-0.18264 -0.09693 0.15735
-0.22678 0.13398 0.00714
-0.04252 -0.21330 0.10877
-0.13178 -0.08804 -0.09367
-0.20383 0.06691 -0.09613
-0.19046 -0.01554 -0.00443
0.22678 -0.23370 -0.12512
-0.13178 0.17849 0.19544
0.16071 -0.36845 -0.15216
-0.01628 -0.21330 -0.02643
0.14865 -0.14702 -0.01053
-0.22678 0.19965 0.08178
-0.22678 -0.07025 -0.03994
-0.14625 -0.01690 0.05596
-0.20933 -0.37580 0.10673
-0.19504 -0.02034 0.10665
0.22678 -0.35841 0.18059
-0.13178 -0.28172 -0.08824
-0.18168 -0.10017 -0.20805
-0.21555 0.34526 -0.14683
-0.21163 0.39196 -0.02683
-0.22678 0.33443 0.17721
-0.22243 0.35769 -0.02316
-0.20327 0.36461 -0.09613
-0.17923 0.07983 -0.19753
0.21408 -0.14702 0.15583
-0.16129 0.07336 0.10665
0.19510 -0.14702 0.11849
-0.14913 0.06329 -0.14683
-0.19608 -0.29531 0.18168
-0.15419 0.10108 0.10665
-0.22678 -0.16332 0.05624
-0.22678 -0.11491 0.09081
-0.22678 -0.08059 -0.16714
-0.13178 -0.03616 -0.05654
-0.22678 0.04018 -0.01683
0.18613 -0.26625 0.20805
0.18523 -0.30304 -0.12459
0.22678 -0.18357 -0.13064
-0.19784 0.17125 0.15735
-0.06903 -0.14702 0.08533
0.13070 -0.21330 0.03021
-0.13692 0.33677 0.05516
-0.06310 -0.21330 0.17035
0.20499 -0.29914 0.11897
-0.13872 -0.26542 0.20805
-0.16593 0.38639 -0.05838
-0.22678 0.08829 -0.12362
-0.22678 -0.24916 -0.15112
-0.16322 0.20151 0.05596
-0.10099 -0.14702 -0.10793
0.13433 -0.19778 -0.09020
-0.13178 0.25064 0.20104
-0.15505 -0.39407 0.17882
-0.21859 0.23206 0.05596
0.12135 -0.14702 0.00719
-0.21221 -0.36466 -0.15550
0.13936 -0.21330 0.20486
-0.21664 0.30454 0.15735
0.05216 -0.14702 0.19658
-0.13178 -0.13534 -0.18521
-0.16339 0.01033 -0.04544
-0.02916 -0.19320 -0.19753
-0.21968 -0.12468 -0.09613
-0.20766 -0.07963 -0.14683
-0.13178 -0.03290 -0.05106
-0.13178 0.13659 0.16525
-0.14953 0.31027 -0.09613
-0.13178 -0.11885 -0.18414
-0.20930 -0.29531 -0.15427
0.04714 -0.19391 0.04382
-0.22678 -0.12429 -0.08851
-0.17824 0.28486 -0.19753
0.17725 -0.37279 0.14120
-0.19789 -0.07668 0.00719
0.12426 -0.15624 -0.03783
-0.10748 -0.21330 -0.14459
-0.13178 0.04651 0.05851
-0.22678 -0.21744 -0.12909
-0.01702 -0.14702 -0.19349
-0.22678 0.37684 -0.06429
-0.15839 0.07004 -0.13284
0.17650 -0.14843 -0.19753
-0.19645 -0.14702 -0.04433
-0.22678 0.36765 0.08979
-0.22678 -0.28123 0.14510
-0.22159 -0.29531 -0.13517
-0.22678 -0.06965 -0.08067
0.16436 -0.35626 0.11897
-0.17459 0.10138 -0.12780
-0.15951 -0.26974 0.20805
-0.17979 -0.29900 -0.08452
-0.15405 0.09512 0.04207
0.22379 -0.32005 0.14601
0.22678 -0.22988 0.19646
-0.19517 -0.21330 -0.01722
0.17488 -0.26172 0.20805
-0.13178 0.07617 -0.04691
0.00127 -0.15226 0.06293
-0.20577 0.28833 -0.19897
-0.22678 0.04107 -0.08664
-0.22678 -0.17759 -0.14876
-0.18427 0.38260 0.08443
-0.15710 0.28657 0.20805
0.22678 -0.19201 0.16975
-0.13427 0.33913 -0.16273
-0.15213 0.07596 0.10665
-0.22078 0.16860 0.02680
-0.21968 -0.06323 0.15735
-0.22678 0.24397 0.17118
0.20313 -0.36614 0.13524
-0.22678 -0.27287 -0.11084
-0.22678 0.35650 0.03858
-0.13178 -0.05125 0.16377
0.21515 -0.31849 -0.12459
-0.13178 -0.34367 0.19096
-0.14299 -0.35826 -0.09786
-0.22678 0.18654 0.10645
0.00127 -0.17382 -0.10674
0.07552 -0.18382 -0.03783
0.21639 -0.24141 0.11897
-0.22678 0.04650 0.17762
0.14468 -0.14702 -0.07662
0.22419 -0.36614 -0.18035
-0.21070 0.26627 0.10665
-0.15193 -0.07668 -0.03427
0.03083 -0.16582 0.04382
-0.19271 0.30797 -0.09613
0.21192 -0.38440 0.12907
-0.22678 0.08255 0.18949
-0.20555 0.12003 -0.09613
-0.05132 -0.14702 0.02047
-0.22678 -0.27860 -0.17229
-0.16540 0.21114 0.20805
-0.13178 0.12566 0.19897
0.13072 -0.14702 0.01783
-0.16960 0.20398 -0.19753
-0.16836 0.25733 -0.09613
0.19049 -0.14702 0.03967
0.16071 -0.22998 -0.17607
-0.22678 0.10466 0.10601
-0.10344 -0.15535 0.20805
-0.18048 -0.29531 -0.16522
0.21598 -0.14702 0.18864
-0.13504 0.21214 0.05596
-0.14113 0.39335 -0.00561
0.19751 -0.39407 0.17730
-0.15461 0.19638 -0.20805
-0.16409 -0.09975 -0.19765
-0.22678 0.00728 0.09257
-0.19162 0.24230 0.10665
-0.22337 0.21529 -0.14683
0.16071 -0.24798 -0.15696
0.18493 -0.14702 -0.18459
-0.16480 -0.05049 0.03837
-0.14837 0.39249 -0.01873
-0.22678 -0.11040 0.17375
-0.22672 -0.00307 -0.03040
0.20266 -0.14702 -0.11616
-0.22466 -0.33795 -0.08452
-0.17534 0.20455 -0.04544
-0.22678 0.27682 -0.05927
-0.13232 -0.14702 -0.01113
0.18937 -0.14898 -0.19753
-0.19557 -0.21330 -0.01074
-0.15904 0.12669 0.20805
0.16915 -0.30695 0.20805
-0.14532 0.39209 0.03540
0.22354 -0.14702 -0.17014
0.07468 -0.21330 0.19537
-0.13178 0.01593 0.04973
-0.13178 0.11143 -0.05097
-0.14069 -0.14702 -0.00275
0.13469 -0.21330 0.16370
-0.15547 0.07092 0.15735
-0.17630 0.15259 0.15735
-0.10596 -0.21330 -0.16618
-0.14202 -0.02614 -0.19753
-0.19784 -0.29244 -0.08452
-0.17519 -0.30080 0.18964
0.21829 -0.21330 0.10961
-0.22678 0.04950 0.19010
-0.15021 -0.34044 0.20805
-0.13178 -0.22187 -0.18600
-0.22508 -0.02872 0.20805
-0.22678 0.08510 -0.18673
-0.10998 -0.20799 -0.19753
-0.22678 0.23111 -0.19472
-0.13178 -0.22130 -0.10614
0.14498 -0.14702 0.15928
-0.07917 -0.14702 -0.15960
0.16788 -0.37701 -0.18299
-0.22678 0.05685 0.10532
-0.13178 -0.00820 -0.18057
0.02002 -0.20899 -0.11768
-0.13443 -0.36466 -0.10867
-0.18568 -0.00083 0.05596
-0.17864 -0.14197 -0.19753
-0.13178 -0.09877 0.05776
-0.15015 -0.31768 0.12410
0.03598 -0.21330 -0.01489
0.16937 -0.14702 0.03970
0.16071 -0.24999 0.18253
-0.21400 0.24702 -0.19753
-0.06028 -0.21330 -0.02221
-0.20835 0.11807 -0.00914
-0.20484 0.34180 0.15735
-0.21263 0.15511 0.05596
-0.13178 0.03184 0.08509
-0.13178 0.01483 -0.19095
0.22678 -0.31518 -0.13841
-0.18489 0.16695 -0.19753
-0.18253 -0.13497 -0.14683
0.07148 -0.21330 -0.16409
0.07394 -0.14702 0.18268
0.13489 -0.21330 -0.14224
-0.22678 0.26700 -0.15936
-0.19433 -0.11973 0.05596
-0.22531 -0.32761 0.10673
-0.22678 0.02435 -0.00848
-0.13178 0.11336 0.10309
-0.18029 0.11077 -0.19753
-0.19070 -0.31569 -0.19753
0.16071 -0.30317 0.14397
-0.19159 -0.29531 -0.14801
0.13045 -0.16507 -0.19753
-0.22678 0.15576 -0.17007
-0.13178 0.37665 0.04142
-0.22304 -0.25090 -0.08452
0.21501 -0.14702 -0.10224
-0.14838 0.25677 -0.04544
-0.13178 0.24822 0.08864
0.01546 -0.21330 -0.14468
-0.18586 0.05629 -0.14683
0.18752 -0.14702 0.17016
-0.18750 0.04765 0.15735
-0.19583 -0.39407 -0.12962
-0.13178 0.20219 -0.16117
0.00127 -0.19893 0.12634
0.00127 -0.14752 -0.11034
0.04443 -0.18751 -0.03783
-0.15808 -0.01143 -0.01743
-0.14348 -0.21455 0.10673
-0.13178 0.03110 -0.05046
-0.18942 0.21438 -0.04544
-0.19759 -0.10357 0.10665
-0.19459 -0.10274 0.15735
-0.18253 -0.36768 -0.08452
-0.22678 0.36525 -0.05510
0.10564 -0.14702 0.01194
-0.22678 0.12011 -0.07891
0.02180 -0.14702 0.15591
-0.22455 -0.36466 0.18722
0.00127 -0.21065 0.06945
0.01957 -0.21330 0.20739
-0.18156 -0.07668 0.02595
-0.18635 -0.06580 -0.19753
0.19321 -0.25964 0.20805
0.22084 -0.32452 0.15004
-0.13386 -0.21330 0.02762
-0.14500 -0.39407 -0.18691
0.22678 -0.18865 0.06824
-0.17125 -0.37495 -0.08452
0.21796 -0.29484 -0.19753
-0.20527 -0.07668 0.01601
-0.19498 0.13574 -0.04544
-0.11329 -0.21330 -0.17550
-0.20615 -0.31378 0.18964
-0.18610 0.02837 0.20805
-0.22678 -0.20749 0.04640
-0.05678 -0.14702 0.14480
-0.19406 0.14236 0.05299
0.16071 -0.34996 -0.16596
-0.14509 0.03100 -0.14683
-0.15934 -0.19124 -0.19753
0.22678 -0.20404 -0.16495
0.10607 -0.21330 -0.18385
-0.15048 0.33185 0.05596
0.22678 -0.19784 0.14885
-0.18557 -0.07668 0.04175
-0.07054 -0.21330 0.17400
-0.12087 -0.14702 -0.02856
0.06759 -0.17006 0.14292
-0.15731 0.33610 0.05562
0.15108 -0.20223 0.20805
-0.13178 0.12956 0.17089
-0.14450 0.15089 -0.19753
-0.13178 0.09100 -0.12702
0.03856 -0.21330 0.17463
-0.13178 0.13759 0.10106
0.20936 -0.38166 -0.13585
-0.15392 0.00436 -0.19753
0.06675 -0.14702 0.18118
0.19604 -0.21330 -0.06279
-0.16433 -0.19794 0.20805
-0.22678 -0.07119 0.20265
-0.13178 -0.30559 0.10784
0.13433 -0.17497 -0.09835
0.13433 -0.17421 -0.06712
0.00127 -0.18474 0.10108
-0.19121 0.31995 0.15735
-0.22678 0.18912 -0.06365
-0.16596 0.17213 0.10665
-0.03006 -0.21330 0.00921
-0.17834 0.27268 0.10665
-0.13245 -0.36466 -0.13933
-0.15100 0.14045 -0.04326
-0.22170 -0.35022 0.12410
-0.18123 -0.34394 0.18964
0.02112 -0.16387 0.20805
-0.22678 0.29703 -0.05851
-0.06949 -0.21330 -0.13866
-0.09712 -0.21330 0.13492
0.02638 -0.17038 0.20805
-0.18720 0.32960 -0.14683
-0.22678 0.00157 0.16916
-0.17455 0.34885 -0.14821
-0.19506 -0.21330 0.07184
-0.01517 -0.14702 0.01061
-0.19610 -0.39407 0.15434
-0.20912 -0.00049 -0.19753
-0.13178 -0.25931 0.12855
-0.16157 -0.11115 -0.19753
-0.18397 0.16732 0.02915
-0.22678 -0.27640 0.16607
-0.14837 -0.27495 0.10673
0.20107 -0.29248 0.11897
-0.13598 -0.00717 0.15735
0.22678 -0.15325 0.04928
-0.15405 -0.33942 -0.18504
-0.13178 0.04102 -0.18023
-0.20972 0.18180 -0.04544
-0.02153 -0.14702 0.14117
0.16071 -0.23741 0.18358
-0.21102 -0.03779 0.05596
0.16071 -0.25205 -0.14039
0.16071 -0.31897 -0.19015
-0.13178 0.27109 -0.16972
-0.10770 -0.17283 -0.19753
-0.21522 -0.31546 -0.08452
0.22678 -0.20501 -0.18052
-0.22678 0.01164 -0.16871
-0.20493 0.00586 0.15735
0.15201 -0.14702 0.19506
-0.22678 -0.17677 0.10784
0.21356 -0.22845 0.11897
0.17016 -0.14702 0.04526
0.22678 -0.28483 0.19195
-0.01368 -0.14702 -0.13251
-0.13178 0.16161 -0.04654
-0.22678 0.35994 -0.04709
-0.12409 -0.21330 0.09156
-0.21899 -0.05049 0.04651
0.05580 -0.21330 0.01714
-0.13405 0.23620 -0.19753
-0.20874 -0.39407 0.16673
-0.14932 -0.36388 0.20805
-0.17663 0.11092 -0.09613
0.12012 -0.14702 0.15579
-0.15919 0.34813 0.15979
-0.13582 0.20843 0.10665
0.12500 -0.17381 0.14292
-0.22678 -0.03659 0.18231
-0.14484 0.07004 0.13931
-0.21949 -0.38225 0.20805
-0.19036 0.13283 -0.20805
0.22310 -0.27650 0.11897
-0.20507 -0.13520 -0.14683
0.16229 -0.14702 0.10544
-0.18812 0.39269 -0.01576
-0.08565 -0.21330 0.04108
-0.22678 0.14097 0.19173
-0.22309 -0.14702 -0.10368
0.21287 -0.21330 -0.08171
-0.13995 0.06022 0.15735
-0.06906 -0.14702 -0.14068
0.07451 -0.14702 0.19704
0.21519 -0.14702 -0.05760
-0.13178 0.18141 0.16207
-0.22678 -0.12571 -0.18601
-0.19101 -0.05049 0.00730
0.22678 -0.21385 0.20592
0.10884 -0.20173 -0.03783
0.16071 -0.37341 -0.16563
-0.00345 -0.21330 -0.01704
0.20430 -0.21330 -0.10215
-0.14167 -0.36466 -0.10626
-0.13955 -0.07668 0.03844
-0.22642 -0.28291 0.10673
0.04248 -0.21330 0.02412
-0.13178 -0.23312 -0.14541
0.16071 -0.31333 -0.19401
-0.17707 0.13090 -0.09613
0.00707 -0.21330 -0.12580
0.16071 -0.27835 0.15652
-0.20959 0.04313 0.01334
-0.20172 -0.14702 0.14615
-0.00730 -0.15881 -0.19753
-0.16794 0.06728 0.20805
-0.21857 0.23935 0.05596
-0.17811 -0.34542 0.20805
-0.18265 0.15438 -0.03510
0.00758 -0.14702 -0.01531
-0.20080 0.05448 0.20805
-0.18603 0.21975 0.05596
-0.08997 -0.21330 0.18324
-0.15356 -0.26289 -0.19753
0.06498 -0.18793 -0.03783
0.19063 -0.39407 -0.13306
-0.16541 -0.01386 0.20805
-0.19492 0.02054 0.15735
0.16071 -0.27773 -0.15647
-0.19710 -0.09131 0.15735
-0.17458 0.07568 0.20805
-0.06352 -0.15902 -0.19753
-0.19854 0.10138 0.13197
-0.12150 -0.18219 0.20805
-0.19719 -0.00827 -0.19753
0.03878 -0.16083 -0.11768
-0.14362 0.05113 -0.09613
-0.17194 0.25715 -0.19753
-0.17207 -0.13640 0.20805
-0.22241 -0.14702 0.00340
-0.22678 0.07111 0.09229
-0.13178 0.08417 -0.15043
-0.15045 -0.13646 0.15735
-0.13178 0.06056 0.04780
-0.20123 -0.05318 0.20805
0.00809 -0.21330 0.15632
-0.19584 -0.14702 0.15033
-0.18999 -0.08104 0.05596
-0.18443 0.21118 -0.19753
-0.18397 -0.26170 0.10673
-0.16236 0.07004 -0.09686
-0.13178 -0.22891 0.12067
0.01465 -0.21330 0.02904
-0.21091 -0.39407 -0.12142
-0.09461 -0.21330 -0.07763
0.13609 -0.14702 -0.01048
0.17480 -0.14702 -0.18593
-0.16494 0.38524 0.07468
-0.22678 0.22556 0.18973
-0.16257 -0.07668 0.01597
-0.02509 -0.21330 -0.08871
-0.19429 -0.11256 -0.14683
-0.17173 -0.21330 0.02320
-0.13178 0.06569 0.05496
0.20837 -0.30099 0.20805
-0.18546 0.08228 0.20805
0.22678 -0.33981 0.17188
0.12875 -0.18917 -0.19753
0.16071 -0.39014 -0.15020
-0.04218 -0.21330 -0.03461
-0.07728 -0.14702 0.13665
-0.08540 -0.21330 0.03280
-0.13178 0.19665 0.20362
-0.15509 0.38290 0.08354
-0.14544 0.09070 -0.20805
0.16869 -0.16145 -0.19753
-0.17724 0.10199 -0.09613
-0.20931 0.14899 -0.14683
0.13884 -0.16593 -0.19753
-0.16351 0.23492 0.20805
-0.16405 -0.36466 0.13756
0.21869 -0.39407 -0.14916
-0.13588 0.16169 0.03801
-0.21711 -0.21330 -0.04817
-0.22678 0.29034 0.20758
-0.22678 0.24007 -0.17524
-0.14860 -0.14373 -0.20639
