-0.12403 -0.02620 -0.02797
0.12797 -0.30362 -0.15375
-0.00119 0.00526 0.13112
-0.08190 -0.03322 0.09649
0.10130 -0.03322 0.09328
-0.18104 0.37719 0.02434
-0.01396 -0.01289 0.16721
0.19389 -0.02620 -0.12128
-0.04494 0.00526 0.14309
-0.17488 0.33194 -0.10130
-0.03563 0.00526 -0.04610
-0.18334 0.13016 -0.04165
-0.02720 0.00526 0.11378
-0.13633 0.00526 -0.14918
0.04735 -0.03322 -0.04404
-0.17710 -0.00672 0.04775
-0.12678 -0.30751 -0.14942
-0.16448 -0.03322 0.13446
-0.10361 0.00526 -0.02317
-0.17964 -0.19526 -0.15397
0.06235 -0.02620 0.12115
0.05910 0.00526 -0.05759
-0.18482 0.32737 0.00921
-0.05352 0.00526 -0.07816
0.18758 -0.14503 -0.15607
0.00298 0.00526 0.04897
0.11992 -0.03322 -0.04641
-0.14182 -0.02620 0.02348
-0.18190 0.14661 0.05572
-0.17749 -0.05467 -0.14936
0.19163 -0.03322 0.14802
0.09320 0.00526 0.08711
-0.18295 0.08002 -0.12347
-0.10253 -0.02620 -0.09360
-0.04369 -0.00820 0.16723
-0.10249 0.00526 -0.14134
0.14669 -0.02620 0.00945
-0.17198 -0.02620 0.01864
-0.11435 0.00526 -0.13209
-0.06417 -0.02610 0.15254
0.19510 -0.01869 -0.11116
-0.12754 -0.03322 0.11103
-0.04414 0.00526 -0.03272
-0.17903 0.05474 0.15138
-0.07116 -0.03322 -0.08671
0.10534 0.00526 -0.01420
-0.17557 0.23756 -0.00955
-0.08560 -0.03322 0.08302
-0.01643 0.00526 0.11488
-0.11867 -0.02620 0.13131
0.18969 0.00526 0.03762
0.01765 -0.03322 -0.11316
-0.18741 0.31088 0.02440
-0.17936 0.03849 -0.11667
-0.18033 0.09402 0.15357
0.19335 0.00526 0.05757
0.04512 -0.03322 -0.10549
-0.18433 0.32890 -0.00693
0.18834 -0.03147 -0.16817
-0.07156 -0.02620 -0.15718
0.09640 0.00526 -0.05608
0.18359 -0.10396 0.15467
0.18264 -0.26426 0.16264
-0.10889 -0.02620 -0.14335
-0.18574 0.11534 -0.15378
-0.18659 0.32316 0.14602
0.07470 -0.01104 -0.16816
-0.18099 0.38801 0.01435
-0.17700 0.17315 0.15591
-0.17163 -0.37318 0.15921
-0.12957 -0.03322 0.12034
-0.00391 -0.02620 0.01908
0.11193 0.00526 -0.04464
0.18666 -0.23280 -0.15434
-0.17270 -0.31657 0.15593
-0.00022 -0.03322 0.01056
0.18365 -0.07428 -0.16118
0.17746 -0.00678 0.16705
0.07883 0.00526 -0.01106
-0.17894 0.12353 0.16231
-0.17792 0.32391 0.07491
-0.17729 -0.03436 0.16247
-0.08714 -0.02620 -0.11746
0.04675 0.00526 0.03571
0.12364 -0.03322 -0.01337
-0.18480 0.26771 -0.15619
-0.17575 0.26307 0.04829
0.09655 0.00526 -0.08413
0.17062 -0.03322 0.04245
-0.04511 -0.02620 0.15739
-0.04220 -0.02620 -0.06955
-0.14034 -0.30439 0.16263
-0.06433 0.00526 -0.00499
0.16712 -0.03322 0.13325
0.16661 0.00526 0.11545
-0.17726 0.32442 0.12292
-0.04659 -0.02620 0.07447
-0.04338 -0.02620 -0.11077
0.01347 -0.02620 0.04602
-0.10464 -0.02620 0.07699
0.00875 -0.03322 0.14333
-0.13598 -0.02620 0.02578
0.09349 0.00526 -0.04620
-0.03598 -0.03322 -0.12181
-0.17732 0.09737 -0.15065
-0.01584 -0.03322 -0.02164
0.07414 -0.03322 -0.11051
-0.11346 0.00526 -0.09462
-0.16506 -0.02620 -0.05425
-0.05819 -0.02620 0.12996
-0.16572 -0.30077 -0.15121
-0.00496 -0.30603 -0.05430
-0.06912 -0.02620 0.06112
-0.05810 -0.03011 -0.16817
0.19040 0.00526 -0.02998
-0.17801 -0.02620 0.09587
0.19173 0.00526 -0.11832
0.11259 -0.02620 -0.12867
-0.17890 -0.01039 0.11980
-0.06834 -0.02620 -0.08559
-0.17504 0.00526 0.08180
-0.03358 0.00526 -0.03036
0.06459 -0.03322 0.09661
0.11636 -0.03322 -0.11568
-0.18538 0.32440 -0.06487
-0.10290 0.00526 0.13324
-0.01878 -0.03322 0.13740
-0.03098 -0.03322 0.16179
-0.17562 0.07687 -0.11208
-0.08790 -0.03322 -0.08361
0.05468 -0.02620 0.07715
0.08982 0.00526 0.07413
-0.17932 0.05374 -0.15766
0.14288 -0.03322 0.06993
-0.13417 -0.03322 0.16155
-0.17564 0.13079 -0.04710
-0.01282 -0.30041 -0.05769
-0.01287 -0.02620 0.03969
0.09607 -0.03322 0.00485
-0.17631 -0.00796 0.02820
0.18039 0.00526 0.06151
0.07242 -0.03322 -0.12235
-0.18025 0.33321 0.16275
-0.12347 0.00526 0.08838
-0.18429 0.29529 -0.15678
0.07152 -0.02620 -0.03877
0.13973 0.00526 0.04126
-0.18220 0.31636 -0.05249
-0.14494 -0.02620 -0.10889
0.08321 -0.00119 -0.16504
-0.18169 0.33051 0.07969
0.08324 -0.03322 -0.02689
0.15203 0.00526 -0.12907
0.18755 -0.38311 -0.15824
-0.16170 0.00526 0.10366
0.17719 0.00526 -0.02336
-0.00437 -0.03322 0.06746
-0.02698 -0.03322 -0.11736
-0.17676 -0.02620 -0.11636
-0.17591 0.32126 0.06960
0.18723 -0.32402 0.15647
-0.10641 -0.02620 0.14565
0.18307 -0.34117 -0.15307
-0.11663 -0.02620 -0.04021
0.04399 -0.02620 0.07743
-0.18421 0.23838 0.14946
0.06685 0.00526 0.04863
-0.15923 -0.30499 0.16255
0.18518 -0.25989 -0.15333
-0.17646 0.04225 0.15315
-0.01792 -0.03322 -0.02598
-0.00842 -0.02620 -0.03644
-0.05187 -0.03322 -0.09016
-0.12380 -0.02620 -0.12166
-0.17734 -0.00303 -0.03450
-0.18176 0.02960 -0.02025
-0.04642 -0.02620 0.00434
0.16033 0.00526 0.00813
0.11639 -0.03322 0.02277
-0.05987 0.00526 -0.13953
0.16028 0.00526 0.12846
0.18116 -0.30115 -0.16034
0.07185 0.00120 0.16222
-0.12930 -0.29960 0.15847
-0.03509 -0.03322 0.16011
-0.02613 0.00526 -0.14844
-0.05673 -0.02620 -0.04489
0.18066 -0.03322 -0.05406
0.06870 -0.03322 -0.08243
-0.19382 0.31609 0.09004
-0.17965 -0.11854 0.15969
0.06943 0.00526 0.07297
-0.17631 -0.00123 -0.04651
-0.18235 0.32428 -0.07687
-0.10719 -0.02620 0.12491
-0.16780 0.00526 0.14567
-0.18129 0.14631 -0.05813
-0.06568 -0.03322 0.06001
-0.10353 -0.30613 0.15482
-0.18501 0.32862 0.10447
-0.09288 -0.02620 -0.14525
0.01980 -0.29948 -0.06639
-0.18316 0.26231 -0.00323
0.14503 -0.02620 0.06790
-0.18019 0.32383 -0.06366
-0.04245 -0.01194 0.16734
-0.18082 0.26124 0.15351
-0.09770 -0.03322 0.14146
0.18602 -0.13766 -0.16040
0.03067 -0.02620 -0.01089
0.05865 -0.03322 0.04655
-0.13972 0.00199 -0.16189
-0.18105 -0.03322 -0.11183
-0.01162 -0.02620 0.02450
0.01437 -0.02620 -0.11334
-0.13536 -0.03322 -0.01054
-0.17494 0.39910 0.01019
0.11549 0.00526 -0.13155
-0.10802 -0.03322 0.13229
-0.17638 0.37785 0.12587
-0.02904 -0.01137 0.16742
-0.14447 0.00526 0.11697
0.00853 -0.03322 0.08492
-0.08209 -0.03322 -0.03282
-0.11094 -0.02620 0.12665
0.06335 -0.01859 -0.16593
0.18000 -0.15453 -0.15900
0.16215 -0.03322 -0.06341
0.05370 0.00526 0.03997
0.06277 -0.03322 -0.07701
0.19510 -0.01837 -0.00429
-0.17631 -0.01194 0.09685
0.13817 0.00526 0.09927
0.04976 0.00526 0.12318
0.17993 -0.13014 0.15993
0.17552 -0.02620 0.11612
-0.09690 0.00285 0.16006
0.19510 -0.00115 -0.10995
-0.14076 0.00526 0.01801
0.02313 -0.03322 -0.07663
-0.15405 0.00526 0.02202
0.10919 -0.02620 0.06090
-0.13430 -0.03322 0.02230
0.05307 -0.02620 -0.10674
0.08641 -0.03322 -0.07738
0.04814 -0.03322 0.14061
-0.00298 -0.02620 0.13128
-0.18386 0.00269 0.13117
0.01305 -0.30551 -0.03183
-0.00374 -0.02620 -0.12842
0.04113 -0.03322 -0.00176
-0.18435 0.10382 0.01973
-0.18514 0.34055 -0.15574
0.18993 -0.02620 -0.07933
0.00162 -0.03322 0.13171
-0.17160 0.00526 0.06996
0.03817 -0.02620 0.14830
0.14638 -0.03322 -0.12368
-0.14386 -0.02620 -0.07107
-0.03855 -0.03322 0.02785
0.13413 -0.03322 -0.08219
-0.08190 0.00526 0.07896
0.19510 -0.01343 0.03822
0.05107 0.00526 -0.13179
-0.07173 -0.03322 0.06863
-0.00052 0.00526 0.09840
-0.18117 -0.01062 -0.14868
-0.19077 0.31907 0.06291
-0.00703 -0.02620 -0.12109
0.10061 0.00526 -0.07231
-0.00936 -0.29972 0.06389
-0.11303 -0.03322 0.14077
-0.17160 -0.02620 -0.07165
0.18255 -0.08609 -0.15317
0.04686 -0.03322 -0.09791
-0.16649 -0.30272 0.15474
0.00092 -0.03322 0.01665
0.17385 0.00498 0.15389
0.15353 -0.03322 0.09393
0.05153 -0.01732 -0.16655
0.11292 -0.02663 -0.16817
0.06103 0.00526 0.14134
0.04414 -0.02620 -0.13808
-0.18158 0.18199 0.10156
0.11432 -0.02620 0.01095
-0.09568 -0.03322 0.13178
0.14339 -0.30168 0.15805
0.00732 -0.30518 -0.04354
-0.17853 -0.04133 0.15581
-0.12528 -0.02620 -0.16778
-0.17631 -0.01726 -0.10343
-0.18549 0.12133 0.15660
-0.17895 -0.14327 0.15634
-0.18021 0.13401 0.04110
-0.08570 0.00526 0.11479
-0.03102 0.00526 -0.12851
-0.17385 0.00526 -0.09757
0.13585 0.00181 -0.16212
0.12985 0.00526 -0.15074
-0.17703 0.07442 0.10652
-0.18148 -0.02824 -0.16094
-0.14687 -0.03322 -0.11755
-0.02276 0.00526 0.09798
-0.04109 -0.30095 -0.09868
0.11626 0.00526 -0.05009
-0.13514 0.00526 0.13642
0.09964 -0.02620 0.14275
-0.07541 -0.02620 0.07517
0.14176 0.00526 0.02203
0.08405 -0.02620 -0.10662
-0.06825 -0.03322 0.15788
-0.17841 0.07677 -0.00902
0.11057 -0.03322 -0.04801
-0.11742 0.00526 0.04831
-0.14587 -0.03322 -0.03855
-0.18148 -0.03141 -0.03133
-0.18397 0.21976 0.14125
-0.18353 0.31441 -0.10507
-0.17921 0.36918 -0.12760
0.15649 -0.03322 -0.02195
-0.17618 0.03985 -0.09844
-0.18091 0.16564 0.07550
0.08390 -0.03213 0.16817
0.16552 -0.03322 -0.08081
0.00168 -0.30602 -0.00105
0.17619 -0.03322 0.13249
-0.05121 -0.03322 0.01562
-0.19283 0.27379 -0.00038
-0.16864 -0.02620 -0.06099
0.15072 -0.02620 0.02094
-0.17567 0.01133 -0.14697
0.19510 -0.02826 0.09737
0.08898 -0.03322 -0.12659
0.01498 -0.30487 -0.04242
-0.18308 0.40255 -0.03925
-0.03695 -0.29963 0.10943
0.00713 -0.30600 0.01308
0.18290 -0.19268 0.16272
0.06131 0.00526 -0.06399
-0.18243 0.23120 0.14059
-0.12883 0.00526 -0.07038
0.16488 0.00526 0.09922
0.14966 -0.02620 0.15435
0.17988 -0.15489 0.15770
0.05119 -0.03322 0.07272
-0.04798 0.00526 0.15030
0.05758 -0.30357 0.11146
0.01039 -0.02620 -0.04247
0.17510 -0.03322 -0.11486
-0.16605 0.00526 0.15009
-0.17631 -0.00693 -0.12028
0.01329 0.00526 0.08290
-0.05232 0.00526 -0.11267
0.00241 -0.02620 -0.12279
-0.13720 -0.02620 -0.09534
0.17971 -0.02620 -0.02230
0.06825 0.00465 -0.15676
-0.18048 0.01559 -0.14875
-0.17427 0.32760 -0.11221
-0.17348 -0.08507 0.15529
0.17981 -0.31374 -0.15566
0.06037 0.00526 0.09104
-0.18282 0.23207 -0.13819
0.07220 -0.03322 -0.10407
0.04723 -0.29920 0.10169
-0.12084 -0.03322 -0.10585
0.14475 0.00526 0.02356
0.00231 -0.30125 -0.00484
0.00356 -0.03322 -0.16463
-0.07346 0.00526 -0.12604
-0.16828 -0.02233 0.16197
0.07802 0.00526 -0.00322
0.14792 -0.03322 -0.09943
0.02853 -0.02620 0.10982
-0.06186 -0.03322 -0.16266
0.19510 -0.03309 -0.10701
-0.12881 0.00526 -0.08327
-0.04343 -0.03322 0.16377
-0.00808 0.00526 0.11498
0.13690 -0.02620 0.14203
-0.18571 0.18022 0.15749
-0.17631 -0.00701 0.13025
0.03105 -0.02620 0.04927
-0.04408 -0.03322 0.05874
0.13772 -0.02620 0.02498
-0.17572 0.30247 0.11481
0.19510 0.00191 -0.05195
0.08855 -0.30506 -0.13921
0.01426 0.00526 -0.02907
-0.05103 -0.30705 -0.11621
-0.04194 0.00526 0.12132
0.18860 0.00526 -0.09398
0.11333 -0.02620 0.14563
-0.02963 -0.03322 0.00960
-0.12223 0.00526 -0.06061
-0.18452 -0.00935 0.16135
-0.18178 0.18584 0.15356
0.18078 -0.13876 -0.15417
-0.06758 -0.02620 -0.01714
-0.10424 -0.03322 -0.15084
0.06939 -0.02620 0.11021
-0.10320 -0.30768 -0.14008
-0.18435 0.09689 0.01507
-0.17934 -0.38366 0.16050
-0.00748 -0.02620 -0.15430
-0.15528 0.00526 0.01642
-0.12832 0.00526 0.14006
-0.19473 0.27251 0.14464
0.15383 0.00526 0.11631
-0.18538 0.28813 0.16000
0.14560 -0.02620 -0.14301
0.18048 -0.11529 -0.15970
-0.18901 0.32192 0.12050
-0.18257 0.07090 -0.13314
0.11945 -0.29987 0.15350
-0.04151 0.00526 -0.01562
-0.11168 -0.02620 -0.01905
-0.05318 0.00526 -0.02862
-0.14805 0.00526 0.02864
-0.10866 -0.02620 -0.05270
-0.19452 0.27596 0.13512
-0.07121 0.00526 -0.01307
-0.18234 0.37081 -0.14466
-0.12237 -0.03322 0.03776
0.12935 0.00526 -0.01405
-0.08044 -0.03322 -0.01609
-0.19066 0.30403 0.10797
-0.14619 0.00526 0.11221
-0.17255 -0.08563 -0.15562
-0.17510 0.37095 0.11474
0.10905 -0.02620 -0.07612
-0.14799 -0.03322 -0.04327
-0.09888 -0.02620 -0.06223
0.05105 -0.02620 0.07457
-0.08997 0.00526 -0.07968
-0.17683 -0.02059 -0.15519
0.15499 -0.03322 0.01280
-0.17441 0.40624 -0.03147
0.06429 -0.03322 -0.07318
-0.01225 -0.02620 -0.08560
0.14813 0.00526 0.07172
-0.09739 -0.30588 0.14601
-0.12286 0.00526 -0.14654
-0.17441 0.37218 -0.08945
-0.18125 0.33293 -0.12492
-0.18267 0.05930 -0.00807
0.01871 -0.03322 -0.08096
-0.18416 0.26055 -0.14985
-0.17561 0.30636 0.10951
-0.00266 0.00526 -0.07259
-0.06685 -0.02620 -0.13411
-0.03968 -0.03322 0.02409
-0.18110 0.30884 0.03371
-0.15950 -0.02620 -0.06641
0.17996 -0.40192 0.15748
0.16990 0.00526 0.06556
-0.03454 -0.02620 -0.14938
-0.17694 0.08528 -0.01724
0.17838 -0.30152 0.15220
0.05812 -0.03322 -0.06345
-0.13780 -0.03322 0.15900
0.02354 -0.30716 0.07374
-0.14486 -0.03291 0.16817
0.04792 -0.02620 0.06300
-0.18865 0.27460 0.13345
-0.00450 -0.02620 -0.05099
0.10738 -0.02620 0.07817
-0.17974 -0.03322 -0.08810
-0.02093 -0.02620 0.16649
0.05687 0.00526 0.01384
-0.08795 0.00526 -0.02708
0.01087 -0.30125 -0.01829
-0.16304 -0.03322 -0.06746
-0.15613 -0.02620 -0.00621
0.00461 -0.02620 -0.14673
0.01495 0.00526 0.10659
0.00431 -0.02620 0.10367
-0.11738 0.00526 0.11624
-0.02892 0.00526 -0.00458
0.17534 0.00526 -0.04387
-0.17437 0.40808 -0.01884
-0.18099 -0.01824 -0.09978
-0.13283 -0.02964 0.16817
-0.14708 -0.02620 0.11286
0.08636 0.00526 -0.06327
0.12530 0.00526 -0.05761
0.01238 -0.02620 0.12710
-0.02086 -0.03322 -0.07564
-0.17641 -0.01796 0.15821
-0.18213 -0.01919 0.08623
-0.07625 0.00526 -0.06220
-0.07411 -0.02620 0.16515
0.11621 -0.03322 0.06454
0.05550 -0.01994 0.16420
-0.09961 -0.03322 0.10861
-0.09611 0.00526 -0.09418
-0.18093 0.39281 -0.00841
0.18072 -0.33795 -0.15425
0.19286 -0.02620 -0.01758
-0.03574 -0.03322 0.04161
-0.17723 -0.02620 -0.14843
-0.18206 0.25551 0.16273
-0.00438 -0.02620 0.16740
0.13245 0.00526 0.01557
-0.17631 -0.00938 -0.11289
-0.06926 0.00526 0.15161
0.17901 -0.03322 -0.06821
-0.18549 0.32734 0.06224
0.11152 0.00526 0.10377
0.19292 -0.03322 -0.00821
-0.15657 -0.02620 0.12957
-0.08865 0.00526 -0.10000
0.11822 0.00526 0.13915
0.06411 -0.02620 -0.16467
0.10179 -0.03322 -0.10215
-0.04048 -0.03322 -0.07962
-0.17341 -0.11014 -0.14961
0.07991 -0.03322 0.04658
0.11152 0.00526 -0.15037
0.12194 -0.02620 -0.04394
-0.09944 0.00526 0.03800
0.15983 -0.03322 -0.10565
0.19510 -0.02847 -0.10963
-0.12061 -0.03322 0.03411
-0.12087 -0.02620 0.09400
0.02930 0.00526 0.05717
0.05631 0.00526 -0.05995
-0.13468 -0.02620 0.12922
-0.08492 0.00526 0.08770
-0.18137 0.34355 0.16282
-0.13687 -0.02620 0.03556
0.12736 -0.02620 -0.15455
0.13160 -0.02620 -0.05447
0.18881 0.00526 0.08306
-0.18442 0.27471 -0.00210
-0.17604 0.02941 -0.15170
-0.05614 -0.02620 0.07333
0.19510 -0.00852 0.03694
-0.09966 0.00526 -0.05658
-0.08651 -0.03322 -0.05717
0.19510 -0.02138 -0.00886
-0.08810 -0.03322 -0.11302
0.14777 0.00526 -0.10067
0.18031 0.00526 0.10334
-0.15437 0.00526 -0.12327
-0.10536 0.00526 0.00519
-0.17563 0.33073 -0.04209
-0.18799 0.26775 0.14483
0.00527 0.00359 -0.15932
0.12828 0.00526 -0.09513
-0.13575 0.00526 0.02590
-0.17671 0.11600 0.02442
-0.17737 -0.02620 -0.15414
-0.18361 0.36215 -0.14942
0.03883 -0.02620 -0.08948
0.07089 -0.30573 -0.12359
0.12186 -0.02620 0.08594
0.12309 0.00526 0.01452
-0.18033 0.04774 0.08378
0.04114 -0.02620 -0.16042
-0.18366 0.07497 0.10568
-0.04495 0.00526 0.11177
0.12629 -0.02620 -0.04307
-0.05872 0.00526 -0.14305
-0.12712 -0.02620 0.05258
0.02437 0.00526 -0.14475
-0.01916 -0.03322 -0.16689
0.16300 0.00526 -0.13638
0.05617 -0.01149 0.16740
-0.14474 -0.02620 -0.01959
-0.17641 0.00971 0.15813
-0.17643 0.00119 -0.15328
0.04832 -0.03322 0.01648
0.15791 -0.03322 0.04533
-0.17723 0.03592 0.09281
-0.15046 -0.01487 0.16686
0.17618 -0.03322 0.12831
-0.17892 -0.16314 -0.15545
0.14846 0.00526 -0.11308
0.07667 -0.03322 0.08390
-0.11010 -0.01234 0.16729
-0.11343 -0.02620 0.00471
-0.12042 -0.01948 0.16455
0.06270 -0.02620 -0.12887
0.10220 -0.03322 -0.05514
-0.17576 0.00526 -0.00240
0.09443 -0.02620 -0.08575
-0.17969 -0.31102 -0.15238
-0.10910 -0.03322 -0.03426
0.06781 -0.02620 -0.00056
0.03665 -0.00347 -0.16649
-0.00812 0.00526 -0.00619
-0.01791 -0.01049 0.16753
-0.02256 -0.02620 -0.09656
-0.18237 0.25860 0.04249
-0.03585 -0.02620 -0.03845
-0.17714 0.38846 -0.15105
-0.15124 -0.03322 -0.06702
0.06372 -0.02620 -0.03866
-0.05147 -0.02620 0.05042
-0.17902 0.00460 -0.03594
0.06148 -0.03322 0.05264
-0.18015 0.40051 0.03202
0.06680 -0.03322 0.08160
-0.17907 -0.11459 -0.15075
-0.09006 -0.03322 -0.03816
-0.01197 -0.03322 0.11174
0.02687 -0.30104 -0.06982
-0.17719 -0.08808 -0.15677
-0.17545 -0.25877 0.15466
0.18964 -0.03322 0.09744
0.06994 -0.03322 0.14412
0.16768 0.00526 0.03005
-0.02093 -0.02620 0.14322
0.05023 -0.02620 -0.07668
-0.18434 0.27934 0.12901
0.02251 -0.02620 -0.09828
0.17143 -0.03322 -0.00291
0.15333 -0.03244 -0.16817
-0.17065 -0.00417 0.16607
-0.08526 -0.03322 0.14189
-0.08603 -0.02620 -0.12313
-0.18345 0.13625 -0.05543
0.15371 -0.02620 0.00287
-0.18298 0.13275 -0.05214
-0.10649 0.00526 0.01408
-0.08963 0.00526 0.03285
0.13164 -0.03322 -0.16260
-0.16629 0.00526 -0.12865
0.15682 -0.01180 -0.16806
0.02441 -0.03322 -0.04276
-0.17952 -0.03322 0.04407
0.18685 -0.02620 -0.03682
-0.05903 -0.03322 0.00541
0.03445 -0.02620 0.07243
0.06165 0.00526 -0.02859
0.04299 -0.03322 0.15739
-0.17682 -0.37009 -0.14908
0.08083 0.00526 -0.01502
-0.18064 0.07558 0.01300
0.06481 0.00526 0.04474
0.00200 -0.00519 0.16650
0.18616 -0.40668 -0.15391
-0.18247 0.26743 -0.13833
0.11646 -0.03322 -0.08849
-0.03057 -0.03322 -0.08170
-0.17051 -0.02620 0.06790
0.18619 -0.17960 -0.16028
-0.18220 0.38964 0.00582
-0.17190 -0.06979 0.16027
0.16443 -0.30342 -0.15414
-0.17860 0.13344 0.16211
0.05131 -0.03322 0.01899
-0.17631 -0.01213 0.13652
-0.17165 -0.32521 -0.15237
-0.00095 -0.02620 0.06875
-0.09926 -0.02620 -0.11882
-0.11842 -0.03322 -0.12892
0.06972 -0.02620 -0.07172
0.18760 -0.03322 -0.16217
-0.11135 0.00510 0.15302
-0.18339 0.31720 -0.10081
-0.15352 -0.03322 0.06977
-0.15529 0.00526 -0.03880
-0.14695 -0.03322 -0.15097
0.07688 0.00526 0.07447
-0.17200 -0.22700 -0.15477
-0.13668 0.00526 -0.00537
0.06965 -0.03322 0.09277
0.18834 -0.02620 0.01277
-0.17472 0.37616 -0.12005
0.09998 0.00526 0.12176
-0.00596 -0.01698 -0.16669
-0.17622 -0.03322 0.10247
-0.12488 -0.02620 -0.03869
-0.19175 0.32300 0.07245
-0.18542 0.38331 -0.15510
-0.15403 -0.03322 -0.15727
0.16229 -0.02620 0.10037
0.10325 0.00526 0.14763
-0.17842 -0.05833 -0.15602
-0.04800 -0.03322 -0.11377
0.00753 0.00526 -0.07557
0.04698 -0.03322 0.05427
0.05402 -0.30542 -0.10830
-0.12108 0.00185 0.16136
-0.02958 0.00526 -0.01006
0.18094 0.00526 -0.10574
0.15369 -0.03322 0.13182
-0.12878 -0.02620 -0.11510
-0.03472 -0.02620 -0.04432
-0.11258 -0.03322 -0.11815
0.12812 0.00526 -0.00683
0.17785 0.00526 0.11539
-0.18450 0.29243 -0.15015
-0.18370 -0.01809 -0.08708
-0.17901 0.23942 -0.00428
-0.17680 0.18653 -0.15158
-0.17318 -0.20485 0.16196
0.06512 -0.03322 0.16463
0.05475 -0.02620 0.15244
-0.09996 -0.02489 -0.15846
-0.04426 -0.03322 0.01584
0.15567 -0.02620 0.13841
-0.16007 -0.03322 -0.05246
-0.04007 0.00526 -0.02128
0.10836 -0.02171 0.16278
0.04433 0.00526 0.07869
0.18464 -0.02620 0.05265
0.07499 -0.01856 0.16526
0.18911 -0.02620 -0.08365
0.10614 0.00526 -0.04419
-0.03624 -0.02620 -0.15551
0.15187 -0.02620 0.01456
0.01292 -0.02620 -0.10283
0.06044 -0.03322 0.14392
-0.05417 -0.00031 0.16366
-0.06287 0.00526 -0.12601
-0.18390 0.32992 0.03327
0.10520 0.00526 -0.11160
-0.18002 0.27464 -0.00166
0.06016 -0.03322 -0.16039
-0.17854 0.17976 -0.10252
-0.07046 -0.00365 0.16586
-0.18436 0.17286 -0.09147
-0.17519 -0.33083 0.16278
0.17909 0.00526 0.07117
-0.04960 0.00526 -0.09316
-0.10728 -0.02620 -0.06366
-0.18265 0.03107 -0.14897
-0.17631 0.00264 0.08787
-0.05831 -0.03322 0.13450
-0.10970 -0.02620 0.07966
0.13081 -0.03322 -0.01614
-0.13123 -0.02620 -0.05602
-0.17593 -0.36710 -0.15707
-0.15390 -0.02620 -0.03344
-0.04026 -0.02620 -0.10659
-0.18196 0.00673 -0.03349
-0.17631 0.00328 0.04951
-0.16988 -0.30502 -0.14450
-0.09848 -0.02620 0.08081
-0.03771 -0.02620 0.01869
-0.17876 0.22610 -0.14930
-0.04565 -0.02620 -0.13851
-0.03411 -0.03322 -0.12482
-0.12102 -0.02620 -0.14578
0.17743 -0.03322 0.07216
0.18568 -0.16202 -0.15357
-0.09364 -0.02620 -0.11449
0.18121 -0.03272 0.16817
-0.18034 0.38125 0.06115
-0.17711 0.31976 0.07458
-0.17891 -0.01266 -0.07756
0.05357 0.00526 -0.02958
0.09871 -0.02620 0.02681
0.03419 -0.03322 0.16565
0.04800 -0.02620 -0.03023
-0.17110 0.00526 0.01617
-0.16894 -0.02982 -0.16817
-0.18333 0.37470 -0.13808
0.02482 -0.02620 0.03461
0.01629 -0.02620 -0.10083
-0.17669 0.11470 0.15665
0.06197 -0.03322 -0.05600
-0.01150 -0.03322 -0.06954
-0.18511 0.10308 -0.15579
0.02318 0.00153 -0.16248
-0.17631 -0.00703 0.16393
-0.09039 -0.02620 -0.08623
-0.18574 0.25027 -0.15293
-0.03114 -0.03322 0.14507
-0.18517 0.39053 -0.15570
0.12303 -0.03322 0.03599
-0.02379 -0.03322 0.01321
-0.17631 -0.01331 -0.10359
0.03543 -0.30338 -0.09675
-0.02930 -0.03322 0.00404
-0.18021 0.08949 -0.01197
0.02778 -0.02620 0.01798
0.10031 -0.02620 -0.03402
-0.07758 -0.02620 -0.09089
-0.17707 0.22685 0.04349
-0.03799 -0.03322 -0.15704
0.02143 -0.29928 0.06967
0.07422 0.00526 -0.02534
-0.18438 0.23401 0.00969
-0.17450 0.40518 -0.00816
-0.18441 -0.01642 0.07931
0.04526 0.00526 -0.10802
0.07286 -0.02620 -0.06375
0.12333 -0.03322 -0.15300
-0.07508 -0.03322 -0.12546
-0.17785 0.22636 -0.04656
-0.00173 -0.02620 -0.14897
-0.18144 0.31969 -0.09810
0.17281 -0.02620 -0.15252
-0.18332 0.38428 0.06276
0.18977 -0.03322 0.07827
0.14948 -0.02270 0.16149
-0.16110 -0.03322 -0.07879
0.17024 0.00526 -0.07144
-0.15319 -0.02620 -0.09190
-0.00859 0.00526 0.01665
0.16413 -0.02620 0.10557
-0.18377 0.32948 0.11284
-0.11000 -0.29970 -0.14206
-0.11900 0.00526 -0.09601
0.07882 0.00526 -0.13716
0.02286 -0.03322 0.06900
0.01193 -0.02620 0.00852
-0.13768 0.00526 0.03501
-0.15256 0.00526 0.00150
-0.17791 0.03285 -0.11537
-0.06932 0.00526 -0.08865
0.12587 -0.02620 -0.03467
0.00288 -0.02577 0.15512
-0.13071 0.00526 0.10617
-0.05121 0.00526 -0.10031
-0.02348 0.00526 -0.12176
-0.18018 0.39386 -0.14879
-0.17747 0.31656 0.16108
-0.10133 -0.03322 0.01895
-0.17266 -0.18775 0.16149
0.11103 -0.30043 0.15085
0.03849 -0.02620 0.10358
0.18092 -0.05767 -0.15403
0.06337 0.00526 -0.13318
0.17044 0.00479 0.15540
-0.17562 0.03849 0.15169
-0.04817 -0.03322 -0.05537
0.12469 -0.03157 -0.16817
0.00357 -0.03322 0.06607
-0.18673 0.30262 0.01568
0.02820 -0.02620 0.03746
0.01831 -0.02620 0.11075
0.14885 0.00526 0.00160
0.15854 -0.03322 -0.01868
-0.08962 -0.03322 -0.00794
-0.17597 0.19349 -0.11304
0.18989 -0.03322 0.11832
-0.09735 -0.03322 -0.01261
-0.18239 0.23222 0.16267
-0.17674 0.32287 0.07891
-0.18255 0.10336 -0.02540
-0.08215 -0.02620 -0.15178
-0.13448 -0.03322 0.11670
-0.18148 -0.02970 0.09989
-0.00151 -0.30003 -0.02676
0.01178 0.00526 0.02487
0.17139 -0.03322 0.12055
0.06634 -0.03322 -0.16049
0.02583 -0.03322 -0.04983
-0.14063 0.00526 0.02591
-0.11459 -0.03322 0.05550
-0.12320 -0.03322 -0.08288
0.05163 0.00353 -0.15945
-0.18164 0.15295 0.07215
0.06168 0.00499 -0.15455
0.17961 -0.23986 -0.15789
-0.12824 -0.02620 0.01847
0.18659 -0.13781 -0.15428
-0.04341 -0.03322 0.01210
-0.02044 0.00526 0.07241
0.05003 -0.02466 -0.15901
-0.06393 -0.02620 -0.00909
-0.13981 -0.02620 -0.16021
0.19510 -0.00665 0.04593
-0.02792 0.00526 0.10768
0.19510 -0.02861 -0.13731
-0.08079 0.00526 -0.09286
-0.18364 0.03394 0.16208
0.07626 -0.03322 -0.01293
-0.05645 0.00526 0.09944
0.09227 0.00526 -0.15212
0.05167 -0.03322 -0.10647
-0.18284 0.17411 0.15385
-0.10645 -0.03322 -0.04222
0.02034 0.00526 -0.07859
0.05936 -0.03322 -0.09796
0.00093 -0.02620 0.16342
-0.17631 -0.00198 0.11509
-0.01905 -0.02620 0.08557
-0.18432 0.01573 0.14466
0.04797 0.00526 0.11004
0.04561 0.00526 0.10761
-0.14088 0.00526 0.11400
0.00612 -0.30336 0.02513
0.04193 0.00526 -0.05077
0.05265 -0.03322 0.04404
0.02809 0.00526 -0.08912
0.06066 -0.01208 -0.16802
-0.17562 0.05746 0.08602
0.03205 -0.03322 0.12839
-0.06605 -0.02620 0.01232
-0.17055 -0.03322 0.14098
0.10729 -0.03322 -0.03018
0.16323 -0.03322 -0.14809
0.08027 0.00526 0.04293
0.18777 -0.02620 0.00133
0.19510 -0.02816 0.08804
-0.03176 -0.02620 0.11410
0.19510 -0.01761 -0.09953
0.10131 0.00526 0.13340
-0.17631 -0.00534 0.05530
0.08361 -0.02620 0.12240
-0.00949 0.00526 -0.09655
-0.17988 -0.00473 -0.04844
-0.13474 -0.30731 -0.14634
-0.00939 -0.02620 0.04593
-0.07558 -0.02620 -0.12297
0.18784 -0.08566 0.15792
0.10125 -0.02620 -0.08332
-0.08694 -0.00569 -0.16741
-0.17224 -0.35038 0.16095
-0.12899 -0.02620 -0.05881
0.10412 -0.00085 0.16408
0.19473 0.00234 -0.16143
0.15415 -0.03322 0.11498
-0.09414 -0.02620 0.09537
0.06615 -0.03322 -0.16523
0.04173 -0.03322 -0.00919
-0.00995 -0.03322 0.01624
0.08088 -0.02620 -0.15351
-0.18276 0.37146 -0.09819
0.10970 0.00526 -0.01770
-0.17999 -0.03322 0.13806
-0.01818 -0.02620 0.13144
0.05618 -0.03322 -0.00979
-0.04625 -0.02620 0.11362
-0.04267 -0.03076 -0.16817
-0.17705 0.36951 -0.11877
-0.18207 0.05204 0.09003
-0.14058 0.00526 -0.05850
-0.18396 0.06157 -0.08889
0.06214 -0.03322 -0.12330
-0.01804 -0.03322 0.08436
-0.08161 -0.02620 0.07197
0.12600 0.00526 0.04120
-0.18482 0.13012 0.15537
0.03904 -0.02620 -0.14701
0.17989 -0.18962 -0.15872
-0.01642 -0.03322 -0.08221
0.10296 0.00526 -0.12239
-0.18569 0.15082 0.15896
-0.18176 0.01956 0.02190
0.10731 -0.03322 0.13045
0.08699 -0.03322 0.12690
0.15625 -0.01703 -0.16667
-0.17747 0.29108 0.15526
-0.17976 0.32870 0.14640
-0.18125 -0.00396 0.03157
0.07549 -0.03322 -0.05658
-0.17170 -0.14908 0.15977
-0.08941 -0.02620 0.03613
-0.17792 0.25572 -0.14994
0.18248 -0.03322 0.00172
-0.19503 0.30021 0.01860
-0.17484 0.37128 0.13283
0.10346 0.00413 0.15730
0.19510 -0.00765 0.09577
0.13560 -0.03322 -0.03206
0.09885 -0.02620 0.05228
0.14606 -0.02620 0.08270
0.12106 -0.02620 -0.13280
0.07479 0.00526 0.05592
0.17173 -0.02620 -0.12269
-0.01157 -0.02620 0.09707
-0.17554 0.02947 -0.01689
-0.11208 -0.02620 0.01626
0.15132 0.00526 -0.00440
-0.12361 -0.03322 -0.01838
0.00282 0.00526 -0.06018
0.09968 -0.03322 -0.00336
0.01669 -0.03322 0.03123
0.01903 0.00526 0.00288
0.01138 -0.03322 0.04468
-0.18340 0.32549 0.07117
0.15609 -0.03322 0.08334
0.13546 0.00526 -0.04315
0.14950 0.00526 0.05641
0.16795 -0.03322 -0.03377
0.03680 -0.02578 -0.15574
-0.07454 0.00526 0.00500
-0.18020 0.30813 -0.03629
-0.10395 -0.00167 -0.16541
0.06009 -0.02620 -0.00478
0.19510 -0.00544 -0.14695
-0.15529 -0.02620 0.16167
-0.18062 0.11484 -0.14874
-0.18736 0.27191 0.00528
-0.17200 -0.25598 0.15697
0.05186 -0.02620 0.16071
-0.15267 -0.03322 0.01226
-0.12587 0.00526 0.13424
-0.00616 -0.02620 -0.11598
-0.02920 -0.00206 0.16501
0.00454 -0.30766 0.01508
-0.18221 0.26986 -0.00296
-0.02500 -0.03322 0.11822
0.15213 0.00513 -0.15346
-0.00729 0.00526 0.04307
-0.13819 -0.02620 -0.03915
0.05338 0.00526 -0.09994
0.17799 0.00526 -0.05553
-0.07523 -0.02620 -0.13144
0.07141 0.00526 0.12959
-0.02091 -0.02620 0.04302
-0.11265 -0.03322 -0.02064
-0.18353 0.23843 -0.05352
0.06341 -0.02620 -0.09083
-0.18432 0.06436 -0.09226
-0.07452 -0.03322 0.04908
-0.15457 -0.02620 -0.04757
0.08256 -0.30418 -0.13679
0.13358 0.00526 0.06050
0.09273 -0.02620 -0.03684
0.00931 -0.02620 -0.12564
-0.06002 0.00526 -0.10611
-0.17533 -0.03322 -0.05546
-0.15001 0.00526 0.09448
-0.13777 0.00526 -0.02518
-0.17648 0.37674 -0.15388
-0.13611 -0.03322 -0.06817
-0.01146 -0.30180 -0.05180
-0.04799 0.00526 -0.08413
0.00688 -0.02620 0.06556
-0.18139 -0.02620 -0.09308
-0.01382 -0.03322 0.14899
-0.17631 0.00159 -0.02489
0.01664 0.00526 0.09332
0.19510 -0.01595 0.16640
-0.02099 -0.02620 -0.07348
-0.19175 0.27623 0.13156
0.08612 0.00526 0.08040
0.18773 -0.40672 -0.15729
-0.15671 -0.03322 -0.01068
-0.18148 -0.02672 0.13349
0.19510 -0.00879 -0.09225
-0.17691 0.38813 0.16019
0.18152 -0.03322 0.15279
0.14122 -0.03322 0.12969
0.12004 -0.02620 0.11943
-0.17807 -0.38900 -0.15629
-0.17742 0.24775 -0.14906
-0.18424 0.08736 -0.15682
0.08471 0.00526 -0.03455
-0.17631 -0.02059 0.11888
-0.18229 0.19332 0.10348
0.17622 0.00526 -0.11128
-0.15006 0.00526 -0.04219
-0.18574 0.01463 0.15862
0.06911 -0.02620 -0.10103
-0.17944 0.01031 0.14657
-0.07664 -0.02620 0.01380
0.02711 -0.03322 -0.08719
-0.18429 0.19225 -0.10862
-0.17631 -0.01510 -0.13255
0.18221 -0.24118 -0.15329
-0.10036 -0.03322 0.09222
0.12134 -0.02620 -0.13997
0.03952 -0.03322 -0.03272
-0.10857 -0.03322 0.08482
-0.12743 -0.03322 0.14262
-0.11473 -0.03322 -0.10391
0.16298 -0.03322 0.02099
-0.04069 -0.30351 0.11948
0.19510 -0.01425 0.06116
-0.15167 -0.03322 -0.16226
-0.17631 -0.00255 0.13304
-0.15756 -0.03322 0.11821
-0.18401 0.16780 -0.08788
-0.18428 0.22741 0.02391
-0.17692 0.06848 0.08793
0.17846 0.00526 0.09522
-0.14177 -0.02620 -0.00645
0.00568 -0.03322 0.07112
0.12528 -0.01984 -0.16498
-0.05533 -0.01500 0.16681
0.13839 0.00526 -0.03635
0.16527 -0.02572 0.15544
0.12302 -0.02620 -0.00144
0.05131 0.00526 -0.08684
0.11710 -0.03322 -0.12868
0.19510 -0.02908 0.15891
-0.17631 -0.02484 0.08283
0.05454 -0.02583 -0.15532
-0.17542 -0.09014 0.16281
0.07277 -0.03322 0.03227
-0.05975 -0.02620 -0.15002
-0.08531 -0.01273 -0.16794
-0.17109 -0.00552 -0.16734
0.10863 -0.03322 0.03386
-0.05752 -0.03322 0.07899
-0.17959 -0.22882 0.15757
0.13796 -0.03322 0.08470
-0.17967 -0.12639 0.15796
-0.00632 0.00526 -0.04021
-0.17969 -0.04616 -0.15365
-0.02778 -0.03322 -0.09559
0.16131 -0.29837 -0.15813
-0.15261 0.00526 -0.01770
-0.03793 -0.02620 0.06471
-0.16269 0.00526 0.08014
0.18064 -0.11528 0.15623
-0.19224 0.30971 0.03383
-0.06661 -0.02620 0.08005
-0.07656 -0.03322 0.02296
-0.17771 -0.03322 0.00027
-0.07938 0.00526 0.04138
0.17802 -0.02620 0.15292
-0.16408 -0.30159 0.16222
-0.01520 0.00526 -0.01652
-0.17599 0.32552 -0.14390
-0.14207 -0.01215 0.16731
-0.18338 0.37449 0.13038
-0.16226 -0.02620 -0.14171
-0.14306 -0.03322 -0.14420
-0.17500 0.38204 -0.07126
0.15840 0.00526 0.00346
0.03323 -0.02620 -0.07720
-0.11807 0.00526 0.03913
0.18770 -0.37936 -0.15747
0.13437 -0.02620 -0.15545
-0.05078 -0.03322 -0.16034
0.07222 -0.29779 -0.12584
-0.06623 -0.02620 0.07626
0.02103 -0.03322 -0.03126
-0.18333 0.40724 0.02065
-0.17591 0.39947 0.03608
0.04877 0.00526 0.07585
-0.00676 -0.02620 -0.07079
0.01292 0.00526 0.13276
0.19510 0.00478 0.02113
-0.17867 0.34029 0.16216
0.01103 0.00526 0.14562
-0.17673 0.16622 -0.15495
-0.17672 -0.01228 -0.10007
-0.00147 -0.03322 0.07863
0.15302 -0.02620 -0.00342
-0.17230 -0.02477 0.15804
-0.16330 -0.03322 -0.01364
-0.06362 -0.29980 0.13052
0.18611 -0.30636 0.16212
-0.18214 0.04485 -0.15792
-0.17820 0.22370 0.02226
0.08886 -0.03322 -0.02758
0.08140 0.00526 -0.05509
0.04130 -0.30042 -0.09228
-0.18584 0.27803 -0.00316
-0.17775 0.20459 0.15490
-0.19441 0.32214 0.08132
0.12898 0.00526 0.14460
-0.14198 0.00526 -0.05494
0.13742 0.00526 -0.09899
-0.16023 -0.03322 -0.08397
0.12300 -0.02620 -0.14713
0.11843 -0.03322 0.11570
-0.04588 -0.02620 0.10131
0.09404 0.00526 -0.10694
0.16708 0.00500 0.15376
0.11330 -0.02620 -0.05628
-0.15435 -0.03322 -0.02509
-0.18127 0.07426 0.11868
0.00977 -0.29965 -0.04339
0.13280 0.00526 -0.08838
-0.18322 0.15979 -0.07402
-0.18423 0.07850 0.11961
0.19510 0.00106 0.12011
-0.09958 0.00526 0.11320
0.15647 -0.02620 0.02093
-0.16757 -0.02620 0.15177
0.04076 -0.02620 0.15677
-0.17828 0.32267 0.12948
0.07995 -0.00339 0.16575
0.09250 -0.02620 0.03976
0.14112 0.00526 -0.07095
-0.17666 0.32730 0.07457
0.12565 -0.02620 0.09049
0.18732 -0.34014 -0.15535
-0.18539 0.41018 0.15998
-0.13793 -0.03322 -0.04909
0.19510 -0.00221 -0.14794
0.15308 -0.02620 -0.14739
0.04555 -0.02620 -0.13115
-0.17401 -0.26159 -0.15672
0.03381 -0.02620 -0.05533
0.03046 -0.02601 -0.15397
0.18080 -0.02772 -0.16817
0.05312 -0.30453 0.11750
-0.18334 0.37466 -0.13085
0.07455 -0.02620 -0.13793
0.06167 -0.02620 -0.11853
-0.17988 0.24185 -0.05405
0.19510 -0.00649 -0.08351
-0.03576 0.00526 -0.10719
-0.00604 -0.02620 0.05984
-0.08794 -0.00197 -0.16564
0.11639 -0.03322 0.05029
-0.02824 -0.02620 0.13787
-0.17639 0.37892 0.08691
-0.05226 -0.02620 0.16551
-0.07781 -0.02620 -0.12553
0.03000 0.00526 0.10063
-0.17508 0.38468 -0.02482
-0.05671 -0.03322 -0.14044
0.09348 -0.02620 -0.10414
-0.14387 -0.02620 -0.15466
-0.18171 0.32381 -0.05737
0.03706 -0.03322 0.07371
0.03159 -0.02620 0.02679
-0.14461 -0.03322 -0.16383
-0.18223 0.24431 -0.14899
0.07949 -0.03322 -0.06526
-0.01946 -0.03322 0.11622
-0.18387 0.18660 -0.15710
-0.17579 -0.39593 -0.15709
-0.13517 -0.02620 -0.07917
-0.17543 -0.03322 -0.08852
0.16301 -0.03322 -0.10064
-0.16171 -0.02620 0.00114
-0.15991 -0.29964 0.15907
0.19510 0.00350 -0.07934
0.18286 -0.22768 0.16271
0.07441 -0.03322 0.08991
0.14744 -0.02620 -0.00540
0.00892 -0.29992 0.01666
-0.17553 0.07544 -0.12967
-0.17552 0.30524 -0.02665
-0.01391 0.00526 0.12414
0.09316 -0.29927 -0.14396
0.04690 -0.03322 -0.01879
-0.01040 0.00526 0.09579
0.05159 -0.03322 0.00003
-0.18316 0.07485 0.12168
-0.04440 -0.02620 0.08231
0.17914 -0.03322 -0.11290
0.12419 0.00526 0.11194
0.05803 -0.02620 -0.01178
-0.06670 0.00526 -0.11485
-0.03357 -0.03322 -0.11203
-0.07217 -0.02620 -0.13558
0.07142 -0.02620 0.13838
-0.17596 0.25893 -0.00213
-0.18101 -0.00419 -0.03477
-0.07557 -0.29969 -0.12837
0.09510 -0.03322 0.08136
-0.18245 0.26386 0.16264
-0.09678 0.00526 -0.01555
0.11233 -0.02620 -0.14309
0.19510 -0.00417 0.00920
-0.18569 -0.00719 -0.15260
-0.08914 -0.03322 0.16014
-0.17621 0.29976 0.11865
-0.15268 -0.02620 0.02548
0.15939 -0.03322 0.13761
-0.17915 0.24343 -0.14010
0.06602 0.00297 -0.16061
-0.05234 -0.02620 0.15250
0.12638 -0.03322 0.08349
-0.15776 0.00526 0.01405
-0.17584 0.00526 0.12323
0.11818 -0.03322 0.05942
0.12153 -0.02620 0.10943
-0.00039 -0.03322 -0.02885
-0.07593 0.00526 -0.03358
-0.07343 -0.02620 0.03297
-0.09909 0.00526 -0.15221
0.18768 -0.07986 -0.15675
-0.17620 -0.02620 -0.16307
-0.17776 0.15318 -0.06601
-0.17956 -0.42855 0.15924
-0.00129 0.00526 -0.09419
-0.17976 -0.09963 0.15881
-0.01723 -0.29973 0.08616
-0.03022 -0.03322 -0.06519
0.17960 0.00526 0.12008
0.11492 -0.02620 -0.09016
0.01382 -0.02620 0.14144
-0.17641 0.27668 0.15820
0.14416 -0.03322 0.04063
-0.17744 0.32333 0.00917
0.15955 -0.02620 -0.00601
-0.11778 -0.03322 0.10182
-0.17592 0.12599 -0.03827
-0.17963 -0.01179 -0.09631
0.12637 -0.00332 0.16572
0.17508 -0.03322 -0.12617
-0.18235 0.03204 0.10898
-0.04721 -0.02620 -0.11137
-0.01429 -0.03322 -0.03733
0.03426 0.00526 0.09370
-0.16700 0.00479 0.15539
-0.12940 -0.03322 0.01375
-0.05392 -0.02620 -0.05020
0.15079 0.00526 -0.02199
0.05807 0.00440 -0.15737
0.05716 -0.02620 0.12078
-0.11710 -0.02620 -0.15891
0.04083 0.00526 -0.02708
-0.08684 -0.02620 -0.04270
-0.10454 0.00526 0.05397
-0.01616 -0.02620 -0.03586
-0.00489 -0.02620 0.08043
-0.18294 0.05737 0.14321
0.15308 0.00526 0.10050
-0.14064 -0.02620 -0.09964
-0.06397 -0.02620 0.08621
-0.03938 0.00526 0.06999
-0.17305 -0.42375 0.15562
-0.10745 -0.02620 0.01171
-0.17918 0.03542 0.00769
-0.18428 0.22090 0.13351
-0.13523 -0.02620 -0.01438
-0.12640 0.00526 -0.14769
0.18504 -0.10719 0.16265
0.12787 -0.02620 -0.04612
-0.17354 0.00526 -0.10683
-0.15280 -0.03322 -0.09661
-0.17470 0.39506 0.04663
-0.03331 -0.02232 0.16198
-0.07157 0.00497 -0.15466
-0.07621 0.00526 -0.07810
0.11539 -0.02620 -0.01997
0.19310 -0.03322 -0.12441
-0.03161 0.00526 0.12593
-0.05226 0.00526 -0.02019
-0.17181 -0.34346 -0.15170
0.08408 -0.02554 -0.15689
0.02173 -0.02620 -0.06915
0.19510 -0.03171 0.12351
0.06400 -0.02620 -0.00902
-0.14264 -0.03322 0.11992
-0.09157 0.00526 0.04851
-0.08291 0.00526 -0.13541
-0.14020 -0.02620 0.16734
0.08556 -0.02620 0.00929
0.13511 -0.02620 -0.10213
-0.16810 -0.02620 -0.01377
-0.14880 0.00526 -0.11832
0.08921 -0.02620 -0.16661
-0.04284 -0.03069 0.16817
0.17759 -0.02981 -0.16817
0.01920 -0.02620 0.05193
-0.07834 -0.03322 0.04725
-0.00584 -0.02620 -0.16667
0.01460 -0.03322 -0.14409
-0.17604 0.22861 -0.13818
0.07663 -0.02620 0.01468
0.18967 -0.03322 -0.02553
-0.17614 0.10841 -0.02727
0.09684 0.00526 -0.04469
-0.09521 0.00526 -0.03713
-0.18459 0.16699 0.16126
0.08122 -0.02620 0.12722
0.05988 -0.02183 -0.16332
-0.04169 0.00526 -0.11053
0.08321 -0.03322 -0.08168
0.12243 -0.02567 0.15586
-0.03362 -0.03322 -0.07081
-0.06493 -0.03322 -0.00191
0.04746 -0.03322 -0.12766
-0.07081 -0.03322 -0.15374
-0.14199 -0.02620 0.00432
0.01881 0.00526 -0.00200
-0.01171 -0.03322 0.15598
-0.18090 0.39640 -0.00654
0.10667 0.00526 0.14102
0.13247 -0.02620 0.12276
-0.02039 -0.03322 0.09022
-0.10527 -0.02620 -0.07328
-0.19489 0.28097 0.00465
-0.17631 -0.00577 -0.11082
0.00412 -0.30555 -0.01985
-0.17731 0.40981 -0.15066
0.15234 0.00339 0.15909
0.09152 -0.02620 -0.05966
-0.17631 -0.01834 -0.06370
-0.14476 -0.02620 -0.04493
-0.00816 -0.02620 0.01290
-0.18032 0.13172 0.03848
0.07653 -0.02620 0.06073
-0.07968 -0.02620 -0.10720
-0.16769 -0.03322 0.05968
0.13612 -0.03322 0.15403
-0.18515 0.02467 -0.15100
-0.12559 0.00526 0.10143
0.00937 0.00526 0.07356
0.15249 0.00526 0.14865
0.13708 -0.03322 -0.14338
0.14447 0.00526 0.09834
0.16221 -0.02620 0.05541
0.18295 -0.41652 -0.16111
-0.08358 -0.03322 -0.16775
-0.03607 -0.30008 0.10496
-0.17969 0.29866 0.02094
0.14113 -0.00067 -0.16464
-0.18152 -0.01298 0.07708
0.16403 -0.02620 0.13986
-0.19448 0.29382 0.12304
-0.18188 0.20152 0.12187
-0.18546 0.35416 -0.15171
-0.17631 -0.00613 -0.12754
0.18610 -0.28196 0.15535
-0.15905 0.00526 0.09009
0.18770 -0.12223 -0.15701
-0.05087 -0.00662 -0.16773
-0.18432 0.12063 -0.03583
-0.05824 -0.02620 0.08559
-0.18628 0.32252 0.03015
0.12528 -0.03322 -0.13974
-0.18437 0.21853 0.13675
0.10535 -0.02620 0.11002
-0.05153 -0.02620 0.08138
0.18490 -0.02620 -0.10411
0.18576 -0.04388 -0.15361
-0.03227 0.00526 0.09291
-0.17605 0.00568 -0.14290
-0.00785 0.00479 0.15536
-0.11113 -0.03322 -0.11273
-0.17894 -0.36267 -0.15059
-0.04710 -0.30769 -0.11148
0.18421 -0.03322 -0.06009
0.04099 -0.02620 0.09339
-0.16182 0.00526 -0.02619
0.00732 -0.02620 0.05982
-0.17631 -0.01870 -0.14963
-0.17960 0.41518 0.15375
0.17292 0.00526 -0.08388
-0.17892 0.36124 0.15403
-0.17772 0.32865 -0.15660
0.01382 -0.02620 -0.04069
-0.10870 -0.02620 0.03208
0.18081 -0.42855 -0.15579
-0.02949 0.00526 -0.10224
0.02742 0.00526 -0.02124
-0.03328 0.00526 0.14333
-0.17631 -0.01206 0.07926
-0.04638 -0.03322 0.13020
-0.17746 -0.28940 0.16240
-0.09793 -0.02581 -0.15547
-0.16230 -0.03322 0.00254
-0.03846 -0.02620 0.01428
-0.17631 -0.00569 0.09261
-0.14442 -0.02620 0.10118
0.12526 -0.03322 0.14598
0.00148 -0.01854 0.16527
-0.00036 -0.02620 -0.08821
-0.13848 0.00526 -0.08938
0.01205 -0.02620 -0.00279
0.05630 0.00526 0.12251
-0.07330 -0.02072 0.16359
-0.17710 0.24189 0.00715
-0.01642 -0.02620 -0.06872
-0.12328 -0.03322 -0.04063
0.08266 -0.02620 -0.02977
-0.12840 -0.03322 0.02633
-0.17946 0.15883 0.07867
0.14364 0.00526 0.14833
0.09063 -0.03322 0.09137
0.18786 -0.02620 0.06078
-0.11136 -0.02620 0.11323
-0.00276 -0.02620 -0.05901
-0.12529 -0.02620 0.10016
-0.19163 0.29203 0.01524
-0.08508 -0.02620 0.15986
0.07639 -0.30232 0.13452
-0.02271 -0.02527 -0.15754
-0.17458 -0.31996 -0.15696
-0.05718 -0.02620 0.01887
-0.08273 -0.03322 -0.09885
-0.17560 0.06387 -0.09091
0.18083 -0.23175 0.15598
-0.18869 0.32450 -0.03153
-0.19454 0.29216 0.01337
0.06523 0.00526 0.09741
0.12145 0.00526 0.08372
0.01119 -0.02620 0.03725
0.18257 -0.20550 0.15486
0.01283 -0.02620 -0.15624
-0.18023 0.40185 -0.02484
-0.00856 0.00526 -0.08031
0.16427 -0.03322 -0.11330
0.16035 0.00526 -0.01096
-0.04366 0.00526 0.02131
-0.03934 -0.03322 -0.09656
0.09226 -0.03322 0.16047
-0.19015 0.32228 0.05011
0.14850 -0.03322 0.02744
0.01456 -0.03322 0.12963
-0.17682 0.26985 0.15998
0.17773 -0.02620 -0.16114
-0.10103 -0.03322 0.06536
0.13506 -0.03322 -0.10535
-0.10919 -0.03322 -0.06941
-0.09682 0.00526 0.02940
-0.17861 -0.24988 0.16159
0.12163 0.00526 -0.13464
0.00155 -0.02620 -0.07720
-0.18148 -0.03152 -0.09446
-0.17770 0.35532 0.15496
0.19121 0.00526 -0.03442
-0.17566 0.06126 0.14522
0.19510 -0.01854 -0.16303
-0.10508 0.00526 -0.00051
-0.15177 -0.30642 -0.14526
-0.18320 0.21698 0.16233
0.17806 -0.00113 0.16429
-0.17832 0.32212 0.13755
-0.17943 -0.29489 -0.15145
0.13766 0.00526 0.01293
0.17489 -0.02620 -0.05385
-0.07613 -0.03322 0.11587
-0.16154 -0.02620 0.02183
0.03248 -0.30473 0.09334
-0.03337 0.00526 -0.07866
-0.02913 -0.02620 0.03181
-0.01750 0.00526 -0.10655
-0.00491 -0.03322 0.01095
-0.08936 -0.03322 -0.15186
-0.04525 0.00526 0.03383
0.17019 -0.02620 -0.07992
-0.18315 0.28852 0.15398
-0.17964 0.31674 -0.08584
-0.11608 -0.00131 -0.16513
-0.11915 0.00526 -0.05890
0.17750 -0.03322 0.08074
-0.18797 0.31964 0.09546
0.15527 -0.00872 -0.16800
-0.11228 -0.01749 0.16578
-0.18897 0.30352 0.11771
-0.18300 0.25902 -0.05213
0.19510 -0.00173 0.14316
0.01481 -0.03322 0.04074
-0.12451 -0.03322 0.16521
-0.04759 -0.00579 0.16675
0.15757 -0.03322 -0.09821
0.19208 -0.02620 0.13173
-0.18344 0.23461 -0.01578
0.18386 -0.17380 0.16284
0.17558 -0.03322 0.05798
-0.02612 -0.02620 -0.02084
-0.11895 -0.03322 0.12811
-0.12025 -0.01619 -0.16702
0.16582 0.00526 -0.00617
0.06235 -0.02620 0.12731
-0.17661 0.02472 0.15949
-0.17631 -0.00568 -0.11527
-0.17631 -0.01286 -0.00991
-0.02035 -0.03322 -0.08258
-0.06048 -0.03322 0.16635
-0.07090 -0.30343 -0.12147
-0.17690 0.10168 -0.15136
-0.19162 0.32396 0.05676
0.06977 -0.02620 -0.00784
0.17470 0.00526 0.01800
0.02937 -0.02620 0.00082
0.09087 0.00526 -0.08040
-0.12665 -0.00615 -0.16760
-0.09881 0.00526 -0.13078
-0.17284 -0.03322 -0.03556
-0.05503 -0.03322 0.11485
0.08644 -0.02620 -0.02257
0.08725 -0.03322 -0.08937
0.18567 -0.25830 0.15509
0.18506 -0.21460 0.15484
0.00842 -0.30707 -0.00855
-0.02234 -0.29964 -0.08095
0.04621 -0.02620 0.01333
0.09144 0.00526 0.05010
-0.17968 0.06262 0.14763
-0.18002 -0.00488 0.11517
0.13351 0.00526 -0.10432
-0.17836 0.06329 -0.15712
-0.08068 0.00526 -0.04707
0.14904 -0.02620 0.05629
0.02750 -0.02620 -0.04058
0.17635 -0.03322 -0.14536
0.10567 -0.03322 0.15324
-0.02940 0.00526 -0.06497
-0.18284 0.10591 0.01720
-0.18435 0.10136 -0.02147
-0.07821 -0.02620 -0.10014
-0.02763 -0.02390 -0.16062
0.13123 -0.02620 0.07839
0.03385 0.00526 -0.01268
0.00056 -0.02620 0.05720
-0.08499 -0.03322 -0.03521
-0.17757 -0.38114 -0.14939
-0.09062 -0.03322 -0.03411
0.17268 -0.03322 -0.10221
0.05443 -0.03322 -0.07464
-0.17835 0.37689 0.06783
-0.08431 -0.03322 0.00680
-0.10193 0.00487 0.15478
0.15314 -0.03322 0.14214
-0.16889 0.00526 -0.14387
0.02018 -0.03322 -0.02208
0.11078 -0.02620 -0.05858
-0.08252 -0.02620 -0.08092
0.06153 0.00526 0.04595
-0.11756 -0.02618 0.15198
-0.17657 -0.25855 -0.14902
-0.06524 0.00526 -0.02696
-0.17705 0.24433 0.05963
-0.18384 0.07114 0.09111
-0.10393 -0.03322 0.03330
0.18674 -0.25117 0.16164
-0.00266 0.00526 -0.01041
-0.00211 -0.03322 0.14258
-0.18355 0.25337 0.05465
-0.01604 -0.02620 -0.05005
0.09522 -0.01365 0.16712
0.06455 -0.02620 0.11832
0.19510 -0.01213 -0.01918
-0.01015 0.00526 0.07231
-0.17978 0.07317 0.10498
-0.05006 -0.30756 0.12169
0.03808 -0.02236 0.16193
-0.17631 -0.01076 -0.01388
0.08297 -0.03322 -0.00667
0.10966 -0.02620 0.10900
0.15457 -0.02620 -0.15194
0.19510 -0.00390 0.05616
-0.17721 0.13425 -0.05407
0.18488 -0.00046 0.16378
-0.17631 -0.00768 0.14593
-0.09074 -0.03322 -0.11087
-0.17161 -0.06625 -0.15270
-0.17602 0.18146 0.09407
-0.17631 -0.01022 -0.08906
-0.17054 -0.03322 0.03072
-0.18411 0.15563 -0.07502
0.12183 0.00526 0.09299
-0.12842 -0.02620 -0.06766
0.19510 0.00512 0.03776
0.01954 -0.30280 -0.07189
-0.17235 0.00526 0.14329
-0.11182 0.00526 -0.03339
-0.09777 -0.03322 -0.16717
-0.17755 -0.39955 -0.14938
0.14835 -0.02620 0.16465
-0.14902 -0.02620 -0.02735
0.04645 -0.29854 -0.10247
0.12506 -0.02620 -0.05835
0.18417 -0.05691 -0.15306
-0.11166 -0.02620 -0.06905
0.19510 -0.02365 -0.09387
-0.17698 0.14450 0.15597
-0.15806 -0.02620 -0.01498
-0.12821 -0.03322 0.09548
-0.18326 0.12318 -0.04087
-0.09572 -0.02620 0.03197
-0.11919 0.00526 -0.01655
-0.12695 0.00526 -0.00338
0.08277 -0.03322 0.15312
-0.17626 -0.16657 0.15471
-0.15108 -0.02620 -0.06525
0.01313 0.00526 -0.00903
-0.04458 -0.02637 -0.16817
0.08157 -0.02620 -0.10199
0.00476 -0.03322 0.12786
0.16617 -0.02620 0.10035
0.19200 -0.02620 0.11866
-0.02747 0.00526 -0.04096
-0.17994 0.36934 0.12729
-0.18120 0.13557 0.16285
0.07294 -0.02620 0.09531
-0.11773 -0.02620 0.16428
0.09822 -0.03322 0.16455
-0.14757 0.00526 -0.14846
0.03786 0.00526 -0.08288
-0.07506 -0.02620 -0.00946
-0.11547 -0.02620 -0.00966
0.03324 -0.02620 -0.06360
-0.11815 -0.02620 0.08923
-0.19257 0.31895 0.07784
-0.19143 0.29909 0.12133
-0.11219 -0.02620 0.14717
-0.17925 -0.10443 -0.15102
-0.04040 -0.02620 0.14056
0.02484 -0.03322 -0.03502
-0.17578 -0.00542 0.11954
0.19510 0.00376 0.08185
0.19400 -0.01488 -0.16756
0.00289 -0.03322 0.11663
-0.12315 -0.02620 0.02021
-0.18129 0.01657 -0.14488
0.04826 -0.02620 -0.03730
0.18773 -0.33310 -0.15731
0.18605 -0.12507 0.15531
-0.14191 0.00526 -0.11890
0.05634 0.00526 0.02588
-0.08757 -0.02270 -0.16218
0.13856 0.00526 -0.00579
-0.16082 -0.03322 -0.12550
0.06237 -0.02620 0.15011
-0.13090 -0.03322 -0.05474
0.09546 -0.03322 0.09984
-0.00919 0.00526 -0.08531
0.10694 -0.02620 0.11331
-0.17737 -0.01804 0.09400
-0.02998 -0.02620 -0.02727
0.03166 -0.03322 -0.09492
-0.12769 -0.02417 -0.16018
-0.17762 0.37256 -0.15647
0.04903 -0.02620 0.03102
0.06243 -0.02620 0.13218
-0.04941 -0.02620 0.03183
-0.15780 -0.03322 -0.06376
0.18440 -0.03322 -0.06891
-0.16502 0.00526 -0.00397
0.10999 -0.03322 -0.07316
0.05511 -0.03322 -0.10854
-0.17655 0.19018 0.15713
-0.17160 -0.33837 -0.15325
-0.17921 0.14025 -0.06184
0.17480 0.00526 -0.00345
-0.18148 -0.02779 -0.05608
0.08792 0.00526 0.00679
0.02563 -0.29998 -0.08208
-0.08936 -0.03322 -0.13900
0.04060 0.00526 -0.08637
-0.17169 -0.08034 0.15783
-0.18175 0.39182 -0.00345
-0.17660 0.29360 0.01494
0.07028 -0.29790 0.12659
-0.17665 0.13478 0.04381
0.00500 -0.00877 -0.16801
-0.17844 -0.41391 -0.15000
0.18157 -0.14458 -0.16062
0.01644 -0.30243 0.06558
0.14430 0.00526 0.09134
-0.17235 -0.27169 -0.15064
-0.18347 0.32626 -0.05319
-0.15075 -0.03322 -0.01146
0.11776 0.00526 0.10081
0.17954 -0.35304 -0.15692
0.19510 -0.01498 -0.09433
-0.15827 -0.02620 -0.02485
0.02598 -0.02620 0.09390
0.08181 -0.03322 0.04380
0.09289 -0.02252 0.16172
0.09243 -0.03322 -0.09174
-0.17766 0.31192 0.02845
0.13130 0.00526 -0.13793
-0.18787 0.32139 0.10330
0.17300 -0.02620 -0.05062
-0.15744 0.00526 0.15114
-0.18148 -0.02749 -0.01429
-0.05754 -0.02620 0.15211
-0.17959 -0.05372 -0.15417
-0.17980 0.13032 0.15367
-0.04485 -0.03322 0.15682
0.14291 -0.02620 -0.13902
0.19510 0.00209 0.02526
0.09487 -0.03322 -0.01619
0.01617 0.00526 -0.13823
-0.05157 0.00526 -0.05598
-0.17699 0.07704 -0.10184
-0.18495 0.39928 0.16079
-0.13549 -0.02620 -0.06753
-0.18519 0.15730 0.15588
-0.08353 -0.02031 0.16392
0.07243 0.00526 0.14839
-0.07171 -0.03322 -0.12992
0.19510 -0.03146 0.06991
0.18876 -0.03322 -0.14648
-0.11342 -0.03322 0.15102
0.01951 0.00526 -0.02480
0.10040 -0.03322 -0.10607
-0.17729 -0.01861 -0.07441
-0.18574 0.34118 0.15856
-0.11680 -0.02620 0.09456
0.13866 -0.03322 -0.02153
-0.17169 -0.36783 -0.15396
0.18291 -0.02620 0.13542
0.19510 -0.01706 0.04185
-0.17665 0.06276 0.01047
-0.17692 0.03245 0.10076
0.05296 0.00526 -0.03483
0.15619 -0.30260 -0.15675
0.07049 -0.03322 0.11003
-0.17606 0.29878 -0.12324
0.00628 -0.02620 -0.07943
-0.17515 0.37689 0.09259
-0.06626 0.00526 0.04689
-0.16919 -0.29973 0.15765
-0.17763 0.40639 0.00798
-0.14008 0.00526 0.00613
0.03050 0.00526 -0.03171
0.07656 0.00526 0.05067
0.05838 -0.02620 -0.02906
-0.04767 -0.03322 0.13920
0.15774 0.00526 0.14613
-0.18380 -0.01392 -0.09342
