-0.13678 0.03472 -0.17833
-0.01159 -0.03146 0.05635
-0.13560 0.10520 0.18271
-0.19902 0.22245 0.05760
-0.18759 -0.34242 0.05385
-0.16683 0.12563 0.22127
0.05130 -0.02745 0.18833
-0.15562 0.14346 -0.20816
-0.17440 0.20306 0.17569
-0.18488 0.20611 -0.04988
0.23397 -0.04739 0.18566
0.19249 -0.03881 0.18847
-0.22066 0.33762 -0.10737
0.17645 -0.01891 -0.10126
-0.03381 -0.04444 0.18252
-0.21168 0.33250 0.08297
-0.13697 0.13217 0.19338
0.12267 0.15483 -0.26175
-0.09334 0.14488 -0.19746
-0.19210 0.18606 0.00231
0.09910 0.14557 0.24994
-0.17661 0.17664 -0.00935
0.13306 -0.03416 -0.17680
0.11309 -0.00540 -0.21481
-0.06293 -0.03146 -0.15376
0.03788 -0.03146 -0.13649
-0.11281 0.04407 0.17798
-0.17590 0.17755 -0.18129
-0.20634 0.31794 -0.09356
-0.14174 0.04923 0.18374
-0.18945 0.19953 0.08279
-0.21527 0.32199 0.00998
-0.19778 -0.34594 -0.10318
-0.14513 0.10602 -0.17761
0.17301 -0.03146 -0.13805
0.10768 0.16746 -0.23640
-0.19218 0.20909 -0.08543
0.06091 -0.03146 -0.05169
0.14217 -0.03146 0.05671
0.04418 -0.01891 0.13720
-0.14621 0.13478 0.19256
-0.10368 0.13139 -0.21834
-0.23115 0.34908 -0.06875
0.00317 -0.03146 0.12055
0.04103 -0.04433 -0.18113
-0.20925 0.30827 0.05389
-0.14752 0.04832 0.06267
-0.09609 -0.02746 -0.07620
-0.00093 -0.03146 0.11187
-0.13791 0.05088 0.09573
0.19850 -0.01891 -0.07612
0.02451 -0.03146 -0.07178
0.04081 -0.03146 -0.04319
0.16650 -0.03146 -0.16222
-0.05540 -0.03146 -0.12314
-0.15893 0.12200 -0.05955
-0.02049 -0.01891 0.01821
-0.11085 -0.01725 0.18051
-0.17175 0.24691 0.18224
-0.04952 -0.01891 0.04609
-0.04174 0.15384 -0.23758
-0.19442 0.26027 -0.06887
-0.02710 -0.01891 -0.07896
-0.17088 0.14081 0.10417
-0.19034 0.17943 -0.00850
0.22842 -0.01891 0.01453
-0.15960 0.13318 -0.23588
-0.06588 0.14164 0.24448
0.23035 -0.02921 0.06914
-0.12072 0.04248 0.18322
-0.01574 -0.01891 -0.06959
-0.15220 0.11011 -0.14820
-0.08267 -0.03146 0.13786
0.14491 -0.03146 0.06423
0.04409 -0.03146 0.05660
0.05315 0.14568 -0.24414
-0.03418 -0.03146 0.17208
0.13889 -0.01891 0.18820
-0.18645 0.19455 -0.09490
-0.15379 0.19453 -0.17450
-0.04295 -0.01891 -0.08920
0.00684 -0.03146 -0.14569
-0.16918 0.15660 0.13180
-0.04665 -0.03146 -0.06243
0.07130 -0.03146 0.09777
0.08072 -0.03146 -0.03141
0.04656 -0.01891 -0.00938
0.05369 -0.03146 -0.08819
-0.23042 0.33014 0.00975
-0.15088 0.12709 -0.23588
0.08930 -0.03146 0.13024
0.09485 -0.03146 -0.12242
0.01533 -0.01891 -0.01382
0.22961 -0.08439 -0.17982
0.13789 0.16736 -0.22956
-0.13393 0.10270 -0.15830
-0.19474 0.20305 0.06675
-0.18455 0.17757 -0.07599
0.09643 -0.02514 0.00074
-0.18193 0.22711 0.09540
0.13617 -0.03806 0.18853
0.00648 -0.01891 -0.12464
0.10488 0.09511 -0.22815
-0.03750 -0.02430 -0.03648
0.09453 -0.01891 -0.04376
-0.17619 -0.34987 0.14248
0.03392 -0.04338 -0.18562
-0.17739 0.16423 -0.10213
-0.15157 0.13610 0.17503
-0.12797 0.03564 0.17659
0.08296 0.16521 0.24331
-0.03750 -0.02059 -0.12601
0.20050 -0.01891 -0.02612
-0.10756 0.14785 -0.20214
-0.19818 0.20891 -0.00953
0.21999 -0.01891 -0.08505
-0.08483 -0.01891 -0.07883
0.21657 -0.15773 -0.18065
0.19103 -0.27696 -0.16908
-0.15709 0.12854 0.14969
-0.07389 -0.03157 -0.18397
-0.18197 0.24453 0.16947
-0.02235 -0.03146 -0.05641
0.11431 0.15206 0.26096
0.12840 -0.03146 -0.11659
0.07253 -0.03146 0.18389
0.10538 -0.04423 -0.18384
-0.19227 0.26682 0.09701
0.08304 -0.01891 -0.06833
-0.15081 0.05657 -0.08729
-0.16857 0.17387 0.17554
-0.18545 -0.34536 -0.04957
0.08745 -0.03146 -0.14931
-0.17176 0.18497 -0.17552
0.08519 -0.03146 -0.06013
-0.06871 -0.03146 0.18033
-0.16770 0.12557 0.11060
-0.00961 -0.03146 -0.04255
0.20349 -0.01891 0.14153
-0.17163 0.16498 0.18550
-0.17120 0.18460 0.12749
-0.14811 0.16705 0.16873
-0.15777 0.13718 -0.18860
0.02788 -0.03349 0.18704
0.10729 0.09857 0.22861
-0.05384 -0.03146 0.05878
-0.03750 -0.02533 0.16765
-0.11749 0.13013 -0.23117
-0.00194 0.14066 -0.24274
0.22017 -0.07909 -0.17590
-0.07572 0.13394 0.20567
0.10480 -0.02765 -0.12712
-0.16440 0.16856 -0.17585
-0.18751 0.24084 0.08147
-0.07252 -0.01891 0.04821
-0.19534 0.22119 -0.08180
-0.22403 0.32521 -0.02846
-0.12440 0.08529 -0.18118
0.10983 0.06139 -0.21940
-0.09342 -0.03146 0.05808
0.10516 0.15969 0.21565
-0.16383 0.12859 0.01204
-0.18917 0.23144 0.05134
0.01391 -0.03146 -0.15828
0.18421 -0.01891 0.11396
0.14457 -0.01891 -0.12245
0.14097 -0.03146 0.10307
-0.15882 0.12746 -0.07086
0.10553 -0.03146 -0.14823
-0.17512 0.15225 -0.09551
0.02485 -0.04124 0.18762
-0.06108 -0.03146 0.09054
0.10786 0.12207 0.22744
-0.19418 -0.35362 -0.04892
-0.16478 0.16210 -0.17560
0.22326 -0.11176 -0.18453
-0.04818 -0.34151 0.15073
-0.11610 -0.34794 -0.15519
-0.02122 0.13890 0.21624
-0.21977 0.29007 0.02431
0.00523 -0.01891 0.03668
0.21019 -0.03146 -0.08315
-0.17865 0.23859 0.12774
0.00875 -0.01891 -0.08906
-0.20085 0.27719 -0.05486
0.14106 -0.34367 -0.14339
0.22676 -0.01891 -0.13429
-0.21284 0.27156 -0.05211
0.09587 0.16639 0.22252
-0.17293 0.18933 -0.14939
0.15296 -0.34136 0.14696
-0.06135 -0.34780 0.14192
0.00084 0.15769 0.20614
-0.14539 0.11789 -0.17858
-0.01695 0.15610 -0.23604
0.21080 -0.12226 -0.18357
-0.19515 0.25404 -0.13155
-0.05640 -0.01891 -0.17548
-0.21379 0.34252 -0.08701
-0.00627 0.14027 0.21867
0.10207 0.11454 -0.22645
-0.17790 0.23133 -0.17885
0.09643 -0.02902 0.17460
-0.09025 -0.01891 0.09873
-0.02101 0.15573 -0.21448
-0.11969 0.14674 -0.20050
0.17922 -0.01891 0.17047
0.04309 -0.34295 -0.14410
0.10579 -0.03146 -0.01119
-0.19170 0.21494 -0.09787
0.11435 0.16664 -0.26109
0.18341 -0.31176 -0.16791
0.19778 -0.20958 -0.18308
-0.01893 -0.01891 0.17302
-0.01404 -0.01891 -0.06437
0.06561 -0.01891 -0.00663
-0.21605 0.31064 -0.10411
-0.15650 0.15451 -0.18303
-0.17424 0.16772 -0.01528
-0.04975 0.15311 -0.21335
0.02590 0.16001 -0.24022
0.09083 -0.03146 0.03878
0.17176 -0.01965 0.10258
-0.00323 -0.01891 0.05769
0.12428 -0.04163 -0.18735
0.13681 -0.01891 -0.00879
-0.20886 0.27428 -0.08614
0.07496 -0.03146 0.01262
-0.11747 0.06397 0.18086
0.14799 -0.03146 -0.06889
0.15102 -0.01891 -0.11209
-0.17471 0.23934 -0.18355
0.22871 -0.07479 -0.18675
0.17677 -0.01891 0.06953
-0.23065 0.34546 -0.06548
0.15046 -0.01891 -0.01638
-0.15564 0.07843 -0.09441
-0.19675 0.28061 0.09115
-0.19594 0.27197 0.10645
0.07233 0.14743 -0.22540
-0.02826 -0.01891 -0.06069
0.16278 -0.03146 0.16812
-0.18371 0.23657 0.15575
0.01247 -0.01891 0.01520
0.06794 -0.03146 0.01056
0.03783 -0.02550 0.06096
0.21596 -0.09831 0.18546
0.05733 -0.01891 0.04996
-0.19376 0.24111 -0.02510
-0.13443 0.11909 0.17204
-0.15543 0.18824 0.16275
-0.16117 0.10239 -0.10053
-0.07616 -0.01891 -0.03174
0.09559 -0.01891 0.11441
0.17256 -0.34224 -0.17603
-0.17824 0.21578 0.10611
-0.00645 -0.03146 -0.16233
-0.16779 0.13002 -0.05031
-0.02841 -0.03146 0.03985
-0.05964 -0.01891 0.12117
-0.03939 -0.03146 -0.17541
-0.21496 0.33327 -0.06069
-0.16289 0.19261 -0.14033
-0.22858 0.33948 0.06896
-0.18927 0.23693 0.13630
0.10948 0.16483 -0.26063
-0.16050 0.10675 0.10759
0.12856 -0.03683 -0.18863
0.15505 -0.03146 0.09505
0.01862 0.14554 0.20765
-0.19777 -0.34935 -0.09249
0.00718 -0.35025 -0.14258
-0.09609 -0.02476 0.06214
0.10926 0.07747 -0.22581
0.09239 -0.03146 0.08063
-0.15408 0.08776 -0.05000
-0.16131 0.15338 0.10275
-0.19894 0.22241 -0.05809
0.15412 -0.03146 0.07876
-0.18556 0.20589 -0.11696
0.02338 -0.03146 -0.12419
-0.14368 0.13297 -0.15224
-0.14891 0.09515 0.08036
-0.15867 0.12300 -0.14645
-0.14949 0.08021 0.10709
0.19631 -0.27367 -0.17596
-0.03614 -0.03250 -0.16081
-0.17013 0.23334 -0.15310
0.18477 -0.32351 -0.17946
-0.01479 0.15630 0.21537
-0.04065 -0.01891 -0.06068
0.18791 -0.25440 -0.18030
0.23016 -0.03146 -0.09425
-0.11850 -0.34228 -0.15238
-0.22780 0.34262 0.08066
0.03783 -0.02715 0.00072
-0.19441 0.25132 0.05165
0.16339 -0.02155 0.08543
-0.09584 -0.03146 -0.07377
0.18873 -0.04197 0.18712
0.22078 -0.03146 -0.16208
-0.09609 -0.03118 -0.16621
0.01628 -0.03146 0.07173
-0.15496 0.06671 -0.07672
0.18231 -0.03146 0.16217
0.19904 -0.18661 0.18072
0.07531 -0.03146 0.00494
0.09616 -0.03146 -0.11216
-0.19478 0.30537 0.18144
0.16344 -0.03290 -0.18617
0.17534 -0.04301 -0.17804
-0.18569 0.30815 -0.18159
-0.04507 0.13673 0.21399
-0.02233 -0.03146 0.00488
-0.02330 -0.03146 -0.13019
0.01630 -0.01891 0.00038
0.10480 -0.02096 -0.16426
-0.21458 0.31896 0.10723
-0.14220 0.07166 0.08377
-0.14366 0.04934 0.01857
-0.08053 0.15031 -0.21382
-0.19106 0.29238 0.13450
0.10398 -0.34635 0.15493
0.19339 -0.03146 -0.15663
0.18837 -0.03146 -0.18289
0.11186 -0.03146 0.13004
0.14694 -0.01891 -0.05258
-0.00200 0.14066 -0.20981
0.11124 -0.03146 0.00418
-0.16735 0.21203 -0.14283
0.10564 -0.04337 0.17856
-0.08318 0.13326 0.20051
0.02635 0.14324 0.24627
0.21146 -0.12092 0.18442
0.20659 -0.19210 -0.17181
-0.15679 0.11646 0.18740
-0.12567 0.14619 0.23356
0.18104 -0.01891 0.10424
0.10480 -0.01936 -0.12278
-0.05835 -0.03146 -0.05930
-0.04390 -0.03146 0.03573
0.10480 -0.02416 -0.01234
0.04817 -0.03173 -0.18448
0.00679 0.14146 -0.22988
0.10950 -0.01003 -0.21420
-0.05663 -0.03146 0.15700
0.00586 0.15818 0.22342
0.09643 0.05384 0.22251
-0.16228 0.13176 -0.05409
-0.18496 -0.34805 0.05402
-0.07582 0.13393 0.21618
-0.02913 -0.02704 -0.12766
0.20252 -0.17148 0.18287
0.11807 -0.01891 0.06933
-0.05043 -0.03146 -0.09325
-0.06469 0.15175 -0.21266
0.10301 0.00559 -0.21627
0.05970 -0.03146 0.06097
-0.17509 0.20622 -0.15770
0.02946 -0.02619 0.10471
-0.15820 0.09315 0.10423
-0.00802 -0.02553 -0.18833
-0.13720 0.08569 -0.17848
-0.06412 -0.01891 -0.10701
-0.14257 0.09950 -0.18511
-0.18906 -0.34159 -0.03780
0.10480 -0.02982 -0.12312
0.18049 -0.35059 0.17075
0.02946 -0.03117 0.12917
-0.19729 0.28347 -0.15179
0.20858 -0.01891 -0.01621
-0.17183 0.11844 -0.05633
0.05441 -0.01891 -0.01236
-0.16649 0.14247 0.20243
0.12229 -0.03146 0.17557
0.21051 -0.13073 -0.17463
0.11317 0.14630 0.24390
0.14583 -0.03146 -0.07484
0.22258 -0.01891 -0.00953
-0.14776 0.11584 0.16941
0.07793 -0.03146 0.06263
-0.01975 -0.01891 0.07460
0.09643 0.03539 -0.22016
-0.17636 0.18562 -0.17761
0.16306 -0.01891 -0.16852
-0.15910 0.17127 0.13363
-0.16550 0.23330 -0.16954
-0.20850 0.30972 0.06210
-0.15662 0.14429 0.16482
-0.04004 0.15400 -0.21331
0.09643 -0.02344 0.21047
-0.15423 0.12061 -0.15092
0.19638 -0.01891 0.11417
-0.05869 -0.01891 -0.13542
-0.06271 -0.01891 0.16400
-0.19672 -0.34366 -0.02682
0.21095 -0.16839 0.18457
0.06032 -0.03256 -0.17587
0.18502 -0.01891 0.09562
-0.12169 -0.02359 0.18518
-0.21282 0.28682 0.08168
-0.19924 0.26175 -0.02200
0.11937 0.16853 0.24756
0.02665 -0.01891 0.15538
0.01166 -0.01891 0.07100
0.15260 -0.03146 0.18459
0.20695 -0.03269 -0.16081
0.11305 0.09740 -0.22417
-0.15369 0.12683 0.20004
-0.12565 0.07535 -0.16189
0.22647 -0.03146 0.01811
0.01100 -0.01891 -0.13260
0.19119 -0.03146 -0.07151
-0.20832 0.31259 0.12823
0.08544 -0.35426 -0.14833
-0.20539 0.31937 0.15693
0.15016 -0.01891 0.00942
-0.04168 -0.34654 0.15498
0.20671 -0.18601 -0.17177
-0.02775 -0.01891 0.02166
0.20059 -0.21626 -0.18379
-0.19065 -0.34138 0.14400
0.11033 -0.03146 -0.06320
0.02946 -0.03035 -0.10052
-0.15221 0.10298 -0.17617
-0.18868 0.25616 -0.10250
-0.17123 0.14697 -0.05016
0.01071 -0.03146 0.07122
0.10619 -0.03146 0.00129
-0.21133 0.33543 0.09110
0.12979 0.15267 -0.25879
-0.09063 -0.03146 0.10455
0.22118 -0.03146 -0.08778
0.03783 -0.03073 -0.01580
0.15048 -0.34370 -0.15380
-0.07129 -0.03146 0.13863
-0.18312 0.19859 -0.10734
0.00188 0.14101 -0.22722
-0.21545 0.30829 0.10398
0.04390 -0.04000 -0.17588
0.12266 0.16883 -0.23465
0.19363 -0.01891 0.07251
0.09920 0.05668 0.21877
-0.15472 0.13798 -0.12645
-0.17855 0.23115 0.18591
-0.01618 -0.03146 0.03844
-0.00598 -0.04370 -0.18495
-0.15726 0.11777 0.06348
-0.20060 0.28074 -0.06350
0.17576 -0.01891 -0.06107
-0.06566 0.13485 0.22037
-0.18607 0.27105 -0.13205
-0.18003 0.19287 -0.18195
0.05401 -0.01891 0.16781
0.05647 -0.35256 0.15279
-0.07640 -0.03146 0.17548
0.19006 -0.29523 0.16981
-0.01188 -0.03146 -0.15583
-0.11527 0.14714 -0.22009
-0.08830 -0.03856 -0.17552
0.22245 -0.01891 0.09472
0.01773 -0.03146 0.04763
-0.18734 0.27170 -0.17607
-0.14974 0.10803 0.18862
-0.12110 0.04089 -0.17853
-0.13590 0.08778 0.13720
0.00221 -0.01903 -0.18833
0.09802 0.16084 -0.25955
-0.12494 0.08129 -0.17005
-0.09609 -0.02388 0.16763
-0.07827 0.13406 -0.24329
-0.16659 0.19706 0.13138
-0.17319 0.12425 0.05554
-0.19446 0.20804 0.02846
0.03783 -0.02495 -0.07720
0.06597 -0.03146 -0.01162
-0.01574 -0.01891 0.10877
-0.09609 -0.02924 0.03243
-0.13651 0.05406 0.15100
-0.02687 -0.03146 0.11124
0.01875 -0.01891 0.03223
0.17481 -0.33336 -0.16867
-0.10822 0.14778 -0.22285
-0.15576 0.06141 0.06072
0.11159 -0.01891 0.17941
-0.02781 -0.03146 0.16630
-0.06293 0.15191 -0.22993
0.10480 -0.02709 -0.09773
0.08752 -0.35151 -0.14331
0.18914 -0.01891 0.13168
0.22884 -0.08841 0.18161
-0.18969 0.19441 -0.07117
-0.10219 -0.34116 -0.14942
-0.18426 0.20541 -0.01586
-0.01306 -0.34746 0.14192
-0.01480 0.14292 -0.20459
-0.22734 0.34170 0.05375
0.21283 -0.11055 0.18386
0.11588 -0.03146 0.02658
-0.15945 0.07641 0.06289
-0.21229 0.31080 -0.01496
-0.18321 0.22174 0.15229
-0.19099 0.29151 -0.18180
-0.17686 0.24478 0.18373
-0.04435 0.14621 0.24647
0.13426 0.16625 0.25597
0.04574 -0.01891 -0.02641
0.17771 -0.01891 0.01491
0.05623 -0.01891 0.02394
-0.16152 0.13791 -0.14136
-0.04844 0.15138 0.24615
-0.17902 0.23505 0.17100
0.01903 -0.01891 0.17358
0.09981 0.01430 0.21315
0.17176 -0.02623 0.06576
-0.06089 0.13529 0.23135
-0.17541 0.18410 0.18697
0.08523 -0.03146 0.11679
0.20831 -0.15523 -0.17293
-0.01613 -0.03146 -0.11784
0.08205 -0.01891 0.00660
-0.17732 0.20299 0.14671
-0.18278 0.15101 -0.01192
-0.21256 0.32456 0.13632
-0.16621 0.14531 0.17840
0.11317 -0.03941 -0.18965
-0.03750 -0.02821 -0.06896
-0.16842 0.10573 0.05439
0.11370 -0.03146 0.06005
0.14399 -0.03146 -0.10723
0.11317 -0.01957 0.21034
-0.07494 -0.03146 0.10028
-0.03399 0.15455 0.22940
0.08447 0.16535 -0.25564
0.04964 0.16217 0.22334
-0.16864 0.17170 -0.08497
-0.17983 0.27769 0.16054
0.10480 -0.02912 0.07348
0.04509 0.16176 -0.23853
0.19459 -0.26239 0.18170
-0.20940 0.33531 0.15775
0.07136 -0.03146 -0.05342
-0.20803 0.27196 0.08774
-0.15955 0.06366 -0.00096
-0.15375 0.11625 0.14852
0.20074 -0.01891 0.13291
-0.17868 0.21234 -0.10629
-0.21958 0.33821 0.02161
0.03379 0.14392 0.23844
-0.20038 0.28893 -0.14597
0.04217 -0.01891 -0.17858
0.02292 -0.03146 -0.16827
-0.00300 -0.01891 0.15601
-0.17543 0.18804 0.06727
-0.01375 -0.01891 0.05861
-0.17525 0.11445 -0.02298
0.18287 -0.34945 -0.16669
-0.17358 0.20826 0.16501
0.02569 -0.03146 0.06853
0.20836 -0.01891 -0.03186
-0.16499 0.08411 -0.01694
0.17176 -0.02382 0.18765
-0.06852 -0.03146 -0.10459
0.01478 -0.01891 0.11887
0.02218 -0.01891 0.15862
-0.04592 -0.01891 -0.13320
-0.08810 -0.03146 -0.14501
-0.15472 0.09433 -0.00163
-0.15729 0.11860 -0.06485
0.07962 -0.03146 -0.00514
-0.17918 0.16390 0.08853
0.11867 0.16846 -0.24515
-0.15860 0.06010 0.01666
-0.17320 0.20155 -0.16000
-0.20293 0.28284 -0.10698
-0.14874 0.07744 0.12964
0.16339 -0.02026 -0.16368
-0.13861 -0.34360 0.15370
-0.07820 0.13371 0.23848
0.04553 -0.01891 0.08225
0.00734 -0.04446 0.18272
-0.19963 0.32409 0.13401
-0.17488 0.20155 -0.15403
0.03783 -0.02281 -0.09856
0.01165 0.15148 0.20707
0.17646 -0.03146 -0.07255
-0.13640 0.09719 0.14429
-0.13214 0.08701 -0.14982
0.01448 -0.03146 0.03355
0.03783 -0.02814 0.07701
-0.16435 0.14540 -0.06537
0.21984 -0.06953 0.17842
0.12565 -0.03146 0.07566
-0.18931 0.22440 -0.02214
-0.21873 0.31447 0.09211
-0.21545 0.27700 -0.02846
-0.12370 0.04018 -0.13625
0.05332 0.14570 -0.21959
0.11501 -0.01891 -0.15869
0.13453 -0.03146 0.16647
0.23035 -0.01938 -0.04583
0.13297 0.15296 0.25966
0.20655 -0.01891 -0.06742
0.06392 -0.03862 -0.18849
0.22811 -0.01891 0.18512
-0.19263 -0.35403 0.09753
-0.11993 -0.02612 0.17736
0.18082 -0.35172 0.15551
-0.02913 -0.02703 0.15982
0.10923 0.15079 -0.22585
0.05046 -0.03813 0.17555
-0.12333 -0.00168 0.17567
-0.20156 0.21216 0.01040
-0.21052 0.30416 0.02416
0.17318 -0.34161 0.14912
-0.07575 -0.03146 -0.07054
-0.19238 0.24467 -0.05358
-0.15319 0.12687 -0.21169
-0.04258 -0.03146 0.00601
0.10480 -0.02905 0.16081
0.15488 -0.03146 -0.16405
-0.16520 0.22969 0.16720
-0.11608 0.04773 0.16981
-0.17355 0.25471 0.18216
0.13872 -0.03146 0.01753
0.06901 -0.01891 -0.03356
0.03953 0.14444 0.24693
0.15179 -0.35367 0.15100
0.09551 -0.03457 -0.17651
-0.12601 0.04264 0.17755
-0.19777 0.20737 0.01156
0.17918 -0.34055 0.17959
-0.12441 0.14258 0.23916
-0.08080 0.13347 -0.22117
-0.16529 0.08523 0.01451
-0.12182 0.04253 -0.14448
0.01406 0.14212 0.21761
0.20453 -0.03146 0.10059
-0.17147 0.11898 -0.06216
-0.19763 0.25568 0.02544
0.21454 -0.11821 0.17416
-0.19213 0.21778 -0.11092
-0.08254 -0.03146 -0.13359
-0.14696 0.06516 -0.02456
0.11282 -0.04025 -0.19409
-0.01772 -0.01891 0.06850
0.10241 -0.03607 -0.20604
0.11766 -0.01891 -0.17345
-0.14885 0.09438 0.14524
-0.21255 0.31180 0.00343
0.09191 -0.01891 0.08354
0.19403 -0.28061 0.17889
0.18777 -0.03355 -0.16342
-0.03362 0.15458 0.23994
-0.15786 0.12945 -0.08167
0.03783 -0.02232 -0.11211
-0.13960 0.08014 0.16469
-0.21706 0.34581 0.06965
-0.00231 -0.01891 0.01823
-0.18815 0.24609 -0.14894
0.03863 -0.01891 0.04636
0.13228 -0.01891 -0.06932
-0.17233 0.10990 0.00597
0.09899 0.00183 0.21577
-0.16568 0.21649 0.15300
-0.20355 0.26364 0.10416
-0.21424 0.29973 0.09623
0.07579 -0.01891 -0.14068
0.03157 0.14409 0.20882
0.23042 -0.06108 -0.17627
0.17384 -0.33266 0.17731
0.04985 -0.01891 -0.14485
-0.15161 0.09646 0.06340
0.22184 -0.03146 0.01948
-0.06942 -0.34520 -0.15462
0.00007 -0.04065 -0.17619
0.01439 0.15213 -0.20732
-0.14893 0.09688 -0.08360
-0.18277 0.22790 0.09091
-0.16849 0.17883 0.12719
0.08662 0.14873 0.24208
-0.23258 0.33825 0.00179
-0.19695 0.26381 -0.12868
-0.17630 0.24877 -0.14574
-0.15449 0.12052 -0.08886
-0.08156 -0.03146 -0.10938
0.09854 0.02951 -0.21517
0.01935 -0.01891 0.00616
-0.14762 0.07614 -0.12893
-0.16321 0.14277 0.22543
0.06140 -0.01891 0.07866
-0.19783 0.27445 -0.14136
0.07155 -0.03146 -0.04794
-0.09609 -0.02129 -0.09756
-0.14792 0.07987 -0.13485
0.03428 -0.03856 -0.18849
-0.21083 0.27690 -0.02846
-0.18904 0.30918 0.15756
0.06107 -0.03146 -0.00232
-0.07103 0.13899 -0.24399
-0.13977 0.06046 -0.07977
-0.07201 -0.03355 -0.16640
-0.18634 0.30357 0.18208
-0.15534 0.14349 0.21684
0.19543 -0.03146 0.09673
0.20066 -0.01891 -0.07114
0.22894 -0.03146 0.08196
0.17176 -0.02968 -0.04864
-0.04920 -0.03146 -0.14579
-0.05378 -0.03146 -0.01592
0.11038 0.16771 0.25905
0.16339 -0.02970 -0.11311
0.03783 -0.02854 -0.00373
-0.16518 0.16672 -0.10612
-0.14799 0.08548 0.06843
-0.04271 -0.01891 0.12326
0.08902 -0.03146 0.03453
0.21524 -0.01891 0.08733
0.20627 -0.03146 0.11459
0.18648 -0.01891 0.14727
0.14606 -0.01891 0.18523
-0.19537 0.22753 -0.09388
-0.19574 0.19974 -0.02306
-0.15093 0.06282 0.05045
-0.17806 0.20097 -0.07315
-0.19846 0.28153 0.08056
0.18796 -0.01891 0.16849
0.03783 -0.01970 -0.05729
-0.19015 0.21102 -0.11178
-0.15638 0.11714 -0.10670
-0.16254 0.10236 0.09050
0.13025 -0.03146 -0.17911
-0.21541 0.32253 -0.02410
0.10718 -0.01651 0.20906
-0.18100 0.22827 0.18842
-0.04533 -0.03146 0.09963
0.20597 -0.03146 0.07116
-0.14320 0.10659 -0.12902
-0.04519 -0.34603 0.14230
0.23035 -0.02156 -0.08914
-0.09149 0.14931 0.20228
-0.12987 0.08824 0.15906
-0.04681 -0.01891 -0.09489
0.03835 -0.34391 0.15400
-0.06053 -0.03146 0.08039
-0.18346 0.22541 -0.18843
0.10480 -0.03055 -0.06195
-0.03750 -0.02327 -0.11460
-0.21099 0.34155 0.10536
-0.18753 -0.34249 -0.00233
0.18199 -0.03146 -0.14995
0.05201 -0.03146 0.16566
-0.19893 0.26055 -0.01132
-0.19424 0.26246 0.07438
0.02288 -0.01891 -0.18827
0.11120 0.14557 0.25018
0.16312 -0.03146 0.07970
0.19509 -0.27547 0.17214
0.15660 -0.35182 -0.14362
0.03783 -0.02240 0.15282
-0.07201 -0.01891 0.11560
-0.13757 0.05828 0.09149
0.04127 -0.01891 -0.09514
0.22174 -0.02283 0.18833
-0.06631 -0.01891 -0.06641
0.02025 -0.35346 0.15182
0.17139 -0.03211 -0.17922
0.07001 -0.01891 -0.16228
0.00377 -0.03355 -0.16513
-0.15613 0.09963 -0.00136
0.14938 -0.03146 -0.13840
-0.10657 0.13112 0.21387
-0.04615 -0.01891 0.08693
0.02986 0.14356 -0.24309
-0.21591 0.32440 0.00428
-0.11904 0.01345 0.18327
-0.00812 -0.35223 0.14402
-0.05568 -0.03333 -0.16081
0.14640 -0.01891 -0.10744
-0.02089 0.13893 -0.24299
-0.01998 0.15583 -0.24438
-0.18297 0.21294 -0.06063
0.05667 -0.01891 -0.09264
0.12191 -0.03705 -0.17564
0.06471 -0.03146 0.10713
-0.05661 -0.02717 0.18833
-0.16674 0.11642 -0.09134
-0.12883 0.13611 -0.19415
0.08216 -0.03146 0.03074
-0.16084 0.17269 -0.12878
-0.16166 0.15028 -0.09423
0.02946 -0.02010 -0.01819
0.00597 0.14138 0.23060
-0.14774 0.17006 0.17289
0.07085 -0.01891 -0.17376
0.20398 -0.01891 0.13689
-0.19691 0.22855 0.08461
-0.14406 0.04923 -0.00702
-0.21471 0.32754 -0.12886
0.02366 -0.03146 -0.00021
0.22837 -0.03623 0.18454
-0.19945 0.23311 0.07499
0.10707 0.16741 0.22678
-0.18837 0.17201 0.02373
-0.08327 -0.02587 0.18833
-0.16047 0.20030 -0.15619
-0.03820 -0.03141 -0.18195
-0.19561 0.24809 0.02673
-0.00599 -0.03821 -0.17554
-0.18517 0.20883 -0.00505
0.01899 -0.01891 -0.02056
-0.12007 -0.01573 0.17589
0.00016 -0.35036 0.15454
-0.16982 0.19850 -0.18645
-0.17880 0.14662 0.05803
-0.15909 0.17066 0.18097
-0.23190 0.33567 -0.00932
-0.14434 0.10723 0.17966
0.03895 -0.03355 0.16911
-0.17707 0.11932 0.00430
0.05282 -0.03355 0.16096
-0.20156 0.25009 0.09245
-0.20468 0.30040 -0.14150
-0.00679 0.14028 0.24984
0.01200 -0.03355 0.16952
0.04771 -0.01891 -0.09081
-0.19742 0.29740 0.16450
0.20811 -0.16674 -0.18516
-0.19613 0.21111 -0.07654
-0.20705 0.25120 0.05481
0.12999 -0.01891 -0.02388
-0.02261 0.14853 0.24847
-0.21514 0.33520 -0.10675
-0.20765 0.33148 -0.16034
-0.21719 0.33697 -0.05162
0.09643 -0.02429 -0.00401
-0.13900 0.08264 0.16919
-0.19434 0.23041 -0.02846
0.03067 0.16044 -0.22810
0.10480 -0.02890 0.14308
-0.06362 -0.03146 0.15147
-0.16873 0.14702 -0.02623
-0.19979 0.27752 -0.13727
-0.17754 0.28541 -0.18105
0.13658 -0.01891 0.11472
0.17938 -0.03146 0.05168
-0.07301 -0.01891 -0.02550
0.11390 0.16803 -0.21812
-0.19478 0.29714 -0.17364
-0.19329 0.21510 -0.08495
0.15036 -0.34621 0.14226
-0.22614 0.35007 -0.01177
0.11170 0.04871 0.21771
0.17176 -0.02148 -0.05359
0.05490 0.16265 0.23091
-0.06864 0.15139 -0.22840
0.08647 0.16553 0.25787
0.01962 -0.03146 0.17855
0.05077 -0.01891 -0.05630
-0.18494 -0.34725 0.07787
-0.18158 0.21250 -0.06985
-0.01094 -0.01891 0.03512
0.22315 -0.03146 0.12491
-0.03750 -0.03082 0.07042
-0.03024 -0.03142 0.18199
-0.16798 0.19758 -0.12691
0.00818 0.14158 0.24642
0.06278 0.14656 0.25167
0.13708 -0.03146 0.04313
-0.17834 0.16325 0.05052
0.06107 -0.01891 0.01605
0.14134 -0.01891 -0.16372
-0.05930 -0.03355 0.17282
-0.16281 0.14857 -0.14685
-0.16407 0.19147 0.13506
-0.22176 0.34848 -0.09670
-0.06678 -0.01891 -0.14657
-0.15655 0.13458 0.15590
-0.16179 -0.34705 0.15511
-0.11569 0.00154 0.18098
-0.19475 0.23059 0.10419
0.18674 -0.03517 0.17609
-0.16643 0.08952 0.00424
-0.18999 0.32542 0.16955
0.13830 -0.03146 -0.07770
0.00267 -0.03146 -0.17180
0.10306 0.02995 0.21950
0.08685 -0.03409 -0.18740
0.00983 0.14907 0.25143
0.09480 -0.03146 0.06776
0.00327 -0.03146 -0.00900
0.15319 -0.02099 0.18833
-0.00347 -0.03146 0.03351
0.18389 -0.01891 -0.08377
0.04130 -0.01891 0.11385
-0.15829 0.12530 -0.21267
0.07281 0.14751 -0.25715
-0.15629 0.12776 -0.15207
0.14587 -0.03201 0.18488
-0.13382 0.14545 0.22596
-0.02913 -0.02139 -0.03388
0.01355 -0.03146 -0.03612
-0.07157 -0.34142 -0.15039
-0.10774 -0.03055 -0.17847
0.12888 -0.01891 0.18032
0.07314 -0.03146 0.03742
-0.12853 0.12912 -0.21715
0.09910 -0.34132 -0.14711
0.19139 -0.22800 -0.17869
-0.17798 0.20487 -0.08118
-0.18642 0.29284 -0.18286
0.08734 -0.03146 -0.16850
0.11296 -0.02996 0.21156
-0.22024 0.31938 -0.09064
-0.20776 0.27033 -0.02846
-0.14353 0.04938 -0.07735
-0.01834 -0.02934 -0.18833
-0.18799 -0.34203 0.11587
0.12544 -0.01891 0.03408
0.10880 0.03758 0.22051
0.12170 -0.01891 -0.00281
0.23035 -0.02309 -0.07090
-0.09609 -0.02979 -0.14516
0.05538 -0.01891 -0.13180
-0.09609 -0.02888 -0.09787
-0.14110 0.14467 0.18138
0.10480 -0.02662 0.17577
-0.17041 0.11590 0.05113
0.21686 -0.03245 0.18550
0.11960 -0.01891 0.11756
-0.19140 0.24667 -0.13792
-0.00468 0.15722 -0.24385
-0.13640 0.10425 0.15100
-0.15113 0.09196 -0.05815
-0.04096 -0.03160 0.18427
-0.17716 0.22269 0.16592
0.07260 0.14746 0.22831
0.10962 -0.35210 -0.15325
-0.21592 0.31824 -0.02846
-0.19766 0.28999 -0.12703
-0.07312 -0.03146 0.16825
-0.14184 0.06833 0.12796
-0.20918 0.32564 0.14937
-0.15015 0.10835 0.09686
-0.12648 0.12931 -0.19900
0.02946 -0.02776 0.17042
0.19841 -0.03146 0.17280
-0.14832 0.13927 -0.14171
0.19737 -0.01891 -0.01540
-0.14500 0.12350 -0.18390
0.19887 -0.24738 0.18130
-0.13767 0.04771 -0.12832
-0.21003 0.27508 -0.07926
0.00745 -0.04447 -0.18333
0.02451 0.15091 0.20823
-0.16605 0.21193 0.14735
0.19154 -0.26894 0.16924
-0.05838 -0.01891 0.13070
-0.16661 0.21344 0.18324
0.08931 -0.03146 -0.07142
-0.06951 -0.01891 -0.07511
-0.14177 0.10626 0.13380
-0.02553 -0.01891 0.11108
-0.00788 -0.35421 -0.14900
-0.18385 0.20979 0.12904
-0.17679 0.11986 0.01972
-0.20635 0.29748 0.13280
-0.07247 -0.01891 -0.11742
-0.09325 -0.01891 0.17461
0.02669 -0.03146 0.10985
0.15588 -0.03146 -0.00421
-0.20926 0.25875 -0.05338
-0.16314 0.14172 0.06700
-0.19708 -0.34402 0.06214
-0.02913 -0.02661 -0.18176
-0.14855 0.14919 -0.15028
-0.15836 0.05917 0.02761
0.13915 0.15715 0.23274
0.15661 -0.04403 0.18426
-0.19663 -0.35168 0.02185
-0.15935 0.21193 0.18144
0.15827 -0.03146 -0.15499
0.10310 -0.03261 0.17816
-0.20311 0.28997 -0.13725
0.14913 -0.01891 0.05743
-0.02276 -0.01891 0.12478
0.06021 -0.01891 -0.17295
-0.16470 0.15491 0.14613
0.06347 -0.03146 0.01493
0.20336 -0.03146 0.02217
-0.16831 0.14286 -0.04993
-0.08019 -0.01891 -0.12630
-0.15383 0.09100 0.01551
-0.15161 0.06340 0.09465
-0.19058 -0.34119 -0.08577
-0.16840 0.09695 0.00095
-0.12732 0.09030 0.17011
0.21875 -0.03146 0.04649
-0.16337 0.12130 -0.11557
-0.07071 0.15120 -0.24243
0.12399 0.15214 -0.23788
0.22754 -0.05371 -0.18848
-0.15332 0.17756 0.16012
-0.14576 -0.35369 -0.14622
-0.08537 -0.03146 0.05049
-0.16154 0.12514 -0.12852
0.17819 -0.03146 -0.15672
0.21939 -0.01891 -0.12483
0.07651 0.16462 0.22081
-0.06692 -0.01891 0.13075
-0.19987 0.21528 0.00498
-0.08944 -0.01891 0.02420
-0.19829 0.32695 0.18357
0.09510 -0.01891 0.07949
-0.15603 0.05044 -0.02696
-0.04810 0.15327 -0.20366
-0.13248 0.03021 0.18833
0.03783 -0.02714 0.09377
-0.07898 0.14663 -0.19878
0.09643 -0.02771 0.12648
0.05925 -0.01891 -0.05858
-0.17497 0.12367 0.06158
0.17247 -0.03146 0.04345
-0.19293 0.23468 0.04993
-0.18827 -0.35345 -0.06290
-0.21720 0.30874 -0.09214
-0.17095 0.24885 0.16486
0.18545 -0.31964 -0.16887
-0.17514 -0.34105 0.14901
-0.11804 0.00584 0.18561
0.11761 -0.01891 0.08767
-0.03512 -0.03444 -0.17659
-0.14069 0.11674 0.14754
0.02197 0.14284 0.23112
-0.16314 0.13524 -0.18649
-0.12267 0.12966 -0.23652
-0.16214 0.07339 0.02588
-0.14993 0.10034 -0.14705
-0.02615 -0.03146 0.10618
-0.11299 -0.01137 -0.18493
0.20057 -0.03146 0.01516
-0.14690 0.16124 -0.18174
0.06930 -0.03355 0.16650
-0.01906 0.15500 0.20430
-0.18673 0.22026 0.18466
-0.14263 0.07957 0.09588
-0.14780 0.10253 0.10610
-0.16484 0.12581 -0.21013
-0.15723 0.14589 0.17660
0.22327 -0.03146 0.16022
0.12195 -0.34643 -0.14220
-0.04153 0.13705 0.20753
-0.17184 0.21222 -0.12703
-0.10528 0.13680 -0.19630
0.21504 -0.12727 0.18634
0.09643 -0.02053 -0.09612
0.06016 -0.03146 -0.18235
-0.11909 -0.35366 -0.14611
-0.13639 0.03662 -0.18686
0.16017 -0.03726 -0.18860
-0.16024 0.14064 0.18848
-0.07985 -0.01891 0.03538
-0.11924 0.14678 0.22535
0.23355 -0.04925 -0.18662
0.14665 -0.01891 0.04464
-0.16894 0.23696 0.16077
-0.13305 0.08763 0.14718
-0.19543 0.25626 0.05378
0.12424 -0.01891 -0.16135
0.16339 -0.02748 -0.01755
-0.14957 0.09218 -0.12832
0.21319 -0.01891 0.01604
0.20534 -0.15073 -0.17634
0.23001 -0.01891 -0.06695
-0.01144 -0.01891 0.08345
-0.06926 -0.03527 -0.18796
0.22117 -0.12926 -0.18261
-0.17330 0.15151 0.10726
0.18030 -0.32894 -0.18039
0.10576 -0.01864 -0.21306
0.00104 0.14169 -0.20602
-0.19975 0.27406 0.05680
0.11008 -0.01891 0.05499
0.15968 -0.03146 -0.05519
0.08366 -0.03147 -0.18257
0.02946 -0.02709 -0.04039
0.12532 -0.01891 0.07800
-0.07628 -0.01891 0.07522
-0.09609 -0.02713 0.17315
-0.20520 0.29048 0.04959
-0.13185 0.12882 0.21718
-0.22911 0.34908 0.06684
-0.15476 0.12643 -0.09828
-0.14152 0.07025 -0.08597
0.17176 -0.02999 0.01987
-0.17896 0.13662 -0.01209
-0.16207 0.21367 0.16315
-0.20397 0.30308 -0.14657
0.21206 -0.12265 -0.17481
-0.21159 0.25932 -0.02217
0.21294 -0.01891 0.06260
-0.17481 0.21955 0.17128
-0.00681 -0.03146 0.16400
0.17176 -0.02977 -0.12413
0.18678 -0.01891 0.08484
0.13738 -0.35262 0.14441
0.11188 0.16785 -0.22641
-0.09609 -0.02112 0.01375
-0.22601 0.32278 -0.05539
0.21538 -0.01891 -0.08661
0.19837 -0.03146 0.12380
0.02135 -0.03146 -0.08344
-0.15722 0.18892 -0.15702
-0.20882 0.30473 0.12892
-0.09208 -0.03146 0.00572
-0.10397 0.14817 0.20302
0.02290 -0.01891 0.01957
0.07426 0.14761 0.24473
0.11359 -0.03832 0.18851
0.19312 -0.03335 -0.17587
0.23035 -0.01941 0.07502
0.12022 -0.03146 -0.13112
-0.18827 0.23659 0.06780
-0.06113 -0.01891 0.10535
-0.13744 0.05779 -0.09154
0.09643 -0.02911 -0.04091
0.07656 -0.01891 0.18634
-0.15568 0.13704 0.12676
-0.17023 0.15942 -0.18534
0.02676 -0.01891 0.07300
0.11159 -0.03146 0.03736
-0.13901 0.11487 0.15173
-0.06579 -0.01891 0.15832
0.06857 -0.03689 -0.17565
-0.04786 -0.01891 -0.14267
0.03888 -0.03146 0.04912
-0.17665 0.20067 -0.08276
0.10682 -0.01891 0.07338
0.09949 -0.02729 -0.20763
-0.11701 0.06163 -0.17966
-0.18965 -0.35382 0.02791
-0.04452 -0.03146 -0.16308
-0.19682 0.20380 0.02681
0.07059 -0.03146 -0.11610
-0.15272 0.07548 -0.02846
0.23035 -0.01984 0.13989
-0.20187 0.24568 -0.08173
0.00340 -0.01891 -0.14838
-0.01377 0.14469 0.24924
-0.08179 -0.01891 -0.00455
-0.18668 0.16567 0.01455
0.16072 -0.01891 0.12909
-0.09609 -0.03127 -0.13277
0.13704 0.15333 0.22377
-0.16836 0.10953 -0.02846
-0.20251 0.29558 0.07828
-0.16493 0.16795 0.10461
-0.15847 0.15852 0.18542
0.16339 -0.02080 0.17035
-0.05073 -0.03146 -0.16606
0.12275 -0.01992 0.18833
-0.18055 0.26182 -0.14296
-0.17285 0.18935 -0.08844
-0.02430 -0.01891 0.07005
-0.11578 0.14710 0.23703
-0.16356 0.15868 -0.15376
0.23035 -0.02276 -0.04091
-0.19118 0.25086 0.07420
-0.17627 0.17050 -0.02846
0.01846 -0.35393 -0.15004
0.12039 -0.34178 -0.14541
-0.02868 -0.03146 -0.10207
-0.19674 0.26119 -0.05383
-0.12241 0.05665 -0.15572
0.21141 -0.03146 -0.14576
0.13138 -0.01891 0.04698
-0.03928 -0.03146 0.09528
0.10520 -0.01891 -0.18492
0.05220 0.16241 -0.24795
0.06461 -0.03146 0.03105
0.08601 -0.03631 0.18846
0.07823 -0.03146 -0.12362
0.13844 -0.01891 0.12703
0.00866 -0.03146 -0.09794
-0.14701 0.12968 -0.13730
-0.07899 0.15045 -0.23994
0.09021 -0.01891 -0.13199
-0.17378 0.19806 0.09847
0.09020 -0.01891 -0.01462
0.05996 -0.03146 -0.06752
-0.08095 -0.01891 -0.04574
-0.18567 -0.34453 -0.03948
-0.07283 -0.04421 0.17980
-0.15696 -0.34242 0.14464
0.11098 -0.03146 0.08029
0.17702 -0.30824 -0.17528
0.04219 -0.03146 -0.01984
0.06411 0.14668 -0.22293
0.15683 -0.03146 0.15094
0.09724 0.16522 0.25952
-0.18376 0.19301 0.05019
-0.14312 0.07980 -0.09276
0.05904 -0.01891 0.08908
0.22494 -0.03146 -0.01646
0.02086 -0.01891 -0.11622
0.02946 -0.02602 -0.03404
0.15845 -0.01891 0.09752
-0.22442 0.31497 0.05183
-0.15267 0.07371 -0.10684
-0.03750 -0.02366 -0.14869
-0.18589 0.16268 -0.00279
0.00999 0.15856 -0.20869
-0.01907 -0.34153 0.14636
-0.04333 -0.03146 0.07107
-0.21693 0.32824 -0.00260
0.13400 -0.01891 -0.09716
0.08558 -0.01891 -0.16319
-0.18524 0.22938 -0.17605
-0.15081 0.06349 0.10061
-0.17194 0.10969 0.01788
-0.16004 0.08271 0.07081
-0.08865 -0.03530 0.18798
0.08244 0.14835 -0.24842
0.06000 -0.34108 0.14912
0.11241 0.09281 0.22784
-0.22233 0.31305 -0.06332
0.07932 0.14807 0.25680
0.09284 -0.01891 -0.18088
0.00884 -0.01891 -0.15330
-0.06876 -0.35060 -0.14267
-0.18146 0.21253 -0.17623
-0.10512 -0.34505 -0.15458
0.09426 -0.01891 0.05238
-0.14154 0.08151 -0.18821
0.10480 -0.02445 0.01175
-0.02813 -0.01891 0.05639
-0.17452 0.19558 -0.18851
-0.15544 0.07540 -0.09003
-0.19518 0.27943 0.10024
0.00360 0.14117 -0.23924
-0.14392 0.07055 0.10670
-0.17023 0.13318 -0.09418
-0.19135 0.25544 0.08177
-0.13134 0.01160 0.17932
-0.06350 0.14677 0.20019
0.04807 0.16203 -0.24292
-0.09111 -0.35192 -0.15343
-0.19091 0.20334 -0.07956
-0.02474 -0.01891 0.17384
0.04560 -0.03146 -0.06376
-0.17076 0.11025 -0.04276
0.21115 -0.03146 0.10954
-0.08757 -0.01891 0.11205
-0.13947 0.06630 -0.09324
0.16393 -0.35274 0.14454
0.23035 -0.02959 0.11946
0.18769 -0.01891 -0.02307
0.08949 0.15132 -0.21415
-0.13928 0.11014 0.14632
-0.19325 0.29276 -0.17493
0.20013 -0.01891 -0.15010
0.22233 -0.03146 -0.16846
-0.06643 -0.03146 -0.12214
-0.18731 -0.35255 -0.13074
0.13156 -0.04409 -0.18415
0.11876 -0.01891 -0.11242
0.17607 -0.31789 -0.17122
0.13645 -0.03146 -0.02479
0.05552 -0.04119 0.17645
-0.15977 0.12321 0.19588
0.10035 0.14998 -0.25785
0.06203 0.14649 0.22760
-0.16396 -0.34943 -0.15479
0.18157 -0.28943 0.17136
-0.01633 -0.01891 -0.08161
-0.15677 0.05321 0.01240
-0.05476 -0.01891 -0.07319
0.19355 -0.23808 0.17054
0.16239 -0.03146 0.14105
0.11149 0.16781 -0.24248
-0.14381 0.07229 -0.12820
-0.22845 0.34991 0.01039
-0.20330 0.27699 0.01915
-0.14891 0.08757 0.17653
-0.17219 0.10992 -0.05067
-0.06093 -0.03146 0.01921
-0.18689 0.32221 0.17754
-0.20109 0.24080 0.07800
-0.16231 0.17941 0.17779
0.13127 -0.01891 0.06782
-0.13553 0.12848 -0.23513
-0.11889 0.06442 -0.17562
0.09643 -0.03018 -0.05660
-0.17451 0.12404 -0.04205
0.17986 -0.01891 0.15447
-0.19638 0.26814 -0.14051
-0.22065 0.32798 0.10420
0.04430 -0.01891 0.01286
0.05028 -0.03146 -0.13024
-0.21189 0.32888 -0.07448
-0.05791 -0.01891 -0.15518
0.09133 -0.35059 0.14267
-0.13071 0.04755 -0.16546
0.19611 -0.01891 0.15590
0.20321 -0.22456 -0.17242
-0.13616 0.08391 0.13261
-0.03750 -0.02693 -0.18088
0.08074 -0.03355 -0.17160
0.18111 -0.33847 -0.17925
-0.22199 0.32884 0.09619
0.19142 -0.22621 0.17789
-0.12379 0.07529 -0.16846
0.10466 0.03411 -0.21578
0.09643 -0.02584 0.04776
-0.17678 0.20191 0.10640
0.22841 -0.01891 -0.05766
-0.13395 0.12863 -0.21938
0.12416 -0.01891 -0.11334
-0.00285 -0.01891 -0.01066
-0.16533 0.21404 -0.15191
-0.21302 0.32634 -0.13639
-0.19850 0.23761 -0.09061
-0.08595 -0.01891 0.08954
-0.17992 0.15264 -0.06148
-0.21610 0.33873 0.06296
0.20588 -0.21647 0.17479
-0.00999 -0.03146 -0.13443
0.21398 -0.03146 -0.08881
-0.12547 -0.34887 -0.14221
-0.05650 -0.03604 -0.17572
0.06668 0.16373 0.24594
-0.19934 0.21327 -0.01149
-0.16424 0.10380 0.05075
-0.18632 0.17608 -0.06028
-0.19042 0.32159 0.16441
-0.19116 0.20779 0.05063
0.06110 0.16322 0.23841
-0.15876 0.09406 -0.05038
0.08158 -0.01891 0.14829
0.01560 0.15907 0.23831
0.11694 -0.01891 -0.04678
-0.19621 0.21651 0.08642
0.21719 -0.14834 -0.17544
0.22554 -0.03146 -0.07657
-0.11344 0.14465 -0.24017
0.04818 -0.35355 -0.15145
-0.22970 0.34721 -0.07568
0.17727 -0.03146 0.03202
-0.16181 0.21510 -0.16543
-0.06692 0.14796 -0.24444
-0.19215 0.28598 0.17244
-0.12077 0.07180 -0.17589
-0.18521 -0.34899 -0.06476
-0.21954 0.28920 -0.00217
-0.20060 0.21122 -0.03277
-0.20685 0.24149 -0.02830
-0.19826 0.20715 0.04784
-0.20938 0.30796 -0.13195
-0.07462 -0.01891 -0.13567
-0.07850 -0.01891 -0.16724
-0.15874 0.13453 -0.14805
-0.14814 0.14489 0.14766
0.06656 0.15856 -0.21213
-0.05675 -0.03146 0.09551
-0.11240 0.14740 -0.20604
-0.20754 0.30010 0.12891
-0.15666 0.13861 0.15929
0.11812 0.16236 -0.26140
0.05180 -0.03146 0.12015
0.07606 -0.03146 0.07372
-0.14393 0.12685 0.14556
-0.15202 0.11595 -0.15571
0.20903 -0.12666 -0.17941
0.05770 -0.01891 0.00893
0.09643 -0.02697 -0.01872
0.08836 -0.01891 0.02426
-0.08726 -0.01891 -0.09108
0.15303 -0.03146 0.04774
-0.16759 0.13007 -0.10728
-0.02913 -0.02073 0.18666
0.06622 -0.03146 -0.06011
0.17176 -0.02382 0.01716
-0.02913 -0.02416 -0.09484
0.15090 -0.01891 -0.13730
-0.09037 -0.03146 -0.17631
-0.19251 0.30486 0.14115
-0.15950 0.12363 0.13499
-0.01128 -0.35227 -0.15308
-0.19382 0.28408 -0.12643
-0.14193 0.15560 0.17987
0.07237 -0.03146 0.12168
-0.17102 0.12034 0.06798
-0.08157 -0.03355 0.16911
-0.14898 0.12268 -0.17847
-0.02731 -0.01891 -0.04690
0.11461 -0.01891 0.04958
-0.14498 -0.34972 0.14244
-0.04149 -0.01891 0.17116
-0.19776 -0.34588 0.05234
0.13440 -0.01891 -0.15835
-0.19385 -0.34155 0.11777
-0.02913 -0.02092 -0.01944
0.22903 -0.01891 -0.16451
-0.04691 0.13656 0.22454
0.08841 -0.03146 0.15895
-0.17480 -0.34836 0.15507
-0.20622 0.28800 0.01660
-0.13993 0.14797 -0.17978
-0.14033 0.07304 0.15538
-0.15889 0.14839 -0.18801
-0.19517 0.26006 -0.06304
-0.03144 0.13797 0.22217
0.18992 -0.30060 -0.17914
0.10111 0.04922 0.22206
0.21294 -0.17269 -0.18218
0.13520 -0.03146 0.08831
-0.07858 -0.03146 -0.01543
-0.16618 0.11308 -0.05068
-0.15487 0.08525 -0.02846
-0.08621 -0.03146 -0.16809
0.22444 -0.01891 0.17903
0.13667 0.15458 -0.25292
0.08372 -0.03146 0.02451
-0.18103 0.28373 -0.16198
-0.05248 -0.01891 0.03731
-0.07178 -0.34414 0.14291
0.22763 -0.03146 0.18139
-0.01814 -0.03146 -0.17660
0.14274 -0.04418 0.17974
-0.18430 0.21452 -0.14122
0.05979 0.16310 0.21393
0.10480 -0.03067 -0.17158
0.22589 -0.06974 0.17513
-0.16911 0.10774 -0.05331
0.11013 0.14976 0.24753
0.16339 -0.02266 -0.03388
-0.14982 0.05101 -0.08375
-0.21200 0.28841 -0.09064
-0.14845 0.12060 0.17149
-0.18563 -0.35426 0.14630
-0.20438 0.28104 -0.00477
-0.21254 0.33327 0.14463
0.13783 -0.01891 0.11921
-0.16791 0.12602 0.19809
-0.18382 0.21541 0.12864
-0.20823 0.31745 0.10647
-0.15785 0.16559 -0.18059
-0.01521 -0.03146 -0.03451
-0.03083 0.15484 -0.23087
-0.22248 0.32390 0.08312
0.05337 0.14570 0.21305
-0.18195 -0.34415 0.14212
0.08124 0.16505 0.23621
-0.02262 0.15559 -0.21993
0.18946 -0.03146 0.15837
-0.01339 -0.03355 -0.16393
-0.19357 -0.35378 -0.09332
0.03783 -0.02744 0.17139
-0.05333 0.13598 -0.20129
-0.21824 0.28431 -0.02756
-0.19039 0.20437 0.08920
0.07309 -0.01891 0.04192
-0.19381 0.27012 -0.09223
-0.19168 0.26291 0.09380
-0.14668 0.08513 0.14421
-0.17602 0.18828 -0.06341
-0.04741 -0.03146 -0.15900
-0.15540 0.09692 0.01988
-0.15933 0.12218 -0.13426
-0.11693 0.04823 -0.16725
0.08748 0.15209 0.21398
-0.22002 0.35059 0.09340
0.21491 -0.10376 0.17586
-0.19821 0.22434 0.06713
0.18816 -0.31951 -0.17252
-0.13141 0.07383 0.13997
-0.18262 0.22207 -0.08074
-0.05648 -0.01891 -0.14333
0.15897 -0.34258 0.15268
0.19652 -0.01891 -0.00317
0.06174 0.14647 -0.21700
-0.07626 -0.03355 -0.17486
0.00834 -0.03146 0.02963
-0.07386 -0.03146 -0.03243
-0.16166 0.12530 -0.22696
0.00157 -0.03146 0.07806
0.17436 -0.03146 0.17097
-0.20700 0.31553 -0.08415
-0.13042 0.03472 -0.17564
-0.15573 0.06749 0.07266
0.17315 -0.01891 -0.10615
0.06538 -0.01891 0.15036
-0.02430 -0.03329 -0.17587
-0.17573 0.12450 0.00124
-0.12484 0.03173 -0.17853
-0.05766 -0.34106 0.14810
0.16322 -0.03146 0.04048
0.07059 -0.35366 0.15105
-0.17505 0.20943 0.12676
0.16158 -0.34707 -0.15512
-0.19568 -0.35263 -0.10125
0.09337 0.16398 -0.25916
0.00915 -0.34099 -0.14878
-0.14937 0.16835 -0.16547
-0.13635 0.12841 0.22692
0.22507 -0.07728 0.18793
-0.19167 -0.35429 -0.05349
-0.15272 0.04693 -0.01133
-0.14204 0.06234 0.06695
0.10047 0.02051 0.21397
0.12209 -0.04276 -0.17768
0.21005 -0.04441 0.18205
-0.01285 -0.04239 0.18683
-0.08317 0.13326 0.23524
0.04023 -0.02853 -0.18833
-0.15984 0.12627 0.21028
-0.16392 0.14888 0.07516
-0.06848 -0.04356 0.18523
-0.22075 0.32317 -0.05046
-0.16750 0.12222 -0.10698
0.19503 -0.03146 -0.12468
-0.08974 0.13266 0.23680
-0.02867 0.15504 0.21480
0.20755 -0.03146 0.14058
0.09643 -0.02772 -0.11680
0.17176 -0.02054 0.16861
0.18265 -0.01891 -0.16029
0.11429 0.15126 -0.24849
-0.13779 0.05091 0.10469
0.04005 -0.03146 0.03094
-0.20792 0.29436 -0.01851
0.02714 -0.01891 -0.07024
0.17956 -0.32974 0.18032
0.02103 -0.03146 -0.09741
0.14489 -0.03146 0.08429
-0.20502 0.31676 -0.10089
0.22138 -0.03146 0.06205
0.21712 -0.01891 -0.04504
-0.12811 0.08293 -0.18232
0.14863 -0.03651 -0.18855
0.12537 -0.03146 -0.16171
-0.03784 -0.01891 -0.04373
-0.14460 0.10759 0.18495
-0.18066 0.25622 -0.18392
-0.16966 0.23832 -0.18229
-0.06528 -0.01891 -0.06136
0.20902 -0.03146 -0.18555
-0.03750 -0.02997 -0.11440
0.02946 -0.02192 -0.09623
-0.19823 0.20866 0.01878
0.06878 -0.01891 0.12071
-0.19434 -0.34168 0.03101
-0.17214 0.11525 -0.06587
-0.05137 0.14619 -0.24583
0.09440 -0.34719 -0.15515
-0.11326 -0.01909 0.18749
0.22144 -0.01891 -0.00108
0.02826 -0.01891 0.11334
-0.16757 0.12259 -0.09306
-0.16503 0.09804 -0.06414
-0.15759 0.16820 -0.13610
0.11317 0.08719 0.22468
0.08726 -0.02608 0.18833
0.07448 -0.03146 0.04492
0.23035 -0.02647 0.17856
-0.10402 -0.04337 -0.17858
0.20963 -0.04440 -0.18185
-0.05222 -0.03146 0.06503
-0.05046 -0.01891 -0.01459
0.17593 -0.02905 -0.18833
0.22218 -0.06246 0.18647
0.18502 -0.28142 0.18085
-0.19480 0.20337 -0.05114
-0.19086 0.20880 -0.10511
0.11155 -0.03146 -0.16291
0.18941 -0.28980 -0.18105
-0.21564 0.30553 0.02846
0.10012 0.01540 -0.21329
0.00211 -0.03146 0.01682
0.12704 -0.01891 0.09792
-0.09043 -0.03154 0.18350
0.05048 -0.03350 0.18704
0.06209 -0.01891 -0.18508
-0.18678 0.17818 0.06096
-0.14449 0.09803 -0.17662
0.16339 -0.03144 0.18398
0.16059 -0.01891 -0.04186
-0.06489 -0.03146 -0.03470
0.04778 -0.34942 0.14236
0.16339 -0.02056 0.10990
-0.18804 -0.35328 -0.03937
0.00006 0.15765 0.22979
0.10406 -0.03607 -0.19790
0.21351 -0.03355 -0.16658
-0.16558 0.18004 0.16675
-0.17696 0.20689 -0.09247
0.17176 -0.03063 -0.08477
-0.02318 -0.01891 0.18824
-0.04364 -0.03146 -0.15089
-0.19491 -0.35340 -0.12994
0.23067 -0.04103 0.18675
-0.12966 0.03860 -0.14872
0.11856 -0.03146 0.04219
-0.15495 0.14735 -0.17976
0.07537 0.15344 -0.21288
-0.14367 0.06573 -0.13658
0.10305 0.13211 0.22878
0.22592 -0.03613 -0.18660
-0.14830 0.05707 -0.10643
0.02833 -0.01891 -0.02541
-0.14974 0.17639 -0.17175
-0.14624 0.14432 0.19429
0.04782 0.14520 -0.21981
-0.16226 0.07383 -0.01023
0.11392 -0.01891 0.16219
-0.17427 0.11893 -0.02330
0.00433 -0.03933 -0.18843
-0.06497 -0.03146 -0.10001
-0.13389 0.05146 0.12706
0.02946 -0.02912 -0.16250
0.05798 -0.03146 -0.03438
-0.09733 0.13460 0.24156
-0.19940 0.31645 0.17549
0.00116 0.14094 0.23994
-0.20966 0.33182 -0.15353
0.04026 -0.01891 0.16589
-0.17370 0.26961 -0.17468
-0.13800 0.14108 0.18082
0.04131 -0.35185 -0.14365
-0.14625 0.08314 -0.07653
0.06208 -0.34096 -0.14847
0.17340 -0.03146 -0.06129
-0.15817 0.09026 0.09889
-0.13432 0.06646 -0.18585
-0.05117 -0.03355 -0.17579
-0.07237 0.13424 0.23605
-0.06879 -0.01891 -0.01346
-0.18107 0.27277 0.15148
-0.14153 0.05233 0.13152
-0.09609 -0.02870 0.11720
-0.07510 -0.03146 -0.13950
0.15218 -0.34881 -0.15495
0.12254 -0.01891 -0.02806
0.10370 -0.03134 -0.18095
-0.21207 0.30047 -0.02846
0.19747 -0.23453 0.17026
-0.20129 0.21689 0.02700
-0.14676 0.09404 -0.09386
-0.17707 0.22645 0.12609
0.22191 -0.07790 -0.18766
-0.21559 0.29940 0.05062
0.02747 -0.01891 0.03810
0.00987 -0.01891 0.18564
0.23035 -0.02913 -0.12602
0.02946 -0.02598 0.17666
-0.16465 0.09391 0.05896
0.20641 -0.03146 -0.04862
-0.20449 0.23262 0.01192
-0.09432 -0.35194 0.14374
-0.18261 0.25825 -0.18016
-0.20064 0.29636 -0.15207
0.14120 -0.03146 -0.18377
0.02440 -0.03146 0.18298
0.06516 -0.03146 -0.15326
0.10480 -0.02626 0.12176
-0.15776 0.11331 -0.13343
0.10181 0.05305 -0.21829
0.05841 -0.03146 -0.04436
0.13653 0.16423 -0.25073
-0.15632 0.08573 0.10351
-0.13381 0.01910 -0.18135
0.05220 -0.01891 -0.09617
-0.19891 0.32752 -0.13980
-0.20463 0.30959 0.10627
-0.11846 0.04840 -0.16200
-0.10813 0.13098 0.20206
0.02725 -0.01891 -0.12398
-0.07082 -0.01891 0.01973
0.01367 -0.34615 0.15488
-0.14567 0.10853 0.16995
-0.20300 0.34372 0.15585
0.11952 -0.03146 0.14581
-0.00060 -0.03146 -0.01372
0.19581 -0.03198 -0.17949
0.04068 0.14854 0.20969
-0.05611 -0.03146 -0.02664
-0.02892 -0.01891 0.10659
-0.09609 -0.02961 0.13527
0.09643 -0.02249 0.15645
-0.07669 0.14601 0.19898
-0.18021 -0.35420 0.14887
-0.05151 -0.03146 0.10303
0.06210 -0.03146 0.16032
-0.13492 0.05941 0.18787
0.01353 -0.01891 0.03981
-0.07797 -0.01891 -0.05853
0.13116 -0.35241 -0.15294
-0.17511 0.18308 -0.05999
-0.16812 0.16390 -0.07367
0.06164 -0.03146 -0.07841
0.19664 -0.19660 -0.17860
0.07981 -0.03146 0.16916
-0.04667 0.13658 -0.21873
0.05569 -0.03146 -0.10288
0.02946 -0.02364 -0.09177
-0.02640 -0.03146 0.03520
-0.14136 0.07568 0.17563
0.19264 -0.01891 -0.16692
0.05962 -0.03355 -0.16902
0.12605 -0.01891 0.14721
-0.21018 0.33592 0.10039
-0.16909 0.13993 -0.23507
0.09188 -0.03146 -0.17438
-0.18161 0.16004 0.06353
0.03290 0.15908 0.25361
0.03783 -0.02321 0.08472
0.18754 -0.03146 0.08156
-0.13428 0.12205 -0.18118
-0.06190 0.15201 -0.24267
-0.18670 0.23887 0.10641
-0.13113 0.06038 0.12824
0.14692 -0.02458 -0.18833
-0.16739 0.15687 0.17656
0.17176 -0.02871 -0.15931
0.16114 -0.01891 0.14346
0.10503 0.07346 0.22099
0.21403 -0.11235 0.17504
-0.15191 0.08906 -0.18460
0.11459 -0.01891 0.15196
0.22214 -0.11424 0.17541
0.23035 -0.02265 -0.03604
-0.20818 0.27515 0.05050
-0.15378 -0.35389 0.14695
0.13028 -0.01891 0.12714
-0.18461 0.18794 -0.09553
0.07578 -0.35122 0.15413
-0.02717 -0.35426 0.14882
-0.15857 0.13310 0.08355
0.07033 -0.01891 -0.09148
-0.13252 -0.34408 -0.15418
-0.16742 0.16207 -0.12808
-0.20299 0.24597 -0.07416
0.16201 -0.03146 -0.10598
0.00386 -0.03355 0.17166
0.20103 -0.01891 0.03501
0.05456 -0.01891 0.00301
0.02898 -0.03146 -0.02387
-0.18971 0.26308 -0.15946
-0.15585 -0.34882 0.15495
-0.19672 0.26485 -0.13622
-0.07891 0.15046 0.19897
0.16136 -0.01891 0.00954
0.21534 -0.13584 0.18616
-0.18264 -0.34103 -0.14838
0.09049 0.16590 0.22788
0.20777 -0.20891 0.17682
-0.22101 0.32779 -0.05033
0.06140 -0.01891 -0.08162
0.21884 -0.01891 0.06310
0.05799 0.16293 0.24588
-0.21055 0.34006 -0.15815
-0.19817 -0.34740 -0.03784
-0.04599 -0.01891 -0.06536
-0.19160 0.19626 -0.06091
-0.01150 -0.03182 -0.17981
-0.18539 0.23244 0.08061
-0.16388 0.07993 0.00892
0.10023 -0.01144 -0.20973
0.11065 -0.02824 -0.18833
-0.18156 0.20589 0.17735
0.15606 -0.03146 0.05462
-0.14286 0.12782 -0.20184
-0.19474 0.20529 -0.05808
-0.18154 0.15833 0.02846
-0.20007 0.28494 -0.07543
0.10744 -0.03146 -0.05311
0.10514 -0.01891 0.13862
0.07985 -0.03146 -0.07135
0.17176 -0.02186 -0.16173
0.01239 -0.03146 0.09107
0.10829 -0.03146 0.10368
0.14282 -0.01891 -0.08568
-0.07729 -0.03146 0.04866
-0.14646 0.06330 0.01196
-0.16378 0.15853 0.15283
-0.15641 0.12321 0.18502
-0.22569 0.33846 -0.08791
-0.18162 0.22983 0.10289
0.11666 -0.03146 -0.11229
0.12087 0.16867 0.26069
0.02018 -0.03146 -0.00710
-0.19129 0.22157 0.02846
0.12926 -0.03146 0.02919
0.10433 0.15035 -0.24602
-0.08843 -0.03482 0.17633
0.09984 0.07177 0.22505
0.06703 -0.01891 0.16003
-0.14665 0.04854 0.02779
0.09387 -0.03146 0.15226
-0.14604 0.09151 -0.10626
0.10731 -0.01891 -0.08723
-0.16338 0.22088 0.16533
-0.15668 0.12479 0.14617
0.05356 -0.01891 -0.08153
