0.12536 -0.05165 -0.04033
-0.14454 -0.01300 0.17205
-0.09607 0.40027 -0.02720
0.16548 -0.32835 0.15277
-0.11905 0.34466 0.17205
0.11225 -0.43934 -0.15046
-0.16548 -0.01364 0.07654
-0.09607 0.11878 0.02435
-0.09607 0.19721 0.15340
-0.09607 0.09608 -0.09780
-0.09607 0.20217 0.08175
-0.04652 0.01946 -0.07753
0.16519 -0.32838 -0.12116
-0.13272 -0.11112 0.17205
-0.09607 0.09665 0.11660
0.16548 0.01771 0.03989
0.12998 -0.05165 -0.07889
-0.11519 -0.21778 0.13295
-0.09607 0.31299 0.14869
-0.05873 0.01946 -0.12513
-0.09607 0.23834 -0.06812
-0.16548 0.24729 -0.08034
-0.09607 0.02162 0.11145
-0.06495 0.01946 -0.15843
-0.11573 -0.37955 0.17205
-0.15998 -0.32561 0.11090
0.06882 -0.05165 -0.00694
0.16548 -0.22120 0.14299
-0.09607 0.15588 -0.08500
0.01517 0.01946 -0.12815
-0.12870 -0.11186 -0.11013
-0.09607 0.12973 -0.12994
-0.16107 0.13947 -0.17205
-0.16548 0.38190 -0.08209
0.15961 -0.05165 -0.03894
-0.16548 0.37170 -0.12892
-0.09607 0.08109 0.16869
-0.09607 0.30687 0.13778
-0.09607 0.24511 0.09514
-0.09607 0.23252 0.00018
0.15474 -0.12573 -0.17205
-0.13012 0.27276 0.17205
-0.09607 0.36022 -0.16917
-0.09607 0.38204 -0.11184
-0.16548 0.19468 0.00598
-0.09607 0.24805 -0.16302
-0.16548 0.16897 -0.14110
-0.16083 0.16764 -0.17205
-0.09607 0.35563 0.10378
-0.16548 -0.04616 0.03446
-0.16548 0.03979 -0.00016
-0.10658 0.38081 0.16168
0.14661 0.01946 -0.10282
-0.08639 -0.05165 0.13858
0.11954 -0.10475 -0.12116
-0.16548 0.35204 0.06924
0.09792 -0.05165 -0.14161
-0.16314 -0.23070 0.11090
-0.00540 -0.05165 -0.15024
0.04517 -0.05165 -0.06763
0.07235 -0.03632 -0.17205
0.11170 -0.20657 0.12920
-0.11519 -0.08684 0.13034
-0.16548 0.20936 0.12110
0.16548 -0.04657 0.14189
-0.07049 -0.05165 0.14145
-0.16548 0.07509 -0.12011
-0.09607 0.08869 -0.06488
0.16548 -0.19382 0.15190
0.16136 -0.05165 0.10090
-0.14060 -0.08556 -0.11013
0.10855 -0.29925 0.14600
-0.13419 0.00051 0.17205
0.10855 -0.09722 0.14558
0.07429 0.01946 -0.10456
-0.14796 -0.20382 -0.11013
-0.16548 0.33327 0.07556
0.07245 -0.05165 0.00187
-0.09607 0.19319 0.14102
-0.09607 0.34355 -0.09797
-0.06871 0.01946 0.12874
-0.11519 -0.20598 -0.11855
-0.16548 0.32498 -0.00103
-0.16548 0.20129 0.05292
0.00285 -0.05165 -0.16515
-0.09607 0.12588 0.08947
-0.08312 0.00076 -0.17205
0.00677 -0.05165 -0.12551
-0.16548 0.13596 0.16331
-0.11519 -0.12559 0.16057
0.10855 -0.05811 -0.13198
-0.09660 0.19485 0.17205
-0.09607 0.14120 -0.12605
0.16548 -0.27681 -0.13897
-0.16548 -0.40099 0.14007
0.12328 -0.26475 0.12920
-0.11519 -0.43055 -0.14771
-0.11519 -0.26045 0.12284
0.16548 0.01413 -0.11670
0.11164 -0.05165 0.09071
-0.09607 0.30890 0.03843
-0.12775 -0.23163 0.17205
-0.09465 0.01946 0.08979
-0.09607 0.10007 0.03595
-0.09607 0.28176 -0.05417
-0.13788 0.40046 0.13432
0.13329 -0.05165 0.04464
0.03670 0.01946 0.16825
0.16548 -0.05095 0.16304
-0.16548 0.41665 0.01422
-0.11519 -0.06142 0.09197
-0.09607 0.25652 0.01543
-0.16548 0.34976 -0.09389
-0.09607 0.09894 -0.10261
-0.16187 -0.09738 -0.17205
-0.11519 -0.21593 -0.12161
-0.16548 -0.36534 -0.12310
-0.16548 -0.17815 0.16540
-0.09607 0.25411 0.10312
0.10549 -0.05165 0.06350
-0.06649 -0.05165 0.08663
0.08567 -0.05165 0.12231
0.12831 -0.43557 0.12920
-0.15043 -0.40986 -0.11013
0.16548 -0.10513 -0.12582
-0.09607 0.29845 -0.12307
-0.12114 0.39429 0.14424
-0.16548 0.15533 0.13631
-0.09607 0.16020 -0.10185
0.03191 0.01946 0.12407
-0.09607 0.14609 -0.07700
0.16548 -0.42810 0.13630
-0.02774 -0.05165 -0.05437
-0.09607 0.24163 0.06753
0.10215 -0.00658 0.17205
-0.16548 -0.28627 0.13908
0.16548 -0.01692 -0.12201
-0.13295 -0.14271 0.11090
-0.12281 0.02379 0.17205
-0.16548 -0.29104 -0.14374
-0.16548 -0.29534 0.11521
-0.16548 0.05343 0.06796
0.10616 -0.05165 -0.00356
0.05909 -0.05165 -0.07428
0.11869 -0.43934 0.15252
-0.15882 -0.37985 -0.17205
-0.09607 0.42329 -0.08093
0.14928 -0.05165 0.09893
-0.16548 -0.01920 -0.16538
0.05904 -0.05165 0.02244
-0.16548 0.17464 0.11952
-0.11494 0.18863 -0.17205
-0.09607 0.30475 0.09343
0.07576 -0.00063 -0.17205
-0.16548 0.31699 -0.07915
0.11311 -0.36002 0.17205
0.15668 0.01946 -0.15089
-0.16548 0.36208 -0.15147
-0.15824 -0.23772 0.17205
0.12966 -0.18962 -0.17205
0.16548 -0.07567 0.15693
-0.16548 0.24622 -0.11612
-0.11519 -0.26209 -0.15164
-0.09607 0.36751 0.05058
-0.16548 0.29734 -0.05134
-0.09607 0.07223 0.05427
-0.16548 0.33750 -0.04197
-0.07770 -0.05165 0.00195
-0.16548 0.15021 -0.08490
-0.11601 -0.15326 0.17205
0.16548 -0.00246 -0.16168
0.16548 -0.08298 -0.12998
-0.01463 -0.05165 -0.03656
0.10855 -0.31440 -0.13783
0.03344 -0.05165 -0.09881
0.16548 -0.05004 -0.12861
-0.09607 0.06045 -0.14462
0.13536 0.01946 0.08884
-0.09607 0.07215 0.08644
0.02186 0.01946 -0.14659
0.10743 0.01946 -0.01808
0.16548 -0.02562 0.15718
-0.16548 0.06734 0.06577
-0.11519 -0.08016 0.09604
0.16548 0.00335 0.12309
-0.16548 0.31550 -0.09316
-0.11519 -0.26929 -0.16798
0.07268 0.01946 -0.00168
-0.16548 -0.20024 -0.12424
-0.10069 -0.05165 0.12971
-0.16548 -0.05302 -0.17064
-0.11519 -0.22113 -0.11667
0.02660 -0.05165 0.12905
-0.16548 0.36368 0.13207
-0.16548 -0.16807 -0.12401
-0.16548 0.28877 -0.00207
0.08719 0.01946 0.03522
0.16243 -0.33792 -0.12116
0.12650 -0.22468 0.12920
-0.16548 0.33005 -0.11036
0.12964 -0.17276 -0.12116
-0.15712 0.36750 -0.17205
-0.15945 0.43703 0.03331
0.13786 -0.28030 0.17205
-0.16548 -0.06863 -0.07077
-0.16548 0.30866 -0.01816
-0.12962 -0.35078 0.11090
-0.09607 0.05831 0.16353
0.10855 -0.08398 0.16023
0.08073 0.01946 -0.07845
0.14092 -0.43934 -0.16272
-0.14999 0.43828 0.01710
-0.09007 0.01946 0.00816
0.15225 0.01946 -0.00803
0.15090 -0.05539 0.12920
-0.10546 0.39751 0.13906
0.06373 -0.05165 -0.00586
-0.16548 -0.07844 0.15248
-0.04069 -0.00476 -0.17205
0.11736 -0.22590 -0.12116
0.13616 0.01946 0.16725
-0.11339 0.42413 -0.08569
-0.09607 0.33948 -0.04465
0.13290 0.01946 0.08283
-0.09607 0.23477 -0.13662
0.13400 -0.43934 -0.15259
-0.15886 -0.08449 -0.07306
-0.10148 0.12070 -0.17205
-0.09607 0.05416 0.04467
-0.09607 0.05510 0.15927
-0.01351 0.01946 0.09273
-0.09607 0.07574 0.03702
-0.09607 0.02683 -0.14850
-0.09186 -0.05165 -0.15444
0.13662 0.01946 0.05878
0.10855 -0.30938 -0.13895
0.06110 -0.05165 0.09327
0.14483 -0.37843 0.12920
-0.09607 0.30216 -0.06687
-0.09607 0.12813 0.00529
0.16548 -0.04490 0.04480
-0.16548 -0.01280 -0.00170
-0.08129 0.01946 -0.08928
-0.16548 0.08674 0.16523
-0.12588 -0.39838 0.11090
-0.15490 -0.20272 -0.11013
-0.13972 0.25275 0.17205
-0.16548 0.20871 0.13800
-0.16548 0.04390 0.07237
0.16548 -0.11417 -0.12869
0.16548 -0.02846 0.11778
0.09211 -0.05165 0.00263
-0.10443 0.03940 0.17205
-0.16548 0.13089 0.13448
-0.14196 0.23655 0.17205
0.11369 -0.13416 0.17205
-0.09607 0.07953 0.04759
0.10855 -0.34563 0.17072
-0.09789 0.25238 -0.17205
0.10855 -0.37088 -0.12943
0.16548 -0.02583 0.03635
0.16548 -0.05990 0.13875
0.10855 -0.07259 -0.16091
-0.09607 0.35631 0.06311
-0.09607 0.27688 0.07652
-0.13437 -0.17170 -0.17205
-0.09607 0.36054 0.06692
-0.05777 -0.05165 0.14516
-0.12411 0.19219 0.17205
-0.16548 0.34234 -0.02190
-0.15388 0.42658 0.07803
0.10855 -0.42897 0.13135
-0.09607 0.16554 0.07791
-0.16548 -0.35767 -0.12787
-0.16548 -0.01734 -0.15485
-0.11773 -0.21711 0.11090
-0.13123 0.38013 0.16253
0.13617 -0.07718 -0.12116
-0.12686 0.00407 -0.17205
-0.16548 -0.29768 0.16987
-0.14591 -0.11478 0.17205
-0.11519 -0.31641 -0.12135
-0.09607 0.11372 0.16797
-0.09607 0.30350 0.05258
0.13547 -0.19410 -0.12116
0.07915 -0.05165 -0.03070
-0.10485 -0.05165 0.00301
-0.10547 0.35984 -0.17205
-0.16548 0.06516 -0.16246
-0.16548 0.16779 0.08677
-0.16548 0.18737 0.10318
-0.16548 0.00229 -0.03286
-0.16548 0.17767 -0.08097
-0.14051 0.07743 -0.17205
-0.13564 -0.23649 0.11090
0.13323 -0.05165 -0.00739
-0.11835 -0.37401 0.17205
-0.13680 -0.14582 0.11090
-0.11519 -0.34157 -0.15095
-0.07595 -0.05165 0.01296
0.11195 -0.33437 -0.12116
0.01920 -0.05165 -0.01353
0.11117 -0.43934 -0.13715
0.12735 -0.15877 -0.12116
0.10855 -0.06269 -0.14484
-0.15818 -0.04318 0.17205
-0.09607 0.24391 -0.13924
-0.12101 -0.17401 -0.11013
0.16548 -0.22474 0.13742
-0.14433 -0.25521 -0.11013
-0.09607 0.02138 -0.13051
0.01358 -0.05165 -0.00185
-0.16548 0.30040 -0.01877
-0.16548 0.38989 0.13042
-0.16548 0.14386 -0.10471
-0.11248 -0.05165 0.14479
-0.04231 0.01946 0.13278
-0.09607 0.03839 0.01739
0.02493 0.01946 0.00712
-0.16548 -0.21908 0.11109
0.16548 -0.37207 -0.13061
0.15230 -0.08440 -0.17205
-0.09607 0.18851 0.12708
0.14293 0.01946 0.01301
-0.14664 -0.29237 0.11090
0.16548 -0.04504 -0.10064
-0.16548 -0.00351 -0.02862
-0.16548 0.34576 0.14521
0.13054 -0.20489 0.17205
-0.16548 -0.30547 -0.15710
-0.16548 0.31743 -0.05138
-0.12391 -0.16455 -0.11013
0.10855 -0.11386 0.16724
-0.09607 0.35047 -0.01536
0.14148 -0.39476 -0.12116
-0.15585 -0.10949 -0.11013
-0.16548 0.21803 -0.13507
-0.16548 0.38802 0.04230
-0.09607 0.27452 0.16886
-0.16548 -0.06453 0.09373
0.03348 0.01946 -0.14810
-0.12388 0.43441 0.04732
-0.16548 0.13653 0.10523
0.16548 -0.33818 0.16792
-0.13759 0.06905 0.17205
-0.14937 -0.42061 0.11090
-0.16548 -0.19439 -0.16386
0.15498 -0.31760 -0.12116
0.16548 -0.17911 -0.12236
0.10855 -0.24909 0.15518
-0.11519 -0.09150 0.16124
0.05591 0.01946 -0.01632
-0.11519 -0.27325 -0.11389
-0.16548 0.16426 -0.04420
-0.09607 0.32133 0.15803
-0.09607 0.29714 0.00665
-0.16548 -0.33842 0.16910
-0.10924 0.19354 -0.17205
-0.15389 -0.17618 0.17205
-0.12087 -0.43934 0.12025
-0.09607 0.21596 0.10789
-0.16548 -0.30585 -0.14674
0.03216 0.01555 -0.17205
0.14984 0.01946 0.01929
-0.08780 -0.05165 -0.14505
-0.07491 0.01946 0.01963
-0.16548 -0.00171 -0.15032
-0.05506 -0.05165 -0.04004
0.14597 -0.43934 0.16306
-0.10691 0.06943 -0.17205
-0.16548 0.38369 -0.02521
-0.11814 -0.23674 0.11090
-0.16548 0.36795 0.03699
0.16548 -0.03945 -0.05233
-0.16548 0.19295 -0.03551
0.10855 -0.34325 -0.15697
0.15614 0.01946 0.05552
0.10855 -0.14292 -0.16010
-0.16548 0.41240 -0.00338
0.10855 -0.24555 0.16158
-0.16548 -0.04919 -0.00037
0.06751 -0.05165 0.14642
-0.16548 0.00115 0.05196
-0.05895 0.01459 -0.17205
-0.10521 -0.05165 -0.02293
-0.11355 0.43779 -0.02494
-0.11519 -0.27037 -0.14314
0.16548 -0.27143 -0.12393
0.16548 -0.25545 -0.12723
-0.16548 -0.42908 0.14050
-0.05640 0.01946 0.03610
0.14569 -0.18379 0.17205
-0.16548 0.06113 -0.00192
-0.16267 -0.22676 -0.11013
-0.09607 0.19075 -0.07534
0.15370 -0.20576 -0.17205
-0.09607 0.03155 0.00688
-0.15625 -0.12860 -0.17205
0.12650 -0.25386 0.12920
-0.09607 0.37419 -0.03910
-0.09607 0.19005 0.06619
0.14495 -0.36651 0.17205
-0.12967 -0.22302 0.11090
-0.11519 -0.40746 0.15065
-0.09607 0.29830 -0.01645
0.07897 -0.05165 -0.10303
0.15156 -0.23461 0.17205
0.02241 -0.01754 -0.17205
-0.16511 -0.17524 0.11090
0.15663 -0.41230 0.12920
-0.16548 0.40738 0.10783
-0.13240 -0.25639 -0.11013
-0.16548 0.30914 0.09163
-0.09607 0.19076 -0.03131
-0.13000 -0.43934 0.14775
0.16548 -0.34972 0.16141
-0.11215 0.11124 0.17205
-0.16548 0.24720 0.08204
-0.15066 0.24462 0.17205
-0.09607 0.40412 0.07789
0.10855 -0.11232 -0.13826
0.13909 0.01946 0.11398
-0.09607 0.08368 0.13646
0.16548 -0.05324 0.13260
-0.11519 -0.34509 0.12041
0.05893 -0.05165 0.14164
0.05986 -0.05165 -0.16679
-0.12127 0.39045 -0.14976
-0.16548 -0.00087 -0.03777
-0.13643 -0.12434 -0.17205
0.10855 -0.15956 -0.16501
0.16548 -0.02009 0.04263
-0.16548 0.26105 -0.00596
-0.09607 0.29941 0.16949
-0.13160 -0.26595 -0.11013
0.15640 -0.09865 -0.12116
-0.16548 0.30461 0.02343
-0.11519 -0.06834 -0.08506
-0.14898 -0.39500 0.17205
0.05174 -0.05165 0.16073
-0.10986 -0.05165 -0.10346
-0.09607 0.17606 0.03705
0.16548 -0.00815 -0.07280
-0.16548 -0.02290 0.16766
-0.09607 0.27296 0.13252
-0.13150 -0.39948 -0.17205
-0.15688 0.43357 0.05178
-0.16548 -0.02112 0.11168
-0.04798 -0.05165 -0.16513
-0.14790 0.10588 -0.17205
0.12184 -0.22260 -0.12116
-0.13484 -0.07911 -0.17205
-0.16548 0.36973 -0.02625
0.00534 -0.05165 -0.08585
-0.15943 -0.19601 0.17205
-0.16548 0.05946 -0.15810
-0.13848 -0.28876 -0.17205
-0.16548 0.07281 -0.14872
-0.11519 -0.29677 0.14026
0.14161 -0.20653 -0.17205
0.12875 -0.15996 0.17205
0.10855 -0.20921 0.13914
-0.10773 0.28730 -0.17205
-0.16548 0.03771 -0.12996
0.11933 -0.29407 0.17205
0.16548 -0.07840 0.14986
-0.14295 -0.20527 -0.17205
-0.16548 -0.18367 0.12881
-0.14655 0.16540 0.17205
-0.16548 -0.08061 -0.12247
0.14590 0.01946 -0.14063
-0.16548 -0.08819 -0.11993
0.11042 0.01946 -0.10546
0.14091 -0.37551 0.17205
0.13615 -0.38392 0.17205
-0.16548 -0.41741 -0.12424
-0.16548 -0.31601 0.14792
-0.09607 0.14199 0.07266
-0.11797 -0.30032 -0.17205
0.00490 -0.05165 0.07251
-0.16548 0.01555 0.03855
0.16548 0.01181 -0.16160
0.11544 -0.43478 0.12920
0.10855 -0.06574 -0.13128
-0.11519 -0.34556 0.16339
0.10371 0.01946 -0.14255
0.16548 -0.32616 0.14067
0.16548 -0.11398 0.15933
-0.16345 -0.33613 0.11090
-0.03355 0.01946 0.05002
0.12137 -0.20077 0.17205
0.11806 -0.05165 -0.04394
-0.13250 0.43742 0.03095
-0.11519 -0.09751 0.16140
0.03341 0.01946 0.04112
-0.16548 0.26488 0.06544
-0.09607 0.32054 0.04870
-0.02047 -0.05165 0.03034
0.13812 -0.24000 0.12920
-0.16548 -0.29958 -0.13247
-0.09607 0.40660 0.06866
-0.11519 -0.16278 0.13113
-0.08356 0.01946 0.02597
-0.16548 0.38944 0.03713
-0.13391 -0.08449 0.07885
-0.11914 -0.07336 -0.17205
-0.09607 0.34929 0.04903
-0.15399 -0.06495 -0.17205
0.12616 -0.24049 -0.17205
-0.15559 0.16998 -0.17205
-0.16548 0.28454 0.05960
-0.15269 0.05180 0.17205
-0.09607 0.18359 0.05617
-0.11519 -0.18036 -0.12734
-0.16548 0.24270 0.16945
-0.09607 0.15134 -0.14915
-0.14094 0.21911 0.17205
-0.16548 -0.05235 -0.12200
-0.11927 0.04495 -0.17205
-0.15316 0.38101 -0.16143
0.03737 -0.05165 0.11035
0.10855 -0.43911 0.14050
0.09699 -0.02746 0.17205
-0.12420 -0.13993 -0.17205
0.14929 -0.15142 -0.17205
-0.14577 -0.24163 -0.11013
-0.09607 0.24515 -0.13031
0.13061 -0.14454 -0.17205
-0.16548 -0.06446 -0.05060
-0.14022 -0.08449 0.02660
0.12855 -0.32413 -0.17205
-0.04824 0.01946 0.08645
0.03942 -0.05165 0.17152
0.11825 -0.25232 -0.17205
0.12502 -0.17128 -0.12116
-0.16367 0.03947 -0.17205
-0.00357 -0.00426 0.17205
0.15206 -0.24293 0.17205
-0.07604 -0.05165 0.16138
-0.09607 0.27963 0.15495
-0.12492 -0.37937 -0.11013
-0.16548 0.19595 -0.05820
-0.09607 0.39468 0.00989
-0.14385 -0.43934 0.14114
0.14048 -0.05165 0.06511
0.13041 -0.10633 0.12920
-0.16548 0.39865 -0.08578
-0.12283 -0.31964 -0.17205
-0.16548 0.22484 -0.10175
-0.16548 0.12173 0.09438
-0.01888 0.01946 -0.07248
-0.01143 0.01946 -0.07205
-0.16548 0.07882 0.11043
0.16548 -0.36803 -0.16759
-0.11519 -0.05420 -0.08038
0.05087 -0.05165 -0.12609
0.00985 -0.05165 0.02013
-0.16548 -0.35499 0.15164
-0.09607 0.21087 -0.11377
-0.16548 -0.02490 -0.00205
-0.16548 0.06504 -0.08546
-0.14129 -0.35160 -0.11013
-0.10224 0.35990 0.17205
0.13295 -0.27216 -0.17205
-0.13238 0.27605 -0.17205
0.15087 -0.36123 0.12920
0.16548 -0.14201 -0.15955
-0.09786 0.21237 0.17205
0.11400 -0.05165 0.00932
-0.12870 -0.14854 0.11090
0.16548 -0.30039 0.14689
0.16548 -0.03235 0.14442
-0.15828 -0.17982 0.17205
-0.16548 -0.04691 -0.04807
0.10855 -0.26421 0.14806
-0.16548 0.01283 -0.05748
-0.15987 0.41448 0.10863
0.10855 -0.30460 0.17026
-0.09607 0.22378 0.01898
-0.16548 0.37355 0.09369
-0.09607 0.16934 0.04912
-0.01993 0.01751 0.17205
-0.16521 0.06253 -0.17205
-0.16548 0.32304 0.10399
-0.16548 0.12854 0.02746
-0.11519 -0.26209 0.14128
-0.15743 0.36067 0.17205
0.16548 -0.30556 -0.12954
-0.08288 -0.04114 0.17205
-0.09607 0.07208 0.01227
-0.04267 0.01946 0.15505
-0.09607 0.34534 -0.09021
-0.05240 -0.00444 -0.17205
-0.09607 0.24722 -0.05074
-0.09607 0.09596 0.04089
-0.11386 0.21883 -0.17205
-0.13624 -0.30395 0.17205
-0.12043 -0.08449 -0.02708
-0.09607 0.36604 0.15965
-0.04580 0.00432 0.17205
-0.09607 0.25929 0.11931
-0.09607 0.06441 0.04772
0.12354 -0.39899 -0.12116
-0.16548 0.36030 -0.13625
-0.15114 0.13441 -0.17205
0.07898 -0.05165 -0.13780
-0.16548 0.37960 -0.11033
0.16522 -0.06609 0.12920
-0.09607 0.40222 -0.05492
-0.09607 0.09648 0.12748
-0.16548 0.10969 -0.10725
0.11932 -0.25091 -0.12116
0.14487 0.00269 0.17205
0.03620 -0.01274 0.17205
0.10855 -0.17772 -0.17080
-0.01190 0.01946 0.02156
0.12633 -0.08635 0.17205
-0.15818 0.19417 0.17205
-0.16548 0.03061 0.07379
-0.04646 -0.05165 -0.03798
-0.09607 0.08179 -0.16721
-0.11561 0.41652 -0.10420
-0.09607 0.02730 0.06641
-0.11977 0.43762 -0.02778
-0.11519 -0.07550 -0.08834
-0.16200 0.42462 -0.08416
0.08685 -0.02773 0.17205
-0.16548 0.24816 0.07665
-0.16548 -0.01031 0.03794
-0.16464 -0.37554 -0.11013
-0.06206 0.01946 0.03019
-0.03317 0.01946 -0.06972
0.03769 0.01946 -0.10778
0.13019 -0.11909 0.12920
-0.15633 -0.39563 -0.17205
-0.16548 0.29154 0.09813
-0.16548 0.16501 -0.12960
-0.16548 -0.26271 -0.16861
-0.09607 0.24639 -0.09975
-0.09607 0.02466 -0.11035
-0.10869 -0.05165 0.16765
-0.11916 0.03479 0.17205
-0.13430 -0.43934 -0.12760
-0.09607 0.36116 -0.13278
-0.16207 -0.08449 -0.05299
-0.11519 -0.08322 0.10519
0.08217 0.01946 0.11850
-0.11519 -0.09252 -0.13409
-0.11046 0.18258 0.17205
-0.05579 -0.02237 -0.17205
-0.15612 -0.38651 -0.11013
0.11322 -0.38809 0.12920
-0.15369 0.35730 0.17205
0.16548 0.01604 0.14222
-0.11519 -0.33389 0.13203
0.02557 -0.05165 0.02701
0.14318 -0.37256 -0.12116
-0.14494 -0.05443 -0.17205
-0.07975 0.01946 0.12387
-0.16548 -0.26521 0.14421
0.16548 -0.00128 0.02338
0.02445 -0.05011 -0.17205
-0.16548 0.02090 -0.04875
0.15555 -0.19953 -0.12116
-0.16548 0.23930 0.03516
-0.09607 0.09754 -0.13969
-0.09607 0.43071 -0.01277
-0.09607 0.02518 -0.13829
-0.04092 0.01946 -0.12465
-0.08710 -0.05165 0.05745
-0.16548 -0.29022 -0.15555
-0.16548 0.17828 -0.10326
-0.09607 0.06700 -0.00517
0.11377 0.01946 0.06743
-0.13413 -0.33479 0.11090
-0.09607 0.34359 -0.16381
-0.12992 -0.38315 -0.17205
-0.16548 0.19348 0.08195
-0.16548 -0.05885 -0.02306
-0.09607 0.30549 0.13158
-0.01593 -0.05165 -0.13945
-0.06954 -0.00964 -0.17205
-0.09607 0.31742 -0.12248
-0.08929 -0.05165 0.10438
-0.16548 0.27978 0.06523
0.04916 0.00847 -0.17205
-0.09607 0.24803 0.13056
-0.16548 -0.07219 -0.00186
0.05137 0.00171 -0.17205
-0.11519 -0.39978 -0.15191
-0.16548 0.34106 0.11997
0.10855 -0.35081 -0.12857
-0.16548 0.07953 -0.10406
-0.11519 -0.19426 -0.16233
0.10754 0.01946 0.08955
0.16548 -0.31604 -0.14972
-0.16073 0.38169 0.16059
-0.09607 0.40029 -0.02093
-0.02235 0.01946 -0.04286
-0.01434 0.01946 -0.08889
-0.16548 0.05975 0.12320
0.10855 -0.11230 0.13226
-0.09607 0.18800 0.04565
0.06488 -0.05165 -0.16979
0.06266 -0.00925 0.17205
-0.16548 0.37484 0.05717
-0.16548 -0.11811 -0.12727
-0.09607 0.12134 0.00082
-0.11519 -0.37640 -0.16765
-0.09607 0.28924 0.13176
-0.10941 0.37347 -0.17077
-0.16548 0.29176 0.06189
-0.16548 0.25224 0.06636
0.14558 -0.14674 0.17205
-0.16548 0.04256 0.01084
0.10886 -0.05165 -0.02586
-0.16548 -0.05033 -0.01438
0.16548 -0.03212 0.09530
0.15967 -0.31460 0.17205
-0.11519 -0.08798 0.16831
-0.16548 0.12857 0.03309
-0.09607 0.25289 -0.08412
-0.09607 0.37218 0.07206
-0.16548 0.21933 -0.10520
-0.11519 -0.38143 0.11530
-0.09607 0.02624 -0.09108
-0.10177 0.32107 0.17205
0.09492 -0.04378 -0.17205
-0.12603 -0.43934 -0.13532
-0.13676 -0.39187 -0.11013
-0.16548 -0.10845 -0.17065
-0.09607 0.12859 0.02360
-0.16548 0.27235 -0.09778
-0.00822 0.01946 -0.01558
0.16124 -0.23799 -0.17205
-0.12219 -0.43934 -0.11184
0.04715 0.01946 -0.02182
-0.09607 0.31272 -0.16350
0.16004 -0.07831 -0.12116
-0.03863 -0.05165 0.14097
0.11581 0.01946 0.04389
-0.09607 0.23419 0.02608
0.11297 0.01946 -0.16230
0.04820 -0.05165 -0.05140
-0.15504 0.36041 -0.17205
-0.14458 -0.08449 0.10377
-0.16548 -0.01009 0.15374
-0.14046 0.34238 -0.17205
0.14231 -0.34342 -0.17205
-0.00438 0.01946 0.10478
-0.12932 -0.08065 -0.17205
0.08472 -0.05165 -0.11008
-0.16548 0.42004 0.03881
-0.09607 0.41863 -0.02308
0.00585 -0.01452 0.17205
0.16257 -0.30502 0.17205
0.06061 0.01946 0.00543
0.04412 -0.03056 0.17205
0.15922 -0.41449 -0.12116
-0.06885 0.01946 0.14952
-0.16548 0.21219 -0.01849
-0.16548 -0.06518 -0.00608
-0.11519 -0.05813 0.06405
-0.11519 -0.26755 -0.11440
-0.16548 -0.08587 0.11812
-0.09887 0.29725 -0.17205
-0.09607 0.26581 -0.05232
-0.16548 0.33791 -0.00209
-0.15404 -0.18127 -0.17205
-0.09607 0.17905 -0.00308
-0.16548 0.08269 -0.07766
-0.09607 0.39872 -0.11295
0.12955 -0.23521 0.12920
-0.11519 -0.32381 0.15927
0.10855 -0.14269 -0.17008
0.14439 -0.42542 0.12920
-0.14907 0.39019 0.15008
-0.16548 0.05352 -0.14764
-0.02841 0.01946 0.02086
-0.09607 0.15038 -0.03757
0.10855 -0.27583 0.15744
-0.09607 0.39073 -0.03364
-0.09607 0.27039 0.00159
-0.03455 -0.00219 -0.17205
-0.06007 -0.05165 -0.07422
-0.11519 -0.07499 -0.05113
0.07170 0.01946 0.07227
-0.11519 -0.34653 0.15481
-0.09607 0.06058 0.10207
-0.11624 -0.11494 0.11090
0.14137 -0.05165 0.00942
-0.16548 -0.12064 0.11809
-0.16548 -0.40267 -0.13244
-0.16548 0.34327 0.06465
-0.09607 0.41580 0.04677
0.11099 -0.35140 -0.12116
-0.09607 0.19492 0.10436
-0.12163 -0.21475 -0.17205
-0.14776 -0.37322 0.11090
-0.16548 0.33798 0.16583
0.11538 0.01946 0.09732
-0.13225 -0.43934 -0.16718
-0.16548 0.06158 0.13024
-0.16548 0.26494 0.09554
0.12456 0.01946 -0.10984
-0.16548 0.12338 0.16094
0.05310 0.01946 -0.02378
-0.16548 -0.35297 -0.15967
-0.16548 -0.21710 0.15749
-0.16548 -0.05341 -0.01881
-0.02286 -0.05165 0.12851
0.12321 -0.08038 0.17205
-0.12767 0.34701 -0.17205
0.16447 -0.05165 0.04457
0.16548 -0.40982 -0.14705
0.10855 -0.34130 -0.16452
0.16548 -0.00858 0.01437
-0.09607 0.24135 0.04534
-0.16548 -0.07142 0.10760
-0.16548 0.19079 -0.01118
0.12413 -0.34186 0.12920
0.16548 -0.37625 -0.14885
-0.13168 -0.13932 -0.11013
0.12702 -0.05816 0.12920
-0.09607 0.34884 -0.06568
-0.16548 0.22853 -0.15693
-0.11519 -0.07919 0.01397
-0.16548 0.19356 -0.15901
-0.16548 0.14188 0.15900
-0.16548 -0.35656 0.16341
-0.16548 0.11686 0.09631
-0.16548 -0.02670 -0.12952
-0.09607 0.41283 -0.02772
-0.14724 -0.43885 -0.11013
-0.11519 -0.18787 0.15157
-0.16548 0.37265 0.14753
-0.14652 -0.04520 -0.17205
-0.16548 0.11319 -0.12640
-0.11519 -0.32757 0.12041
0.13596 0.01946 -0.04316
-0.09607 0.18313 0.11318
-0.04889 0.01946 0.04539
-0.16548 0.05993 0.10140
-0.11519 -0.23062 0.11989
-0.16548 0.17877 0.09293
0.08282 -0.04312 0.17205
0.14446 -0.11223 -0.12116
0.02457 0.00398 -0.17205
0.14464 -0.26644 0.12920
-0.13608 0.06176 0.17205
0.16548 -0.02164 0.05824
0.10855 -0.11174 0.15829
-0.13116 0.11435 -0.17205
-0.13064 0.25698 0.17205
-0.11220 -0.05165 -0.11929
-0.11519 -0.26985 0.12188
-0.02062 -0.05165 0.00471
-0.12287 0.11788 0.17205
-0.11519 -0.21952 0.11711
0.12173 -0.28058 -0.17205
-0.09607 0.19193 -0.00690
0.13952 -0.18567 0.12920
0.10855 -0.25654 0.13786
-0.11519 -0.07257 -0.06907
-0.13763 -0.43934 0.16069
-0.16548 0.03061 -0.13100
-0.09678 0.43802 0.02130
0.16548 -0.09539 -0.15867
-0.07786 -0.05165 -0.10185
-0.09607 0.04632 -0.14074
-0.09607 0.38277 -0.15249
0.16548 -0.43260 0.16552
-0.09607 0.14280 -0.04553
0.11650 0.01946 -0.14370
-0.09607 0.42584 0.05782
-0.09607 0.34601 -0.14828
0.13378 0.01946 -0.08467
0.00380 -0.05165 -0.17043
0.13578 -0.29143 -0.17205
0.01924 -0.05165 0.13387
-0.16548 0.00745 0.16296
0.16548 -0.02802 0.00978
0.10855 -0.42772 0.14578
0.04765 -0.05165 -0.04543
-0.16548 -0.23102 -0.16136
-0.16548 -0.42690 0.12300
0.15669 -0.05165 0.07841
-0.12685 0.43167 -0.06188
-0.07920 0.01946 0.00475
-0.09607 0.08420 -0.06144
-0.16548 0.02086 -0.00472
-0.14813 -0.42462 -0.11013
0.12601 0.01652 -0.17205
-0.16548 0.33440 -0.14876
-0.11519 -0.24848 -0.11695
0.14959 -0.26763 -0.17205
-0.00229 -0.05165 0.01155
-0.09607 0.31364 0.07012
-0.09607 0.26923 0.04287
0.16548 -0.01357 -0.08486
-0.11519 -0.16995 -0.15285
-0.09607 0.23854 0.09631
-0.09607 0.14243 0.10247
-0.16548 0.32520 0.06738
-0.13980 0.41792 0.10118
0.10855 -0.31892 0.13929
-0.16548 -0.02013 0.15373
-0.12186 -0.10155 0.17205
-0.16548 0.07728 -0.01647
-0.09607 0.26059 0.01998
-0.12129 0.21162 -0.17205
-0.16548 0.27371 0.16291
0.13652 0.01946 -0.03180
-0.12358 -0.02285 -0.17205
0.16548 -0.12853 -0.16797
-0.16059 0.09405 -0.17205
-0.16548 0.32803 0.16054
-0.09607 0.05643 0.14702
-0.09607 0.04101 -0.13009
0.01924 -0.05165 0.16016
0.10855 -0.19280 -0.15171
0.01529 -0.05165 -0.15309
-0.06870 -0.05165 -0.06045
-0.09607 0.08564 -0.02468
-0.16548 0.42239 0.01571
-0.09607 0.29129 0.03596
0.06723 0.01946 -0.14667
0.02054 -0.03554 0.17205
-0.16548 -0.03091 -0.04424
0.16548 -0.31777 0.15668
-0.16548 -0.15580 0.16096
-0.16548 0.24149 -0.05377
0.16548 -0.03704 -0.08575
0.04023 0.01946 -0.00015
-0.16548 -0.40775 -0.16263
0.10874 -0.05165 0.11014
-0.02686 -0.04942 0.17205
0.14710 -0.39597 -0.12116
-0.11519 -0.06306 0.16023
0.16211 -0.21497 0.17205
0.05532 -0.05165 -0.07893
-0.16548 0.20604 0.11747
-0.09607 0.11570 0.12463
-0.09607 0.33902 0.11854
-0.08630 -0.04907 0.17205
0.16548 -0.20186 -0.13588
-0.14835 0.23231 -0.17205
0.01831 -0.02262 0.17205
-0.09607 0.15898 0.12170
0.14610 -0.28409 -0.17205
-0.16548 -0.25066 0.16893
0.16332 -0.25004 -0.17205
-0.16548 0.42961 0.05549
-0.08343 0.01946 -0.06305
0.10011 -0.05165 0.07212
0.14572 0.01946 0.05652
-0.04399 -0.01665 0.17205
-0.14941 -0.42823 -0.17205
-0.14278 -0.19573 0.11090
-0.12464 0.30380 -0.17205
0.16548 -0.09887 -0.17028
-0.11519 -0.31363 0.11927
-0.12067 0.43879 -0.00888
0.09545 0.01946 -0.06554
-0.09607 0.03133 -0.12058
0.11997 -0.05165 -0.00498
0.07680 0.01946 -0.17197
-0.16548 0.27436 -0.12878
-0.09607 0.21450 -0.07619
-0.11519 -0.11668 -0.11852
0.16548 -0.03193 -0.01197
-0.09607 0.12759 -0.07274
-0.16548 0.16062 0.00183
-0.09607 0.34490 -0.10542
-0.16548 0.34254 0.11142
-0.16548 0.39260 0.05437
0.16548 -0.04954 -0.01067
-0.16548 -0.29071 0.15965
-0.06021 -0.01275 -0.17205
0.14368 -0.33024 -0.17205
-0.16548 0.04274 0.02112
-0.15788 -0.43577 0.17205
-0.14145 0.42406 -0.08593
0.06940 -0.02503 0.17205
-0.14734 -0.36332 0.11090
0.06216 0.01946 0.17053
-0.09607 0.22895 0.14273
0.16128 -0.25939 -0.12116
-0.16548 -0.07491 -0.04744
-0.10304 0.43221 -0.05901
0.05904 -0.05165 0.00941
-0.12226 -0.24416 -0.17205
-0.13028 -0.08449 0.02276
0.04307 0.01946 -0.12434
-0.03371 -0.05165 0.12001
0.12325 -0.18041 -0.17205
0.11174 -0.15854 -0.17205
0.16548 -0.01126 0.11575
-0.09607 0.03480 0.06730
0.15599 -0.25878 -0.17205
0.15680 -0.18477 0.12920
-0.16548 0.25778 -0.14032
-0.11519 -0.19740 0.11304
-0.09607 0.25553 -0.13446
-0.16548 0.39497 -0.13630
-0.09607 0.08690 -0.15807
-0.06713 0.01946 0.07274
-0.13208 -0.06062 -0.17205
0.16548 -0.16053 -0.16243
-0.11519 -0.22656 -0.16989
-0.09607 0.42361 -0.00216
-0.09607 0.38656 -0.04686
0.12715 -0.28353 0.17205
0.13788 -0.38712 0.12920
0.16323 -0.12103 -0.12116
-0.16548 0.26805 -0.13276
-0.09607 0.02667 0.08966
0.10855 -0.21392 0.14495
0.11369 -0.15155 -0.17205
-0.09607 0.16780 -0.16465
0.10855 -0.33980 0.16285
0.15346 -0.43934 -0.16339
-0.06397 0.01946 0.09584
0.11823 0.01946 -0.16422
-0.09607 0.40934 0.01326
-0.16548 0.14737 -0.09354
-0.09607 0.16243 -0.11489
0.16548 -0.03089 0.15871
-0.16548 -0.43639 -0.16036
-0.11083 0.04634 0.17205
-0.09607 0.24968 -0.14707
0.12600 -0.03952 0.17205
0.10855 -0.34594 -0.16156
0.01456 -0.05165 0.06781
-0.11519 -0.11530 -0.13830
-0.00506 -0.05165 0.00139
-0.16548 -0.03515 -0.12411
-0.13602 0.10078 0.17205
0.06334 0.01946 -0.08101
-0.09607 0.27459 -0.16970
-0.07089 0.01946 -0.01514
-0.16548 0.14847 -0.12336
-0.16548 0.00485 -0.00288
-0.09607 0.03298 -0.00733
-0.09607 0.31390 0.09982
-0.08320 -0.05165 0.06433
-0.09607 0.34282 0.05863
-0.11519 -0.43874 0.14620
-0.00504 0.01946 0.05774
-0.16548 -0.38078 0.15674
-0.09607 0.38616 0.07634
-0.09607 0.22700 0.10740
0.10855 -0.23452 0.15936
-0.14340 0.39025 -0.15000
-0.16548 0.10183 -0.13925
0.00218 0.01946 -0.03698
-0.11519 -0.20496 -0.13697
0.16548 -0.00075 -0.07435
-0.14279 -0.10777 -0.17205
-0.16450 -0.08449 -0.01688
-0.16548 -0.08207 0.12609
0.15274 0.01946 -0.11801
-0.16548 -0.39429 -0.14607
-0.04154 0.01503 0.17205
0.01022 0.01946 -0.07863
-0.13571 -0.23830 0.17205
0.13741 -0.03903 -0.17205
0.10855 -0.19903 -0.12927
-0.12223 -0.13448 0.11090
-0.16548 -0.17070 0.11538
-0.09607 0.26583 0.10247
-0.13686 -0.11923 -0.11013
0.10855 -0.42254 -0.16166
0.14583 -0.19446 -0.17205
0.10855 -0.20198 0.16384
-0.06866 -0.05165 0.02425
-0.06189 -0.05165 0.15714
0.16548 0.00052 -0.08617
-0.09607 0.12055 0.01699
-0.10050 0.38682 0.15426
-0.11519 -0.09150 0.12253
-0.11647 0.28440 0.17205
-0.09607 0.10080 -0.15161
-0.16548 -0.32426 0.16459
-0.05860 0.01946 0.09663
-0.09607 0.08368 -0.12327
-0.15343 -0.19206 0.11090
0.16548 -0.07180 0.16314
0.04667 -0.05165 -0.09187
0.13253 -0.21092 0.12920
-0.16548 -0.02280 0.14853
-0.09607 0.32029 0.10907
-0.16548 0.01064 -0.04772
-0.12867 -0.27638 0.11090
0.09904 0.01946 -0.13959
-0.12425 -0.35129 0.17205
-0.09607 0.19465 -0.14472
-0.16548 0.37048 -0.17163
0.12679 -0.35044 -0.17205
-0.16548 -0.13167 -0.11772
-0.16548 0.37087 -0.12088
0.16548 -0.11781 -0.14475
-0.06150 -0.05165 -0.11180
-0.09607 0.25337 0.12165
-0.16548 0.37147 0.14245
-0.11519 -0.06971 0.01375
-0.06242 -0.05165 0.12575
0.05417 0.01946 0.16468
0.14472 -0.27896 -0.12116
-0.16548 0.20008 0.11837
-0.16548 -0.00226 -0.14121
-0.16548 -0.37304 0.15064
0.06060 -0.05165 -0.14386
-0.14849 -0.24726 0.11090
-0.09607 0.24884 0.06995
-0.09607 0.33956 -0.13658
-0.06689 -0.05165 -0.09932
-0.14584 0.20266 0.17205
-0.16548 -0.32734 -0.13357
0.03364 0.01946 0.05655
0.16548 -0.31882 -0.16729
0.10855 -0.34308 -0.14557
0.16110 -0.37893 0.17205
0.03630 0.00374 -0.17205
-0.11519 -0.07670 -0.16955
0.16548 -0.06102 -0.15017
-0.09607 0.09201 -0.16776
-0.16548 0.20032 0.10156
0.11886 -0.05801 -0.12116
-0.15161 0.09553 0.17205
-0.09607 0.03485 0.07785
-0.16548 0.35801 0.07998
-0.16548 0.30202 0.08850
0.04365 -0.05165 0.06201
-0.16548 -0.43431 0.17117
-0.11519 -0.37540 -0.15932
-0.15133 0.06558 -0.17205
0.16548 -0.33360 0.13546
-0.16548 -0.02547 -0.04669
-0.11519 -0.43787 0.17108
-0.12511 -0.11823 -0.17205
-0.11519 -0.40996 0.12303
-0.15823 -0.26366 -0.11013
0.16548 -0.30354 0.15130
0.14898 -0.14189 -0.12116
-0.11165 -0.05165 0.10925
-0.16548 0.00359 -0.14104
-0.12300 0.30378 0.17205
-0.16548 0.30320 -0.15520
-0.16548 0.35999 0.10775
-0.16548 0.14977 0.10541
0.10855 -0.30297 -0.14977
-0.15705 -0.11143 -0.17205
0.10855 -0.37570 0.16122
0.15863 -0.24900 -0.12116
-0.11962 -0.08449 -0.01776
0.14587 -0.04295 -0.17205
-0.11519 -0.22373 0.16570
-0.10348 -0.05165 0.02910
-0.12093 -0.34004 -0.17205
-0.16548 -0.34097 -0.13560
0.10855 -0.32191 -0.12470
-0.11519 -0.20703 0.13997
-0.15824 -0.28736 0.11090
-0.11519 -0.42286 -0.12154
-0.08846 0.01946 -0.17016
-0.16548 0.43845 0.00702
-0.13703 0.40340 -0.12959
-0.09607 0.16822 0.03629
-0.16548 0.00346 -0.15004
0.16548 -0.34578 -0.15266
-0.11519 -0.14299 -0.16353
-0.12249 -0.43934 -0.14189
0.11744 -0.38259 -0.12116
0.16548 0.01356 0.00277
0.14359 -0.23900 -0.12116
0.11798 -0.02807 -0.17205
-0.16548 -0.17374 -0.14394
-0.09422 -0.02654 -0.17205
0.10855 -0.41939 -0.13044
-0.16548 0.05198 0.08650
-0.09657 0.36294 0.17205
-0.09607 0.07793 -0.14298
0.04019 -0.05160 -0.17205
-0.16548 -0.39096 -0.16300
-0.14959 0.42179 0.09279
0.16548 -0.25594 0.14851
0.02830 0.01946 0.14898
-0.16548 0.05286 0.10345
-0.16548 0.10562 -0.05691
0.00351 0.01946 -0.17070
-0.02695 0.00390 -0.17205
0.12267 -0.30924 -0.17205
0.11791 -0.11006 -0.12116
-0.09073 0.01946 -0.11033
-0.16548 0.29842 -0.12388
0.16227 -0.36874 0.17205
0.10708 0.01946 0.02857
-0.09607 0.06512 0.02012
-0.16548 0.04931 -0.07926
-0.01843 -0.05165 -0.09685
-0.16548 0.26193 0.08802
0.15193 -0.43934 0.16169
-0.09607 0.31651 0.16778
-0.16548 0.33236 -0.01647
0.10855 -0.40478 0.13681
-0.09653 -0.05165 -0.00370
-0.16548 0.20266 -0.07452
0.16548 -0.33568 -0.16346
-0.16548 -0.11078 -0.12597
-0.09607 0.31061 0.13359
-0.10253 -0.05165 -0.03324
0.16548 -0.22756 -0.15032
-0.11519 -0.09639 -0.15731
0.08528 0.01946 -0.16868
-0.11903 0.20350 0.17205
-0.11495 0.40246 -0.13110
0.16548 -0.01882 -0.16283
-0.01669 0.00638 -0.17205
-0.12159 -0.03890 -0.17205
-0.16541 0.35904 0.17205
-0.09607 0.14412 0.00120
-0.15552 -0.18086 0.11090
-0.16216 -0.28973 -0.17205
-0.16548 0.00979 0.07807
-0.16042 -0.21543 -0.17205
0.05763 -0.05165 0.05482
-0.09607 0.31718 -0.01290
-0.16548 0.24179 0.01818
-0.16470 -0.11712 0.17205
0.03083 -0.03437 0.17205
0.11329 -0.43934 0.15073
-0.10373 -0.05165 -0.07739
0.10855 -0.21843 -0.13204
0.08129 0.01946 -0.01510
-0.01771 0.01946 -0.04648
-0.12300 -0.36195 -0.11013
0.16548 -0.05387 0.15625
0.10855 -0.18762 0.16253
-0.13439 -0.08449 0.01732
-0.14131 -0.35069 0.11090
-0.09607 0.18747 -0.16029
0.02848 -0.05165 -0.11360
-0.11681 -0.08449 -0.09605
-0.16548 0.10163 0.08777
0.01497 -0.05165 0.02072
-0.12438 -0.36256 -0.17205
0.14026 -0.26215 0.17205
0.13578 -0.32262 -0.17205
0.15602 -0.43420 0.17205
-0.09607 0.03764 0.02581
-0.16548 0.22782 -0.15169
0.16548 -0.30502 0.15952
-0.16548 0.43558 -0.02789
-0.03420 -0.01387 -0.17205
-0.16548 0.07109 0.15319
0.14235 -0.15091 0.12920
-0.11519 -0.27729 0.14975
-0.11519 -0.18928 -0.11164
-0.16548 0.19362 -0.00506
-0.16548 0.43181 -0.04693
-0.04971 -0.04784 0.17205
-0.16548 -0.35224 0.12041
-0.16548 -0.00612 0.07323
-0.11038 0.34496 -0.17205
0.05396 -0.05165 0.12754
0.01611 0.01946 0.11301
0.11691 -0.31930 0.17205
-0.09607 0.06872 0.13667
-0.16548 0.20219 0.08555
-0.16165 -0.38661 -0.11013
-0.16548 0.09925 0.16988
0.10855 -0.38905 0.15064
-0.16548 0.04407 0.03019
-0.09607 0.30278 0.14141
-0.09607 0.11903 -0.06084
-0.09607 0.26043 0.05224
-0.16548 -0.01505 0.05462
-0.09607 0.06150 0.12230
-0.11519 -0.19077 -0.11893
0.14799 -0.07873 -0.12116
-0.09607 0.04612 -0.17021
-0.09607 0.26260 -0.06010
-0.16548 -0.14479 -0.12090
-0.15190 -0.14130 -0.11013
0.16548 -0.10748 0.13914
-0.11519 -0.30640 -0.16748
0.14798 -0.20294 0.12920
-0.11519 -0.39925 0.16525
-0.11963 -0.18563 -0.11013
0.12946 0.01946 -0.15830
-0.04508 -0.05165 -0.06342
-0.09607 0.26914 0.06935
-0.12267 0.13292 -0.17205
-0.16548 -0.04669 -0.16117
-0.07525 -0.05165 -0.14189
-0.16548 -0.06273 0.10894
-0.16548 0.01556 -0.03450
0.11491 -0.34524 -0.12116
-0.16548 0.14466 0.12498
-0.09607 0.13716 0.02695
-0.16548 0.35409 -0.04173
-0.12117 -0.08449 0.10182
-0.14520 -0.08449 -0.10225
-0.13398 -0.40539 -0.17205
-0.09607 0.40105 -0.06982
-0.11751 0.27772 0.17205
-0.11519 -0.06743 -0.11229
-0.16548 -0.04766 -0.13708
-0.15811 -0.36163 -0.17205
0.16548 -0.41764 0.16843
-0.16548 0.30801 -0.15150
-0.11576 0.33156 -0.17205
0.03123 -0.05165 0.06946
-0.02773 0.01946 0.00640
0.13115 -0.07640 0.17205
-0.09607 0.08024 -0.01360
-0.16019 0.31595 0.17205
0.16096 -0.17525 0.12920
-0.14754 -0.36440 0.17205
-0.09607 0.17389 0.16432
-0.09607 0.37728 -0.01639
-0.09652 0.38506 0.15643
-0.14951 0.42082 -0.09491
-0.06146 0.01946 0.04244
0.04717 0.00205 0.17205
0.14321 0.01946 0.03465
-0.15400 -0.43224 0.17205
-0.11833 -0.08449 0.05458
-0.08020 0.01946 -0.09799
-0.16548 0.13264 -0.08292
-0.06629 -0.05165 0.00058
0.16253 0.01946 0.07411
0.00115 -0.05165 -0.02527
-0.11519 -0.39912 -0.16463
-0.09607 0.16378 0.00027
-0.12654 0.43922 0.00188
-0.16548 0.11298 -0.11398
-0.08304 -0.05165 -0.15590
0.10855 -0.18558 0.15474
-0.16548 0.05832 -0.11936
-0.16548 0.20058 -0.09150
-0.02703 0.01946 -0.13832
-0.16548 -0.22194 0.11836
-0.09607 0.09511 -0.00845
-0.16548 0.15284 0.16146
-0.11519 -0.12131 0.12638
-0.11519 -0.09527 0.14524
-0.16548 -0.37699 -0.14244
0.08780 0.01946 0.04830
-0.10657 0.25346 -0.17205
0.11803 -0.38179 0.12920
-0.16548 -0.41645 -0.15038
-0.16548 0.05125 0.13286
0.13199 -0.37971 -0.17205
0.10915 -0.24319 0.12920
0.06365 0.01946 -0.04874
-0.13519 -0.03652 0.17205
-0.16548 -0.12783 0.14094
-0.09607 0.23129 0.09418
0.09126 -0.05165 0.07653
0.12377 -0.31750 -0.12116
-0.16548 -0.18355 -0.14176
0.16548 -0.32434 -0.14438
0.07657 -0.05165 0.13623
0.16548 -0.33698 0.14348
0.12291 -0.20403 -0.12116
-0.09607 0.40481 0.08835
-0.16548 0.36943 0.02106
-0.09607 0.07245 -0.05964
0.15510 -0.43934 0.17138
0.09591 0.01946 0.08579
0.00543 0.01946 0.12754
-0.13989 -0.23403 -0.11013
-0.09607 0.40590 -0.06997
0.12628 -0.12167 -0.17205
-0.13188 -0.43934 -0.15328
0.10855 -0.16362 -0.16975
-0.14675 -0.02887 -0.17205
0.16548 -0.01307 0.16862
-0.09607 0.25387 0.07603
-0.09607 0.30212 0.09957
-0.10070 0.02504 -0.17205
-0.09607 0.33763 0.00163
0.15895 -0.10927 0.12920
0.11084 -0.05165 0.04338
0.12094 -0.23364 0.12920
-0.09607 0.26044 -0.02859
-0.09607 0.03909 0.10135
-0.16548 0.20458 0.12707
0.11677 -0.35307 0.12920
0.14558 0.01143 -0.17205
-0.16548 0.21222 0.08798
-0.08191 -0.05165 0.13334
0.16548 -0.13186 0.15146
0.10855 -0.23458 -0.16115
0.14273 -0.10481 -0.17205
0.16548 0.00729 0.04449
-0.16548 -0.10233 -0.13696
-0.14119 -0.14506 0.17205
-0.14619 -0.13208 -0.17205
0.03030 -0.05165 -0.04426
0.12993 -0.39449 -0.12116
0.10855 -0.23931 -0.13202
-0.11519 -0.07196 0.11996
-0.09607 0.17746 0.13901
0.15180 -0.05165 -0.02568
0.11153 -0.05165 -0.10835
-0.11519 -0.23803 -0.13547
-0.14474 0.39895 0.13674
-0.16548 -0.11899 -0.11523
0.09676 0.01946 0.12731
-0.16084 -0.18625 -0.11013
-0.16548 0.12421 0.14394
-0.11519 -0.33371 -0.13362
-0.10998 -0.05165 -0.16794
-0.16548 0.13006 0.06046
-0.11519 -0.26044 -0.13118
-0.09607 0.05542 -0.07823
-0.16548 -0.18292 0.16054
0.07551 -0.00131 0.17205
-0.11519 -0.05975 -0.06749
-0.11519 -0.07701 0.00556
-0.09607 0.42835 -0.04925
0.12405 0.01946 -0.06530
-0.11519 -0.23567 -0.13043
-0.09607 0.23691 -0.15718
-0.10776 0.33708 -0.17205
-0.10057 0.12698 -0.17205
-0.13608 -0.34414 -0.17205
-0.09607 0.09517 -0.06345
0.11360 -0.07246 0.12920
0.11654 -0.18743 -0.17205
-0.06429 0.01946 0.06541
-0.09607 0.29883 -0.16757
-0.16548 -0.27529 0.12666
0.11037 -0.43190 -0.17205
0.13382 -0.05165 -0.03416
0.14701 -0.40983 0.17205
-0.09607 0.23421 0.16571
-0.11519 -0.34330 -0.13507
0.12446 -0.05165 0.06055
0.16548 0.00376 0.15121
-0.11575 0.12456 -0.17205
0.04724 0.01946 0.12013
-0.16548 0.20899 -0.09065
-0.14415 -0.23071 0.11090
0.14194 -0.39661 -0.17205
0.15477 -0.14739 0.12920
0.10855 -0.39189 -0.16723
-0.16548 0.05478 -0.11352
-0.11519 -0.35245 0.14999
0.16458 -0.11607 0.12920
-0.09607 0.16304 0.12663
-0.01777 -0.05165 -0.05350
0.16548 -0.00027 0.04059
-0.16548 -0.39749 0.11806
0.15095 0.01946 -0.10838
-0.09322 0.01946 -0.07694
-0.16548 0.00827 0.09438
-0.05978 0.00384 -0.17205
-0.16548 0.10583 0.09413
-0.09607 0.04808 0.16881
0.14769 -0.25047 0.17205
0.03518 -0.05165 0.02431
-0.16548 -0.14904 0.12192
-0.16548 0.21028 0.12592
0.01502 0.01946 -0.16646
-0.11519 -0.40068 0.15022
-0.11519 -0.05427 -0.01183
-0.16548 -0.07494 -0.15261
-0.11989 0.33135 0.17205
0.04970 0.01946 0.07844
-0.09607 0.04524 0.07332
0.16548 -0.01906 0.01116
-0.13624 0.21014 0.17205
-0.06693 -0.05165 0.11162
0.16548 -0.03144 -0.16545
-0.08935 0.01946 0.06530
0.16548 -0.05085 0.07663
0.10855 -0.27248 -0.12686
-0.09607 0.41903 0.01544
0.14357 -0.11330 0.12920
-0.16548 0.02008 -0.04170
-0.11355 -0.05165 0.17165
0.16548 -0.01884 0.00136
-0.16548 0.25652 -0.11435
0.12128 -0.26116 -0.12116
-0.16548 0.12865 -0.09576
0.06455 0.01946 0.07895
0.16548 -0.02203 0.05325
-0.16548 -0.02295 -0.15093
-0.12111 -0.27347 -0.11013
-0.09986 0.43162 0.06216
-0.16548 -0.08448 -0.16284
-0.14044 0.19901 0.17205
-0.09607 0.31261 -0.11211
0.14481 0.01946 -0.01448
-0.09607 0.10934 -0.15115
-0.09607 0.13093 0.05037
-0.11285 0.40895 -0.12059
0.10855 -0.36006 0.13463
-0.14047 -0.08449 -0.10406
-0.02144 -0.05165 -0.12267
0.15592 -0.33848 -0.12116
-0.12189 0.43838 -0.01548
-0.14668 -0.03789 -0.17205
-0.12780 0.21544 0.17205
0.12249 -0.21276 0.17205
-0.14150 -0.36155 -0.11013
0.12654 -0.21225 -0.17205
0.12709 -0.23552 0.17205
0.10415 -0.01160 -0.17205
-0.16548 0.30743 -0.02749
-0.16548 0.37163 0.12780
-0.16327 -0.43934 -0.11645
-0.16548 0.29970 -0.16943
-0.16548 0.36162 -0.07604
-0.16548 0.02672 -0.04554
0.02042 0.01946 -0.08996
0.05693 -0.05165 0.08835
-0.11519 -0.43402 -0.15795
-0.16548 0.25354 -0.06423
0.10855 -0.40026 -0.12513
-0.03333 0.01946 0.14026
-0.15228 -0.43561 -0.11013
-0.09607 0.19171 -0.11155
-0.11519 -0.18300 -0.15701
0.07372 0.01946 -0.03047
-0.11718 0.11771 -0.17205
0.13850 -0.42409 0.17205
-0.14589 0.40396 0.12868
-0.09607 0.29262 -0.17016
-0.11519 -0.35182 0.13285
0.10855 -0.40283 0.13108
0.16548 -0.09244 0.12984
-0.13830 -0.14287 -0.11013
-0.10601 0.00893 0.17205
-0.11519 -0.40839 -0.12094
-0.09607 0.18687 -0.01999
-0.10208 -0.05165 -0.11945
-0.12474 -0.29038 0.17205
-0.11519 -0.37530 0.13799
-0.10070 0.43695 0.03374
-0.16548 0.11879 -0.07806
0.08464 0.01946 0.14281
-0.09607 0.11459 -0.11353
0.04485 -0.05165 -0.10067
0.12929 -0.11556 -0.12116
-0.14497 0.43291 -0.05531
-0.16548 -0.21790 0.12194
-0.01427 0.01946 -0.06071
-0.16546 -0.23903 0.17205
-0.09607 0.39316 -0.01048
0.14180 -0.23354 0.12920
-0.14530 0.41359 -0.11056
-0.12490 -0.40802 0.17205
-0.11233 0.03413 0.17205
0.12140 -0.05165 0.08057
0.09295 -0.05165 -0.03512
0.00678 -0.05165 0.03215
-0.00934 -0.05165 -0.02946
0.10855 -0.24965 -0.15457
-0.16548 -0.07070 -0.06018
-0.00846 0.01946 0.13513
0.16548 -0.24510 0.13263
-0.16548 0.02124 -0.13896
-0.16548 -0.34430 0.13920
-0.16548 -0.18459 -0.15458
-0.11519 -0.37127 -0.14907
0.11345 -0.29006 -0.12116
-0.09607 0.13089 -0.14967
-0.09607 0.04418 -0.08530
0.16548 -0.04098 -0.07993
-0.09607 0.20402 0.06463
-0.13760 -0.43934 -0.16790
-0.16548 0.07498 -0.00019
0.16548 -0.03287 0.16981
-0.16548 0.19156 -0.06244
0.04105 0.01946 -0.07984
-0.16548 0.03909 -0.08726
0.02279 -0.05165 -0.15060
-0.03757 0.01946 -0.17008
0.02822 0.01946 0.05135
-0.03997 -0.05165 -0.10682
-0.09607 0.31838 -0.15762
-0.13034 -0.12325 -0.11013
-0.16548 0.40796 -0.04850
-0.16548 -0.03212 -0.08252
-0.14585 0.09709 -0.17205
-0.16276 0.33667 -0.17205
-0.09767 0.28343 0.17205
0.12187 -0.22229 0.12920
0.09674 0.01946 -0.07210
0.16548 -0.13809 0.16101
-0.16548 0.41541 -0.05053
-0.06362 -0.02366 0.17205
-0.14005 0.16327 0.17205
-0.16548 0.15095 -0.06830
-0.16548 0.31139 0.12893
-0.16548 0.23023 -0.02226
0.16173 -0.05165 0.08589
0.13783 0.01946 -0.16903
-0.09607 0.10485 -0.03592
-0.16548 0.30129 0.09764
-0.10535 0.02888 0.17205
-0.09258 -0.05165 -0.10307
0.12789 -0.05165 -0.08575
-0.14654 -0.37951 -0.17205
-0.16548 0.23545 -0.06788
-0.16548 0.10111 0.06378
-0.09607 0.04819 -0.12168
0.11805 0.01946 -0.06046
-0.03265 -0.05165 0.09245
-0.10233 -0.04220 -0.17205
-0.15576 -0.35657 -0.17205
-0.00464 0.01946 0.15450
0.03297 -0.05165 0.15396
-0.16548 -0.19830 0.12100
-0.12652 -0.08449 -0.07628
-0.11519 -0.40817 0.14204
-0.09607 0.02803 -0.01607
-0.13299 -0.28081 0.17205
-0.16548 -0.04089 0.04756
-0.06639 -0.05165 -0.07034
-0.09607 0.35947 0.07938
0.15103 -0.19680 0.12920
-0.16548 0.28347 0.13072
-0.16548 0.22274 -0.02400
-0.11519 -0.06461 0.07811
-0.11519 -0.31292 0.15350
-0.11519 -0.41674 0.14680
-0.16548 0.42499 -0.02464
-0.13683 0.18303 -0.17205
0.16548 -0.11858 -0.15560
0.13455 -0.12733 0.12920
-0.16548 0.16394 -0.06155
-0.11013 0.43647 -0.03632
-0.09607 0.27553 0.14256
-0.00552 0.01946 -0.08181
-0.12030 -0.43855 -0.17205
-0.16548 -0.04925 0.04878
-0.14641 -0.19674 0.17205
-0.08791 0.01946 -0.09754
0.04037 -0.05165 0.08214
-0.15129 0.02400 0.17205
-0.16548 -0.43768 -0.13908
0.16548 -0.28151 0.16234
-0.16548 0.06671 -0.12949
0.16548 -0.01232 0.10984
-0.16335 -0.36822 0.17205
0.16242 -0.35158 -0.17205
-0.09454 0.01946 -0.05580
-0.09607 0.16269 -0.14101
-0.09607 0.29422 -0.10424
-0.16548 0.25898 0.04717
0.01465 0.01946 0.15044
-0.16013 -0.08449 -0.00716
-0.06097 -0.05165 0.00007
0.09905 0.01946 0.14335
-0.16548 -0.13677 -0.11743
-0.16548 0.13969 0.16797
0.16548 -0.03041 -0.12514
-0.16548 -0.32991 0.11365
-0.09607 0.38262 -0.00028
0.14816 0.01946 0.02531
-0.16548 0.28173 0.00353
-0.01340 0.01946 0.03714
-0.15728 -0.00762 -0.17205
0.02790 -0.05165 0.08514
-0.07759 0.01249 -0.17205
0.13834 -0.30076 -0.17205
-0.16548 -0.10844 0.15198
-0.11519 -0.12746 -0.13658
0.16548 -0.36195 0.17205
-0.09607 0.04702 -0.06292
-0.12548 -0.25975 0.11090
0.05328 -0.05165 -0.08355
0.16548 -0.21517 -0.14972
-0.15055 0.15684 -0.17205
0.05781 -0.02507 -0.17205
-0.16548 -0.06175 -0.13652
0.13780 0.01946 -0.15129
0.01356 0.01946 -0.02537
0.16548 -0.25868 -0.14736
-0.09607 0.31271 -0.02432
-0.09607 0.07825 0.08563
-0.16548 -0.09805 0.14524
0.06538 -0.05165 -0.05260
-0.16548 -0.02720 -0.12171
-0.16059 -0.34398 0.17205
-0.16548 -0.09017 -0.16026
0.14722 -0.20427 0.17205
-0.16548 0.22589 -0.04689
-0.09607 0.30306 -0.14138
-0.16548 0.38024 -0.04116
-0.09607 0.25541 -0.11035
-0.16548 0.43373 0.04595
-0.05584 0.01946 0.07415
0.16303 -0.42174 0.17205
-0.09607 0.23879 0.10854
-0.12360 -0.17420 -0.17205
-0.16257 -0.29443 0.17205
-0.10352 -0.04127 0.17205
-0.11519 -0.05195 0.09756
-0.12946 -0.19325 -0.11013
-0.14051 -0.27018 0.17205
0.10132 0.01946 0.16661
-0.15066 -0.36442 -0.11013
-0.14706 -0.18582 0.11090
0.10336 -0.05165 0.03195
-0.13310 0.13674 0.17205
0.16037 -0.42386 -0.12116
-0.02569 0.01946 0.12228
-0.03408 -0.05165 -0.09626
-0.15415 -0.43934 -0.14159
0.04074 -0.05165 -0.00479
-0.16548 -0.17244 0.16237
0.12755 -0.05165 0.09751
0.12161 -0.14704 -0.17205
-0.05500 0.01946 -0.00929
-0.16548 -0.37061 -0.15532
-0.16548 0.29018 -0.17097
-0.02551 -0.05165 0.12369
-0.16548 0.39333 0.09635
-0.09607 0.21342 0.14723
-0.15029 -0.26884 -0.11013
-0.09607 0.36140 -0.08966
0.16548 -0.04483 0.06279
-0.10552 0.01929 0.17205
0.16548 -0.18669 0.15355
-0.15761 -0.43934 0.13294
-0.16548 0.27853 0.01803
0.13181 -0.41781 0.12920
-0.16548 0.16464 0.04848
-0.16548 0.00578 0.12759
-0.11519 -0.37233 -0.13892
-0.09607 0.29300 -0.07211
-0.16548 0.29220 -0.10052
-0.16548 0.02430 -0.02711
-0.16548 0.05703 -0.01357
0.04147 0.01591 -0.17205
-0.13664 -0.25056 0.17205
-0.12324 -0.19366 -0.17205
-0.16548 0.36086 0.02410
-0.13114 -0.14893 -0.11013
-0.04360 -0.05165 -0.11730
-0.09607 0.03763 -0.01473
0.07647 -0.05165 -0.02487
-0.16548 -0.24621 0.16469
-0.16548 0.05404 -0.02429
0.14613 -0.05165 -0.09499
-0.11519 -0.43484 -0.11186
0.01541 0.01946 0.07937
0.16154 -0.20408 0.17205
0.13587 -0.10688 0.12920
-0.05495 -0.05165 -0.12492
-0.07559 -0.03794 0.17205
0.12566 -0.42638 -0.12116
-0.13916 -0.03144 0.17205
-0.09607 0.28151 0.00335
0.07411 -0.05165 0.08046
-0.11983 0.31363 0.17205
-0.08144 0.01946 -0.16065
0.16389 -0.18369 0.12920
-0.14116 -0.33626 0.17205
-0.11519 -0.30622 0.15597
-0.16548 0.16546 0.00035
-0.13608 -0.28658 0.17205
-0.16548 0.09016 -0.02218
-0.09607 0.14176 0.09317
-0.16548 0.13112 -0.11169
-0.16548 0.14228 0.00937
-0.09607 0.05374 0.06379
0.11749 -0.33094 0.17205
-0.09607 0.36667 -0.02143
-0.11519 -0.25226 0.11973
-0.16548 -0.32823 -0.14528
-0.11370 0.42718 -0.07615
-0.00056 -0.05165 0.09007
-0.12137 -0.17990 0.17205
-0.14296 -0.30294 -0.17205
0.13944 -0.05165 -0.09930
0.16548 -0.02568 -0.02436
0.07872 0.01946 0.14552
-0.16548 -0.18831 -0.12589
0.16483 0.01946 -0.06120
-0.16548 0.05689 0.15525
-0.11519 -0.34326 -0.16138
-0.01702 -0.05165 -0.14645
-0.10994 -0.05165 0.13563
0.02582 -0.05165 0.06731
-0.12789 0.40122 -0.13310
0.06516 -0.00472 0.17205
0.13466 -0.16078 0.17205
-0.09607 0.35310 -0.16009
