-0.23899 -0.08369 0.06831
-0.26023 0.24154 -0.01944
-0.16495 0.17571 0.04433
0.03652 -0.13198 -0.06861
-0.15950 0.12308 -0.11484
0.15059 -0.01533 -0.24554
-0.21676 0.24757 0.07966
-0.13921 0.12653 -0.24786
-0.08956 0.25235 0.20715
0.17841 -0.00236 0.11221
-0.23316 0.21212 0.13118
-0.23625 0.16068 -0.09890
-0.12280 -0.13198 0.14648
-0.16990 -0.10014 0.17971
-0.15631 0.24952 0.22054
-0.16711 0.25446 0.09434
-0.12254 0.09070 0.13809
0.24013 -0.13198 -0.12581
-0.24597 -0.00947 0.03455
0.13253 -0.00236 0.07054
0.10947 -0.00236 0.02699
-0.04069 -0.13198 -0.07569
0.08221 -0.13198 0.02729
0.26268 -0.10711 0.01383
0.02476 -0.00236 -0.10436
0.19647 -0.13198 0.08269
0.08977 -0.00236 0.02502
-0.12393 0.31872 0.24514
-0.14551 0.23982 0.12867
-0.21347 0.16603 -0.15528
-0.11184 0.12169 -0.25406
-0.24485 0.17813 -0.07598
-0.15245 -0.32177 -0.21105
-0.09266 -0.00236 -0.12422
-0.19645 -0.09453 -0.16386
-0.01193 -0.13198 -0.07744
0.24679 -0.09000 -0.18822
-0.09327 0.21069 0.19554
-0.20184 0.11721 0.02226
-0.08231 -0.00236 -0.02128
0.19853 -0.06685 0.23484
-0.11745 0.23720 0.26389
-0.10113 -0.00236 0.11990
-0.09376 0.04789 -0.19554
0.20946 -0.00236 -0.02629
0.24920 -0.13198 0.04969
-0.19570 0.14076 -0.18114
-0.26166 0.24295 0.03104
-0.07315 0.10045 -0.22634
-0.13320 0.03158 0.19291
-0.15497 -0.24042 -0.20346
-0.05488 -0.02825 0.23933
-0.16530 0.25471 -0.08716
0.20261 -0.13011 0.14948
-0.21289 0.26113 0.18399
-0.12470 -0.25736 0.17832
0.15200 -0.06881 0.25740
-0.18437 0.11963 -0.06533
-0.09054 0.22220 0.20076
-0.07391 0.21292 -0.22370
-0.01487 -0.07488 -0.24402
-0.08453 0.07701 0.22091
-0.11105 0.07078 -0.21294
-0.04443 -0.09906 -0.24013
-0.11718 -0.10104 0.18756
0.19316 -0.18830 -0.15962
-0.11649 0.31872 -0.22443
0.20141 -0.16510 -0.15856
-0.16043 -0.26552 -0.21035
-0.19906 0.25003 -0.02845
-0.01937 -0.00236 -0.11590
-0.07207 -0.00236 0.02829
-0.07449 0.12180 -0.20236
-0.25572 -0.10680 0.00589
-0.01375 -0.13198 0.05125
-0.23095 0.06823 0.02712
0.00657 -0.13198 -0.22012
-0.14032 0.14310 0.11269
-0.15714 -0.07171 0.18950
-0.16440 -0.00236 0.00805
-0.11137 -0.16034 0.19436
-0.00915 -0.00236 -0.02427
-0.04368 -0.06219 0.25200
0.13419 -0.00236 -0.10850
0.13019 -0.00236 0.01189
-0.05021 -0.00236 0.11516
-0.05497 -0.13198 -0.07892
-0.13429 -0.00391 -0.19993
-0.10194 0.08709 -0.17748
0.16805 -0.00236 -0.15037
-0.18187 0.11998 -0.17581
-0.14190 0.07625 -0.17982
-0.18170 -0.00236 0.04346
-0.14339 0.15310 -0.19168
-0.16434 0.25179 0.08844
-0.11925 0.15001 -0.17632
0.05105 -0.00236 -0.19061
-0.11874 0.09561 -0.25196
-0.18518 0.28653 -0.00551
0.02377 -0.13198 -0.13066
-0.23586 0.07685 0.04165
-0.12970 -0.00236 0.05305
-0.14262 0.30572 -0.26127
-0.09292 -0.00236 -0.01530
0.01275 -0.13198 -0.18175
-0.08670 -0.01395 0.22958
-0.10567 0.04664 -0.16535
-0.18008 0.27481 0.03066
-0.19931 0.24999 0.04426
-0.19955 0.06007 0.07039
-0.16551 0.28969 -0.24334
-0.14931 0.20450 -0.25060
0.15650 -0.02041 0.24612
-0.18500 0.30918 -0.18260
-0.16664 0.15315 -0.22238
-0.17121 0.31207 0.19201
-0.23714 -0.08123 0.10108
-0.19492 0.25060 -0.04699
-0.11208 0.01864 -0.20620
-0.17228 0.06305 0.10668
-0.15841 0.11851 -0.02476
-0.14852 0.12461 0.12442
-0.07842 0.10748 0.19848
-0.12367 0.22921 -0.19990
-0.15019 0.17415 -0.24510
-0.08650 -0.11005 -0.23615
-0.18304 0.23364 0.22102
-0.12832 0.05267 -0.20581
-0.07104 0.15042 -0.22332
0.15573 -0.13198 0.06107
-0.15882 0.29830 -0.24725
-0.14869 -0.13198 -0.12483
0.18788 -0.21069 -0.16786
-0.24430 -0.04541 -0.03683
0.10913 -0.01074 -0.24725
-0.14105 0.01652 0.18186
0.16086 -0.08483 0.24612
0.10266 -0.00236 0.07289
0.24676 -0.01239 0.15025
0.23976 -0.06764 0.17731
-0.10009 -0.11074 0.18344
0.01631 -0.00236 0.05873
-0.26218 0.28343 0.03265
-0.13983 0.31376 0.25281
0.26307 -0.06580 -0.08544
-0.10786 -0.11750 -0.14779
-0.12599 0.14044 0.16090
-0.23195 0.06849 -0.01357
-0.19049 0.11878 0.03616
-0.06337 -0.12187 0.24165
-0.11905 0.24845 -0.26635
-0.13751 0.01738 -0.18141
-0.23833 -0.10449 0.09001
-0.14346 0.04289 0.18496
-0.09971 0.31900 0.23377
0.20868 -0.00236 0.02662
0.23557 -0.32140 0.19253
-0.26212 0.23547 0.00946
-0.16172 0.17242 -0.22061
-0.09791 -0.05723 -0.15238
-0.18485 0.06126 -0.06425
-0.09594 0.07066 -0.19865
-0.23883 0.09381 -0.04890
0.20498 -0.04664 -0.24194
-0.14047 -0.15777 0.17769
0.10155 -0.00236 0.20723
-0.21278 -0.13198 0.02439
-0.15139 0.21482 -0.10679
-0.13084 -0.20650 -0.15806
-0.07706 0.19946 -0.21259
-0.24573 -0.12239 0.02653
0.10868 -0.00236 0.15473
-0.08777 -0.13198 -0.01039
-0.15420 -0.22637 -0.19539
-0.23829 0.07895 0.02137
-0.12845 0.12739 -0.17453
0.21904 -0.17928 -0.17969
-0.11502 -0.12976 0.18997
-0.08456 0.23826 -0.20734
0.20697 -0.20177 0.15192
-0.16029 0.25541 -0.20741
-0.21288 0.30507 -0.01075
-0.16044 0.26594 -0.09910
0.06949 -0.13198 0.05319
-0.15221 0.25220 -0.22042
-0.18296 0.11983 0.18616
-0.05846 -0.02845 -0.23828
-0.16703 0.20014 0.05059
0.13656 -0.09736 0.24612
-0.08618 0.07549 -0.22633
0.18519 -0.22058 -0.20012
0.22242 -0.13198 -0.07979
0.12251 -0.00236 0.12962
-0.24828 0.13926 -0.01289
-0.25406 0.18077 0.01614
-0.22057 0.11461 -0.11129
0.12906 -0.00236 -0.00428
0.15761 -0.13198 0.14420
-0.25331 -0.07892 0.05316
-0.21499 0.11538 -0.13184
-0.00645 -0.13198 0.16756
0.19076 -0.13198 -0.13891
0.24214 -0.06625 0.16349
0.08881 -0.13198 -0.19818
0.08223 -0.05841 -0.24554
-0.13003 0.25961 0.16347
-0.20488 -0.13198 0.00005
-0.20543 0.30579 -0.05796
0.25110 -0.03273 0.15709
-0.03222 -0.00236 0.19642
0.18324 -0.00236 -0.06780
-0.07166 -0.00236 0.11504
-0.08615 -0.13198 0.22668
-0.19119 0.11322 0.18569
0.01605 -0.11042 0.24612
-0.12650 -0.00236 0.07362
-0.12253 -0.19882 -0.15648
-0.12076 -0.06813 -0.22709
0.11617 -0.13198 -0.02324
-0.19746 0.18767 0.19157
-0.17746 0.06757 -0.16809
0.25628 -0.01619 0.07735
0.18338 -0.06280 0.25464
0.22912 -0.26609 0.19077
-0.25999 0.27274 -0.06248
0.18869 -0.25993 0.18655
-0.13265 0.03895 0.14678
-0.00251 -0.05323 -0.25608
-0.20421 0.17678 -0.17606
-0.09702 0.15817 0.24803
0.19369 -0.21937 0.19487
0.03785 -0.01877 -0.24976
0.16464 -0.13198 -0.10269
-0.14291 -0.01504 -0.19984
0.20835 -0.12728 0.16224
-0.16476 0.15430 -0.01172
0.08083 -0.13198 0.15308
-0.21691 0.24755 -0.09350
-0.12315 0.12813 -0.15177
0.03883 -0.05409 -0.25616
-0.09258 0.29640 0.21211
-0.03768 -0.00236 0.07380
0.22720 -0.22745 0.17718
-0.16069 0.25535 -0.18422
-0.21544 0.20530 -0.16203
-0.07961 0.10405 -0.23365
0.08158 -0.13198 0.23467
-0.08868 0.09140 0.18814
-0.12723 0.15191 0.19998
0.24371 -0.13198 0.15295
-0.15555 -0.00236 0.09021
0.19209 -0.13069 0.14959
0.12961 -0.06948 -0.24554
-0.11661 0.31333 0.26918
-0.22928 0.18056 0.12976
-0.17315 0.25362 -0.06631
0.21627 -0.30561 -0.19215
0.06324 -0.09938 0.24612
-0.12645 0.01490 -0.16172
0.19409 -0.13198 0.21584
0.18999 -0.13015 -0.17184
-0.15266 0.19394 0.09870
-0.13975 0.04267 -0.17631
-0.12401 0.22700 -0.15774
0.20407 -0.14684 -0.15835
0.17380 -0.13198 -0.18913
-0.09231 0.28978 -0.25408
-0.22894 0.30282 -0.09560
-0.12890 0.21243 -0.14775
0.13405 -0.00236 -0.15513
-0.09285 -0.11840 -0.22645
-0.13196 0.13828 -0.22003
-0.10555 0.31679 -0.21693
-0.08281 -0.00236 -0.03842
0.21513 -0.15486 -0.18955
-0.12865 0.31022 -0.27266
-0.20850 0.08428 0.14439
-0.09605 -0.00236 0.21138
0.15301 -0.00236 -0.07151
-0.13684 0.25866 0.15952
-0.15731 0.12629 -0.04449
-0.22250 -0.12858 -0.11053
-0.09544 -0.01314 0.17274
-0.19640 0.14302 0.18413
-0.01826 -0.13198 0.16659
-0.10670 0.14500 0.16989
-0.08255 0.12769 -0.19143
0.16845 -0.15241 0.16891
0.02327 -0.01429 0.24902
-0.08491 -0.13198 -0.09379
0.18046 -0.16489 -0.19594
-0.15042 -0.05186 0.20779
-0.11412 0.13574 0.18042
-0.23111 0.29312 0.14031
-0.22326 0.20154 -0.14583
-0.06944 0.11341 -0.22089
-0.21063 0.27196 0.18943
-0.16138 0.17583 -0.05785
-0.17617 0.23394 0.01002
0.26319 -0.09795 -0.04965
0.14416 -0.00236 0.01700
0.20395 -0.13636 0.18700
-0.13754 -0.06569 0.16676
-0.12596 -0.13198 0.09608
-0.24054 0.09883 0.04731
0.09443 -0.13198 -0.06530
-0.18074 0.28402 0.04557
0.24923 -0.10629 -0.16380
-0.11400 -0.04319 -0.19821
-0.12454 -0.05387 -0.21332
0.26568 -0.04776 0.00387
-0.11249 0.23712 0.26185
-0.04864 -0.00236 -0.03354
-0.24043 0.17407 -0.09240
-0.23510 -0.12253 -0.07712
-0.23592 0.13220 -0.08819
-0.15459 0.20026 0.21613
-0.25778 0.21726 0.03563
-0.13772 0.04417 -0.19469
-0.09894 -0.02813 0.15277
-0.13500 -0.13877 0.15419
0.22302 -0.20644 -0.19105
0.12876 -0.13198 -0.16645
-0.15621 0.11471 -0.03858
-0.15682 0.14957 -0.23383
-0.19254 0.28581 0.21541
-0.13409 0.26090 -0.26641
-0.22166 0.30348 0.12448
-0.16097 0.16789 0.23558
-0.20129 -0.11235 0.14271
-0.24830 0.24319 0.03005
-0.19766 0.25022 0.17492
-0.03923 -0.09144 -0.25075
0.09562 -0.13198 -0.07683
-0.17980 -0.12163 0.17071
-0.05370 -0.13198 0.00157
-0.24638 0.15225 0.05513
-0.11371 0.07468 0.15948
-0.15478 0.14841 0.07475
0.03998 -0.00236 -0.01085
-0.11819 0.25610 -0.19834
0.17295 -0.14745 -0.16274
-0.16950 0.19354 -0.22644
-0.23955 0.24441 -0.05104
-0.19228 0.29897 0.00356
-0.07269 -0.03470 -0.24348
-0.21816 0.13289 -0.13723
0.13810 -0.13198 -0.17030
0.04775 -0.13198 0.24506
0.15502 -0.13198 0.11973
-0.24802 0.14368 0.02913
0.00215 -0.13198 -0.17932
-0.13156 0.14399 -0.12639
-0.23600 -0.04999 -0.10176
-0.16208 -0.31056 0.19412
0.11644 -0.00236 -0.10771
0.21521 -0.16962 0.16149
-0.16277 0.07141 -0.01736
-0.11567 0.17153 0.25825
0.21753 -0.00919 0.22055
-0.15415 0.22140 0.10519
0.17016 -0.00355 -0.24399
-0.13828 0.12603 -0.15446
-0.17561 0.09752 -0.20151
-0.12667 -0.03601 0.14198
0.02502 -0.03107 -0.25280
-0.23453 0.29352 0.13125
-0.04244 -0.07551 -0.24039
-0.11613 0.16070 0.18919
-0.16563 -0.07248 -0.19650
-0.07777 0.23112 -0.23569
-0.12962 0.10229 -0.21486
0.22500 -0.29223 -0.21300
-0.11848 -0.20107 -0.20684
-0.11595 0.12251 0.19000
0.21751 -0.24322 0.15746
-0.11630 -0.11466 0.18843
0.12962 -0.00399 0.24504
0.00110 -0.08387 0.25671
-0.18758 -0.09778 0.16058
-0.11912 0.31299 -0.19533
-0.10165 -0.01022 -0.22280
-0.01540 -0.13198 0.19234
-0.17506 0.06459 -0.03300
-0.13171 -0.08305 -0.17103
0.09727 -0.09009 0.24612
0.12787 -0.00236 0.15536
-0.11947 0.17697 -0.19389
-0.03631 -0.13198 0.17403
-0.25296 0.24255 0.00627
-0.24419 0.25989 0.11882
-0.12748 0.19085 -0.26044
-0.23361 -0.10705 0.10000
-0.20815 -0.04177 0.13376
-0.14326 0.25588 0.13738
-0.09189 0.28928 0.21019
0.03739 -0.13198 -0.05709
-0.00301 -0.00236 0.14313
-0.14263 0.06044 0.18948
-0.08640 0.16425 -0.24276
-0.14000 0.13865 0.15544
-0.09951 0.11062 0.24657
0.22882 -0.24079 0.18064
-0.15835 0.30803 0.14674
0.04110 -0.13198 0.23772
0.21455 -0.17795 -0.16776
-0.20385 -0.06497 -0.15715
-0.12455 0.16795 0.14867
0.20339 -0.27766 0.16925
0.26203 -0.10457 -0.04870
-0.08469 -0.09551 -0.16304
-0.25072 -0.04896 0.06653
-0.14966 0.14474 0.15761
-0.17038 0.06551 0.05666
-0.19352 0.11836 -0.15883
-0.15457 0.18302 0.21479
0.02875 -0.00236 -0.06323
-0.17745 0.28175 0.05741
-0.09558 -0.13198 -0.06332
0.06171 -0.13198 -0.19100
-0.14770 -0.13198 0.17153
-0.15765 0.12334 0.16026
0.14659 -0.13198 0.16099
-0.24609 0.12103 -0.00805
-0.22988 -0.10059 0.09031
-0.10248 -0.13198 -0.21116
-0.15208 0.07564 0.07346
-0.19984 0.14708 -0.17641
-0.10994 0.03513 0.15497
0.06805 -0.04110 0.25521
-0.13643 0.00163 -0.17484
-0.09517 0.24658 -0.25409
-0.21477 0.22978 0.17351
-0.21839 0.21678 0.16297
-0.20591 0.08753 -0.14790
-0.08923 -0.12623 0.16142
-0.09964 -0.09599 0.18242
-0.19825 0.20982 -0.19131
-0.15742 0.13830 -0.05191
-0.15778 -0.23953 -0.19434
-0.15885 -0.03500 -0.19780
0.04447 -0.13198 0.14100
-0.11915 0.07551 -0.21320
0.12117 -0.13198 -0.06816
0.12598 -0.06904 0.25740
-0.12685 0.07889 -0.21273
-0.14974 0.06686 -0.13680
-0.23622 -0.13198 -0.04305
-0.15807 -0.27388 -0.21668
-0.11850 0.04665 0.14877
0.20840 -0.21878 0.19681
-0.14254 0.20344 0.20885
-0.12727 -0.00236 -0.16991
-0.14746 0.08156 -0.07768
-0.17641 -0.09335 -0.18619
-0.14366 0.10926 -0.20236
-0.10861 -0.14615 -0.19810
-0.23933 0.19272 0.10633
-0.21371 -0.00236 -0.10737
-0.17722 0.12062 -0.10319
-0.10179 0.25438 0.19303
0.24346 -0.00236 0.03194
-0.13152 0.15131 -0.25484
-0.12788 0.07330 0.23501
0.11588 -0.12651 0.24612
-0.13368 -0.13198 -0.14608
-0.15194 -0.30970 0.19504
-0.16251 0.12266 0.04932
0.15762 -0.11174 0.24612
0.20773 -0.13198 0.13648
-0.17979 0.06263 -0.04894
-0.11668 0.14377 -0.25692
-0.13261 0.19945 -0.13929
-0.15201 0.25656 -0.19125
0.22134 -0.21229 0.18636
0.06610 -0.10880 -0.25233
-0.16882 0.25422 0.07800
-0.14741 -0.11252 0.19697
-0.24045 0.29905 -0.08789
-0.00464 -0.13198 0.11225
-0.13730 -0.15228 -0.16613
-0.24056 0.24427 -0.11385
0.18593 -0.13198 -0.07564
0.18398 -0.11836 -0.24668
-0.10900 -0.00236 0.13251
-0.16182 0.21941 -0.23910
-0.16440 -0.00236 -0.05900
0.09905 -0.00236 -0.22142
-0.00445 -0.04359 -0.24540
0.19848 -0.13198 -0.16259
0.24208 -0.03214 0.16399
-0.20073 0.06585 0.12831
-0.17806 0.12051 -0.02321
0.24303 -0.07217 0.20097
0.17540 -0.13357 -0.16199
-0.13542 -0.29148 -0.20929
-0.19913 0.25002 -0.07220
-0.15949 0.13877 -0.04234
-0.25257 0.22281 -0.06872
-0.14742 -0.23856 0.17139
-0.23771 -0.11028 -0.08777
-0.23820 0.11472 -0.06573
-0.13900 -0.14372 0.16932
-0.15363 0.12390 0.07191
-0.02677 -0.02064 0.24304
-0.24654 0.21985 0.09665
0.21876 -0.05776 0.21737
-0.11366 0.22346 0.19140
-0.12939 0.22680 0.15348
-0.19591 -0.02863 0.14972
0.11117 -0.13198 -0.17253
0.04847 -0.08810 -0.25575
-0.19694 0.15773 0.18631
-0.20323 0.11701 -0.09233
0.17576 -0.13198 -0.10432
-0.14169 0.06236 -0.17973
-0.11783 0.22634 0.17012
0.19173 -0.26267 -0.18081
-0.19383 0.30892 -0.12794
-0.08576 -0.00236 -0.16115
-0.17431 0.07578 -0.18732
-0.07885 0.22088 0.21965
-0.15308 0.12397 0.20442
-0.20580 0.30061 -0.17740
0.25023 -0.08678 -0.17596
-0.15677 0.12346 0.05289
-0.24875 -0.03303 -0.06183
-0.24768 0.17465 -0.06019
0.16622 -0.12381 0.17533
-0.18546 0.26965 0.22392
-0.18017 0.06207 0.07157
-0.07598 -0.00236 0.17914
0.23450 -0.00878 0.19520
-0.23059 0.12252 -0.09994
0.08324 -0.00344 -0.24036
-0.11166 -0.00236 0.10440
-0.16999 0.25732 -0.06906
-0.12728 0.27608 -0.16165
-0.15702 0.09603 0.16874
0.20087 -0.24099 -0.16717
-0.25512 -0.03010 0.00929
-0.20405 0.24934 -0.17798
-0.23078 0.24563 -0.13283
-0.13901 0.18736 0.12717
-0.12342 -0.02434 -0.15710
0.22423 -0.21677 -0.18157
-0.15702 0.25586 0.21813
-0.11201 0.22466 -0.19217
-0.22163 -0.07693 -0.10966
0.05023 -0.03767 -0.25412
-0.15525 -0.11480 0.19095
0.25025 -0.00862 -0.11103
-0.14085 -0.23052 -0.21232
-0.23312 -0.05088 0.10948
-0.13347 -0.23129 -0.16409
0.15367 -0.13198 0.03661
-0.12526 0.26846 0.26893
-0.14036 0.11317 -0.24519
-0.12437 0.12796 -0.16476
0.23775 -0.07819 0.18416
-0.17487 0.09356 0.20499
-0.23281 0.10997 0.09184
-0.18595 0.30966 -0.17331
-0.21233 0.05973 0.04585
-0.16731 0.07073 0.19095
-0.12628 -0.06714 0.18174
-0.18224 0.14511 0.20505
-0.05004 -0.04467 -0.23939
-0.26455 0.26599 0.03456
-0.02194 -0.00236 -0.20488
-0.03696 -0.13198 -0.05692
0.01849 -0.13198 -0.07100
-0.10668 0.30187 0.19964
-0.16328 0.19446 -0.06111
0.25836 -0.12331 -0.01660
-0.17271 0.06380 -0.07622
-0.25171 0.20038 0.06157
-0.23080 -0.12330 0.09571
-0.12278 0.00317 -0.15753
-0.23575 -0.11344 -0.07555
-0.25744 0.29109 0.04153
0.11383 -0.00236 -0.07204
-0.15868 0.12792 -0.03903
-0.25332 0.17227 0.00985
0.13820 -0.00236 -0.15039
-0.10826 0.20452 0.18676
0.16568 -0.00236 -0.17604
-0.12492 -0.15533 0.19294
-0.21784 0.10492 -0.12886
0.17031 -0.14284 -0.16558
-0.07649 -0.06384 -0.23322
-0.07610 -0.00236 0.05581
-0.10167 -0.00565 -0.21920
-0.15285 0.12401 -0.18586
-0.09466 0.27235 -0.19992
-0.16862 0.21351 0.05185
-0.16707 0.16924 0.01178
-0.10432 -0.13198 0.06095
-0.10569 0.03969 0.16020
0.07401 -0.06216 0.25721
-0.16543 -0.04583 -0.18256
-0.10652 -0.09364 -0.14767
-0.09225 0.10680 -0.17814
-0.09683 -0.00236 -0.03579
0.25890 -0.11979 0.03830
-0.11842 0.00702 0.14464
0.21468 -0.04896 0.22186
-0.13815 0.02775 -0.17409
0.14853 -0.08162 0.25691
-0.10671 -0.13198 0.09609
-0.24942 -0.05845 -0.07125
0.03170 -0.09292 -0.24554
-0.24661 0.24343 -0.00178
0.22599 -0.32122 -0.19546
0.18344 -0.18553 0.15562
0.18587 -0.13198 -0.22472
-0.19205 0.30064 -0.02758
-0.15587 -0.23310 0.18458
-0.10887 -0.07337 -0.14819
0.25561 -0.01951 0.09549
0.18451 -0.24089 -0.18066
0.23525 -0.31455 0.16996
-0.09353 0.05853 -0.18914
0.22347 -0.00236 0.11417
-0.14407 0.16676 0.11178
-0.22611 0.11384 0.05878
0.11759 -0.13198 0.03122
-0.10363 -0.13198 -0.20475
-0.22311 -0.02227 0.10666
-0.13617 -0.28081 -0.18935
0.20933 -0.11933 -0.18047
-0.21392 0.27834 0.18487
-0.14640 0.19894 0.25471
0.19566 -0.24169 -0.16895
-0.10895 0.03533 -0.16079
-0.09696 0.08137 -0.24484
0.04064 -0.00236 -0.08711
-0.12234 0.28735 0.17619
-0.15499 -0.00236 0.01982
0.18320 -0.22652 -0.17797
-0.16429 0.30432 -0.23470
-0.24247 0.11137 0.04450
-0.14612 0.06887 -0.19966
-0.14783 0.15542 0.20316
-0.15814 0.06635 0.11258
-0.17998 0.21603 0.22172
-0.12084 -0.13198 0.04747
-0.14574 0.11919 -0.20026
-0.17001 0.28056 0.24282
-0.18216 -0.13198 -0.08311
-0.08070 0.25398 -0.21646
-0.12094 0.17787 -0.15233
-0.16510 0.22326 0.07509
-0.13155 -0.19424 -0.20319
-0.23039 0.21579 0.13940
-0.04738 -0.08505 -0.25032
-0.22426 0.24653 -0.08054
0.23116 -0.30324 -0.18398
0.09650 -0.00236 -0.10530
0.22672 -0.30683 0.16349
-0.18612 -0.13198 -0.05765
-0.02987 -0.13198 0.21644
0.20437 -0.13198 0.07507
-0.21733 0.30532 0.03883
-0.12909 -0.28066 0.20328
-0.07879 0.08096 -0.20819
-0.16534 0.16483 -0.02438
-0.15871 0.11744 0.02087
-0.09099 0.08344 -0.24153
0.22889 -0.31868 -0.21531
-0.13937 0.28022 -0.14560
-0.15808 0.06575 0.12297
-0.22363 -0.09007 -0.10481
-0.20181 -0.06770 0.16051
-0.00928 -0.06838 -0.25613
-0.20681 0.30444 0.00399
-0.12288 -0.06361 0.21459
-0.13767 0.15118 0.16350
-0.02434 -0.00236 0.03112
-0.04251 -0.13198 -0.23920
-0.14702 0.13251 0.15549
-0.24542 -0.02424 0.02889
-0.20335 0.23904 0.19336
-0.26036 0.27883 -0.05587
0.18999 -0.17901 0.15071
-0.20776 -0.00236 0.07796
-0.21270 0.14529 -0.15119
-0.14400 0.15162 0.16442
-0.20322 -0.05155 0.15727
-0.17761 0.20330 -0.21883
0.19530 -0.25791 0.19550
-0.20618 0.10311 -0.15249
0.22132 -0.23761 -0.20376
-0.12103 -0.11086 -0.15126
-0.02713 -0.00236 0.08132
-0.08732 -0.13198 -0.07855
-0.12910 0.08788 0.12569
0.17964 -0.20667 -0.19215
-0.15854 0.26973 -0.10587
-0.13934 0.15832 -0.11513
-0.22000 0.28506 0.17215
0.14662 -0.03187 -0.25297
-0.26614 0.26695 0.01299
0.06548 -0.13198 0.22367
0.25530 -0.10226 0.13176
-0.18902 0.29646 -0.01516
-0.14575 0.02224 0.17833
0.07867 -0.00236 -0.06462
0.20198 -0.00236 0.08830
0.21923 -0.13198 -0.00732
-0.19021 0.25126 0.19940
-0.12629 0.27765 0.16705
0.21998 -0.00236 0.05713
-0.14493 0.29348 -0.14415
-0.26369 0.27789 -0.03271
-0.10221 0.02777 -0.20333
-0.19101 0.25115 0.20834
-0.14205 0.12959 0.10340
-0.09320 -0.03949 0.23647
-0.12654 -0.01097 -0.21443
0.10838 -0.13198 0.17119
0.18643 -0.13133 0.24140
0.24449 -0.11259 0.18267
0.21713 -0.16541 0.17795
-0.16746 0.23032 -0.23447
-0.11501 -0.23637 -0.17287
0.12351 -0.09924 -0.25423
0.03505 -0.06068 0.24612
-0.15173 0.25660 -0.20032
-0.15266 0.23805 -0.25221
-0.26433 0.26386 -0.03077
-0.14949 0.12206 0.24120
-0.17439 0.22493 -0.01411
-0.14313 -0.06569 0.20025
-0.12427 -0.03133 0.14084
0.04116 -0.09690 -0.24554
-0.07454 0.12954 0.22465
-0.24557 0.22355 -0.09725
-0.20662 0.30460 0.01426
0.26503 -0.07453 -0.05752
0.24467 -0.02655 -0.18277
-0.13150 -0.07124 -0.17323
-0.15180 0.12415 0.17893
-0.24456 0.26969 -0.11775
-0.18010 -0.05436 0.17032
0.19473 -0.11704 -0.24206
-0.09630 -0.13198 0.13470
-0.11269 0.04225 -0.20921
0.07904 -0.00827 0.24612
-0.04800 -0.13198 -0.17738
0.22629 -0.25198 0.16483
-0.06259 -0.13198 -0.15841
-0.10048 0.27239 0.25721
-0.18698 0.30097 -0.05600
0.25398 -0.04983 0.15571
-0.16876 0.06386 -0.09923
-0.16329 0.20435 0.22183
0.18669 -0.12937 0.17472
-0.11937 0.09860 -0.16846
0.13903 -0.00236 -0.11555
-0.09797 0.14518 -0.17847
-0.05110 -0.00236 -0.11494
-0.07905 -0.13198 0.07686
-0.19843 0.30626 0.08255
-0.09971 -0.13198 -0.01674
-0.16527 -0.27203 0.20502
-0.19659 0.11794 0.11669
-0.22676 0.12087 0.11362
0.21949 -0.00236 -0.08356
-0.16930 0.19542 -0.02854
-0.12224 -0.12690 -0.15185
-0.16537 0.31241 0.17302
-0.13312 -0.12084 0.15164
-0.21513 0.29147 -0.17338
0.16971 -0.13198 -0.20701
-0.12397 0.08507 -0.21421
0.19434 -0.13294 0.18989
-0.10082 -0.21195 -0.17330
-0.15355 0.25634 0.14272
0.21717 -0.25099 -0.17070
-0.19219 0.30891 0.12884
-0.12942 0.06524 -0.20734
-0.11293 -0.04384 0.21871
-0.25739 -0.07382 -0.02274
-0.09980 0.00184 -0.19985
-0.10550 -0.13132 -0.19704
-0.15635 -0.09815 -0.18953
-0.25837 0.26197 0.07055
-0.09910 0.09357 0.24519
-0.25295 -0.04738 0.04850
-0.20512 0.17927 0.17864
-0.01855 -0.00236 0.22989
-0.18217 0.30624 0.10418
-0.16597 -0.02298 0.18273
-0.07072 0.13342 -0.21202
-0.10542 0.21993 0.18446
0.20958 -0.15117 0.18162
-0.24720 0.17333 0.06516
-0.14421 0.28700 -0.26534
0.20028 -0.00236 -0.20431
0.05261 -0.03972 0.25501
-0.12453 0.01748 0.19279
-0.07500 0.08438 -0.20649
-0.01229 -0.10701 0.25217
0.04669 -0.00236 0.18205
0.02622 -0.00236 0.19817
0.19296 -0.12685 -0.19712
0.17245 -0.12393 0.15707
0.04365 -0.00236 0.07169
0.09901 -0.00236 -0.13568
0.20794 -0.13198 -0.21023
-0.10061 0.29119 -0.26053
0.25621 -0.11626 0.09461
-0.09231 0.19482 0.24666
-0.24032 0.16379 -0.08810
-0.09938 0.12657 -0.19331
-0.18222 0.11993 0.15885
0.24094 -0.05890 0.20464
-0.14050 0.16099 0.25343
-0.14886 0.23990 -0.11863
-0.24196 -0.04558 0.05522
-0.14334 0.17057 -0.25084
-0.20192 0.26346 -0.19676
-0.10040 0.00356 -0.16161
-0.19607 0.27170 -0.20687
-0.17320 -0.29633 -0.21215
-0.10795 -0.00236 0.06108
-0.18688 0.21756 -0.20930
-0.15337 0.12393 0.08750
0.10572 -0.13198 0.13316
-0.17897 0.25819 0.01080
0.26251 -0.04331 -0.07008
0.20728 -0.30825 0.19885
-0.09661 0.10344 -0.17334
0.26462 -0.09604 -0.01611
-0.24782 -0.10653 -0.01007
-0.16665 0.07337 0.19676
0.18591 -0.23756 0.18573
-0.12734 0.16386 -0.13993
-0.22217 -0.13198 -0.08006
-0.14301 0.18711 -0.25327
0.19238 -0.13023 0.14396
-0.09766 0.10773 -0.19553
-0.19148 0.06386 0.13542
-0.08486 0.19112 -0.19889
0.19627 -0.13609 0.14640
-0.23313 0.24530 -0.11472
-0.11491 0.14297 0.18670
-0.21488 0.24783 -0.15465
-0.10312 0.32171 0.26170
-0.14467 0.19761 -0.21131
-0.23149 0.07013 -0.03837
-0.14428 0.17492 0.20778
-0.12282 -0.09743 0.21462
-0.07861 0.30159 -0.23224
-0.23160 0.30381 0.01308
0.23567 -0.13198 -0.03358
0.08693 -0.00236 0.21361
-0.10083 -0.16939 -0.15769
-0.24664 -0.02382 0.01965
-0.25095 0.22129 0.07900
-0.22065 -0.07197 -0.13528
0.03382 -0.00236 0.05998
0.21745 -0.16955 -0.18274
-0.17275 0.20661 -0.00113
0.26108 -0.05583 0.10485
-0.17197 0.12135 0.06294
0.23536 -0.30685 -0.19970
-0.10119 0.14882 -0.19832
-0.22319 -0.02368 -0.10587
0.15341 -0.00236 0.11667
0.26050 -0.11523 -0.02388
0.17729 -0.18014 0.18009
-0.14975 -0.21010 -0.18679
-0.23289 0.16847 -0.11137
-0.13810 -0.06776 0.20411
-0.07433 -0.11074 0.24161
0.24610 -0.00359 -0.12489
0.00577 -0.12305 -0.24554
0.23140 -0.00236 0.00121
-0.13115 -0.02741 -0.16482
-0.16790 0.06831 0.00511
-0.24005 -0.02765 -0.08228
-0.22346 -0.13198 0.09193
-0.09786 -0.08489 0.18024
-0.22947 -0.01912 -0.09073
0.13365 -0.10881 0.24612
-0.09208 0.26183 0.24968
-0.17054 -0.13198 -0.03689
-0.15744 0.31279 0.17604
0.22698 -0.05983 0.22472
-0.11613 -0.13198 -0.04161
-0.22557 0.29804 -0.14019
-0.25005 0.18157 0.05705
-0.09527 0.07663 0.24186
0.00248 -0.13198 -0.18879
-0.26043 0.25815 -0.05462
-0.15963 0.07438 -0.02976
0.22281 -0.31999 0.18592
0.19237 -0.22967 0.15692
-0.11009 0.12995 -0.15839
-0.10646 0.09770 -0.25032
0.26603 -0.08576 -0.00863
-0.13608 -0.12753 0.15482
-0.12480 0.06270 0.19688
-0.25413 0.19623 0.04612
-0.16344 0.13170 -0.22360
-0.19705 0.09225 0.17069
-0.16459 0.24901 0.24417
-0.18194 0.06814 0.16622
0.16653 -0.12392 -0.17242
0.18872 -0.14886 -0.20008
-0.12896 0.12732 -0.14076
-0.18705 -0.00236 -0.13393
-0.09969 0.32181 0.25553
-0.10924 0.25183 0.18513
-0.23658 -0.06862 0.10362
0.03597 -0.00236 0.17408
-0.24816 -0.06828 -0.00755
-0.10484 0.05996 0.16567
-0.11050 0.10691 0.17923
0.25160 -0.13198 0.01736
0.00751 -0.13198 -0.13260
-0.23682 0.09188 -0.05722
0.01347 -0.13198 -0.20521
-0.15841 0.08553 0.00378
0.22970 -0.02973 0.20212
0.24365 -0.03472 -0.19125
-0.10168 -0.00363 0.18084
-0.15005 -0.20876 0.17709
0.18291 -0.15064 0.18837
-0.23372 0.24522 -0.05060
-0.14418 0.07029 -0.20922
-0.20804 0.24878 -0.00427
0.18251 -0.00236 0.09629
-0.13171 0.10416 -0.11480
0.17626 -0.00603 -0.24494
0.12659 -0.00236 -0.19943
-0.10155 0.14091 -0.25128
-0.12230 0.10662 0.15752
-0.12348 -0.00236 0.15937
-0.14675 0.12485 -0.18692
-0.16636 0.18623 0.04454
-0.15675 0.20009 -0.08604
-0.24249 -0.10277 0.05120
0.03589 -0.02706 0.25254
-0.14232 0.19848 -0.12017
-0.15774 0.18513 0.08101
-0.08623 -0.13198 -0.01559
-0.15862 0.24047 -0.09651
-0.22082 -0.11443 -0.11161
0.13187 -0.11904 -0.24971
0.11626 -0.13198 0.23184
-0.07710 0.17206 0.22914
-0.10872 0.32076 0.26466
0.17636 -0.13198 0.18742
-0.08253 0.21860 0.21210
-0.11460 0.19938 -0.16581
0.26264 -0.10358 -0.04064
0.09936 -0.13198 -0.16645
-0.16886 0.22265 -0.05319
-0.14169 0.23472 0.21020
-0.12923 0.31651 -0.25331
-0.12556 0.22782 0.19936
-0.18950 0.11892 0.05917
0.08823 -0.09373 -0.24554
-0.19471 0.30862 -0.15691
-0.10202 0.15769 0.17861
-0.26421 0.27048 -0.03906
-0.08907 -0.05634 0.22860
-0.17667 -0.30887 -0.21414
-0.18404 0.28716 0.02831
-0.16503 0.15499 0.01266
-0.24357 0.27922 0.12249
-0.15813 -0.31391 0.22592
-0.05356 -0.00236 0.15085
-0.20488 -0.13198 0.03022
0.22355 -0.06400 0.21147
-0.14971 0.13780 0.08511
0.04448 -0.13198 0.18421
-0.17440 0.28344 0.23768
0.21355 -0.23253 0.15556
0.10603 -0.00236 0.08825
0.11310 -0.12152 -0.24554
-0.18610 0.07821 -0.17500
-0.15855 0.12098 0.23099
-0.07298 -0.01790 0.23526
0.18012 -0.13119 -0.17313
-0.21314 -0.02697 0.13778
-0.10845 0.02102 -0.15897
-0.09322 -0.05879 -0.19079
-0.12302 0.26973 0.17010
-0.08775 0.27277 0.24561
-0.16940 0.06622 -0.16977
-0.25897 0.24303 -0.05157
-0.21063 -0.13198 -0.05709
-0.23141 0.28596 0.14778
-0.10283 0.04475 0.16956
0.17182 -0.09194 -0.25531
0.19693 -0.26231 0.16221
-0.25605 0.22650 0.05814
-0.07694 0.12953 0.20516
-0.14554 0.31029 -0.25135
-0.02031 -0.00236 0.01745
-0.11852 -0.00236 0.21074
-0.07405 0.08261 -0.22685
-0.13517 0.07192 -0.13688
0.07438 -0.10288 -0.25357
-0.13979 -0.09852 -0.21332
-0.22594 0.24630 -0.14924
0.19685 -0.22373 -0.20825
-0.07589 0.14373 0.20996
-0.14316 0.31607 0.22252
0.23564 -0.31849 -0.19098
-0.14854 0.09032 0.07368
0.22117 -0.22890 0.16077
0.00758 -0.00236 0.03033
0.17802 -0.00542 0.23926
-0.16101 0.07116 0.04516
-0.22126 -0.04420 0.11111
-0.18244 -0.13198 -0.00171
0.16738 -0.13198 -0.09175
-0.06263 -0.13198 0.18830
-0.20773 0.30602 0.06382
-0.16093 -0.32049 0.20080
0.04133 -0.13198 0.13385
-0.05993 -0.00236 -0.08514
0.08007 -0.02655 0.24612
-0.09396 -0.13735 -0.15728
-0.24432 -0.03164 -0.03672
0.05385 -0.13198 -0.22133
-0.11550 0.20467 -0.16557
-0.08710 0.08073 0.23639
-0.24821 0.13148 0.00189
-0.25066 0.16374 -0.02768
-0.16905 0.16647 -0.22272
0.12818 -0.00236 -0.06641
-0.25288 -0.09620 0.04230
-0.16879 0.26352 0.07839
-0.16231 0.09965 0.22343
-0.21510 -0.04079 0.13957
0.19146 -0.20907 -0.20526
-0.19205 0.16093 -0.19045
-0.11309 -0.06874 0.18702
-0.22358 0.16158 -0.13444
-0.12793 0.14133 0.25576
-0.18774 0.30259 -0.20488
-0.08566 0.27792 0.24329
-0.09132 -0.15369 0.17574
-0.11400 0.15950 -0.15868
-0.15160 0.16780 -0.08793
0.14396 -0.00236 0.04824
-0.11609 0.28731 -0.17951
0.05381 -0.08347 -0.24554
-0.18624 0.27866 -0.22065
0.06625 -0.13198 -0.23760
-0.21478 0.30618 0.10017
-0.09477 0.12982 0.24484
-0.21880 0.24729 0.05593
0.01457 -0.13198 -0.14066
0.22412 -0.26121 0.19570
0.12024 -0.13198 0.05852
-0.17115 0.30923 0.13995
0.19509 -0.13198 -0.23524
0.06597 -0.06097 -0.25660
0.03855 -0.13198 0.08460
0.14005 -0.13198 -0.07019
0.26287 -0.04957 0.07922
-0.11203 0.02545 -0.20708
-0.14608 0.06668 0.17591
-0.13055 -0.10144 -0.21983
-0.22468 0.24647 0.15560
0.10906 -0.00236 0.06485
-0.11306 -0.13198 0.00459
-0.10092 0.02955 0.16908
0.25082 -0.04061 0.16805
-0.17433 0.12102 0.06927
-0.10917 0.16815 -0.16740
-0.12343 0.13267 -0.13912
0.19951 -0.17905 -0.20432
-0.09671 -0.15216 -0.19064
0.09415 -0.00236 -0.03300
-0.18083 0.12012 0.03943
-0.23506 0.24503 0.12076
-0.24439 0.15298 -0.06152
-0.00885 -0.00236 0.00236
-0.09376 -0.11644 0.17742
0.23162 -0.03150 0.21284
-0.10528 0.06111 0.18187
0.20653 -0.00236 -0.09518
0.22207 -0.28708 0.16037
-0.20150 -0.06945 -0.14185
-0.12854 0.25980 0.20323
0.18410 -0.17428 0.18951
-0.14362 -0.13198 -0.05887
-0.11770 0.30605 -0.27034
-0.18659 -0.00236 0.11460
0.11133 -0.13198 -0.12668
-0.10593 -0.05163 0.23287
-0.15293 -0.22082 0.17968
-0.25560 0.28554 0.07195
-0.13549 0.14345 0.19993
0.06512 -0.13198 -0.04879
-0.10056 -0.14311 0.18515
-0.08069 0.27313 0.23505
-0.09601 0.16634 0.18572
0.20769 -0.28614 0.17188
-0.03867 -0.13198 0.21413
0.19106 -0.13344 -0.15153
-0.09120 0.17192 -0.18826
-0.13279 -0.05980 0.14894
-0.09052 -0.16795 -0.17053
0.18071 -0.16362 -0.16364
-0.23526 0.11257 0.05010
0.15072 -0.02006 -0.25011
0.19016 -0.00236 0.17058
-0.22280 0.11430 0.03923
-0.16784 0.19890 0.22424
-0.16414 0.17427 -0.04365
-0.11927 -0.00236 -0.00794
0.20980 -0.13198 -0.14709
-0.16798 0.17567 0.01149
-0.03296 -0.00875 -0.24269
-0.17464 0.06501 -0.01603
-0.13061 0.21903 0.26347
0.10088 -0.07010 -0.24554
0.02326 -0.10622 0.24612
-0.20813 0.07376 0.13224
-0.14891 0.16697 -0.09513
-0.17477 0.25813 0.04971
0.08676 -0.00236 0.13827
-0.23707 0.08835 0.05718
-0.09801 0.17294 -0.18169
-0.15980 -0.28777 0.21895
-0.23248 -0.01269 0.08404
-0.16799 0.06747 0.04066
-0.15878 -0.04560 0.20054
-0.19809 0.05980 -0.05602
0.21424 -0.15350 0.16673
-0.13638 -0.20316 -0.16319
-0.13004 -0.07604 -0.18134
0.23674 -0.00236 -0.15409
-0.15010 0.29051 -0.26123
-0.13906 0.25630 0.26535
-0.16439 0.25484 -0.11496
-0.13608 0.25877 -0.15506
-0.08717 0.22213 0.20537
-0.12190 0.05064 -0.16219
-0.16098 0.26591 -0.24728
-0.01274 -0.00236 -0.03371
-0.24486 0.10967 -0.00304
-0.18728 0.25166 0.00904
0.20759 -0.12690 0.15666
-0.10354 -0.08972 0.18602
-0.10773 0.10909 -0.21213
0.18454 -0.14217 0.14772
-0.20609 0.24905 0.06318
-0.25387 0.29470 -0.04507
-0.10060 0.04032 -0.20219
-0.13622 -0.11552 0.17303
-0.00033 -0.13198 -0.08331
-0.15778 0.08693 0.01102
0.16806 -0.01041 0.24772
-0.13573 0.23306 0.14557
0.03522 -0.00236 -0.11070
-0.20791 0.30667 0.13621
0.15459 -0.04654 -0.25544
-0.11341 0.23913 -0.26363
-0.16270 0.31344 0.19248
-0.21948 0.11476 -0.03381
-0.17615 0.25483 0.04245
-0.11208 0.09798 -0.21611
-0.15046 0.25677 -0.21836
-0.08193 0.18355 0.23584
-0.17141 0.25386 -0.16838
-0.08152 0.29765 0.23220
0.26299 -0.08403 0.08282
0.07044 -0.00236 0.16989
-0.19882 -0.00670 0.14650
-0.09227 0.21780 0.19785
-0.15689 0.11060 0.02979
-0.15310 0.25640 0.21181
-0.23446 -0.09047 -0.07868
-0.24547 0.28143 -0.11173
0.21570 -0.00236 -0.17561
0.20681 -0.04054 0.22889
-0.19797 0.11775 0.01089
0.11098 -0.00707 0.24659
0.11647 -0.13198 0.14437
-0.10207 0.06192 -0.17211
0.05554 -0.00236 -0.21566
-0.05086 -0.10888 0.23986
-0.13385 0.08353 -0.17194
-0.17669 -0.13198 -0.10388
-0.15555 -0.28080 0.18278
-0.18816 0.06370 -0.13395
-0.12209 -0.08991 -0.18894
0.13629 -0.00565 -0.24087
-0.13117 -0.03166 0.21874
-0.17795 -0.01470 -0.17255
-0.12700 0.15821 -0.25700
-0.16903 0.27196 -0.23918
0.18759 -0.20438 0.15609
0.23684 -0.00236 0.04416
-0.23169 0.11307 -0.08091
-0.14392 0.08648 0.08922
0.01238 -0.00236 -0.13718
-0.22557 -0.13198 0.09944
-0.14780 0.22978 -0.25549
-0.13784 0.19465 0.13141
-0.16548 0.22569 -0.07130
-0.19972 0.24994 0.07640
-0.14794 0.13127 0.24401
-0.12558 0.12779 0.15726
0.24686 -0.00265 -0.10372
-0.06422 -0.00236 -0.10320
-0.20846 0.30711 0.11447
-0.09748 -0.00236 -0.04979
0.15607 -0.09506 0.25543
0.22593 -0.04375 0.22358
-0.24273 -0.13198 -0.04039
-0.21954 0.25948 -0.16868
0.00626 -0.13198 0.00354
-0.26017 0.25805 0.05936
0.26082 -0.08163 -0.10439
-0.12936 0.31655 0.21031
-0.19247 0.17456 0.19616
-0.21970 0.11473 -0.05037
-0.03205 -0.00236 -0.15902
-0.16035 0.19366 0.07699
-0.00962 -0.00236 -0.11287
-0.09086 0.21998 -0.24931
-0.24456 -0.09046 0.03542
-0.14574 0.07030 0.12055
-0.13956 -0.22370 -0.16566
0.16075 -0.00236 0.18619
0.24877 -0.09713 0.17827
-0.13842 0.12601 0.16125
0.25213 -0.12173 -0.11626
0.05884 -0.13198 -0.13362
-0.11827 -0.25762 0.19554
0.11165 -0.00236 0.09447
0.18047 -0.21099 0.18133
0.22933 -0.27590 -0.20415
-0.05542 -0.09979 0.23926
-0.14234 0.26059 -0.13626
-0.10892 -0.19870 -0.15990
-0.16017 0.22128 -0.08470
-0.09588 -0.00236 -0.08484
-0.10041 0.16822 -0.25256
-0.23363 0.25061 -0.13892
0.17010 -0.15972 0.16356
-0.09912 0.21415 -0.18663
-0.16050 -0.03777 -0.18634
-0.14216 0.25792 -0.17133
-0.24072 -0.09663 0.08787
0.03558 -0.13198 -0.04845
-0.17812 0.30235 -0.08897
-0.13488 -0.01562 -0.21023
0.10101 -0.09201 0.25588
0.04675 -0.00236 -0.13382
-0.08327 -0.13198 -0.19734
-0.23263 0.24262 -0.13870
0.14472 -0.13198 0.14896
-0.21728 0.12708 0.14094
-0.20255 0.23176 -0.18949
0.17737 -0.20208 -0.18498
-0.17422 0.15827 -0.21561
-0.20863 0.06956 0.12089
0.08074 -0.01864 -0.24554
-0.12861 0.09379 -0.12160
-0.16206 0.06459 -0.12246
0.02628 -0.00236 -0.19545
-0.09965 -0.07165 0.23634
-0.21762 0.24745 0.02356
0.05796 -0.01576 0.24612
-0.11194 -0.00236 0.18274
-0.22230 0.11908 -0.12186
0.22990 -0.13198 0.12570
-0.09199 0.32021 -0.23964
0.01822 -0.00236 0.10926
-0.03669 -0.00236 -0.03396
0.11451 -0.13198 -0.04991
0.23311 -0.28062 0.18898
-0.20418 0.24932 0.17536
-0.13645 -0.14693 -0.17073
-0.03671 -0.12142 0.24173
0.17693 -0.00236 -0.20406
0.23028 -0.26739 0.16870
-0.14470 0.10603 -0.19745
-0.25109 -0.09913 0.05254
0.15384 -0.00236 -0.08446
-0.10616 -0.07825 0.18743
0.19562 -0.15706 0.19062
0.25232 -0.00565 -0.07085
0.23141 -0.29147 -0.20538
0.22607 -0.11611 -0.21589
-0.09162 0.07583 -0.24145
0.25663 -0.12026 -0.07366
-0.08309 0.18607 -0.24070
-0.08711 0.17713 0.19781
-0.18149 0.29386 -0.22213
-0.09830 0.07655 -0.19341
0.18368 -0.13198 0.19589
-0.13571 -0.29273 -0.20008
-0.10405 0.05068 0.18106
-0.18008 0.25266 -0.07225
0.22575 -0.24401 0.18982
-0.21039 -0.01675 -0.13027
-0.16399 0.15070 -0.01563
0.04281 -0.13198 0.06927
-0.18220 0.28492 -0.03669
-0.14111 0.09427 -0.17972
-0.24612 -0.07512 0.08011
0.17278 -0.15277 0.18033
0.13849 -0.13198 -0.09670
-0.24728 0.27080 0.11373
0.17703 -0.06407 0.24511
-0.17162 0.16209 0.22271
-0.11611 0.23876 0.17510
-0.20677 0.23413 -0.18386
-0.17058 0.06396 0.08964
-0.12562 -0.06151 0.22544
-0.06152 -0.01638 -0.23788
-0.16799 0.12190 0.19023
-0.11773 -0.01992 0.14223
-0.12502 -0.27061 0.18945
-0.13125 0.13194 0.25384
-0.23154 -0.00236 -0.01872
0.20133 -0.15707 0.14872
-0.11295 0.17783 -0.18986
-0.20494 0.13208 -0.16269
-0.14276 0.27201 -0.26426
-0.21831 0.10518 0.13121
-0.22700 -0.06931 -0.12615
0.15996 -0.13198 0.13312
0.02736 -0.13198 -0.09557
-0.13668 0.06818 -0.19279
-0.15193 0.27335 0.12374
-0.14674 0.20097 -0.11224
-0.11949 0.13005 -0.14482
-0.21996 0.30535 0.05227
-0.11999 -0.12819 -0.21659
0.20064 -0.13265 -0.19438
0.20038 -0.29470 -0.19921
-0.13864 0.02955 -0.18092
-0.16944 0.23447 0.06178
-0.17763 0.24112 0.00328
0.26594 -0.05898 0.03815
-0.16032 0.12225 0.17037
-0.08626 -0.07541 -0.18307
-0.20067 0.19551 0.18851
-0.15523 -0.26506 0.21229
-0.15022 0.24783 0.25857
0.24270 -0.09895 -0.19513
-0.11313 -0.13198 0.01543
-0.17524 -0.13198 0.09453
0.21323 -0.30685 -0.19635
0.26027 -0.11663 0.02445
-0.25568 0.18902 0.00935
0.19823 -0.17164 -0.15882
-0.12608 0.07635 0.19805
-0.11790 0.08954 0.19320
-0.10050 -0.02632 0.23064
0.25988 -0.09194 0.10689
0.05539 -0.00236 0.21918
0.20100 -0.00236 0.18196
-0.24352 -0.02718 -0.04275
-0.15107 0.28076 0.12866
-0.21530 0.10624 -0.13561
0.05090 -0.13198 -0.21089
0.21773 -0.26944 0.20052
-0.12718 -0.13198 -0.20931
-0.11418 -0.00236 0.12962
-0.16542 0.22537 0.23954
-0.15832 -0.00236 0.17177
-0.25872 0.23008 -0.04409
-0.10730 0.13937 -0.21289
-0.18696 0.11927 0.10751
-0.15601 0.09715 0.02945
-0.19802 -0.13198 0.13895
-0.10227 -0.12772 0.22468
-0.23000 0.18044 -0.12412
0.02366 -0.00236 0.02224
-0.16900 0.12176 -0.11404
0.21181 -0.12862 -0.22546
-0.09676 -0.01857 0.22541
-0.09824 -0.00236 0.04918
-0.11156 -0.21983 -0.20304
-0.15543 -0.13198 0.14023
-0.05943 -0.13198 -0.14787
-0.16136 0.31300 -0.20800
0.07839 -0.00236 -0.19690
0.17795 -0.15799 -0.19303
-0.09150 0.03222 -0.17965
-0.19861 0.11766 -0.02251
-0.11610 0.13508 0.25551
0.13007 -0.04360 -0.24554
0.23636 -0.29454 0.17688
0.02881 -0.13198 -0.05699
-0.08298 0.23697 0.21482
-0.12871 0.10647 -0.12086
-0.07338 -0.00236 -0.01255
-0.13748 0.06908 -0.20388
-0.21796 0.11497 0.00883
-0.12127 0.21299 -0.19724
-0.16722 0.18308 0.03740
-0.08586 0.27029 0.21607
0.24720 -0.08804 0.18813
0.08683 -0.00236 -0.05214
-0.15327 0.09566 0.18616
-0.04473 -0.00236 -0.11689
-0.14703 -0.04659 -0.20917
0.19325 -0.00236 0.07875
0.22125 -0.20006 0.16645
-0.13211 -0.06081 -0.16682
-0.09217 -0.12649 -0.15743
0.11859 -0.12484 -0.24794
-0.23619 0.11244 -0.02454
0.05761 -0.00236 -0.07682
0.19922 -0.20458 0.15167
-0.16489 0.27761 0.09619
0.20384 -0.12999 -0.15897
0.18904 -0.28085 -0.20093
-0.20140 0.11727 0.04175
-0.20619 0.30728 0.10559
-0.15970 0.22292 0.24558
-0.00395 -0.13198 0.06232
-0.14977 -0.31763 -0.21959
-0.10096 0.13171 -0.18776
0.17900 -0.00236 -0.04921
-0.15345 0.22973 -0.25009
-0.18656 0.29318 -0.02485
-0.07215 0.16589 -0.22573
-0.12069 0.19796 -0.26207
-0.11660 0.10933 0.14752
0.20114 -0.12796 -0.17922
-0.13910 0.25657 -0.26412
-0.24111 0.09341 -0.02453
0.02936 -0.13198 -0.20240
-0.15227 0.31474 -0.19707
-0.18828 0.11760 -0.18721
0.16513 -0.00236 0.08291
-0.02002 -0.09358 0.24393
0.19952 -0.23859 -0.21052
-0.18860 0.14787 0.19639
0.18985 -0.13198 0.22497
0.21588 -0.00236 -0.12086
-0.17080 -0.13198 0.04244
-0.07483 0.17917 -0.21286
-0.25729 0.21631 -0.03722
-0.10762 0.21163 -0.17714
-0.15668 0.18679 -0.21839
-0.11444 -0.09745 -0.14731
-0.14027 -0.18601 -0.16781
0.25742 -0.02949 -0.09998
-0.01898 -0.00236 0.07868
-0.15147 0.06801 0.19436
-0.19601 0.13015 0.18212
0.04918 -0.00244 0.24214
-0.15794 0.17501 0.07651
-0.19111 -0.00236 0.04642
-0.11261 -0.22089 0.16340
-0.09006 -0.05446 -0.22760
-0.09517 -0.12058 -0.15401
-0.17446 0.22968 0.02622
-0.21205 0.07471 -0.12052
-0.26010 0.23041 -0.02495
0.25546 -0.13070 0.03566
0.18755 -0.15666 0.19086
-0.12787 0.12747 -0.13385
-0.19707 0.30363 -0.03748
0.01195 -0.02028 0.25075
-0.19712 0.25030 0.19190
-0.09477 0.08135 -0.18440
-0.04806 -0.13198 0.05210
-0.22807 0.09590 -0.09664
-0.19199 0.11857 -0.16437
-0.07030 -0.00236 0.10011
-0.20312 0.30420 -0.01835
-0.12761 -0.25962 -0.18003
-0.06396 -0.00236 -0.17423
-0.09596 -0.04778 -0.22516
-0.23119 0.27430 -0.14924
-0.20094 0.24977 0.05038
-0.10745 0.08108 0.16893
-0.19002 0.11885 0.16004
-0.10540 0.22629 0.25751
0.21518 -0.13198 0.20265
0.16283 -0.00236 -0.01185
0.17495 -0.13928 -0.19062
-0.04408 -0.00236 0.00067
0.17600 -0.18097 -0.18430
0.20300 -0.18303 0.15030
-0.04758 -0.06231 0.24030
-0.17006 0.12162 0.09235
-0.20055 0.30810 -0.13512
-0.05459 -0.13198 0.19901
0.19818 -0.00236 -0.21802
0.18816 -0.08790 -0.25133
-0.22736 0.22875 0.14878
-0.09889 -0.03212 0.22453
0.18809 -0.23368 -0.17226
-0.20531 0.30529 0.05026
0.24970 -0.02093 0.14791
-0.12933 -0.06589 -0.21026
-0.16285 0.25505 0.19999
0.14994 -0.00236 0.01749
0.10114 -0.00236 0.03015
0.21630 -0.16505 -0.18530
-0.09088 -0.13198 -0.11800
-0.12940 0.01449 0.14473
-0.08620 -0.10777 -0.18173
0.14392 -0.13198 -0.12467
-0.12623 -0.05662 -0.18652
0.18193 -0.12598 0.24551
0.08385 -0.00236 0.22714
-0.21280 0.17671 0.16304
-0.16306 0.21922 0.24123
-0.23813 -0.03056 0.07039
-0.11504 0.13653 0.18671
0.24616 -0.00236 -0.07350
0.16759 -0.00236 -0.21278
-0.20330 -0.09691 -0.15435
-0.12130 0.07010 0.20878
0.21229 -0.27936 0.15767
-0.16255 0.18345 -0.05732
-0.23599 -0.06654 0.07557
0.25661 -0.04300 0.13104
-0.24006 0.08125 0.00873
-0.12233 0.07624 0.24605
-0.19839 0.06048 0.08573
-0.10345 0.21371 0.18553
0.12082 -0.07301 0.25728
0.21809 -0.20266 -0.19875
0.25783 -0.12560 -0.00277
0.11506 -0.13198 -0.14072
0.09173 -0.03171 -0.24554
-0.24261 0.16121 -0.07545
-0.06479 -0.08400 -0.23745
-0.16211 -0.12813 -0.18674
-0.03079 -0.13198 0.02364
-0.06451 -0.13198 0.19371
-0.13464 -0.00236 -0.08408
-0.12291 0.18447 0.19501
-0.12229 -0.23522 0.16201
-0.15240 0.13713 -0.21202
-0.22824 0.06437 0.00871
-0.09743 -0.13198 -0.13713
-0.14081 0.09644 -0.20252
-0.25372 0.24805 0.08349
-0.11690 0.08744 -0.25133
-0.19961 -0.01219 0.14850
0.19150 -0.20972 0.19373
-0.11700 0.14092 -0.19011
-0.09802 0.29279 -0.20118
0.10303 -0.01095 0.24612
-0.10975 0.08170 -0.25024
-0.08385 -0.00236 0.06270
-0.11697 -0.16415 -0.15108
0.21582 -0.21587 -0.20349
0.21458 -0.16783 0.18331
-0.13370 0.06573 0.19667
-0.15731 0.06880 -0.08473
-0.22960 0.09438 0.09533
-0.10794 0.26437 -0.26302
-0.12155 0.15518 0.15046
-0.21364 0.24801 -0.05617
0.13018 -0.13198 0.20914
-0.15094 0.15237 0.16842
0.25857 -0.04875 -0.11904
-0.15904 -0.02335 0.19493
-0.00303 -0.13198 -0.06335
-0.14347 0.29173 0.26778
-0.10287 -0.19061 0.18928
-0.08282 -0.01617 0.23499
0.25937 -0.01899 -0.03355
-0.14768 0.24390 -0.21681
-0.20625 -0.08491 -0.13566
-0.21013 0.11606 -0.01828
-0.24348 0.10223 0.01164
-0.23745 0.24470 -0.00224
0.11621 -0.13198 0.01062
-0.23351 -0.06469 -0.11013
-0.24422 -0.02232 -0.03748
-0.03121 -0.03083 0.24245
-0.12402 -0.26502 -0.20647
-0.13432 0.18735 -0.25793
-0.08904 -0.08727 0.16214
-0.09881 0.32079 0.24516
0.00541 -0.13198 0.18326
-0.14565 0.20333 0.11858
-0.23227 0.08202 -0.06863
-0.12248 -0.23299 -0.16408
0.15714 -0.12142 0.24612
-0.05940 -0.13198 -0.08772
-0.26476 0.27360 0.03128
0.19770 -0.20351 -0.16265
-0.13656 0.28831 0.15657
0.03849 -0.00362 -0.24407
-0.01955 -0.07988 -0.24341
-0.08965 -0.00236 0.13106
-0.12220 0.06989 -0.20119
-0.12300 0.07074 0.18196
-0.02485 -0.02569 -0.24887
-0.16167 0.21525 0.08170
-0.03030 -0.13198 -0.22254
-0.17628 -0.11955 -0.17932
-0.08120 0.12896 0.19798
-0.13021 0.03654 0.19421
-0.14682 -0.30450 -0.19874
-0.10485 0.25271 -0.18943
-0.04903 -0.13198 0.06996
0.05827 -0.13198 -0.02739
-0.14389 0.03110 0.18206
0.10787 -0.11831 -0.24554
0.20501 -0.13198 -0.03015
-0.02231 -0.12351 -0.24592
-0.12686 0.31801 0.22425
0.21040 -0.15223 -0.19139
0.13020 -0.13198 -0.24150
-0.18613 0.13184 -0.19319
-0.16395 0.29094 0.24834
-0.13957 0.07556 -0.22569
0.00020 -0.11934 -0.24554
-0.03392 -0.00236 0.12451
-0.14695 -0.24983 0.21322
0.06852 -0.13198 -0.07730
-0.17225 0.30792 0.12951
-0.23913 0.15163 -0.08571
-0.11026 0.28098 0.18767
0.22946 -0.00236 -0.15387
0.22714 -0.13198 -0.06919
-0.13941 0.20510 0.13118
-0.23700 0.18041 -0.10448
0.02591 -0.11830 0.25049
-0.19876 0.25007 -0.14348
-0.10756 -0.15278 -0.19889
0.05653 -0.13198 0.07987
-0.10606 0.07223 0.21624
-0.19176 0.25104 0.00457
0.18296 -0.17417 0.15380
-0.15207 0.21569 0.25261
0.12556 -0.13198 0.21396
-0.06796 -0.10565 0.24513
0.00611 -0.13198 -0.14633
-0.24798 0.26190 -0.10541
0.20273 -0.16344 0.19160
-0.10538 0.26714 0.19121
-0.10670 0.30158 -0.19588
-0.12670 -0.00236 0.20562
-0.19028 -0.13198 -0.14340
-0.11278 -0.00236 -0.04271
-0.14567 0.25744 0.16091
-0.15831 -0.08624 0.20169
0.05726 -0.08131 -0.25636
0.18337 -0.13698 0.18811
-0.20783 -0.13198 0.02128
-0.15758 0.29521 -0.12269
-0.24470 0.29922 0.06081
0.17397 -0.16632 0.16537
-0.25098 -0.11166 0.03406
-0.09977 0.19878 0.25230
-0.24279 0.10251 -0.01859
-0.25715 -0.08952 -0.01657
-0.17163 0.15307 0.22128
0.15107 -0.00236 0.21202
-0.23582 0.17440 0.10904
-0.24888 0.13949 -0.00476
-0.12814 0.19041 -0.20014
-0.20930 0.11617 0.07668
-0.16342 0.15157 0.02919
-0.24016 0.14452 0.07965
-0.05485 -0.00236 -0.03455
-0.16684 0.12602 0.22244
-0.11511 -0.00236 -0.15739
-0.16907 0.13435 0.22124
-0.14869 0.28467 -0.13178
-0.12327 0.26054 -0.17903
0.08890 -0.00863 -0.24554
-0.25255 0.23621 -0.07767
-0.22231 -0.13198 0.06482
-0.13770 0.13384 -0.20262
0.03370 -0.00236 0.12990
-0.10222 0.13329 0.17402
0.18969 -0.00236 0.04334
0.20561 -0.13198 0.08801
-0.12119 0.30839 0.18949
-0.13124 0.27757 0.15994
-0.17854 -0.04627 0.17235
0.22576 -0.03652 0.22214
-0.09533 -0.19323 -0.18572
0.15290 -0.00236 -0.03683
-0.14733 0.02176 0.17228
-0.24876 -0.12585 -0.01878
-0.07225 -0.04742 -0.24584
-0.09244 0.22272 0.24819
-0.21267 0.11571 -0.09692
-0.07736 -0.09320 -0.23287
-0.16878 0.17823 -0.00153
0.19065 -0.21962 -0.16661
-0.18113 0.28051 0.03759
-0.02224 -0.13198 -0.07605
0.17050 -0.13198 -0.06869
-0.16405 0.27064 0.09444
-0.22522 0.06348 0.03226
-0.07568 0.15516 0.22680
-0.21016 0.17339 0.16727
-0.10426 -0.13198 -0.14888
0.18840 -0.00236 -0.03551
0.07929 -0.00236 0.13926
-0.13786 -0.00236 0.18860
-0.14775 0.11538 -0.07617
-0.10771 0.18099 0.18498
-0.07975 0.21842 -0.21138
-0.13722 0.28311 -0.26791
-0.11101 -0.01683 0.14300
-0.11335 -0.10798 0.18814
0.12733 -0.00236 0.10738
-0.26320 0.25432 -0.02805
-0.23050 0.19542 0.13213
-0.21021 -0.00236 0.11170
-0.12906 -0.16183 -0.19357
-0.25997 0.22485 0.01917
-0.10391 -0.04145 0.14497
-0.05213 -0.00236 0.20167
-0.02670 -0.00236 -0.15239
0.20131 -0.15740 -0.19891
0.20512 -0.23295 0.19848
-0.23606 0.12606 0.08699
0.07292 -0.04438 0.24612
-0.16469 0.12236 0.01812
0.23848 -0.30937 0.18802
0.20340 -0.31781 -0.21580
-0.16912 0.22697 0.23565
-0.24957 0.24302 -0.01701
-0.17385 0.21791 0.01141
-0.02830 -0.09015 0.24283
-0.17788 -0.31483 -0.20933
-0.18194 -0.13198 0.07490
-0.16725 -0.00236 -0.00425
-0.25636 0.29481 0.00879
0.18154 -0.21979 0.17078
0.19710 -0.12417 -0.19418
-0.23265 0.30191 -0.09010
-0.14393 -0.18735 -0.17798
-0.16109 -0.25162 -0.19149
-0.16101 -0.29529 0.22147
-0.15375 0.07201 0.17309
-0.14657 -0.19871 0.18757
-0.15337 0.18939 0.24740
0.20975 -0.13047 -0.16293
-0.14707 -0.20040 -0.18818
-0.18677 0.28193 0.22349
-0.13180 0.07483 -0.13100
-0.04011 -0.13198 -0.10312
-0.16848 0.12184 0.11234
-0.20853 -0.10899 0.14436
-0.15478 0.08444 0.04612
-0.10761 0.28902 0.26287
-0.18357 -0.11109 -0.16522
0.14075 -0.13198 -0.21228
-0.22540 -0.01746 0.11122
-0.00205 -0.13198 -0.23545
-0.10017 0.32087 -0.24181
0.18353 -0.21152 -0.17069
-0.10891 0.27010 -0.26391
0.11394 -0.13198 0.04219
0.23164 -0.05567 0.19875
-0.07966 0.24638 -0.21688
-0.16740 -0.31855 -0.20666
-0.11310 0.29190 0.18804
-0.13128 -0.28527 0.20746
-0.25081 -0.03447 0.04902
0.22089 -0.25514 -0.20852
0.17828 -0.20433 0.16710
-0.21392 0.24696 -0.17609
-0.00294 -0.03399 0.24612
-0.19293 0.30805 0.11267
-0.14182 0.24463 -0.21301
0.01077 -0.13198 0.08642
-0.19757 0.30772 -0.10312
0.18716 -0.14420 -0.15634
0.09129 -0.00236 -0.22048
-0.24136 0.08491 -0.00181
-0.08636 -0.06880 -0.16250
-0.18825 0.06661 0.15191
-0.22795 -0.03471 0.11593
-0.12368 0.11367 -0.17021
-0.20182 -0.01286 -0.14144
0.05255 -0.13198 0.12450
-0.16292 0.14806 -0.02578
0.26097 -0.03265 0.06840
0.25770 -0.07161 -0.13375
