0.06446 0.00000 0.05626
0.07227 0.07341 0.15668
0.21402 -0.01709 -0.01351
-0.13581 0.32873 -0.05066
0.21402 0.07429 -0.17327
0.04685 0.00038 -0.16087
-0.21376 0.16709 0.07156
-0.21402 -0.30025 0.19130
-0.15464 -0.24158 -0.19870
-0.11364 -0.06236 -0.02896
-0.21402 0.27041 0.16947
-0.16431 -0.06236 0.02983
-0.13581 0.02983 -0.05127
-0.01256 0.06636 0.18280
0.17927 -0.40585 0.14966
-0.19247 0.37857 0.13729
-0.21402 -0.38536 -0.17921
-0.11186 0.00181 -0.16739
-0.08014 0.12164 -0.14121
-0.08321 -0.06236 -0.02373
-0.21402 -0.16574 -0.15662
-0.18453 0.07573 0.19870
-0.13581 0.01127 -0.06209
-0.21402 0.10264 0.10591
0.16907 -0.39762 -0.19870
0.10304 0.00000 0.11898
-0.13793 0.28586 0.15690
-0.02415 0.00000 -0.01434
0.14351 -0.24445 0.16884
-0.18878 -0.06236 0.03238
0.20132 0.12485 0.17805
0.02906 0.00000 0.10414
-0.06994 -0.00435 0.19870
0.13815 0.00000 0.13456
0.15906 -0.31742 0.19870
-0.21402 0.10383 0.11207
-0.21402 0.13886 -0.00152
-0.02355 0.11390 -0.14121
0.05380 -0.02511 -0.19870
-0.20534 0.06588 -0.06237
-0.21180 0.04478 -0.19870
-0.21402 -0.12355 0.19550
-0.21402 0.17238 -0.19324
0.19991 -0.33919 0.12874
-0.14998 0.30858 0.04433
-0.21155 0.00802 -0.11571
-0.17843 0.32366 -0.11571
0.14261 -0.08730 -0.17180
0.03076 0.13504 0.19870
-0.15107 0.08594 -0.06237
-0.15318 0.00000 0.12614
0.03090 0.00000 0.01663
0.15476 -0.08525 0.12874
-0.11800 0.00000 -0.08805
-0.13793 0.24174 0.15773
-0.18808 0.36258 -0.03482
-0.21402 0.09004 -0.14884
-0.15676 0.31816 -0.06237
-0.21265 0.18003 -0.03482
0.19357 0.11148 -0.14121
-0.00973 0.13634 0.16469
-0.11056 0.00000 0.09070
0.21402 -0.29879 -0.17546
-0.13989 -0.06236 0.12490
-0.21402 -0.02964 0.13054
-0.15963 0.35935 -0.06785
-0.20307 0.05124 0.07139
0.14387 -0.27113 -0.12386
-0.13565 -0.27383 0.16828
0.14351 -0.14127 0.14354
0.19392 0.11818 0.15071
0.16108 0.13634 0.19532
-0.13793 0.36765 0.08344
-0.12692 -0.06236 0.16221
-0.21402 0.25209 0.01135
-0.00357 0.12657 0.19870
0.13209 0.00000 -0.08585
0.14351 -0.25892 0.19246
-0.21402 -0.08713 -0.14010
-0.15075 0.08701 0.09764
0.14261 -0.09616 -0.19803
-0.19813 -0.34252 -0.19870
-0.18412 -0.33080 -0.13231
-0.21402 0.23811 0.17761
-0.21402 -0.34043 -0.18687
-0.13821 0.10534 -0.06237
0.14261 -0.26621 -0.17028
-0.12440 0.09482 -0.19087
-0.09910 0.12129 0.19870
-0.21402 -0.06106 -0.03239
-0.10937 0.06635 -0.19870
-0.21402 0.35435 0.05136
0.14897 -0.28118 -0.12386
-0.17627 0.12994 0.04433
-0.14166 -0.06236 -0.00976
-0.07481 0.00000 -0.00335
-0.21402 0.17103 -0.09933
-0.13793 0.18698 0.01652
-0.18644 -0.24571 -0.13231
-0.13793 0.38953 0.10428
-0.13565 -0.15224 0.19191
-0.16780 0.21014 0.12306
-0.13793 0.37815 -0.01270
-0.21402 0.11720 -0.19368
-0.17190 0.25396 -0.06237
-0.21402 0.03250 -0.04043
-0.21402 0.06444 -0.03526
0.17659 -0.07451 -0.19870
-0.13565 -0.15709 0.18552
-0.21402 0.17894 0.16287
-0.12252 0.13634 0.17090
-0.16971 -0.22629 0.19870
-0.19755 -0.13452 0.19870
0.21402 -0.27514 0.15236
-0.15097 0.36397 -0.16838
0.01709 0.06710 0.19837
0.21365 0.00000 -0.03761
-0.21402 -0.15701 0.16295
0.01528 -0.05475 0.19870
-0.21402 0.13483 0.17733
-0.13793 0.00649 -0.09229
-0.21402 0.05659 -0.03807
-0.13186 0.02756 0.19870
-0.13402 -0.06236 0.12702
-0.18294 -0.27618 -0.19870
-0.20354 0.23095 0.19870
0.08519 -0.06236 -0.00636
-0.14462 0.11705 0.19870
-0.15044 -0.25332 0.12874
0.10837 -0.06236 0.06155
-0.13581 0.19956 -0.04253
-0.13793 0.33189 -0.18944
-0.21402 0.13270 0.06508
-0.21402 0.29480 0.15391
-0.17985 0.27791 -0.14121
-0.18301 0.26302 0.12306
-0.14869 -0.03745 0.19870
-0.13912 0.07436 -0.18229
-0.20548 -0.16462 -0.13231
-0.14407 0.00000 0.02913
-0.17236 -0.12648 0.12874
-0.21402 0.19037 -0.00174
-0.11106 -0.06236 -0.15734
-0.17902 0.04705 0.01773
0.00485 0.00000 -0.12611
-0.14473 0.00000 0.14042
-0.21402 0.26436 0.06956
-0.13565 -0.07695 0.15896
0.03778 -0.00050 0.19870
-0.21402 -0.09855 -0.13733
0.04003 0.00000 0.00696
-0.20946 0.25713 0.04433
0.19277 0.13173 -0.15982
0.21402 -0.15626 0.15064
0.18413 0.09773 -0.19870
-0.01512 0.00689 -0.19289
-0.13396 0.00000 -0.10621
-0.17786 0.22706 -0.08852
-0.14815 0.40435 -0.03072
-0.16741 0.09865 -0.14121
0.21402 -0.31933 -0.14965
-0.13565 -0.20637 0.19333
0.10445 0.00000 0.02489
-0.13793 0.37018 0.12062
-0.19696 -0.06236 -0.11324
-0.15373 0.35034 0.19131
-0.21402 0.01422 -0.05360
-0.19789 0.39568 0.08317
-0.21402 -0.17595 0.17823
0.17407 -0.38747 -0.12386
0.21402 0.09231 -0.18969
0.21402 -0.01940 -0.08100
-0.16639 -0.04707 -0.19870
-0.17255 -0.13673 0.19870
0.14670 -0.22676 -0.12386
-0.21402 -0.06562 -0.15631
-0.05396 0.09740 -0.14121
-0.14525 0.35574 0.08801
-0.13793 0.00276 0.10764
-0.15491 0.00409 -0.19870
-0.11871 -0.06236 -0.14970
-0.21402 0.37077 -0.09183
-0.21402 0.14052 -0.10303
-0.01256 0.04318 0.17177
0.21402 -0.01410 -0.00281
0.16767 -0.38079 0.12874
-0.19485 0.18388 0.01773
-0.18757 0.40192 0.05006
-0.16355 -0.40585 -0.14916
-0.14398 0.21732 0.09764
-0.21402 -0.22326 0.17885
0.21402 -0.29704 0.13942
-0.20468 0.39062 -0.10346
-0.20439 0.22590 -0.14121
-0.20126 0.31235 -0.00822
-0.14932 0.10679 0.12306
0.19133 0.07808 -0.14121
0.15322 -0.24947 0.12874
0.06882 0.03356 -0.17780
-0.02533 0.09704 0.18173
-0.07520 -0.06236 0.13855
-0.18909 0.18595 -0.06237
-0.15905 0.36958 -0.01052
-0.12032 0.13740 -0.19579
0.17132 -0.39550 -0.12386
-0.18748 0.36864 0.15843
0.04108 -0.06236 0.16279
0.16990 -0.22873 0.19870
-0.18331 -0.12642 0.19870
-0.13793 0.38111 -0.04039
-0.19597 0.02777 0.12306
-0.04729 0.00000 0.17452
0.02710 0.05322 -0.16094
-0.02205 0.13569 0.19870
-0.21402 0.03017 -0.14297
-0.01512 0.03884 -0.19669
0.21402 -0.36917 0.15975
-0.14790 0.06975 0.12306
-0.11186 0.07077 -0.15414
-0.13925 -0.06236 0.06178
-0.21402 0.08794 -0.16936
-0.15982 -0.37432 -0.13231
-0.18279 -0.28315 -0.19870
-0.16888 0.32610 0.01773
0.07227 0.07961 0.15953
-0.13424 -0.02235 -0.19870
-0.15042 0.21093 -0.19870
-0.18377 0.36045 0.07323
-0.14246 0.40446 0.02837
-0.18264 0.18618 -0.00822
0.07291 -0.06236 0.02454
0.21402 -0.18699 -0.16562
0.08465 0.04184 -0.19870
-0.21402 0.35322 0.10375
0.21402 -0.17298 -0.16345
-0.05396 0.13740 -0.17068
-0.14506 0.02458 0.09764
-0.14189 0.22952 -0.14121
-0.20669 -0.16381 0.19870
-0.14425 0.22442 0.01773
0.16516 -0.06236 -0.11861
0.03968 0.09482 -0.17795
-0.21031 0.05660 0.09764
-0.14454 -0.28127 -0.17164
0.21402 -0.00804 0.19702
0.14261 -0.23283 -0.18847
-0.17324 0.14556 0.15071
-0.18299 0.30585 0.09764
-0.18442 0.24755 0.01773
0.20822 -0.06236 0.03670
-0.20317 0.06923 -0.11571
-0.10274 0.09482 -0.15139
-0.21258 -0.06236 -0.10482
-0.13416 0.13740 -0.18620
0.01706 -0.06236 0.14849
-0.15449 0.30898 0.19870
0.03942 0.00000 -0.02995
-0.18627 0.11251 0.15071
0.14351 -0.29846 0.14602
-0.15677 0.02185 0.07135
-0.16793 0.00000 0.07666
-0.13793 0.32738 0.05539
0.21402 -0.02891 -0.03517
-0.13565 -0.24002 0.17972
0.19945 -0.37223 0.19870
0.02668 -0.06236 -0.12810
-0.13793 0.33965 0.06633
0.19634 0.00000 -0.12137
0.21402 -0.06086 -0.11281
0.14850 -0.07795 0.19870
0.19003 -0.18785 -0.12386
-0.16735 0.02194 0.19870
-0.10974 0.00000 -0.02786
-0.00668 -0.06236 0.18003
-0.17889 0.10860 0.19870
0.17413 0.03842 -0.14121
-0.15449 0.07105 0.09764
-0.13912 0.09310 -0.16652
-0.21402 0.12900 -0.05707
0.02360 0.13740 -0.18730
0.14351 -0.19790 0.14337
-0.09393 -0.06236 0.13494
0.15623 0.05976 -0.14121
0.06024 -0.06236 0.04886
-0.17615 0.31787 -0.19870
-0.14997 0.39924 -0.06824
-0.03666 -0.02281 -0.19870
0.13356 0.00073 0.19049
-0.14106 0.10445 0.12306
0.12744 0.13634 0.18982
0.19232 -0.04776 -0.19870
-0.21402 0.07529 -0.00688
0.16341 -0.09076 -0.19870
-0.14454 -0.37220 -0.18601
-0.13793 0.25970 0.16955
-0.16800 0.07026 0.07142
-0.21402 0.06712 -0.05569
-0.00238 0.06974 0.15071
-0.11186 0.08290 -0.17825
-0.16181 0.17056 -0.03482
-0.21402 0.35918 -0.12083
-0.21402 -0.04765 0.08368
0.10601 -0.03700 -0.19870
-0.13793 0.10495 0.01299
-0.13793 0.16611 0.05813
-0.09972 -0.06236 -0.06651
-0.03279 -0.06236 0.04828
0.14261 -0.08052 -0.19802
-0.03513 0.13634 0.19208
-0.17268 0.27468 -0.14121
0.14351 -0.37600 0.16896
-0.18877 0.10825 -0.00822
-0.14863 0.22787 -0.00822
0.18169 -0.37699 -0.12386
-0.21402 -0.21901 -0.17968
0.10988 0.04662 -0.15225
0.00784 0.00000 -0.03118
0.14351 -0.38494 0.15745
-0.21286 -0.34149 0.19870
0.15063 -0.06236 -0.01422
-0.17903 -0.21233 0.12874
-0.15600 -0.06236 0.05153
-0.21402 -0.32009 0.18788
-0.01867 0.12175 0.19870
0.18302 -0.31881 0.12874
-0.07666 -0.06236 -0.09909
0.21402 0.08275 0.19242
-0.11050 0.00000 0.18695
-0.07515 -0.06236 0.17506
-0.17026 -0.28327 0.19870
0.18325 -0.40585 -0.18810
-0.19356 0.05088 0.15071
0.14096 0.04939 -0.18840
-0.06218 -0.05845 -0.19870
-0.17831 0.19102 0.07159
-0.21402 0.36804 -0.00450
-0.20360 -0.37261 0.19870
0.07983 -0.01174 -0.19870
-0.18438 -0.40585 -0.19065
-0.21402 -0.29317 0.14662
-0.13793 0.22584 0.17254
-0.11186 0.04959 -0.17875
0.14261 -0.38257 -0.17515
-0.19784 0.06712 0.12306
-0.15209 0.10964 0.07148
0.14261 -0.09858 -0.12438
0.07636 -0.06236 -0.08322
-0.19151 0.05501 -0.03482
-0.05707 0.00000 -0.01114
-0.13793 0.00367 -0.11490
0.20123 -0.13471 0.19870
-0.04262 0.00008 -0.17889
0.13038 0.13740 -0.19112
-0.16634 0.11592 0.09764
0.13845 0.04743 0.15986
-0.20237 0.36986 0.15584
0.04711 0.13740 -0.17316
-0.18062 -0.08987 -0.19870
0.07388 -0.06236 -0.03323
-0.18716 0.22473 -0.00822
-0.15809 0.26018 0.19870
-0.19092 0.17471 -0.11571
-0.21402 0.30319 0.15268
-0.19534 0.08353 0.01773
-0.21402 -0.03790 -0.07273
0.16759 -0.38693 0.12874
-0.21402 -0.38249 0.19270
-0.14921 -0.25655 -0.13231
-0.07848 0.00000 -0.08913
0.13444 -0.06236 -0.00042
-0.14454 -0.31248 -0.17553
0.07276 0.00000 0.06085
0.03460 -0.06236 0.08406
-0.04569 -0.03310 0.19870
-0.20752 0.01440 0.09764
-0.15511 -0.06632 0.19870
-0.21402 0.12730 0.05116
-0.16292 -0.40585 -0.13568
0.10389 0.00000 -0.00224
-0.01438 0.08811 -0.14121
-0.21402 -0.21463 -0.15396
-0.05904 0.00000 0.06648
-0.16216 0.10160 -0.19870
-0.16620 0.32543 -0.00822
-0.21402 -0.02853 0.03964
-0.17181 0.02701 0.19870
-0.20499 -0.06236 0.07640
0.19255 -0.33869 -0.19870
0.05659 0.09704 0.16180
0.07227 0.02940 0.18413
0.14351 -0.36406 0.17269
-0.02590 0.00000 0.11830
0.14261 -0.14800 -0.18360
0.14351 -0.23633 0.19676
-0.13565 -0.17386 0.15919
-0.15962 -0.06825 0.12874
-0.03940 0.00000 0.09998
-0.13793 0.31913 -0.10738
-0.20559 -0.34080 -0.13231
-0.16611 0.27763 -0.11571
-0.06462 0.00000 0.08766
-0.13793 0.32784 0.00016
-0.07840 0.11649 0.19870
-0.21402 -0.39477 0.14706
-0.20176 0.32435 -0.03482
-0.16289 0.08587 0.19870
0.10387 0.05876 -0.19870
0.14709 -0.31260 0.19870
0.14261 -0.11756 -0.15096
-0.13565 -0.10201 0.15852
0.14261 -0.39221 -0.18620
-0.21402 -0.12741 0.18481
-0.13793 0.09025 0.11002
-0.21402 0.14858 0.17487
-0.13793 0.25288 -0.14826
-0.15317 0.21361 0.12306
-0.21402 0.34896 -0.14218
-0.14454 -0.30754 -0.18506
-0.16847 0.09119 0.19870
0.19411 0.13020 0.17134
-0.01512 0.05886 -0.17599
-0.21402 -0.32924 0.17932
-0.20755 0.35686 0.08508
0.14050 0.00000 0.09626
0.20897 0.11542 -0.15564
-0.15005 0.04498 0.04433
-0.21025 -0.06236 -0.02079
-0.21044 -0.18225 0.12874
0.16863 -0.02574 0.19870
-0.21402 0.34429 -0.05046
0.16341 -0.15574 -0.12386
-0.16878 0.33573 0.09764
-0.21402 0.07891 -0.18602
0.07922 -0.06236 -0.02328
-0.20515 0.36282 0.04433
-0.21035 0.19452 -0.08852
-0.21402 -0.24377 -0.19738
-0.15873 0.21739 0.01773
0.14261 -0.09641 -0.13722
-0.06843 -0.06236 0.04616
-0.15355 -0.40585 -0.19158
-0.15064 0.23678 0.15071
0.15542 -0.06236 0.02127
-0.19753 0.23563 0.04433
-0.21402 0.21263 0.01422
-0.21279 -0.01204 -0.19870
0.20099 -0.27354 0.19870
-0.16971 -0.40585 0.13184
-0.14058 0.06451 -0.08852
0.05676 -0.05247 -0.19870
0.16212 -0.08579 -0.12386
-0.19218 0.01713 0.07135
0.13366 0.00000 -0.11311
0.14261 -0.38387 -0.16733
-0.13793 0.34062 -0.18829
-0.21165 0.20602 0.15071
-0.21402 0.13764 -0.16310
-0.20207 -0.40585 -0.14808
0.06882 0.05001 -0.16869
0.21402 -0.23815 -0.12900
-0.02169 0.00000 0.06890
-0.13793 0.34669 -0.17099
0.21402 -0.03388 -0.11178
0.14122 0.05814 0.15071
0.01018 0.13372 -0.14121
0.17443 -0.37729 -0.12386
-0.11814 -0.06236 -0.04226
-0.16942 0.16126 0.15071
-0.21066 0.35174 0.09764
0.21402 -0.05788 -0.19086
0.15451 0.03117 0.19870
-0.18918 0.17857 0.19870
-0.15981 0.02578 -0.00822
-0.07214 0.08785 0.15636
0.18218 0.11852 0.19870
-0.21402 0.18589 0.16006
0.14431 0.12838 0.19870
-0.15384 0.01123 -0.11571
-0.13793 0.15362 0.19413
-0.18821 -0.40585 -0.16905
-0.21246 0.11002 0.15071
-0.15867 0.31036 0.01773
-0.20996 0.35004 -0.00822
-0.09760 0.08343 -0.19870
-0.16778 0.34089 -0.08852
0.16700 -0.16719 0.12874
-0.13793 0.31423 0.06701
-0.15744 0.07555 -0.00822
0.16378 0.07569 -0.14121
0.06800 0.00000 0.08223
0.14563 0.00000 -0.01539
0.14351 -0.38066 0.13789
0.19835 0.00000 0.05949
-0.06265 0.00000 0.00574
-0.15817 -0.32547 -0.19870
-0.21402 0.24564 -0.14419
0.18451 0.12645 0.15071
-0.17091 0.15343 -0.11571
-0.19704 0.40442 0.02926
0.09889 -0.03069 -0.19870
0.00258 0.00000 -0.04538
0.18693 -0.06236 -0.08140
-0.16689 0.14011 -0.19870
-0.18423 0.26075 -0.00822
0.18045 0.04606 -0.14121
-0.19063 0.29532 -0.06237
-0.18429 0.03232 0.12306
0.01144 0.00287 0.19870
-0.14058 0.17000 -0.14121
0.13743 -0.02815 -0.19870
-0.14666 0.19557 -0.19870
-0.21402 0.04797 -0.03641
-0.17392 -0.13087 -0.19870
-0.19849 0.23460 -0.19870
-0.15809 0.19055 0.07159
-0.20755 0.06529 -0.03482
-0.10007 0.13740 -0.18458
0.13895 0.00000 0.00754
-0.18149 0.09347 0.07145
-0.19412 0.09391 -0.11571
0.21402 -0.15032 0.14296
0.20064 0.05265 0.15071
0.00435 0.13740 -0.16783
-0.00710 0.04438 -0.14121
-0.21179 0.16625 0.12306
0.21402 -0.37109 -0.17201
-0.17568 0.29731 0.19870
-0.21402 0.08855 -0.18027
-0.21402 0.07865 -0.04355
0.06882 0.00210 -0.17289
0.17877 0.00000 0.10556
0.21402 -0.01530 0.05488
0.14261 -0.31373 -0.14770
-0.20124 0.09476 -0.06237
-0.21402 -0.11603 -0.13479
-0.20980 0.29620 -0.03482
-0.10155 0.13740 -0.16255
-0.14550 0.18976 0.19870
-0.03647 0.00000 0.12229
-0.13793 0.01963 0.11193
-0.17646 0.35377 -0.08365
-0.15090 -0.36865 0.19870
0.21402 -0.07349 -0.18500
-0.18929 0.06762 -0.03482
-0.18879 0.30247 -0.06237
-0.07381 0.10839 0.15071
-0.14454 -0.09080 -0.17289
0.20763 -0.25776 0.19870
-0.03551 0.12544 -0.14121
-0.08804 -0.06236 0.17193
0.14397 0.06131 0.19870
-0.15851 -0.04855 -0.19870
-0.19619 0.19604 -0.06237
0.21402 -0.05845 0.18369
0.17161 -0.24261 -0.19870
-0.15952 0.14348 -0.06237
0.21402 0.09841 0.18681
0.16173 -0.29286 0.12874
0.07166 -0.06236 -0.00190
-0.18801 -0.12860 -0.19870
0.17367 -0.17321 -0.19870
-0.21402 0.09656 -0.11421
-0.19722 0.34257 0.01773
0.21402 -0.16998 -0.17705
-0.19886 0.25094 -0.08852
-0.15154 -0.06236 -0.03998
-0.15011 0.13629 -0.11571
-0.21402 -0.19265 0.15924
0.02710 0.07026 -0.19599
-0.13565 -0.36994 0.14341
-0.15865 0.29409 -0.11571
-0.14832 0.39948 0.06663
0.21402 -0.15061 -0.14831
-0.21341 0.15785 0.09764
0.16404 -0.08750 0.19870
-0.14564 0.35846 0.08068
-0.01233 0.01409 0.15071
-0.13816 -0.21154 0.19870
-0.17736 0.04776 0.04433
0.18063 0.09941 0.19870
-0.19585 -0.28062 -0.13231
-0.16825 0.01283 0.19870
-0.19818 0.03044 -0.11571
0.21103 -0.06236 0.01621
0.12027 -0.06236 0.03888
0.04835 -0.06236 0.16069
0.21402 -0.01323 0.19727
0.14378 0.00000 -0.08213
-0.02969 -0.06236 -0.13241
-0.19191 0.14587 0.01773
0.10789 0.00000 0.14121
-0.16040 -0.15310 0.12874
0.21402 -0.38179 -0.13107
0.14920 0.00000 -0.12769
0.21402 -0.03169 0.09921
-0.13912 0.02331 -0.18452
-0.00374 -0.06236 0.13238
-0.07124 0.04712 -0.18095
0.14972 -0.22589 0.12874
-0.21402 -0.16153 -0.17689
-0.13793 0.25208 -0.10224
0.12599 0.13740 -0.18598
-0.08829 -0.00152 -0.19870
0.17527 -0.40585 -0.13944
-0.21402 0.35655 -0.08542
0.14351 -0.17979 0.13532
-0.18755 0.30429 -0.19870
-0.01256 0.08629 0.16425
-0.19950 0.07543 0.01773
-0.15465 0.10860 -0.19870
0.14261 -0.13061 -0.14595
0.14622 -0.40585 0.19608
0.11819 -0.06236 0.10758
-0.15203 0.21482 0.04433
-0.19342 -0.06236 -0.08489
-0.13793 0.29224 0.17847
-0.21402 0.32586 0.18755
-0.14454 -0.32600 -0.16795
-0.07124 0.08451 -0.18061
-0.09166 0.04576 0.15071
-0.13793 0.37195 0.04865
0.01260 0.09482 -0.15772
-0.20241 -0.30608 0.19870
0.20129 -0.30534 0.12874
0.14351 -0.10244 0.18352
-0.13525 -0.06236 -0.17633
-0.13793 0.20462 0.05170
-0.13793 0.11035 0.01348
-0.18466 -0.31102 0.19870
-0.21402 0.24389 0.06084
0.14261 -0.12218 -0.18567
-0.20444 0.09481 -0.03482
0.04221 -0.01822 0.19870
0.21402 -0.11104 0.13937
-0.21402 -0.02262 -0.02546
0.12559 -0.06236 0.09061
0.16240 0.11088 0.19870
-0.13793 0.33077 0.04554
0.07015 -0.03942 0.19870
0.21402 0.07290 0.15964
0.09035 0.09191 0.19870
0.21402 -0.26371 -0.14772
0.01851 0.00000 0.10463
-0.21402 0.33957 -0.13425
0.14511 0.05983 -0.19870
0.10872 -0.06236 -0.05542
-0.13806 0.12953 0.07150
-0.17191 0.29951 0.01773
-0.21402 -0.11869 0.17560
-0.13793 0.07386 0.01590
-0.19328 0.32294 -0.06237
-0.15685 0.02813 -0.19870
-0.20524 0.32477 0.12306
0.21402 -0.07764 0.12932
-0.14463 0.37947 0.13493
-0.20282 -0.06236 -0.08104
-0.09802 0.09704 0.16188
0.18369 -0.18793 -0.19870
0.16266 0.01406 -0.19870
-0.14444 0.24559 -0.00822
-0.14362 0.02930 0.19870
0.18986 -0.25195 -0.19870
0.21402 -0.01944 -0.13799
-0.18415 -0.06829 -0.19870
-0.18574 0.03881 0.04433
0.16878 0.13003 -0.14121
-0.19836 0.34891 0.04433
-0.13793 0.21579 0.06050
0.16975 0.00000 -0.07502
-0.21077 0.16912 -0.19870
-0.06771 0.00000 -0.11518
0.14824 -0.23274 -0.19870
-0.21402 -0.33531 -0.13736
0.12272 -0.06236 -0.11773
-0.10180 0.03397 0.17825
0.21292 -0.06236 -0.03977
0.21402 -0.09801 -0.18624
-0.12158 -0.02432 0.19870
-0.15016 0.23579 -0.11571
-0.14003 0.28656 -0.14121
-0.17752 0.10326 -0.08852
-0.19267 0.33995 0.01773
0.08033 -0.02387 0.19870
-0.14454 -0.13161 -0.16740
-0.18002 0.02965 -0.14121
-0.15032 0.15486 0.01773
-0.14826 0.00186 -0.00822
-0.21130 0.19847 0.07160
-0.14110 0.25897 0.04433
-0.13581 0.29170 -0.05632
-0.18837 -0.07260 0.12874
-0.13793 0.33915 -0.10908
-0.15398 0.38228 0.12701
-0.05700 0.09482 -0.18312
-0.13793 0.15752 0.10728
0.10785 0.03437 0.17084
-0.18220 0.15441 0.19870
-0.16870 0.13980 -0.03482
-0.01552 -0.06236 0.14504
-0.12579 0.10048 0.15071
0.13385 0.12000 0.19870
-0.20127 0.00259 0.12306
-0.06055 0.12762 0.19870
-0.02645 0.00000 0.00017
-0.08793 -0.06236 0.00210
0.00997 -0.06236 -0.04400
-0.02542 0.00000 -0.08377
-0.16792 -0.00565 -0.19870
-0.19652 0.19255 0.07159
0.15608 0.00000 -0.04674
0.10681 0.05687 0.15071
-0.20552 -0.06236 0.11404
-0.01936 -0.06236 0.03283
0.14096 0.05771 -0.15209
-0.08029 0.00000 0.09806
-0.13912 0.00806 -0.17557
-0.07908 0.01937 0.15071
0.01599 0.13634 0.18630
0.19476 -0.23683 -0.12386
0.18019 -0.31481 -0.19870
-0.01512 0.08896 -0.18576
-0.18009 -0.30330 0.12874
-0.19673 0.15339 0.15071
-0.21402 0.06818 0.09854
-0.17738 0.04051 0.15071
0.21402 -0.33667 -0.12588
0.09223 0.09482 -0.15475
0.12208 -0.06236 0.04901
-0.21402 -0.00281 0.07752
-0.08537 -0.06236 -0.00665
-0.15832 0.33697 -0.08852
-0.21345 0.05129 -0.08852
-0.06321 0.11069 -0.19870
-0.18432 0.00000 0.03559
-0.09488 0.10579 0.19870
-0.19810 -0.17961 0.12874
-0.13158 0.00826 0.16331
-0.20225 0.20141 0.12306
-0.04239 -0.06236 -0.14120
-0.19473 0.16935 -0.06237
0.11736 -0.00388 -0.19870
0.02905 -0.03135 -0.19870
0.21137 -0.04338 -0.19870
-0.19901 -0.19702 0.12874
-0.03669 -0.04413 -0.19870
-0.11888 -0.05370 -0.19870
0.18546 0.03155 0.15071
-0.21402 -0.09089 -0.17764
0.07631 -0.06236 0.13847
-0.04040 -0.06236 -0.04831
0.20305 0.10563 0.15071
0.18418 -0.19807 -0.19870
0.21402 -0.05327 0.17862
-0.15409 -0.34839 -0.13231
-0.14968 0.13648 -0.14121
-0.13793 0.35196 -0.11531
-0.17224 -0.14812 -0.13231
-0.20614 -0.04219 0.19870
-0.18818 0.36591 0.01773
-0.07331 0.00000 -0.07989
0.07666 -0.06236 0.04633
-0.18713 0.29670 0.09764
-0.20035 0.03303 -0.14121
0.21402 -0.04576 -0.04863
-0.19803 0.02134 -0.11571
-0.07214 0.00950 0.16059
-0.08141 0.09698 -0.14121
-0.18992 0.02768 -0.19870
0.13194 0.00000 -0.05609
0.12450 -0.06236 -0.18420
0.14279 0.11565 -0.14121
0.08618 0.00000 -0.03368
-0.00881 0.03786 0.15071
-0.18651 0.24317 0.19870
-0.15111 0.14589 -0.19870
0.10785 0.00496 0.18756
0.21402 -0.11177 -0.19626
-0.20523 0.01746 -0.11571
-0.20066 -0.11041 0.19870
0.14351 -0.08180 0.19339
-0.21402 0.36875 0.08533
0.21402 -0.28195 -0.12629
-0.10160 0.00000 -0.04995
-0.13793 0.26816 0.16963
-0.14454 -0.19219 -0.14319
-0.19740 0.25144 0.01773
-0.19525 -0.00994 0.19870
0.15134 -0.29219 -0.19870
-0.21402 0.14791 0.04568
0.08745 -0.06236 0.18098
-0.21402 0.15865 -0.10949
-0.08740 -0.02537 -0.19870
-0.21402 0.13920 -0.09721
-0.21402 0.38684 0.09496
0.18400 -0.16678 -0.12386
-0.14454 -0.07680 -0.13257
-0.13793 0.23806 -0.09792
0.05335 0.00049 -0.17050
-0.18729 0.20711 0.19870
0.17044 -0.36237 -0.12386
-0.18404 -0.26066 -0.19870
-0.15029 -0.34914 0.12874
-0.19325 0.30868 -0.00822
0.07155 -0.06236 -0.10145
0.14351 -0.17534 0.17888
0.21402 -0.04962 0.15824
-0.04504 -0.06236 -0.16601
-0.13793 0.24501 -0.00767
0.21402 0.05165 0.16912
0.19421 0.00000 0.06371
0.19129 -0.30617 -0.19870
-0.21402 -0.07309 -0.16440
-0.13565 -0.09583 0.18289
-0.20592 0.10218 0.07147
-0.10660 0.13634 0.19430
-0.16744 0.11718 -0.08852
0.16174 0.00000 0.09458
0.14351 -0.36055 0.16124
0.21402 -0.03880 0.05571
-0.16229 0.33016 0.07179
-0.18021 0.14028 -0.03482
-0.13793 0.13861 -0.19686
-0.13992 0.31622 0.12306
0.10357 -0.06236 -0.10173
0.20592 -0.40585 -0.17955
-0.19795 0.14596 0.04433
0.06882 0.00809 -0.19723
-0.08902 -0.02903 0.19870
-0.11262 0.00000 -0.12952
-0.21402 -0.04328 -0.03492
-0.17414 0.40428 -0.03219
-0.15016 0.02696 -0.06237
-0.20358 0.26989 0.15071
0.16339 0.05385 -0.14121
-0.07214 0.06348 0.15616
-0.07124 0.04861 -0.15384
0.10223 0.10966 0.15071
-0.13793 0.19160 -0.18089
0.01709 0.02783 0.19163
0.07227 0.00822 0.19243
0.14388 -0.02551 -0.19870
-0.13809 0.18791 -0.00822
-0.21402 -0.21941 -0.19690
-0.21130 0.31016 -0.00822
-0.06345 0.00000 -0.06669
-0.21402 0.37849 -0.02545
-0.16231 0.40208 0.04901
0.17169 -0.29680 -0.12386
-0.07214 0.05452 0.17583
0.03344 -0.06236 0.02554
-0.13581 0.33751 -0.04237
0.03545 0.00013 0.16600
-0.21402 -0.14609 -0.16075
-0.12642 0.00046 -0.15140
0.00770 0.13520 0.19870
-0.14138 0.27431 0.07171
0.00186 0.13740 -0.14377
0.15976 0.05947 0.15071
0.14468 -0.14946 0.12874
-0.21402 0.32522 0.12184
0.17142 -0.37871 0.19870
0.14261 -0.15232 -0.14189
-0.06686 0.00000 0.12985
0.01709 0.07306 0.18713
-0.21402 -0.13632 -0.17873
0.18485 -0.40585 0.16955
-0.21052 0.27292 -0.06237
-0.19808 0.07113 -0.19870
0.18231 -0.24993 -0.12386
0.16128 0.13740 -0.14193
-0.14703 -0.40585 0.13211
-0.16342 0.27194 -0.03482
-0.19271 0.20981 0.01773
0.07462 0.08876 0.15071
0.21402 -0.05642 -0.17253
-0.14345 0.23203 0.07165
-0.14738 0.30525 -0.08852
-0.06440 0.10495 0.15071
-0.21360 -0.11019 -0.13231
-0.13793 0.12418 -0.00008
0.08631 -0.06236 0.19283
-0.20529 0.27707 0.04433
-0.19021 0.29164 0.15071
0.16001 -0.07221 -0.12386
0.09210 0.00000 0.00458
-0.17621 0.00255 0.09764
-0.21402 -0.37678 0.15000
-0.04623 -0.06236 -0.01055
-0.17371 0.29894 0.09764
-0.21402 -0.09345 0.18572
0.04332 0.00000 -0.07554
-0.07214 0.00851 0.17101
-0.10047 -0.06236 -0.19463
-0.17190 -0.06236 -0.12734
-0.16631 -0.23493 -0.13231
-0.15110 -0.21287 0.12874
-0.05565 0.00011 -0.18269
0.16425 -0.17693 -0.19870
-0.14454 -0.30171 -0.17809
-0.14907 0.11531 0.15071
-0.20274 -0.03123 0.19870
-0.14238 0.09332 0.07145
-0.19448 -0.02883 0.19870
0.13845 0.00621 0.17970
-0.18047 0.18060 0.15071
0.21402 -0.32997 -0.17065
-0.14316 0.32632 -0.13616
-0.02900 -0.06236 0.04469
-0.20737 0.09174 0.04433
0.07856 0.12100 -0.19870
-0.13565 -0.08588 0.15891
-0.13793 0.14344 0.11693
-0.16110 -0.32200 0.12874
0.19966 -0.10976 0.19870
-0.21402 -0.35316 0.14616
-0.15565 0.34272 -0.08852
0.14261 -0.19570 -0.15176
-0.20003 0.06687 0.09764
-0.14817 0.20062 -0.06237
-0.08531 -0.06236 0.07660
-0.15640 0.16405 0.15071
-0.01420 0.00000 0.14843
0.19695 -0.02111 -0.19870
-0.16322 0.31556 -0.03482
-0.14702 -0.40585 -0.19860
0.21141 -0.39003 0.12874
0.09613 0.03704 0.19870
0.14096 0.02509 -0.19204
0.18928 0.00966 -0.14121
0.13251 0.00000 0.09660
0.13845 0.04211 0.19359
-0.21402 0.36070 0.11096
-0.13923 -0.26730 0.19870
0.14261 -0.37935 -0.19295
-0.16893 -0.36609 0.12874
-0.16256 -0.37938 -0.13231
-0.16484 0.33439 0.13320
-0.11376 -0.03230 -0.19870
0.14699 -0.29747 0.12874
-0.20991 -0.24663 -0.13231
-0.13793 0.19530 -0.14567
0.00425 0.00000 -0.09181
0.15143 -0.20241 -0.19870
0.02710 0.06982 -0.15133
-0.20405 0.33362 0.04433
0.13520 -0.06236 -0.18147
-0.14454 -0.38751 -0.14478
-0.19491 0.12775 0.01773
-0.14749 0.31177 0.01773
-0.13581 0.12351 -0.06002
-0.17391 0.34045 -0.00822
0.14421 -0.40585 -0.19190
-0.00940 -0.06236 0.08078
-0.20992 0.39179 -0.09876
0.07435 0.09704 0.16805
0.21402 -0.01313 0.15536
0.14351 -0.18414 0.17891
-0.17244 0.26264 0.12306
-0.13565 -0.12780 0.13950
-0.14510 0.33310 0.07179
0.05990 0.13634 0.16645
-0.08300 0.00000 0.13904
-0.20638 0.39242 0.09626
-0.18466 -0.30478 -0.19870
-0.17460 0.22564 0.09764
0.18063 -0.02825 0.19870
-0.17355 0.17608 -0.03482
0.02710 0.01216 -0.18076
-0.20330 0.21417 0.01773
-0.10180 0.07966 0.15947
0.21402 -0.14333 -0.12584
0.21402 -0.00252 0.15789
0.11754 -0.01613 0.19870
-0.08974 0.12794 0.19870
0.12480 -0.06236 -0.14830
0.01205 0.12796 -0.14121
-0.04295 -0.06236 0.07980
0.21402 0.04416 -0.15020
0.07478 0.00000 -0.05432
-0.18105 0.11997 0.09764
0.17025 -0.18394 0.19870
0.19839 -0.16247 0.12874
-0.21402 0.01847 0.09797
-0.13565 -0.38925 0.17323
-0.21402 0.25131 -0.10464
-0.21402 0.27959 -0.10122
0.21402 -0.02459 0.11810
0.14114 0.13349 0.19870
0.15182 -0.12160 -0.19870
-0.17033 0.33222 0.13655
-0.20267 0.12207 -0.19870
0.14351 -0.20142 0.15157
-0.16784 0.38325 -0.12430
0.10988 0.09048 -0.17060
0.14351 -0.36244 0.15405
0.03948 -0.02640 0.19870
0.06409 -0.06236 0.13170
0.00628 0.02506 0.19870
0.14261 -0.28770 -0.18587
-0.16645 0.14670 -0.00822
-0.15351 0.36903 -0.02103
0.20767 -0.29165 0.12874
0.06697 -0.06236 -0.07664
-0.02020 0.00000 -0.05290
-0.05474 0.00000 0.09873
-0.14803 0.20299 -0.11571
-0.15322 0.26831 -0.14121
-0.20900 0.23666 0.12306
-0.16226 0.31484 -0.06237
0.10627 0.12104 0.15071
0.21402 -0.04408 0.01586
-0.18480 0.16926 -0.00822
-0.16852 0.39198 0.09801
-0.19724 0.28334 0.09764
-0.09234 -0.06236 -0.13898
-0.18010 0.05793 0.01773
-0.13793 0.40052 0.02460
0.04031 0.10294 0.15071
-0.18239 0.05806 0.12306
-0.18071 0.21885 0.01773
0.02321 -0.06236 -0.16126
0.19685 -0.13182 0.19870
-0.17060 0.06563 0.09764
-0.16257 0.13138 -0.11571
-0.13565 -0.33420 0.18181
-0.13565 -0.26633 0.18499
-0.21402 -0.17167 0.16480
0.20644 0.03053 0.19870
-0.16093 -0.26035 0.12874
-0.16054 -0.23084 -0.13231
-0.13436 -0.00200 0.19870
-0.12298 0.00000 -0.02983
-0.21402 0.04088 0.07032
-0.21402 0.10780 0.18123
0.06854 0.11800 -0.19870
-0.13565 -0.20363 0.18390
0.20042 0.03401 -0.14121
0.21402 -0.32883 0.15055
-0.20250 0.00000 -0.02832
0.00963 0.00844 -0.19870
0.06882 0.07874 -0.14915
-0.14196 0.03587 0.04433
-0.14597 0.03902 -0.19870
-0.20477 0.35979 0.17544
0.14351 -0.22557 0.13214
-0.15709 0.15044 0.04433
0.20705 -0.27150 -0.12386
-0.21383 0.00000 -0.11840
-0.21402 0.14196 0.18874
0.08362 0.13634 0.19425
-0.13940 0.03091 -0.03482
-0.21402 0.18163 0.00028
0.17421 0.01156 -0.19870
0.00207 0.01084 -0.19870
0.14967 -0.40585 0.15297
-0.21402 0.37933 -0.05104
-0.15244 0.16727 0.19870
-0.21402 -0.40184 -0.16423
0.01382 0.13740 -0.15563
0.18924 0.12663 0.19870
-0.21402 0.03351 0.19605
0.00736 0.09482 -0.18952
-0.20175 0.24889 -0.00822
0.21402 -0.06796 0.18180
-0.17428 0.31999 0.19870
-0.13819 0.26145 0.07169
-0.13793 0.14392 -0.09089
-0.15125 -0.11884 -0.13231
-0.10180 0.05419 0.16033
0.21016 0.03584 -0.19870
0.07698 0.09482 -0.15763
-0.08588 0.00000 0.04941
-0.19288 0.03301 0.07137
-0.10797 0.01190 -0.14121
-0.13581 0.05911 -0.05538
-0.13562 0.08389 0.15071
0.15901 -0.33270 -0.12386
-0.14335 -0.31957 0.19870
0.14261 -0.24168 -0.13394
-0.18366 0.31474 0.04433
0.15237 -0.40585 -0.18617
-0.17371 0.00000 -0.07805
-0.05699 -0.05694 0.19870
0.06949 0.00243 -0.14121
-0.18787 0.22284 -0.08852
-0.19986 -0.33028 0.19870
-0.21402 -0.31668 -0.15999
-0.13581 0.24732 -0.03831
-0.18776 0.33071 -0.06237
-0.02185 -0.01130 0.19870
-0.21402 0.29650 0.05851
0.17328 -0.24728 0.12874
0.20020 0.00672 0.15071
0.02423 -0.06236 0.16496
-0.13793 0.23818 0.00785
-0.21402 0.33164 -0.10234
0.20843 -0.31035 -0.19870
-0.04506 0.11574 -0.19870
-0.15906 0.23961 -0.00822
0.09592 0.09444 -0.19870
-0.13793 0.06007 -0.09175
0.21402 -0.05341 0.04081
-0.13800 0.10361 -0.03482
0.10994 0.00000 0.10616
-0.07301 0.05058 -0.19870
0.19630 -0.06236 -0.05362
0.08562 0.03185 -0.14121
-0.21367 0.00000 0.13921
-0.16461 0.22182 -0.00822
-0.10390 0.09569 -0.14121
-0.18355 0.28809 -0.03482
-0.21402 0.20313 0.18596
-0.21114 0.19355 0.01773
-0.21402 -0.29446 0.16280
-0.15601 -0.27366 -0.13231
-0.15708 0.16264 -0.14121
-0.00751 0.00000 0.13122
0.18307 -0.08538 -0.12386
0.16428 0.03482 0.15071
-0.11880 0.12652 -0.19870
-0.21402 0.00036 0.12270
-0.14649 0.29741 0.04433
-0.15216 0.19666 -0.11571
-0.13417 0.00000 0.11120
-0.14198 0.30474 -0.06237
-0.14675 -0.38997 0.19870
-0.14454 -0.26880 -0.16196
0.00464 0.06680 -0.19870
-0.13793 0.17788 0.05555
-0.08145 0.00000 0.01867
-0.19298 0.26034 0.04433
-0.21402 -0.03743 0.09209
-0.15242 0.26198 0.15071
-0.09510 0.06523 0.19870
-0.21402 -0.20451 0.15099
-0.19931 -0.17601 -0.19870
-0.16667 0.11420 -0.14121
0.07097 0.06221 -0.19870
-0.13793 0.15972 -0.17009
-0.09162 -0.06236 0.10720
-0.01896 0.00000 0.09038
-0.21402 0.04549 -0.10536
-0.19626 0.35929 -0.00822
-0.14062 0.29470 0.04433
-0.21402 -0.01406 0.09894
-0.21402 0.22151 -0.10663
-0.16485 0.32102 0.09764
-0.20237 0.32335 0.15024
-0.17039 0.33275 -0.11571
0.12752 0.09482 -0.16250
-0.05360 0.00000 0.03907
0.07494 0.13100 -0.19870
0.14261 -0.10358 -0.13805
-0.05179 0.00000 -0.10765
-0.10192 0.09482 -0.17297
0.10988 0.08228 -0.19168
0.17797 0.00000 -0.07296
-0.15449 0.00000 -0.07312
-0.20904 0.29713 -0.08852
0.02758 0.00000 0.12044
0.15543 0.13740 -0.17430
-0.17200 0.07886 0.15071
-0.11852 0.09482 -0.15316
-0.15271 0.30760 0.12306
0.14261 -0.19523 -0.18778
0.21402 -0.21027 -0.12800
-0.11284 -0.06236 0.17984
0.00794 0.10468 0.19870
-0.18810 0.33194 0.13699
-0.13871 0.26354 -0.14121
0.14351 -0.36675 0.16056
-0.21402 -0.17984 0.14072
0.17308 -0.06236 0.00791
-0.01928 0.00000 0.10813
-0.21025 0.00000 0.02948
-0.15150 0.00000 0.14810
-0.17925 0.03792 0.19870
-0.06018 -0.06236 0.07671
-0.13793 0.15150 -0.14281
-0.15593 0.02940 0.15071
-0.20811 0.17178 -0.08852
-0.17261 0.23761 -0.00822
-0.19917 -0.15445 -0.19870
0.01709 0.06447 0.16926
-0.00059 0.00000 -0.07909
-0.13793 0.22492 -0.14746
-0.20013 -0.06236 0.03650
-0.16960 -0.20233 -0.19870
-0.19314 0.34563 -0.03482
-0.16327 -0.30054 0.19870
-0.10073 -0.06236 0.08732
-0.19255 -0.28139 0.19870
-0.11959 -0.06236 -0.06900
-0.03295 -0.06236 0.08015
-0.13255 -0.05917 -0.19870
-0.21402 0.33924 -0.15155
0.14261 -0.09501 -0.17265
0.18481 -0.29127 0.19870
-0.17298 0.14431 0.04433
0.21189 0.00000 0.06860
0.10938 0.09704 0.17836
-0.21402 -0.11237 -0.17217
-0.14911 0.34147 -0.08852
0.20420 -0.19536 -0.12386
-0.21402 -0.01665 0.00371
-0.21402 -0.11823 -0.17872
-0.16563 -0.39124 0.12874
0.01709 0.02457 0.16506
-0.18988 0.15003 -0.11571
0.14261 -0.38978 -0.16460
-0.18493 0.22115 0.12306
-0.17245 0.30772 -0.06237
0.10434 0.00219 0.19870
-0.07872 0.00000 -0.07080
0.16638 -0.13820 0.19870
0.14281 -0.10733 -0.12386
-0.20125 -0.06236 0.10362
0.08226 0.00000 -0.08800
0.20456 -0.32738 -0.19870
-0.17919 0.25489 0.19870
0.17213 -0.07127 -0.12386
0.17424 -0.15357 0.12874
0.17946 -0.06236 -0.01087
0.20408 -0.13481 -0.12386
-0.19783 0.19520 0.12306
-0.20763 0.03922 -0.03482
0.14261 -0.22287 -0.16552
0.21402 -0.03555 0.12666
-0.13793 0.14262 0.17385
0.21402 -0.08677 -0.16710
-0.17549 0.02945 -0.03482
-0.21402 0.12709 0.00242
-0.21402 -0.04396 0.07366
0.10497 0.10708 -0.19870
-0.20971 0.19969 -0.00822
-0.14926 0.24014 -0.14121
-0.15363 0.35497 -0.00822
0.00035 0.12686 -0.14121
-0.19009 0.13752 0.19870
0.17795 -0.13558 0.19870
-0.19708 0.27782 0.07171
-0.06534 0.00000 -0.07522
-0.13793 0.14729 -0.16611
0.05141 0.00000 0.14222
-0.08114 0.07581 0.19870
-0.21000 0.18446 0.01773
-0.01508 0.00000 -0.06764
-0.05543 -0.06236 -0.12367
-0.10854 0.02703 -0.14121
0.09941 0.13740 -0.15246
-0.21402 -0.06122 0.14110
0.08061 0.01706 0.19870
-0.13793 0.33167 0.16343
-0.13793 0.14796 0.00624
-0.14993 0.06671 -0.19870
0.19173 -0.20449 0.19870
0.15885 0.07818 0.15071
-0.18967 0.32285 0.01773
-0.16241 0.13547 0.15071
-0.21402 0.09169 0.16871
-0.16305 0.18241 0.19870
-0.09708 -0.06236 -0.19057
-0.21402 0.10977 0.00873
-0.19103 0.14793 0.15071
0.21402 -0.02762 0.13577
-0.18693 0.38850 -0.10953
-0.18253 -0.24901 0.12874
0.16548 0.10132 -0.19870
0.17911 -0.31381 -0.12386
-0.05896 0.09704 0.16217
-0.18232 -0.40585 0.19176
-0.13983 0.35004 -0.06237
-0.17335 0.17414 -0.11571
-0.14493 0.29034 0.19870
-0.14544 0.28564 0.07173
-0.17813 0.12570 -0.03482
-0.13523 -0.06236 0.06689
-0.11044 -0.06236 0.19214
0.19829 -0.27273 0.12874
-0.07315 -0.06236 -0.04715
-0.17272 0.22424 0.07164
-0.21402 -0.05892 -0.05058
-0.18640 -0.39125 -0.19870
0.15344 0.00000 0.11549
0.17984 -0.21635 -0.19870
0.18146 -0.19645 0.19870
0.13751 -0.06236 0.08770
0.08841 0.00000 0.05068
-0.21402 -0.33063 -0.17763
-0.07854 0.01153 -0.19870
-0.15130 -0.38630 0.19870
-0.04595 -0.06236 -0.05475
-0.00866 -0.05341 0.19870
-0.17025 0.00415 0.04433
-0.09975 0.08958 -0.14121
-0.11432 0.00000 -0.10875
-0.19639 0.25848 -0.14121
-0.12573 0.11318 -0.14121
-0.21023 0.06088 0.01773
-0.11108 0.12091 -0.19870
0.00215 -0.06236 0.05207
-0.06853 0.00000 -0.12835
0.09770 0.01251 -0.14121
-0.00818 0.00000 -0.03810
-0.19473 0.09775 -0.19870
0.16228 -0.06236 0.05812
0.16494 -0.06236 -0.02473
-0.21402 0.17147 0.15458
-0.15917 0.15846 -0.19870
-0.21402 0.17714 0.11310
-0.21402 0.12578 0.10154
-0.20965 0.32820 -0.13326
0.21097 -0.40585 -0.18676
-0.15260 0.16419 -0.03482
-0.13912 0.04329 -0.16192
-0.17765 -0.26567 0.12874
-0.13636 -0.30631 0.19870
0.06947 -0.06236 0.11448
-0.15680 0.17689 -0.08852
-0.16808 -0.22534 0.12874
-0.09082 -0.06236 0.13009
-0.19980 0.17618 0.19870
0.06095 -0.06236 0.19350
-0.21402 -0.11819 -0.19195
-0.15530 0.35079 0.09764
-0.15098 -0.05586 -0.19870
-0.15581 0.11655 0.15071
-0.13565 -0.13825 0.17416
-0.15382 0.20413 0.07161
-0.19941 0.25907 -0.08852
0.02451 -0.06236 0.13398
-0.13793 0.35901 -0.13811
-0.14509 -0.06236 0.10926
-0.18016 -0.06236 -0.10548
-0.21139 0.15563 0.01773
0.16223 0.00767 0.19870
0.00413 -0.04624 -0.19870
-0.08245 0.00000 -0.02894
-0.03692 0.00000 0.04115
-0.08182 0.13634 0.15950
-0.21402 0.01807 -0.10745
-0.21337 0.08129 0.09764
0.21402 -0.36023 -0.13434
0.12701 -0.06236 -0.08340
-0.16908 0.18691 -0.14121
0.03780 0.00000 -0.13438
0.10233 -0.06236 -0.18335
-0.21402 0.34673 -0.05749
0.10790 0.00000 0.09399
0.14351 -0.20496 0.16369
0.16575 0.00000 0.01021
0.06407 -0.06236 0.11853
0.20116 0.12547 -0.16416
-0.21402 0.26573 -0.14851
0.17118 -0.30667 0.12874
-0.13793 0.30413 0.17784
-0.21402 0.10948 0.16939
-0.13158 0.07184 0.17433
-0.20106 0.12777 -0.03482
-0.15988 0.15154 0.12306
0.21366 -0.29564 -0.19870
-0.20320 0.11863 -0.06237
-0.18468 0.25712 0.15071
0.21402 -0.17108 -0.16974
-0.19923 -0.16905 0.12874
0.13925 0.13634 0.16945
-0.16481 0.16651 0.09764
0.11141 0.00000 0.11885
-0.05329 -0.06236 0.15725
0.14261 -0.34128 -0.16487
-0.21402 0.19422 -0.17825
-0.20433 0.04881 0.12306
0.21402 0.06982 -0.16790
0.21402 -0.19576 -0.12822
-0.13793 0.21263 0.05287
0.19290 -0.33424 0.12874
0.14261 -0.39471 -0.13201
-0.18885 0.09533 0.19870
0.20485 -0.33456 0.12874
0.06186 -0.06236 -0.14734
0.17901 0.00000 0.03240
-0.20167 0.03480 0.12306
-0.17403 -0.06236 -0.09845
-0.14091 -0.39090 0.12874
-0.18408 0.29967 0.01773
0.13147 -0.06236 0.11998
-0.21402 -0.38858 -0.13631
-0.13565 -0.36299 0.14612
0.21402 -0.39187 0.18052
-0.10642 0.09482 -0.16438
-0.20658 -0.30189 -0.19870
-0.16888 0.11876 -0.06237
-0.19487 0.40155 -0.05261
-0.16618 -0.09018 -0.19870
-0.13793 0.11272 -0.09546
0.19755 -0.14165 0.12874
0.21402 -0.35181 -0.15127
-0.14454 -0.08797 -0.14427
-0.10488 0.00000 -0.00816
-0.10180 0.09349 0.16354
-0.13860 0.11038 0.15071
0.21402 -0.03279 -0.00855
-0.17197 0.03139 0.09764
0.18962 -0.20052 0.12874
-0.07231 0.12997 0.15071
0.13845 0.09578 0.19869
-0.13793 0.39322 -0.07807
0.16271 -0.17182 0.19870
0.13875 -0.06236 0.04200
0.20115 0.00000 0.02400
-0.15375 0.08515 -0.14121
-0.02039 -0.06236 -0.11635
0.21402 -0.29501 0.18245
-0.05687 0.13740 -0.15853
-0.10386 0.09704 0.19200
-0.21099 -0.26938 -0.19870
-0.19141 -0.36162 -0.19870
-0.16390 0.17906 -0.19870
-0.13581 0.21443 -0.04144
-0.19612 0.27328 -0.03482
-0.21402 -0.06089 0.01750
-0.16873 0.22813 0.07164
-0.21402 -0.26304 -0.18500
0.10425 0.08731 0.15071
0.14351 -0.11171 0.17735
-0.13939 0.08769 -0.00822
0.14261 -0.14309 -0.14029
-0.14454 -0.35796 -0.17428
-0.13581 0.00374 -0.04565
-0.10772 0.10628 0.15071
-0.19635 0.03639 0.19870
-0.07570 0.07799 0.15071
-0.21402 0.31257 0.19443
-0.17852 0.24404 0.09764
-0.21402 0.28167 0.18063
-0.08008 0.13634 0.17230
-0.01241 0.09738 0.19870
0.17218 -0.36649 0.19870
-0.20276 0.27228 0.12306
0.10785 0.08293 0.17565
-0.21402 -0.04896 -0.13257
0.18094 -0.11292 0.19870
0.19998 -0.40585 0.16771
-0.10180 0.05799 0.17921
0.12515 -0.02985 0.19870
-0.20941 0.12228 -0.08852
0.00368 0.10211 0.15071
-0.20054 0.34427 -0.06237
0.21402 -0.00402 0.04047
0.15117 -0.37703 -0.19870
0.10988 0.01437 -0.17565
0.09035 0.07636 0.15071
0.08530 0.10899 -0.19870
-0.19910 0.30188 -0.03482
-0.18722 0.18750 -0.19870
-0.05165 -0.06236 0.03094
-0.21402 -0.05535 0.10975
0.14096 0.02469 -0.15147
0.14342 -0.08429 -0.12386
0.16732 -0.04095 0.19870
-0.21402 0.16848 -0.16950
0.00748 -0.06236 0.04182
-0.21402 -0.25677 -0.15070
0.21402 0.10057 0.19157
0.14261 -0.13061 -0.12435
-0.21402 0.06325 0.10259
-0.19231 -0.20341 -0.13231
-0.13793 0.36479 -0.06820
0.21402 -0.08345 0.18886
0.01709 0.03306 0.15533
-0.00228 0.03560 0.19870
-0.04409 -0.01456 -0.19870
0.16164 0.09485 0.19870
-0.21402 0.31147 0.12022
0.21402 -0.22456 0.16790
0.01250 0.09482 -0.16691
-0.19475 -0.26210 -0.13231
-0.20579 0.19226 -0.14121
0.18924 -0.02029 -0.19870
-0.19379 -0.25844 -0.19870
-0.21402 -0.32932 -0.16475
-0.07214 0.04619 0.19110
0.07227 0.01898 0.17686
0.08060 -0.06236 -0.15956
0.00460 0.12479 -0.19870
0.14261 -0.36303 -0.19361
-0.21402 0.06217 0.15169
0.21402 -0.32970 0.18061
-0.21402 0.01845 -0.14419
-0.17110 0.02093 0.09764
-0.21342 0.14063 -0.14121
-0.00984 -0.00577 0.19870
-0.14918 -0.12537 -0.13231
-0.13793 0.35107 0.05701
-0.16262 0.38728 0.11296
-0.13793 0.00711 -0.00159
0.11632 -0.03976 0.19870
-0.20344 0.27091 0.07170
0.21402 0.01791 -0.16994
-0.13793 0.36011 0.12190
-0.03618 0.00000 -0.02735
0.02710 0.05232 -0.15528
-0.13793 0.18305 -0.11168
-0.19290 0.13497 -0.19870
-0.10180 0.05100 0.19174
-0.16181 0.04388 -0.08852
0.18322 -0.02187 -0.19870
0.10562 0.00598 -0.19870
-0.21402 -0.08306 -0.15219
0.21402 -0.04881 0.01777
-0.14824 0.36866 -0.02343
0.01456 0.09704 0.16621
0.14351 -0.37162 0.16492
-0.11341 -0.04528 -0.19870
-0.16625 -0.21012 -0.19870
-0.01512 0.05355 -0.14839
-0.14556 -0.17833 0.19870
-0.16779 0.00000 -0.07254
-0.21112 -0.06236 -0.12813
0.03965 0.13634 0.16257
-0.15618 0.21492 0.07163
-0.09482 0.00891 -0.14121
-0.01256 0.05353 0.16147
0.10794 -0.02455 0.19870
-0.12625 -0.06236 -0.12427
-0.17144 0.27835 -0.11571
-0.13549 -0.04960 0.19870
0.02116 0.02068 -0.19870
-0.18615 0.02413 -0.19870
-0.13565 -0.13027 0.14619
0.20985 0.09860 -0.19870
-0.01847 0.13634 0.18296
-0.02441 -0.06236 -0.12332
-0.18260 0.12465 -0.08852
-0.18782 -0.08307 -0.13231
-0.16963 0.33590 -0.12136
-0.13793 0.26456 -0.19075
-0.14479 0.23123 0.01773
-0.10007 0.03945 0.15071
0.01045 0.13432 0.15071
0.03218 -0.06236 -0.00776
-0.16465 0.17229 0.15071
-0.15924 0.39220 -0.09714
0.03596 -0.06236 -0.10039
0.05589 0.10154 0.19870
0.20246 -0.36090 0.19870
0.14351 -0.32684 0.17872
0.16251 -0.33331 0.19870
-0.19371 0.16625 0.12306
-0.16095 0.14825 0.01773
-0.18180 -0.38370 -0.13231
-0.19320 0.24407 0.09764
-0.11304 0.00000 -0.09394
-0.21402 -0.20253 -0.14039
0.07576 0.00000 -0.12697
0.14351 -0.22506 0.19012
-0.14954 0.33133 -0.11571
-0.13793 0.38458 -0.06008
-0.14366 0.19636 -0.06237
0.18719 -0.05095 -0.19870
-0.14454 -0.30265 -0.16158
-0.21402 -0.19342 -0.18907
0.04850 0.12272 -0.14121
0.16697 -0.21493 -0.12386
0.06546 -0.06236 -0.04156
-0.17331 0.24562 -0.19870
-0.11327 0.00000 0.02570
-0.17797 0.07856 -0.03482
-0.14454 -0.08396 -0.17976
-0.19031 -0.05451 0.19870
-0.18017 0.14749 0.12306
-0.19182 0.28846 -0.19870
0.00695 0.00000 0.07407
-0.21402 0.23214 0.06345
0.14351 -0.21513 0.17027
-0.21402 0.26878 0.11795
-0.18076 0.14320 0.19870
-0.14454 -0.33630 -0.18282
0.15684 -0.16094 0.19870
-0.05228 -0.03527 0.19870
0.21402 -0.30975 -0.19144
-0.04158 0.09482 -0.15008
0.21402 -0.02254 0.00046
0.14261 -0.21299 -0.16674
-0.16591 -0.23767 0.12874
-0.21402 -0.30666 0.18307
0.14096 0.05109 -0.18191
-0.17332 0.04320 -0.00822
-0.21402 0.07497 0.19405
0.16468 -0.40585 -0.15279
-0.18623 0.00379 0.09764
-0.17743 0.16208 -0.03482
0.21402 -0.01909 0.13466
-0.18130 0.16034 -0.11571
-0.21402 -0.00461 0.10898
-0.21402 0.15812 -0.10261
0.05243 -0.06236 -0.16814
0.11337 0.10899 0.15071
-0.05140 -0.06236 -0.18903
0.03191 -0.06236 0.01622
-0.19677 0.15012 0.19870
0.15932 -0.22784 0.12874
-0.20783 -0.06236 0.00714
-0.19030 -0.09008 -0.13231
-0.17233 0.29126 0.04433
-0.20930 0.25348 -0.19870
0.14261 -0.20514 -0.16997
-0.17871 -0.33406 -0.13231
-0.13581 0.26971 -0.05316
-0.11078 0.13740 -0.18612
-0.18205 -0.06236 0.02329
0.20055 0.02267 0.15071
-0.13581 0.34158 -0.03690
-0.15831 0.31258 -0.19870
-0.17444 -0.12496 -0.19870
-0.21402 0.29898 -0.18526
0.21402 0.00247 -0.16266
0.21402 -0.05578 0.09031
-0.20392 0.10379 0.01773
0.11699 -0.03004 0.19870
-0.01256 0.05220 0.18453
0.21402 -0.10823 0.17856
0.21402 0.07362 -0.18974
-0.20494 0.11079 -0.08852
-0.20744 -0.06236 -0.04458
-0.13793 0.37039 -0.10805
-0.11575 -0.06236 0.07260
0.20949 -0.25149 0.12874
-0.11640 -0.06236 0.09276
-0.13624 0.07297 0.15071
-0.13793 0.13894 -0.17548
-0.21240 0.36924 -0.15716
-0.11390 -0.06236 -0.04771
-0.17225 0.09718 -0.00822
-0.17571 0.27422 -0.08852
-0.21402 0.12507 -0.14601
-0.21402 -0.18462 -0.17296
-0.20667 0.03425 0.04433
-0.14999 0.32910 0.12306
-0.18135 0.00852 -0.06237
-0.13943 0.09222 0.19870
-0.13793 0.37738 0.08653
0.15304 -0.12799 0.19870
0.13067 0.12637 -0.14121
-0.19329 0.05629 0.12306
-0.21402 0.35854 0.00836
-0.21402 0.13515 -0.05042
0.14351 -0.30356 0.16560
0.14261 -0.39646 -0.16720
-0.00031 0.05335 -0.19870
-0.15563 0.05126 0.15071
-0.15146 -0.36264 0.19870
0.21402 -0.19939 0.18644
-0.19446 -0.38626 0.12874
-0.03872 -0.06236 0.18169
0.02066 -0.01397 -0.19870
0.04288 -0.06236 0.04531
0.08244 -0.06236 -0.09534
-0.13793 0.09574 0.06242
0.18569 -0.27414 -0.12386
0.14351 -0.22174 0.16606
-0.21402 0.16024 -0.18471
-0.17528 0.26298 0.04433
-0.05481 0.13740 -0.14408
-0.20449 0.30009 0.15071
0.20598 -0.29289 -0.12386
-0.13793 0.29805 0.10084
-0.12603 -0.06236 0.19617
-0.21402 0.39246 0.00708
-0.13814 0.22101 -0.19870
-0.21360 0.31895 -0.03482
-0.15558 0.20424 -0.03482
0.14261 -0.24009 -0.16688
-0.18671 -0.40585 0.18891
-0.00881 0.00734 0.19870
0.21134 -0.06236 -0.10805
-0.11948 0.10028 -0.19870
0.06583 0.09482 -0.17996
0.03908 0.00000 -0.10931
0.19337 -0.20781 0.12874
-0.19649 -0.36555 -0.13231
-0.13565 -0.14452 0.16766
0.14351 -0.09225 0.16101
-0.18890 0.39307 0.09363
-0.16930 0.30873 0.15071
-0.05381 -0.06236 -0.09117
-0.21331 0.36287 -0.17026
0.17762 0.00000 -0.06074
-0.21402 0.26295 -0.18067
-0.20684 0.17874 -0.14121
-0.21402 0.06103 0.19675
-0.15887 0.27443 0.12306
0.21348 -0.20516 -0.19870
0.19297 0.00000 0.05230
-0.11468 0.13395 0.19870
-0.13967 0.03381 0.09764
-0.12720 0.11916 0.19870
-0.21402 0.26671 0.00607
-0.12859 0.00000 -0.07754
-0.05557 -0.06236 -0.19838
-0.15099 0.00000 0.07305
0.04247 -0.06236 -0.10684
-0.13825 0.40427 -0.03234
0.20151 0.00000 -0.03191
0.07227 0.02783 0.19697
-0.14158 0.33267 -0.06237
-0.17831 0.05541 -0.06237
0.11743 0.09704 0.15318
-0.17849 0.40529 0.01141
-0.21402 -0.37687 0.17922
-0.09031 0.05991 0.15071
-0.01073 0.13053 -0.14121
-0.13158 0.03652 0.19829
-0.12979 -0.06236 -0.09857
-0.04015 -0.06236 0.10644
-0.20045 0.09802 0.04433
-0.13565 -0.28252 0.14781
-0.04559 0.13634 0.16071
-0.15099 0.31324 -0.14121
0.21402 -0.21067 0.15253
-0.14454 -0.33959 -0.13650
-0.19872 -0.05884 0.19870
-0.15992 0.27706 -0.00822
-0.19269 -0.26829 0.19870
-0.14711 0.15202 -0.03482
-0.13565 -0.37630 0.18010
0.14261 -0.08404 -0.12993
0.18598 -0.37430 -0.19870
-0.03914 -0.06236 -0.12968
-0.13025 0.12115 -0.14121
-0.16726 -0.39915 0.12874
-0.21402 -0.06499 -0.14523
0.21402 -0.33138 0.16622
-0.14454 -0.24102 -0.16548
0.10752 0.00000 -0.13445
-0.14820 0.06440 0.04433
-0.13793 0.18466 0.00398
-0.13793 0.39575 0.01114
0.14261 -0.33707 -0.17333
-0.19223 0.00000 0.09305
-0.13793 0.16075 -0.18134
0.21402 -0.29872 -0.13121
0.15646 -0.40477 -0.12386
-0.21402 -0.05521 0.05996
0.21402 -0.25204 0.15710
-0.13793 0.20742 -0.09911
-0.15613 0.07754 -0.06237
0.21402 0.02014 0.16465
0.15670 -0.09145 -0.19870
0.03050 0.00010 -0.18040
-0.17296 -0.33342 -0.19870
-0.19634 0.11386 0.04433
0.19339 0.00000 -0.05865
0.17554 -0.24981 0.19870
0.21037 -0.17742 -0.12386
-0.19769 0.13509 -0.11571
-0.17853 0.36759 0.03973
-0.20331 0.34629 -0.19812
0.14096 0.02818 -0.17955
0.14351 -0.23106 0.14964
-0.21402 -0.08300 -0.14479
0.15007 0.13740 -0.19448
0.21402 -0.01362 0.16978
0.10785 0.03201 0.18272
-0.13581 0.11327 -0.03639
0.21402 -0.36031 -0.16327
-0.14720 0.12356 -0.00822
0.07215 0.12213 0.15071
-0.13652 -0.06236 -0.13111
-0.13793 0.30852 0.06004
0.19973 -0.06236 -0.02796
0.13936 -0.06236 0.04889
0.15143 -0.06236 -0.02858
0.14351 -0.17152 0.18796
-0.18091 0.01797 0.15071
-0.14454 -0.28071 -0.18210
-0.13565 -0.15729 0.15986
-0.06025 0.10289 -0.14121
0.10785 0.02132 0.16920
0.08244 -0.06236 -0.07673
-0.14454 -0.31260 -0.13442
-0.14211 -0.00640 -0.19870
0.17860 -0.30602 0.19870
0.21402 -0.04183 -0.10497
-0.10741 0.08753 -0.14121
-0.16082 0.06248 0.01773
-0.14295 0.19841 0.01773
0.18741 -0.13391 -0.12386
-0.11273 0.00000 0.11249
-0.16572 0.28735 -0.11571
-0.19404 0.16467 0.01773
-0.20625 0.19717 -0.11571
-0.20592 0.20800 -0.03482
-0.16605 0.24083 0.01773
-0.02549 -0.06236 0.13670
-0.20909 0.08569 -0.14121
-0.04216 -0.06236 0.03994
0.20076 0.12586 -0.14191
-0.11635 0.00023 -0.15289
0.12285 -0.03962 0.19870
-0.01404 0.08347 -0.19870
-0.13793 0.21230 0.16886
-0.19632 0.04290 0.04433
0.06581 0.09704 0.18714
-0.13793 0.21024 -0.16528
0.06882 0.02931 -0.18928
0.21402 -0.18328 0.18890
