0.01159 -0.21108 -0.09135
0.26589 -0.19840 -0.02391
0.02011 -0.23248 -0.02057
0.03422 -0.25493 0.00235
0.24344 -0.31146 -0.09065
-0.00700 -0.24253 -0.00327
0.14835 -0.20661 0.08765
-0.11820 -0.09782 0.10944
0.24734 -0.18682 0.06822
0.26499 -0.21004 0.00925
-0.24878 0.24103 0.08288
0.26589 -0.32019 0.04938
0.30294 -0.17570 -0.05106
-0.30306 0.31543 0.04399
-0.13743 -0.09782 0.18892
-0.23451 0.21250 0.00477
0.13307 -0.18678 0.02634
-0.02589 -0.32177 -0.04621
0.13202 -0.20988 0.02085
0.01951 -0.23248 -0.07977
-0.11567 -0.08493 0.11247
0.20871 -0.17165 0.05126
-0.13035 0.00417 -0.11031
0.26589 -0.31238 0.12670
0.24344 -0.31120 -0.11136
-0.13811 -0.09314 0.04871
0.24344 -0.30806 -0.08776
-0.16220 0.01770 0.02097
0.24549 -0.32226 0.14378
-0.02589 -0.30390 -0.10984
-0.07463 -0.15746 0.10471
-0.13811 -0.09015 -0.14804
0.00172 -0.31016 0.10953
0.26247 -0.29982 -0.19923
0.30221 -0.17584 0.09790
-0.13400 -0.07537 0.20862
0.25249 -0.21004 -0.04815
-0.02341 -0.29982 -0.09760
-0.27522 0.24372 0.00195
-0.25417 0.25181 -0.10841
-0.07452 -0.15767 0.02308
-0.02359 -0.32226 -0.01396
-0.00345 -0.30235 0.01137
0.07113 -0.22206 0.10943
0.20159 -0.17308 0.00453
-0.28628 0.26585 0.11147
-0.15181 -0.00309 0.03476
-0.26713 0.24604 -0.11222
0.00457 -0.31585 0.07994
0.08248 -0.19690 -0.03443
-0.13671 -0.03329 0.00910
0.04144 -0.25438 -0.09681
-0.13288 -0.08043 0.22445
-0.13811 -0.09235 0.13929
0.26117 -0.21004 0.04441
0.01900 -0.25278 -0.06937
-0.23196 0.20740 0.00196
0.00325 -0.31321 -0.04415
0.26589 -0.18964 0.18107
-0.10437 -0.04779 -0.06490
-0.10278 -0.05096 -0.03578
-0.11567 -0.07633 0.11538
-0.02801 -0.22102 0.12450
0.25075 -0.32226 -0.18333
-0.13811 -0.09723 -0.05527
-0.00813 -0.24027 0.05132
0.24393 -0.21004 -0.15290
-0.11844 -0.07537 -0.19885
0.04281 -0.22772 -0.12555
0.00316 -0.31304 -0.05188
0.24623 -0.32226 -0.02881
0.00677 -0.27006 -0.09477
-0.06379 -0.12894 0.04827
0.02186 -0.30025 -0.03371
0.30727 -0.16339 -0.05338
0.01298 -0.21080 -0.03012
-0.24661 0.23670 0.07887
0.02197 -0.20900 0.11109
0.24344 -0.19554 -0.08544
-0.25785 0.20899 0.09254
0.04144 -0.24299 0.11285
-0.12004 -0.09782 -0.06797
-0.02690 -0.20272 0.01931
0.02616 -0.25493 -0.19412
-0.30264 0.31564 0.00339
-0.17548 0.09444 -0.08111
-0.02732 -0.25207 0.00502
-0.01714 -0.23971 0.05393
0.28065 -0.17642 -0.13467
0.24689 -0.16402 0.02458
-0.26472 0.22272 0.06315
-0.02035 -0.32226 -0.03445
0.24344 -0.31019 -0.17658
-0.17891 0.05110 0.08196
-0.20863 0.16073 -0.00692
-0.12331 -0.07537 0.19154
0.18347 -0.17670 0.00754
0.07694 -0.19801 -0.08569
-0.11461 -0.02729 -0.03814
-0.20952 0.11233 0.05998
0.00901 -0.27454 -0.05461
-0.12193 -0.01266 0.06855
0.00658 -0.29381 -0.11222
0.05300 -0.20280 0.02017
-0.16143 0.06634 -0.00300
0.25707 -0.32226 -0.11986
-0.17211 0.08769 -0.09443
-0.02015 -0.29982 0.08345
0.02261 -0.20887 0.08937
0.24344 -0.19276 -0.00314
-0.04779 -0.21113 -0.05588
0.30569 -0.15548 -0.04620
-0.11567 -0.08982 0.14440
0.09700 -0.21688 0.07254
-0.14236 0.02820 0.02236
0.03282 -0.25493 0.08532
-0.00484 -0.24683 0.06090
0.24896 -0.18760 0.14286
0.26589 -0.20165 0.05012
-0.02461 -0.29982 0.07954
-0.01931 -0.32226 -0.11396
-0.10037 -0.05579 0.01082
-0.25189 0.19707 -0.07001
-0.18521 0.11389 0.00669
-0.12500 -0.05671 -0.02431
-0.06885 -0.11882 0.08495
0.02107 -0.23248 0.10740
-0.13811 -0.09689 -0.19387
-0.07048 -0.16575 -0.09756
-0.12067 -0.06537 -0.03617
0.23074 -0.16725 0.01163
0.09522 -0.19435 -0.01421
0.08088 -0.19722 -0.11372
0.26072 -0.21004 0.15780
-0.19176 0.12699 0.03669
-0.01178 -0.29982 0.15284
0.02533 -0.23248 -0.07375
0.03088 -0.20722 0.08076
-0.13273 -0.09782 -0.13465
-0.00668 -0.29336 0.10528
-0.13294 -0.04083 0.03062
-0.02487 -0.31004 -0.20200
-0.11151 -0.08369 0.06320
0.01754 -0.23125 0.13467
0.01967 -0.23235 -0.07263
0.19520 -0.19725 -0.05703
0.01685 -0.23292 0.02303
-0.26175 0.21679 0.10085
0.10523 -0.19235 0.03300
-0.24975 0.19279 -0.05608
-0.11963 -0.06745 -0.01569
0.02142 -0.25493 0.13356
-0.05065 -0.18958 -0.11222
0.03954 -0.25493 0.12782
0.00163 -0.30997 0.02656
0.24344 -0.20283 -0.16514
-0.00774 -0.29123 -0.10879
-0.12533 -0.00586 -0.01671
0.29335 -0.15473 0.09023
-0.00723 -0.32226 0.12048
0.15114 -0.20606 0.01599
-0.00682 -0.31206 0.20200
0.03196 -0.22989 -0.10166
-0.02589 -0.30536 0.09553
0.26589 -0.18948 -0.17822
-0.14849 0.04045 -0.03807
0.27051 -0.18218 -0.03624
0.03459 -0.23248 0.11191
-0.15821 0.05900 0.11222
0.25914 -0.32226 -0.19279
0.04144 -0.25181 0.19814
-0.26909 0.26116 -0.11222
-0.02573 -0.29982 0.11869
0.24344 -0.31397 0.04558
-0.12413 -0.07537 0.07160
-0.06427 -0.17817 -0.04671
0.20116 -0.17316 0.05894
0.02164 -0.25493 -0.15830
0.24483 -0.29982 -0.10280
0.24526 -0.16434 0.10806
0.26250 -0.32226 0.04665
0.09748 -0.19390 0.05336
0.24344 -0.31711 0.11717
-0.11567 -0.08820 -0.17444
0.23405 -0.16659 0.02187
0.05863 -0.20167 -0.11526
-0.13811 -0.07906 -0.10728
0.24344 -0.18961 0.10495
-0.00727 -0.32226 -0.01457
0.25921 -0.29982 0.11478
0.01803 -0.29258 0.08646
-0.28518 0.26365 -0.07759
0.28969 -0.17835 0.01216
0.26589 -0.19198 0.12459
0.09302 -0.19479 0.06890
-0.08559 -0.13553 0.03854
-0.26725 0.27797 -0.11191
0.24344 -0.20671 -0.09854
-0.11868 -0.07537 -0.20418
0.26589 -0.19861 -0.16124
-0.08013 -0.09626 -0.00732
-0.29183 0.27694 -0.00465
-0.13811 -0.08713 -0.06012
-0.05800 -0.19071 0.01056
0.00483 -0.23319 -0.13467
-0.00789 -0.23786 -0.00917
0.03928 -0.25493 -0.13920
0.05393 -0.22550 -0.11626
0.24344 -0.20765 0.17582
0.26513 -0.21004 -0.09510
0.02059 -0.29770 0.08270
-0.12500 -0.05671 -0.01923
-0.16194 0.01716 0.03780
-0.11567 -0.08142 0.17469
0.26589 -0.30749 -0.19499
0.26341 -0.29982 0.13095
-0.11982 -0.09782 0.12480
0.11089 -0.21411 0.09397
-0.03237 -0.24197 -0.03816
-0.08538 -0.13595 0.00905
-0.01700 -0.32226 0.01369
0.01900 -0.25104 -0.10050
-0.06635 -0.17401 -0.01675
0.24344 -0.31564 -0.11037
0.00960 -0.27572 -0.04128
-0.21501 0.17350 0.03894
-0.03464 -0.18725 -0.08735
-0.02322 -0.26028 -0.04061
0.26545 -0.18319 -0.08655
-0.08315 -0.09023 -0.05082
0.27044 -0.15931 0.09429
-0.11845 -0.09782 0.00818
0.24752 -0.18760 -0.15320
0.27241 -0.15891 -0.08342
0.05521 -0.22524 -0.06565
-0.27473 0.29293 0.06012
-0.12300 -0.07537 0.04574
-0.04281 -0.17090 0.04835
-0.00345 -0.29984 0.12983
0.26337 -0.21004 -0.05539
-0.20667 0.15682 -0.04611
0.00134 -0.25920 0.06965
0.02988 -0.23248 -0.03726
-0.15659 0.00646 0.08420
0.29392 -0.17750 -0.07115
0.01900 -0.24999 -0.08621
-0.11712 -0.07537 0.06588
-0.02557 -0.25557 -0.07544
0.29220 -0.15496 -0.01358
0.01773 -0.20985 0.08027
0.01822 -0.23264 -0.11865
0.01900 -0.25212 -0.05510
-0.13578 -0.07537 0.13016
-0.02293 -0.24087 0.09710
0.25709 -0.32226 -0.03264
-0.07632 -0.10388 -0.07570
0.13253 -0.18689 0.00791
0.26515 -0.29982 -0.05529
-0.12900 0.00148 -0.05982
0.02587 -0.23248 -0.16163
-0.03207 -0.19238 0.00776
0.03618 -0.23248 0.19605
0.08556 -0.21917 0.09738
-0.13811 -0.08937 0.04361
-0.12849 0.00045 -0.05517
-0.12307 -0.07537 0.17287
-0.13811 -0.08952 0.16497
0.04144 -0.25348 0.16993
0.03720 -0.23248 -0.03182
0.14186 -0.20791 -0.09699
0.26589 -0.31333 0.04898
-0.12050 -0.01552 0.06213
0.30318 -0.15276 -0.10614
-0.13811 -0.08657 -0.22232
0.30596 -0.15686 -0.07334
-0.07970 -0.14731 -0.04807
0.25126 -0.29982 -0.08819
-0.02177 -0.21298 -0.01116
-0.03388 -0.18876 0.11055
-0.02589 -0.31893 -0.06533
-0.02293 -0.21066 -0.04428
-0.16112 0.06572 0.02293
-0.02076 -0.26520 0.05180
0.11902 -0.18959 0.05310
-0.19544 0.13435 0.10421
0.24344 -0.20525 -0.02982
-0.24430 0.23208 -0.00951
-0.22238 0.13805 0.00184
0.26295 -0.16081 -0.05291
-0.12249 -0.07537 0.03479
-0.26618 0.22565 0.09274
-0.03017 -0.23986 0.11222
-0.24510 0.23368 -0.05342
-0.10394 -0.04865 0.10589
0.27287 -0.15882 0.04264
-0.02589 -0.31152 -0.16073
0.09367 -0.21755 -0.09099
0.08388 -0.20696 -0.13467
-0.21585 0.17518 -0.09071
-0.11567 -0.07597 0.05961
-0.21044 0.11416 0.11002
-0.13220 0.00787 -0.00712
0.02804 -0.24721 -0.20200
-0.02589 -0.30466 -0.02478
-0.10008 -0.10655 -0.04679
-0.25982 0.26311 -0.06392
0.25135 -0.29982 -0.10258
-0.01332 -0.22989 0.05483
0.00229 -0.21294 -0.10196
0.26589 -0.19725 0.15764
0.19969 -0.18025 0.13467
0.26589 -0.19360 -0.10154
-0.00345 -0.29997 -0.08576
-0.02499 -0.20653 0.07919
0.18205 -0.19987 0.00034
-0.25045 0.19419 -0.10133
-0.07475 -0.10702 0.11196
0.01822 -0.20975 -0.05723
-0.12495 -0.00663 0.10109
-0.03553 -0.23565 -0.10838
-0.13811 -0.08914 0.06436
-0.00345 -0.30594 0.11056
-0.07783 -0.15106 0.08412
-0.01281 -0.32226 0.03333
-0.00345 -0.31114 -0.06392
-0.02589 -0.31455 0.06517
-0.11567 -0.07844 -0.09256
0.16816 -0.20265 -0.10361
-0.16893 0.08133 0.06629
-0.01796 -0.32226 0.00042
0.03526 -0.23248 0.10086
0.04172 -0.20505 -0.07698
0.05233 -0.22582 0.09491
-0.20615 0.10560 0.07485
0.09345 -0.20441 -0.13467
0.09666 -0.19406 -0.10788
-0.02589 -0.31891 -0.16452
-0.03249 -0.19154 0.02357
-0.12945 0.00237 0.00377
-0.00345 -0.31809 -0.16867
0.01900 -0.23797 -0.00459
-0.07402 -0.15867 -0.09142
-0.12950 -0.09782 -0.07675
-0.25275 0.19879 -0.07972
-0.18515 0.10329 -0.11222
0.26589 -0.30381 -0.08459
0.14903 -0.18359 -0.02381
-0.12086 -0.01482 0.04917
-0.12371 -0.07537 -0.17481
-0.19991 0.09310 -0.02710
0.07288 -0.19882 -0.04961
-0.10144 -0.05364 -0.02640
0.24698 -0.20271 -0.20200
-0.02046 -0.29982 -0.09008
-0.29055 0.27439 -0.00982
-0.13811 -0.08054 0.21553
-0.03350 -0.23971 0.10241
-0.02626 -0.22977 -0.03722
-0.13244 -0.07537 0.16206
0.19699 -0.17400 -0.09851
0.07051 -0.22218 0.06379
0.03717 -0.25493 -0.15388
0.00512 -0.31694 -0.10855
-0.11567 -0.08278 -0.04280
0.01535 -0.29014 -0.11222
0.24775 -0.29982 -0.02487
0.00960 -0.23436 -0.06860
0.03022 -0.25493 0.17546
-0.00261 -0.21392 0.01054
0.02173 -0.20905 -0.04744
-0.11567 -0.07723 -0.17985
-0.10537 -0.09598 0.03720
0.25540 -0.18521 -0.00763
0.26589 -0.20068 -0.12040
-0.15609 0.00546 -0.08854
-0.01501 -0.27670 0.01700
-0.21399 0.17146 0.07251
-0.12639 -0.09782 0.13269
0.26589 -0.30984 -0.12848
0.00504 -0.21239 -0.11925
0.24344 -0.19435 0.16122
-0.03279 -0.19511 -0.11222
-0.20043 0.09414 -0.09359
-0.06837 -0.16997 -0.03747
-0.19570 0.13488 -0.08330
-0.14705 -0.01261 0.01159
-0.29035 0.27399 0.07074
0.24344 -0.31940 0.17830
0.03966 -0.21441 -0.13467
-0.12412 -0.07537 -0.08461
-0.05501 -0.14651 -0.04479
-0.24116 0.17560 -0.08588
0.22784 -0.19072 -0.03618
0.26589 -0.29999 -0.06256
-0.25047 0.24442 -0.00053
0.04457 -0.22737 0.11353
0.01900 -0.23990 -0.04436
0.01470 -0.28593 0.07358
-0.26112 0.26572 -0.08125
0.26589 -0.18879 -0.18311
-0.20583 0.10597 0.11222
-0.00306 -0.21401 -0.09039
0.16931 -0.17953 0.10121
0.04144 -0.25194 0.16134
-0.01222 -0.28228 0.05141
-0.02114 -0.29982 -0.11238
0.26589 -0.20468 0.10161
-0.02054 -0.26564 -0.03455
-0.11404 -0.03090 0.11222
-0.00345 -0.30325 -0.09801
-0.02589 -0.30228 -0.15836
0.14379 -0.19798 -0.13467
-0.12061 -0.06550 0.01617
-0.11567 -0.09272 -0.05970
-0.11567 -0.07700 0.15710
0.25329 -0.18563 0.10670
-0.25190 0.19709 0.01787
-0.01431 -0.29982 0.09132
-0.07107 -0.11688 -0.11222
-0.11567 -0.07961 -0.16855
0.26080 -0.16124 -0.00882
-0.02589 -0.30712 -0.19895
-0.00895 -0.29982 0.02404
-0.14081 0.02510 0.01541
0.04357 -0.22757 0.10734
0.30702 -0.16216 -0.13191
-0.02064 -0.21752 -0.04760
-0.00783 -0.29105 0.00689
-0.17889 0.05108 0.11209
-0.27511 0.29370 -0.06058
-0.29359 0.28046 -0.02769
-0.07152 -0.11349 -0.00242
0.24344 -0.19132 0.02943
0.04144 -0.24241 -0.17942
-0.14456 -0.01760 0.10831
-0.22784 0.19917 0.04852
0.04970 -0.22634 -0.06564
-0.10056 -0.10560 0.06994
-0.12495 -0.07537 0.05973
0.26485 -0.18760 -0.05861
-0.20441 0.15230 0.11100
0.03140 -0.23248 -0.04785
0.01344 -0.31647 0.05390
-0.02518 -0.23518 0.00695
-0.12332 -0.09782 -0.02740
-0.13811 -0.08699 -0.10086
0.26589 -0.20477 -0.13523
0.10640 -0.19212 -0.10397
0.01900 -0.24549 -0.06676
-0.02492 -0.25687 0.08827
0.02535 -0.25493 0.11976
-0.05802 -0.19068 0.09569
0.05143 -0.20311 -0.00505
0.24344 -0.19347 0.09652
-0.07815 -0.15041 -0.09881
0.24344 -0.30359 -0.04711
0.25299 -0.21004 0.00410
0.19163 -0.17507 -0.03253
-0.30943 0.31216 -0.07595
0.26589 -0.32175 -0.10446
-0.28607 0.26542 0.09714
0.08451 -0.21938 -0.10955
-0.02291 -0.31738 -0.20200
0.24344 -0.19465 0.18051
-0.00680 -0.29312 0.04467
-0.05411 -0.14830 -0.03308
0.26110 -0.29982 -0.10647
-0.02432 -0.29982 0.17658
0.25273 -0.29982 -0.16362
0.24412 -0.18760 0.17852
0.25932 -0.18760 -0.13974
0.26589 -0.30565 0.07150
-0.21433 0.17213 0.04703
-0.03739 -0.23193 0.10236
-0.07192 -0.11269 -0.07480
-0.02589 -0.30916 0.19548
0.24344 -0.31009 0.16596
0.24340 -0.18760 -0.02746
0.24344 -0.19575 -0.12149
-0.01847 -0.23998 0.02553
0.25148 -0.29982 0.18758
-0.17190 0.03708 -0.03576
-0.13361 -0.07537 0.05621
-0.13162 -0.04348 -0.03430
0.23399 -0.16660 0.04742
-0.26717 0.27781 0.01653
-0.03017 -0.19619 0.01250
-0.13352 -0.09782 0.10256
0.11016 -0.19136 0.07077
0.25243 -0.29982 0.02337
0.30524 -0.15324 -0.10108
0.01900 -0.23885 0.09397
0.04453 -0.22738 -0.05446
-0.08250 -0.11752 0.11222
0.19376 -0.19553 0.13467
0.16483 -0.18043 -0.11406
0.13913 -0.20846 -0.02204
0.24506 -0.21004 0.08079
0.16745 -0.18373 0.13467
-0.02589 -0.30759 -0.14760
0.30578 -0.17513 0.04815
0.01189 -0.28031 0.04719
0.30434 -0.15253 -0.03630
-0.26384 0.22097 -0.09602
-0.01136 -0.32226 -0.08861
-0.02547 -0.32226 0.02866
0.24344 -0.19588 0.08839
0.07872 -0.22054 0.03059
-0.07594 -0.10464 -0.05804
-0.27418 0.29184 0.04490
0.05408 -0.22547 0.07657
-0.23512 0.21371 -0.02032
0.29914 -0.17097 0.13467
-0.28133 0.30614 0.03563
0.26589 -0.31872 -0.16300
0.16780 -0.20272 -0.13411
-0.19778 0.13904 0.09345
-0.06270 -0.18132 -0.05083
-0.19984 0.14315 0.02752
-0.27113 0.23555 -0.04312
-0.02589 -0.31837 -0.10992
0.26589 -0.30465 -0.06980
-0.13111 -0.09782 -0.21671
-0.03627 -0.23417 0.08802
-0.01381 -0.32226 0.04370
-0.14617 -0.01437 -0.08532
-0.23059 0.20466 -0.09277
-0.10333 -0.04986 0.02508
0.04028 -0.23248 0.14397
-0.02693 -0.20267 -0.00908
0.03606 -0.22907 -0.13422
-0.12348 -0.07537 -0.05032
-0.08003 -0.09647 -0.00063
-0.23329 0.16543 -0.11222
-0.15748 0.01764 0.11222
0.00927 -0.30599 0.11222
-0.08122 -0.14427 -0.09406
-0.12884 -0.04903 -0.01485
-0.13193 -0.07537 -0.08056
-0.11904 -0.07537 -0.17022
0.24344 -0.20364 0.07365
-0.11567 -0.09098 -0.06716
-0.13729 -0.09782 0.01084
0.26107 -0.29982 -0.07498
0.03116 -0.23248 0.10881
-0.02589 -0.30131 0.16930
-0.09987 -0.10698 0.06609
-0.10859 -0.03933 -0.05919
0.24344 -0.31553 -0.07861
-0.19528 0.08386 -0.01545
-0.01026 -0.29982 -0.05035
-0.00416 -0.21423 0.04690
0.01598 -0.28849 -0.06311
0.00540 -0.31752 -0.02026
-0.11940 -0.06792 0.01027
0.04144 -0.25090 -0.17756
-0.04360 -0.21951 0.09966
-0.04392 -0.16869 0.02557
-0.22154 0.13637 -0.02173
-0.17641 0.04895 -0.11222
-0.02886 -0.24899 0.02275
-0.00345 -0.30390 0.16705
0.26589 -0.19309 0.13913
0.24434 -0.29982 -0.00263
0.22318 -0.19165 -0.12365
0.25480 -0.21004 -0.19507
0.25270 -0.18760 0.18369
-0.07404 -0.10844 0.06986
-0.00884 -0.28903 -0.04155
0.26589 -0.20404 -0.04648
0.24344 -0.20218 0.06913
-0.08110 -0.14450 0.01585
0.05063 -0.21335 0.13467
0.08562 -0.19627 -0.08864
-0.13811 -0.09001 -0.17492
0.26047 -0.32226 0.06032
0.03614 -0.23248 0.00861
-0.08836 -0.07981 0.09214
0.27622 -0.15815 0.05088
-0.13811 -0.08249 0.11979
-0.08193 -0.09311 0.11222
-0.19137 0.07602 0.05417
0.24937 -0.16352 -0.10204
-0.19731 0.08791 -0.05799
-0.19614 0.13576 0.06916
0.09862 -0.21656 -0.10746
0.07522 -0.22124 -0.01933
-0.10847 -0.03958 -0.07288
-0.30289 0.29907 0.02880
0.25786 -0.21004 -0.13305
0.01900 -0.24222 0.16995
0.02071 -0.23214 -0.09671
-0.11756 -0.06094 -0.11222
-0.15208 0.04764 -0.04830
0.29119 -0.15516 0.03604
0.00530 -0.26712 0.05004
0.26415 -0.32226 -0.07955
0.01900 -0.24811 0.08037
-0.18902 0.07133 0.10813
-0.00944 -0.21528 -0.12231
-0.01192 -0.32226 0.11592
-0.11836 -0.09782 -0.07475
0.11576 -0.19024 0.08228
0.26589 -0.30106 -0.06683
-0.11567 -0.08277 -0.03229
0.07301 -0.22168 0.01003
-0.26809 0.22946 -0.04230
-0.27448 0.24225 0.08673
0.00492 -0.23530 0.09364
-0.14093 0.02533 0.10960
-0.02821 -0.25030 -0.09604
-0.13131 0.00609 0.07159
-0.13353 -0.09782 0.03637
-0.24265 0.17858 -0.10522
0.02754 -0.25493 0.13988
-0.16800 0.07947 -0.06213
-0.30590 0.30509 -0.09140
-0.11583 -0.09782 -0.11086
-0.10813 -0.09045 0.03675
0.26589 -0.20293 0.01089
-0.13702 0.01752 -0.09974
-0.12370 -0.09782 0.15651
-0.26293 0.21915 0.05226
-0.22723 0.19794 0.07766
0.18047 -0.20019 0.11087
-0.10452 -0.09767 -0.00206
0.22410 -0.16858 0.12494
-0.28390 0.26110 0.05773
0.12018 -0.18936 -0.10614
0.00552 -0.21229 -0.01839
-0.18169 0.05667 0.10909
-0.11567 -0.07816 0.05496
-0.00412 -0.32226 -0.16077
-0.01514 -0.29982 0.18778
0.25973 -0.16145 -0.02002
0.24344 -0.31658 0.05371
-0.13811 -0.07652 -0.19518
-0.20450 0.15249 0.06536
0.01900 -0.24343 0.13984
0.15385 -0.18263 -0.04554
-0.29698 0.28724 -0.06608
0.17022 -0.17935 0.00351
-0.20509 0.15365 -0.04227
-0.02325 -0.21002 0.09831
0.25773 -0.32226 -0.09419
-0.14602 0.03551 0.07702
-0.04860 -0.15932 -0.01950
-0.17366 0.04060 0.02577
0.24782 -0.21004 0.19698
-0.11567 -0.08734 0.15129
0.02173 -0.23248 0.14123
-0.13343 0.01033 0.00086
0.02073 -0.29798 -0.05384
0.05850 -0.20169 -0.10924
-0.13037 -0.04597 0.05188
-0.11213 -0.03226 0.01606
0.03453 -0.22938 -0.12047
-0.10607 -0.09458 0.01549
0.00132 -0.30936 -0.04606
0.24545 -0.29982 -0.11114
-0.28933 0.27195 -0.00234
0.12279 -0.18884 -0.05539
0.14630 -0.18507 -0.13467
0.24752 -0.32226 0.11214
-0.07966 -0.14284 0.11222
-0.12299 -0.09782 -0.08426
0.04424 -0.20455 0.10173
-0.02002 -0.24029 -0.01800
-0.02488 -0.23662 -0.13467
-0.01082 -0.21556 -0.01334
-0.19530 0.08522 -0.11222
-0.01564 -0.22525 -0.10292
0.28765 -0.15587 0.06923
-0.21309 0.16965 0.06833
0.04144 -0.23814 0.12320
-0.14962 -0.00748 0.02353
-0.12426 -0.01775 0.11222
-0.23399 0.21146 0.07212
-0.20642 0.15632 -0.07482
0.18766 -0.19875 -0.09223
-0.12376 -0.00901 -0.10009
-0.16757 0.02842 -0.01482
-0.12286 -0.06099 0.08594
-0.20186 0.09702 0.03449
-0.19337 0.13005 -0.11222
0.03372 -0.22954 0.03446
0.05801 -0.22468 -0.03568
0.05622 -0.22504 0.12431
-0.02758 -0.20137 0.04980
-0.29703 0.29327 0.11222
-0.23258 0.20864 0.04382
0.28443 -0.17940 0.06526
0.23554 -0.18918 -0.07573
-0.30101 0.29971 -0.11222
0.24463 -0.32226 0.02181
-0.26359 0.22047 -0.10996
0.24344 -0.18813 0.01601
-0.00766 -0.29982 -0.18652
0.01900 -0.24406 0.17642
-0.13811 -0.07703 -0.16606
0.25944 -0.18440 0.02545
0.04455 -0.20449 -0.08604
0.15777 -0.20201 0.13467
-0.15817 0.05981 -0.07824
0.24344 -0.30600 -0.10871
0.26589 -0.19535 -0.00565
-0.16981 0.08309 -0.05992
0.24985 -0.18760 0.09300
0.04464 -0.20447 0.06744
0.25109 -0.29982 -0.11307
-0.16695 0.02719 0.07076
-0.09828 -0.05996 -0.01875
-0.04694 -0.21282 0.08288
0.25955 -0.32226 0.12530
-0.11567 -0.07709 0.10300
0.20071 -0.19614 0.11453
0.24828 -0.18760 -0.17966
0.20139 -0.19601 0.06456
-0.08023 -0.09606 0.08623
0.24529 -0.21004 0.05834
0.12577 -0.21113 0.11008
-0.00564 -0.24525 0.00814
-0.11567 -0.09255 -0.00630
0.19645 -0.19700 -0.13397
0.06913 -0.19957 -0.05703
0.26589 -0.30937 -0.13625
0.12192 -0.21190 -0.05258
-0.15108 0.04564 -0.01869
0.25527 -0.31749 0.20200
-0.02531 -0.23452 0.11662
0.02933 -0.25493 0.01421
0.01900 -0.23733 -0.14756
0.26589 -0.19034 0.18972
0.03302 -0.25493 -0.14826
0.25366 -0.18760 -0.01694
0.04144 -0.24530 0.02726
0.05240 -0.20291 0.07097
0.30892 -0.17163 0.05075
0.30641 -0.15909 0.03238
0.11542 -0.19031 -0.02942
0.06434 -0.20071 -0.13467
-0.30628 0.30585 0.11165
0.01921 -0.23244 -0.06705
-0.00345 -0.31192 0.08436
0.23269 -0.16686 0.01606
-0.21496 0.17340 -0.11165
-0.01278 -0.21595 0.05869
0.25189 -0.21004 0.13046
0.30756 -0.16484 0.07423
-0.19212 0.12772 0.11209
0.25834 -0.21004 0.12029
0.24344 -0.19831 -0.14944
0.24135 -0.18801 -0.08034
-0.13811 -0.07663 -0.11674
0.26589 -0.31713 0.19019
0.24344 -0.30973 -0.08123
0.24344 -0.31479 -0.14568
-0.07366 -0.15940 0.01121
-0.24327 0.23001 -0.07825
-0.26284 0.23654 0.11222
0.01900 -0.24890 0.10648
0.26041 -0.29982 0.16461
-0.25507 0.20344 -0.01178
0.26589 -0.20236 -0.05574
0.24344 -0.20094 -0.05597
0.11457 -0.21337 0.08382
-0.01410 -0.23911 0.00650
0.26589 -0.19041 -0.11670
0.26233 -0.21004 0.07773
0.02776 -0.21372 0.13467
-0.11567 -0.07712 -0.02194
0.26008 -0.21004 0.02898
0.04144 -0.23426 0.07156
-0.19138 0.12623 -0.06962
0.01864 -0.31080 0.11222
-0.06320 -0.18032 -0.07177
0.25907 -0.32226 -0.18554
-0.28891 0.31059 -0.11222
-0.10558 -0.06263 -0.11222
0.01900 -0.25481 -0.04580
-0.16164 0.01657 0.01114
-0.22629 0.14586 0.02219
0.15332 -0.20562 0.10482
-0.11567 -0.07551 -0.11728
-0.02589 -0.30414 0.15232
-0.30748 0.31322 0.02394
0.02914 -0.20757 -0.00348
-0.29112 0.27553 0.05794
0.24344 -0.20904 0.03806
0.01900 -0.23517 0.06727
-0.21216 0.11761 -0.05140
-0.02136 -0.21380 -0.07422
0.26589 -0.20287 0.18378
0.25371 -0.32226 0.07838
0.24344 -0.30133 -0.19789
0.26589 -0.30994 0.15975
-0.12407 -0.07537 0.20250
-0.00258 -0.21391 0.03360
0.02586 -0.31026 0.06095
0.09383 -0.19463 -0.13004
-0.08394 -0.08865 -0.10922
0.02840 -0.25493 0.04126
-0.11139 -0.08393 0.05228
0.02143 -0.23200 0.08450
-0.13490 0.01329 -0.07263
0.23691 -0.16601 0.13021
-0.05454 -0.14927 0.11222
-0.13156 -0.07537 -0.08540
0.27759 -0.18077 0.03413
-0.18416 0.06162 -0.03482
0.24933 -0.29982 0.12368
0.26023 -0.32226 -0.17172
0.30187 -0.15302 0.09741
0.26589 -0.19230 -0.05893
-0.25725 0.20779 -0.03877
-0.20898 0.11125 -0.01420
-0.00939 -0.29982 0.09241
0.03964 -0.23248 -0.08154
-0.25674 0.25696 -0.11189
-0.02132 -0.21388 -0.03206
-0.02911 -0.24848 0.08535
0.24344 -0.20476 0.02771
0.24474 -0.16445 0.06335
-0.13147 -0.09782 0.15771
0.26589 -0.19033 0.05190
-0.29846 0.29020 -0.07916
-0.10261 -0.10150 -0.07785
0.10157 -0.19308 0.07487
-0.28236 0.30819 -0.03025
0.04824 -0.22664 0.06349
-0.06121 -0.18430 0.06483
0.26589 -0.32139 -0.19187
-0.02663 -0.20327 0.06347
-0.14012 0.02371 -0.09382
-0.11323 -0.08024 -0.04574
-0.13811 -0.09572 -0.11743
-0.02704 -0.25263 0.04099
-0.18937 0.07203 0.01897
-0.01040 -0.23836 -0.08564
-0.06700 -0.12253 -0.09115
0.22579 -0.16824 0.08832
0.01601 -0.31518 -0.04921
0.21959 -0.16948 0.07563
-0.09166 -0.07682 0.11222
-0.13811 -0.07602 0.21327
-0.10036 -0.05580 0.09070
-0.02553 -0.21850 0.04542
-0.26020 0.21369 -0.06143
-0.25587 0.20503 0.00318
-0.22000 0.13328 -0.08837
-0.02589 -0.31983 -0.19238
-0.15758 0.05864 -0.01456
-0.05347 -0.14958 -0.06111
0.12143 -0.18911 0.13147
-0.02284 -0.32226 -0.14546
-0.19639 0.08606 0.10155
0.25530 -0.29982 0.08842
0.01045 -0.27742 0.03921
0.18423 -0.19944 0.08041
-0.03759 -0.18134 0.09243
-0.02589 -0.31251 -0.17704
-0.15702 0.05751 0.02273
-0.13811 -0.08741 -0.04606
0.24344 -0.31663 0.00516
-0.30316 0.29961 0.05987
0.13334 -0.18673 -0.13368
-0.21197 0.16584 0.11222
0.26269 -0.18760 -0.10333
0.26589 -0.30982 0.14487
0.02454 -0.25493 -0.05907
-0.13045 -0.09782 -0.00762
-0.13782 0.01911 0.07957
0.04144 -0.24995 -0.14397
0.25601 -0.32226 -0.00712
-0.02589 -0.31724 -0.00071
0.10515 -0.21526 0.07257
-0.28135 0.30617 -0.05411
-0.13731 -0.09782 0.12157
0.02089 -0.29831 0.04641
0.24826 -0.18760 -0.01755
0.04144 -0.25147 -0.15969
-0.21724 0.12777 0.01260
-0.27168 0.23665 -0.09759
0.02407 -0.30466 -0.03605
0.24344 -0.30359 0.18837
-0.06436 -0.12780 0.08957
-0.04409 -0.16835 0.01980
-0.04243 -0.17167 0.07464
-0.19889 0.14126 -0.00807
0.26292 -0.18760 0.16729
0.16967 -0.17946 0.04038
0.04144 -0.24055 0.19709
-0.27352 0.24032 -0.05085
0.30219 -0.17585 -0.06360
-0.11588 -0.09782 -0.08843
-0.14242 0.02832 0.01245
-0.03376 -0.23920 0.05288
-0.13073 -0.07537 -0.13795
0.02847 -0.20770 -0.05954
-0.13267 -0.09782 0.11846
-0.10974 -0.03704 0.09287
-0.04655 -0.21362 -0.02747
0.17073 -0.20214 -0.09209
0.00467 -0.23535 0.03977
-0.13811 -0.08163 -0.19684
-0.02589 -0.30394 0.10400
-0.09890 -0.10891 0.05859
-0.29052 0.31507 0.11222
0.01680 -0.29012 -0.07094
-0.00345 -0.30879 -0.05061
0.19900 -0.19648 0.12509
0.14120 -0.18515 -0.10458
-0.08621 -0.13429 -0.03425
-0.30553 0.30434 0.10729
0.02136 -0.23248 0.08904
0.24344 -0.31970 -0.11985
0.22370 -0.19154 0.06569
-0.15856 0.06059 -0.06393
0.14723 -0.18395 -0.12745
0.26589 -0.20571 -0.15167
-0.02589 -0.30188 0.08919
0.13307 -0.18678 -0.02914
0.16091 -0.20410 0.06248
0.06449 -0.20050 -0.07515
0.01900 -0.23604 0.00429
0.20186 -0.17302 0.04605
-0.02589 -0.31883 0.14784
-0.27119 0.23567 -0.00110
-0.00392 -0.24869 0.06935
-0.16935 0.03199 -0.02257
0.01259 -0.21088 0.05209
-0.14850 -0.00970 -0.10196
-0.02589 -0.30525 0.12469
0.04610 -0.20417 -0.09969
-0.21249 0.11827 -0.09370
0.26589 -0.19729 -0.03213
-0.12054 -0.06564 -0.00909
-0.18748 0.06825 0.02158
-0.02315 -0.26041 0.06258
-0.12933 -0.07537 0.07986
0.24411 -0.29982 -0.15264
-0.05545 -0.14563 -0.06023
0.02435 -0.25493 0.18155
-0.06511 -0.17649 0.06610
0.00206 -0.31082 -0.01605
-0.12138 -0.01784 -0.11222
0.28948 -0.15550 -0.10472
0.26473 -0.21004 0.04016
-0.23870 0.17069 0.10665
0.11423 -0.21344 0.11137
0.01900 -0.23838 0.18176
-0.02532 -0.32226 -0.00729
-0.05103 -0.15447 -0.07411
0.25187 -0.29982 0.15082
0.03782 -0.21137 0.13467
0.02153 -0.23248 0.00477
-0.12788 -0.09782 -0.19495
0.26439 -0.29982 -0.15208
-0.02589 -0.32132 -0.09888
-0.17995 0.05319 -0.06023
0.26589 -0.30635 -0.18133
-0.06778 -0.12096 0.09997
0.29985 -0.15343 -0.00494
-0.13811 -0.08955 0.13347
-0.12728 -0.05215 -0.08136
-0.09790 -0.11091 -0.01841
-0.10580 -0.04493 0.06288
0.18713 -0.17811 0.13467
0.11303 -0.21368 0.10288
-0.12373 -0.05926 -0.04748
-0.09407 -0.06839 -0.05371
0.10170 -0.19305 -0.11458
-0.28853 0.32054 0.05172
-0.26373 0.27094 -0.05747
0.02606 -0.23248 0.13045
-0.13312 -0.04047 0.09066
0.26589 -0.20029 0.04259
-0.21508 0.17363 -0.08229
-0.27650 0.29647 0.05830
0.28555 -0.17918 -0.11529
-0.29655 0.31869 0.10428
-0.26397 0.22122 0.08262
-0.00509 -0.32226 -0.02562
0.25181 -0.29982 -0.08093
0.21514 -0.17037 -0.10781
-0.21379 0.17106 -0.03271
-0.14923 0.04193 0.02774
0.26945 -0.15951 0.03568
-0.02556 -0.23326 -0.08454
-0.02604 -0.20444 0.03513
-0.21603 0.12534 -0.01444
-0.24468 0.23283 0.03746
-0.08522 -0.13628 0.06038
-0.11672 -0.02309 0.08395
0.26589 -0.30488 -0.18710
0.03803 -0.23248 0.05578
0.28940 -0.15551 -0.12003
-0.01731 -0.29982 -0.01156
-0.11567 -0.09667 -0.14359
-0.26679 0.27705 0.04973
0.03798 -0.23248 0.13701
0.26521 -0.30313 -0.20200
-0.13811 -0.08996 -0.02502
0.18419 -0.17656 0.01488
-0.04843 -0.18924 0.11222
0.26216 -0.21004 0.18335
0.03721 -0.25493 -0.16331
-0.00345 -0.30311 0.09494
0.16687 -0.20291 -0.02017
-0.28784 0.31915 -0.06933
-0.00560 -0.32226 0.01214
0.05863 -0.22456 0.07566
-0.07493 -0.15685 -0.07370
0.29438 -0.15452 0.04911
-0.01485 -0.29982 -0.16765
0.00977 -0.21144 0.04158
0.02167 -0.29987 0.05650
-0.07020 -0.16631 -0.07175
-0.00358 -0.29982 -0.03812
-0.03846 -0.21809 0.11222
-0.06524 -0.12604 0.01945
-0.12636 -0.07735 -0.22445
0.01900 -0.25081 -0.12701
-0.02589 -0.30873 0.08169
0.29382 -0.17752 -0.04143
-0.00936 -0.23780 -0.06250
0.21642 -0.19300 -0.04987
-0.11399 -0.02855 -0.09864
-0.15473 0.00275 -0.06050
0.24344 -0.30363 0.08606
-0.12307 -0.09782 -0.10963
0.22925 -0.16754 -0.05798
0.29683 -0.15403 0.07294
0.25962 -0.18760 0.18293
0.13422 -0.20944 0.06114
0.01900 -0.23976 -0.03672
-0.30690 0.30710 -0.03628
-0.01153 -0.32226 0.10061
-0.03142 -0.24387 0.06802
0.05295 -0.22569 0.13045
0.04144 -0.23889 -0.00165
0.26418 -0.29982 0.10893
-0.10712 -0.07801 -0.11222
-0.01873 -0.26926 -0.00687
-0.07661 -0.10330 -0.06964
-0.29229 0.32082 -0.00022
0.24446 -0.21004 -0.06332
-0.02027 -0.21599 0.04275
0.02319 -0.25493 -0.02248
-0.16037 0.01403 0.00434
-0.26342 0.27031 -0.03768
-0.00345 -0.30662 -0.15879
0.01401 -0.31618 -0.06652
-0.18228 0.10804 -0.02479
0.01429 -0.31449 -0.11222
0.24573 -0.18760 0.04336
-0.11802 -0.07537 -0.12496
0.04144 -0.23599 -0.05618
0.21235 -0.17092 0.09329
-0.12607 -0.07537 0.22221
0.02375 -0.30402 -0.03182
-0.09522 -0.06609 0.00289
0.28818 -0.15576 0.10103
-0.18641 0.11630 0.05860
-0.12429 -0.09782 -0.05289
0.01900 -0.24502 0.09033
0.19572 -0.19714 0.03964
-0.15550 0.00447 -0.11222
-0.02542 -0.31508 0.20200
-0.06229 -0.18213 -0.06170
0.26589 -0.32168 -0.04077
0.04144 -0.23709 -0.02160
-0.18354 0.06037 0.08226
0.04144 -0.24596 -0.05350
0.03981 -0.25493 -0.08417
-0.06979 -0.16713 0.03406
-0.11081 -0.03491 -0.04254
-0.19528 0.13403 0.00711
-0.13050 -0.07537 -0.07065
0.25439 -0.18541 0.12407
0.06044 -0.20131 -0.13219
-0.13700 -0.09782 -0.12856
-0.13174 0.00695 0.06250
-0.02754 -0.22335 0.08723
0.15711 -0.20486 0.10701
0.24421 -0.21004 0.14211
0.23901 -0.18848 0.04300
0.24344 -0.20458 0.08693
-0.13148 -0.07537 0.06072
0.25211 -0.21004 0.16584
-0.21320 0.16987 0.10426
-0.01398 -0.22856 -0.06935
0.00568 -0.26788 -0.10806
0.26589 -0.20485 -0.07602
-0.23525 0.16378 -0.08691
0.16731 -0.17993 -0.08758
0.24761 -0.21004 0.08993
0.24344 -0.30490 -0.02358
0.25801 -0.32226 0.16822
0.12651 -0.18809 -0.12298
0.02199 -0.31219 -0.08543
0.13399 -0.20949 -0.09309
0.02604 -0.31017 0.04026
-0.02522 -0.32226 -0.11750
-0.05220 -0.20232 0.06512
0.24344 -0.19280 -0.19166
0.24344 -0.29995 -0.00842
0.25452 -0.18538 -0.10297
-0.01142 -0.29982 0.03028
-0.09650 -0.11372 -0.10667
-0.11567 -0.08723 -0.13334
0.26589 -0.30369 0.00976
-0.07029 -0.11593 -0.06536
-0.03084 -0.24504 -0.03168
-0.24444 0.23234 -0.06966
0.24848 -0.18760 -0.03380
-0.12599 -0.07537 0.15465
-0.19679 0.13706 0.01288
0.30855 -0.16978 -0.05928
-0.27400 0.29147 -0.02529
-0.08102 -0.09448 0.02063
0.26589 -0.30079 0.17809
0.24344 -0.20101 0.00345
-0.06277 -0.14536 -0.11222
-0.06719 -0.17234 -0.02159
0.14708 -0.20687 0.08140
0.24655 -0.21004 -0.13829
0.00655 -0.23498 0.06507
-0.01841 -0.26989 0.08333
-0.21057 0.11443 0.08269
0.24344 -0.31025 0.03196
-0.23580 0.21507 0.04371
-0.13811 -0.08749 0.16926
-0.05086 -0.20500 -0.01459
0.12455 -0.18849 0.01655
0.24551 -0.16429 0.12184
0.24344 -0.30872 -0.12495
-0.00574 -0.23743 0.10050
0.26509 -0.32226 0.00157
0.09528 -0.19654 -0.13467
0.26589 -0.32185 -0.09235
0.04144 -0.25460 0.00876
0.24344 -0.31508 0.02244
0.29630 -0.15413 -0.03252
0.13650 -0.18610 0.12116
-0.04433 -0.21805 -0.01773
-0.03725 -0.18203 -0.03544
0.26429 -0.18760 -0.06606
0.00682 -0.27016 0.03556
-0.00146 -0.30380 0.10309
-0.11567 -0.08042 -0.10165
-0.27595 0.29537 0.01838
-0.13811 -0.09549 -0.02092
0.28817 -0.17865 -0.12316
0.02752 -0.23248 0.08886
0.03670 -0.23248 -0.05758
0.00361 -0.31394 0.03994
0.03356 -0.23248 -0.05136
0.15847 -0.20459 -0.06602
0.22848 -0.19059 0.06328
0.02242 -0.25493 0.09709
0.26003 -0.18760 0.01065
-0.00985 -0.32226 0.20114
-0.18511 0.06352 0.06407
0.22005 -0.16939 -0.02507
-0.01611 -0.22430 -0.03188
-0.11824 -0.02005 -0.04905
0.20442 -0.17251 -0.11210
0.04144 -0.24591 -0.01959
-0.13811 -0.07595 -0.18634
-0.25681 0.20690 0.06289
0.26863 -0.18256 -0.07873
0.26589 -0.31229 -0.03872
0.04144 -0.23800 -0.06351
-0.18162 0.05653 0.06361
0.09774 -0.21674 -0.02635
0.04700 -0.22689 -0.04744
0.03597 -0.25493 -0.05734
-0.02409 -0.22473 -0.13467
-0.29157 0.27643 0.08815
-0.03814 -0.23044 -0.01710
0.24344 -0.30203 0.15437
-0.00345 -0.30128 -0.00499
-0.13393 0.01133 -0.06645
0.04060 -0.23248 0.00680
-0.18382 0.06092 0.03657
-0.11567 -0.08398 0.02787
0.28835 -0.17861 0.11442
-0.03270 -0.19112 0.09184
-0.22608 0.19564 -0.08590
0.24347 -0.21004 0.12126
0.04637 -0.22701 0.01725
0.26465 -0.18335 0.03684
0.26356 -0.32226 0.17268
-0.09547 -0.06558 0.07715
0.07182 -0.22192 0.04525
-0.11995 -0.06681 -0.00216
0.02276 -0.23173 -0.05296
0.19647 -0.19699 0.02555
-0.00345 -0.31120 -0.00295
0.25847 -0.18760 -0.08370
0.08020 -0.21657 0.13467
0.27815 -0.18066 -0.10395
-0.25650 0.20629 -0.06222
-0.01985 -0.32226 -0.20172
-0.13986 -0.02699 0.07549
-0.25263 0.24874 0.07146
-0.13445 -0.07537 -0.17530
-0.13811 -0.07934 0.06417
0.03820 -0.25493 0.19502
0.26589 -0.19224 0.14602
0.25619 -0.32226 0.07038
-0.14071 -0.02529 -0.04123
0.09562 -0.21716 0.00523
0.00399 -0.31469 -0.06715
-0.00345 -0.30266 0.03595
-0.01363 -0.27946 -0.07915
0.24344 -0.31353 -0.10446
0.25829 -0.29982 -0.17730
-0.01520 -0.22612 0.02740
0.24978 -0.21004 -0.19841
0.26653 -0.16009 -0.02699
-0.19589 0.08507 0.10794
0.24377 -0.18760 -0.14180
0.26589 -0.19027 0.08794
-0.03893 -0.17866 -0.04570
0.24909 -0.18760 0.01069
-0.07384 -0.10884 -0.10658
-0.00345 -0.31437 -0.05930
0.13719 -0.18596 0.05774
-0.03073 -0.19506 0.03195
-0.22398 0.19144 -0.08039
-0.07530 -0.15611 -0.03922
0.28083 -0.15723 0.06581
-0.28968 0.32212 0.02779
0.24344 -0.31432 0.17212
-0.02817 -0.25038 -0.06777
-0.00077 -0.30517 0.04439
-0.11014 -0.03625 -0.06781
-0.14598 -0.01476 -0.10379
-0.01223 -0.23873 0.02633
-0.16744 0.02817 -0.00463
0.25113 -0.32226 0.19902
-0.26623 0.27593 -0.01166
0.02461 -0.20847 0.07433
-0.17821 0.04971 -0.10803
0.26589 -0.31217 -0.19742
0.24344 -0.19534 -0.11146
0.04883 -0.22652 -0.11591
-0.11567 -0.07776 -0.01699
-0.29367 0.28800 -0.11222
0.01900 -0.23764 0.12361
-0.08594 -0.08464 0.01869
-0.11567 -0.09165 -0.19893
-0.02493 -0.32226 0.00223
0.02451 -0.25493 0.00608
0.02524 -0.23248 0.01928
-0.06900 -0.16540 -0.11222
0.02198 -0.25493 -0.14019
-0.20848 0.16043 0.08986
0.03605 -0.25493 -0.05292
-0.00149 -0.25355 0.09039
-0.15487 0.02736 0.11222
0.28405 -0.15659 0.03377
-0.18439 0.06207 0.10656
-0.19619 0.08567 0.02133
-0.19014 0.07356 -0.10713
-0.02438 -0.21827 0.00996
-0.20583 0.10494 -0.07096
-0.00467 -0.29738 -0.10778
0.01405 -0.28462 0.08682
-0.23052 0.20451 0.09680
0.09483 -0.19443 0.09053
-0.23347 0.17172 -0.11222
-0.28451 0.31249 -0.00678
0.00282 -0.23572 0.10966
0.00684 -0.27020 -0.01550
-0.26446 0.27240 -0.10764
0.12354 -0.21158 -0.07165
-0.11888 -0.06895 -0.07741
0.26193 -0.29982 -0.00044
0.24344 -0.19362 0.02068
0.25460 -0.16248 -0.00417
-0.00345 -0.31745 0.08513
-0.00345 -0.30218 -0.14959
-0.02134 -0.32226 -0.17153
-0.00398 -0.32226 0.06707
0.09483 -0.21732 0.08910
-0.25597 0.20522 0.01045
0.19613 -0.19706 0.07751
-0.04717 -0.21238 0.04830
-0.17024 0.08396 0.04542
0.25080 -0.18760 -0.18839
0.00897 -0.23449 -0.01128
0.24742 -0.18760 -0.15753
-0.08839 -0.10839 0.11222
-0.02737 -0.22420 -0.06623
-0.15213 0.04773 -0.02943
-0.30696 0.30722 0.07012
-0.09383 -0.11906 0.05280
0.04144 -0.24193 -0.01096
-0.22085 0.13498 0.01705
0.01900 -0.24404 0.09779
-0.11567 -0.09036 0.16547
-0.26306 0.21940 0.09193
-0.14075 -0.00687 0.11222
-0.04258 -0.17137 -0.02877
0.30334 -0.17562 0.11244
-0.17894 0.05116 0.08747
0.03664 -0.25493 0.06667
0.26589 -0.19765 0.18359
0.26589 -0.30526 -0.12880
-0.02187 -0.21277 0.03050
-0.00345 -0.32081 -0.04988
-0.02589 -0.30178 0.01687
0.25411 -0.29982 -0.13068
0.11542 -0.19058 -0.13467
-0.02558 -0.25555 -0.02226
-0.08534 -0.13602 -0.02112
-0.26003 0.21335 -0.07741
-0.15507 0.00342 -0.08177
-0.12513 -0.05646 0.06258
-0.01183 -0.29982 -0.08261
-0.11567 -0.08655 0.09497
0.25117 -0.32226 0.03458
0.14745 -0.18391 -0.11789
0.25750 -0.18479 -0.05561
-0.11275 -0.03850 0.11222
-0.01233 -0.23187 -0.10035
0.08380 -0.21952 0.06765
0.04082 -0.20523 -0.03710
-0.18935 0.07199 0.08871
0.26589 -0.31298 -0.00181
0.00294 -0.21281 -0.11216
0.15707 -0.18198 0.11063
-0.00397 -0.23708 -0.04869
-0.02577 -0.25518 -0.03944
-0.01036 -0.28599 -0.10494
-0.05507 -0.19657 0.10521
0.26055 -0.30320 -0.20200
-0.10784 -0.04083 0.04799
0.07530 -0.22123 0.09475
-0.00731 -0.24191 -0.04618
-0.13811 -0.08690 -0.10703
-0.08740 -0.08173 -0.10366
0.10599 -0.21509 -0.07139
0.29229 -0.17783 -0.09326
0.03456 -0.25493 -0.06473
-0.06021 -0.15083 -0.11222
-0.13286 -0.04099 -0.04387
0.13913 -0.20846 0.07972
0.04144 -0.24424 0.16684
-0.13508 0.01363 0.09220
-0.02604 -0.23084 -0.11049
-0.04212 -0.22246 -0.00892
0.24986 -0.32226 0.00329
-0.25808 0.21208 0.11222
0.03156 -0.25493 -0.01190
-0.06585 -0.12482 -0.00061
0.24344 -0.20319 -0.13345
0.26589 -0.30796 0.08996
-0.01027 -0.32226 0.13617
0.18554 -0.17629 -0.02844
0.01524 -0.21035 -0.12822
-0.12059 -0.07537 -0.16092
-0.20426 0.10181 0.06806
0.24344 -0.31546 -0.00717
-0.01214 -0.28244 -0.03450
-0.12321 -0.07537 0.11492
0.00007 -0.25667 0.10199
0.04144 -0.25217 0.05134
0.11822 -0.21264 0.01460
-0.24031 0.22409 -0.10239
0.24373 -0.21004 -0.04359
-0.21502 0.12333 0.03625
0.27796 -0.18069 0.05650
0.04144 -0.23524 -0.15888
0.01900 -0.24716 0.07626
-0.01698 -0.27275 0.02846
0.24344 -0.31148 0.10980
-0.11143 -0.03366 -0.01010
0.24344 -0.31886 -0.19666
-0.16709 0.02747 0.11043
0.25163 -0.18760 0.04328
-0.29271 0.32060 0.06631
0.24657 -0.21004 -0.11111
-0.00345 -0.31438 0.19238
-0.25743 0.25834 0.03033
0.04990 -0.22631 0.00607
-0.06460 -0.16332 -0.11222
-0.12670 -0.07537 0.03875
0.25902 -0.21004 0.05636
0.23830 -0.18862 -0.13300
-0.20160 0.11221 -0.11222
0.02074 -0.31282 0.10842
-0.01315 -0.23023 0.01300
-0.22815 0.19977 -0.10667
-0.16368 0.05129 -0.11222
0.05050 -0.22618 0.11098
-0.26245 0.26837 -0.00844
-0.25376 0.25100 0.02021
-0.26449 0.22227 -0.05913
0.06249 -0.22379 -0.11895
0.25618 -0.21004 -0.10570
-0.04110 -0.20653 0.11222
0.29210 -0.17786 0.00284
-0.08381 -0.13909 -0.09655
-0.01825 -0.23994 0.03410
-0.13811 -0.09186 -0.21953
0.25743 -0.29982 -0.06667
0.09529 -0.19434 -0.05768
0.10037 -0.19332 -0.08971
0.21834 -0.16973 0.12616
-0.29754 0.31819 -0.01719
-0.15425 0.00178 0.04022
0.04148 -0.20510 -0.02142
0.11925 -0.18954 0.07904
0.03627 -0.23248 0.00286
0.03322 -0.23248 -0.14960
-0.19654 0.08636 0.06306
-0.18102 0.05532 -0.01569
-0.20840 0.16027 -0.03372
-0.02589 -0.31342 0.14603
-0.09680 -0.06292 -0.07193
0.18598 -0.17620 0.09637
0.26589 -0.19702 0.16547
-0.26905 0.28158 -0.10146
-0.16205 0.06758 0.07686
0.14850 -0.18370 0.00886
0.06132 -0.20113 0.06692
-0.24421 0.20609 -0.11222
-0.13566 -0.03539 0.08246
-0.04773 -0.21125 -0.07725
0.07712 -0.22086 0.12369
0.00016 -0.25684 0.03869
-0.12362 -0.07537 -0.06107
-0.17309 0.03947 -0.04161
-0.01561 -0.29982 -0.04302
0.22507 -0.19127 -0.02251
-0.05540 -0.19590 -0.07487
0.24005 -0.16539 -0.02645
0.04144 -0.24117 -0.06913
0.26178 -0.18760 -0.00428
-0.15854 0.01036 0.08514
-0.21947 0.18242 -0.08179
-0.02289 -0.29982 -0.07372
0.25647 -0.18760 0.15398
-0.21427 0.13664 0.11222
-0.21611 0.17570 -0.07867
0.30849 -0.16951 -0.01878
-0.12169 -0.06332 -0.01526
-0.12304 -0.01046 0.02230
-0.24063 0.22472 0.03868
-0.13811 -0.08790 -0.19739
-0.23059 0.15447 -0.03548
-0.04241 -0.19088 0.11222
0.03146 -0.25493 -0.11130
-0.00345 -0.31808 -0.01143
-0.17987 0.10321 0.08310
0.04144 -0.24914 -0.11124
-0.12533 -0.00587 0.02014
-0.02727 -0.20198 -0.04340
0.02820 -0.25493 -0.05492
0.04063 -0.22816 0.09432
0.15826 -0.18174 -0.11866
-0.10510 -0.04633 -0.10406
-0.00819 -0.29032 -0.05148
0.01770 -0.20985 -0.01402
0.24344 -0.19575 0.06447
-0.00950 -0.23753 0.06884
0.26127 -0.18760 -0.19907
0.26589 -0.20344 0.05637
0.29472 -0.17734 -0.08255
-0.16339 0.04024 0.11222
-0.10244 -0.05165 0.05686
-0.15151 -0.00370 0.02345
0.24344 -0.31489 0.08196
-0.21511 0.17369 -0.09758
-0.02557 -0.25558 0.03525
-0.11567 -0.08822 -0.12581
0.26589 -0.30859 0.11079
0.23073 -0.19014 -0.06287
-0.02589 -0.30052 -0.02329
-0.20391 0.10111 0.03621
-0.02589 -0.30427 0.02748
-0.11940 -0.01773 -0.04500
-0.11567 -0.09735 0.12373
-0.08089 -0.09474 -0.04034
-0.17380 0.09109 -0.05747
0.04144 -0.23414 0.01317
0.25156 -0.29982 -0.01215
0.12010 -0.18937 0.00593
-0.02589 -0.30637 0.03229
-0.13752 -0.09782 -0.21832
-0.19533 0.08395 0.01568
0.13477 -0.20933 0.00563
-0.00925 -0.29982 0.17397
0.10689 -0.21491 0.09299
-0.25758 0.20844 0.01903
0.30456 -0.17537 -0.08533
-0.10068 -0.10536 -0.00762
0.04009 -0.25493 0.18343
0.05008 -0.22627 0.02101
-0.02589 -0.30052 -0.10569
0.02595 -0.31021 -0.06812
-0.13276 -0.07537 -0.04999
-0.11567 -0.07842 0.13987
-0.07449 -0.10755 0.01727
0.00840 -0.27333 -0.07195
-0.23540 0.21427 0.11171
0.00987 -0.27625 0.07610
-0.01384 -0.27904 -0.00410
-0.11567 -0.07857 0.18088
-0.11659 -0.07537 0.17381
-0.12238 -0.07537 0.21664
0.24415 -0.32226 0.05713
0.25747 -0.29982 0.03041
0.24364 -0.32226 0.19105
0.24937 -0.21004 -0.04231
0.12494 -0.18841 0.01160
0.24740 -0.32226 0.17563
-0.23676 0.19821 0.11222
-0.11576 -0.07537 0.03437
0.24708 -0.21004 0.03103
-0.28330 0.31007 0.07991
0.29790 -0.15382 0.03908
-0.04110 -0.22450 -0.02327
0.24095 -0.16520 -0.09904
0.24655 -0.21004 0.02625
0.00927 -0.21154 -0.05534
0.26581 -0.18760 -0.05008
-0.00772 -0.22276 -0.13467
0.26465 -0.18760 -0.12718
-0.11567 -0.07633 0.09467
0.08598 -0.21909 -0.00466
0.02720 -0.25493 0.08665
-0.11929 -0.06814 0.05827
-0.11567 -0.09367 0.20827
-0.10873 -0.08925 0.01203
0.24344 -0.19735 -0.18145
0.17632 -0.17813 0.10423
-0.24961 0.19250 -0.09530
-0.11423 -0.07826 0.09041
-0.13808 -0.09782 -0.15166
-0.14925 0.04199 -0.01504
0.24521 -0.32226 0.18235
0.21378 -0.17826 -0.13467
-0.02589 -0.30932 -0.13677
0.25803 -0.18468 0.07616
-0.09211 -0.12249 -0.01850
0.08595 -0.19620 0.01716
0.26112 -0.18760 0.01942
-0.12577 -0.07537 -0.12549
-0.00345 -0.30713 -0.07943
0.21130 -0.19402 -0.01165
-0.01335 -0.23896 0.13125
-0.25721 0.25790 0.04447
0.01900 -0.25466 -0.06540
0.21387 -0.19351 -0.12010
0.04873 -0.20365 0.05829
-0.27398 0.24124 0.00628
0.25148 -0.18760 0.16453
-0.29782 0.30766 0.11222
-0.00840 -0.32226 -0.06417
0.23659 -0.18897 0.11171
0.01804 -0.20979 0.03174
-0.04089 -0.17475 -0.04951
-0.25066 0.19462 0.00779
0.25522 -0.18760 0.00680
0.24344 -0.31891 0.09468
-0.02155 -0.24736 0.11222
0.20738 -0.19481 -0.11872
-0.02467 -0.23769 -0.03529
-0.18684 0.06981 -0.11222
0.28960 -0.15548 0.02470
0.02196 -0.30044 -0.10608
-0.06232 -0.13189 -0.09792
-0.13811 -0.07585 -0.12354
-0.13811 -0.08451 -0.15096
0.28411 -0.17946 -0.01134
-0.02927 -0.24817 0.10421
0.26589 -0.20832 -0.07233
0.09155 -0.19509 0.07904
0.08477 -0.21933 0.01533
0.24979 -0.21004 -0.01220
0.07717 -0.22085 -0.12874
-0.21395 0.12119 0.09663
0.26589 -0.30644 -0.11933
-0.22165 0.13658 0.03341
0.05885 -0.22452 -0.06355
-0.00345 -0.31935 -0.13459
-0.17643 0.04616 0.05354
-0.02589 -0.31145 -0.14255
0.01900 -0.24835 0.00858
0.25405 -0.32226 -0.10353
-0.09134 -0.07385 0.03856
0.14718 -0.18396 -0.00372
-0.03491 -0.23689 -0.01943
0.23607 -0.18907 -0.12675
0.20008 -0.17338 -0.05331
0.13337 -0.18672 0.00194
-0.02589 -0.30527 -0.16424
0.25199 -0.21004 0.19012
0.25120 -0.32226 0.04270
-0.12869 -0.09782 0.03111
0.24572 -0.18760 -0.06395
-0.08738 -0.08176 -0.04273
-0.00345 -0.31649 -0.19438
-0.03611 -0.18429 0.06647
0.12694 -0.21090 0.09296
-0.01064 -0.29982 0.03689
-0.13811 -0.07538 0.15702
0.26282 -0.18372 0.02190
-0.06999 -0.11654 -0.02259
0.13864 -0.20856 0.10690
0.24691 -0.29982 0.06218
-0.14561 -0.01550 -0.03385
0.01900 -0.24628 -0.19148
0.26416 -0.18760 0.05674
-0.01205 -0.29982 0.07464
-0.11605 -0.09782 -0.17758
-0.14158 0.02664 -0.01684
0.04144 -0.25125 -0.10751
-0.06628 -0.12396 0.01355
-0.30171 0.31611 -0.03992
0.14789 -0.18382 0.06880
0.26086 -0.29982 0.04533
0.01960 -0.31339 -0.00184
-0.11567 -0.08883 -0.00313
-0.00171 -0.25311 -0.02791
0.25406 -0.17030 0.13467
-0.16169 0.01667 0.10114
-0.30306 0.31543 0.10842
0.01900 -0.23918 0.19928
0.00598 -0.31867 0.10739
-0.13722 -0.09782 0.19414
0.25128 -0.32226 0.05672
0.25199 -0.29982 0.01762
-0.00345 -0.30047 -0.16931
0.24344 -0.19581 -0.16108
-0.08619 -0.13433 0.01706
-0.01530 -0.29982 -0.05035
-0.20695 0.10719 -0.00590
-0.05374 -0.19922 0.05860
-0.12203 -0.09782 -0.18620
-0.26054 0.21436 -0.00284
0.10746 -0.21479 -0.07836
0.24344 -0.20360 -0.00545
0.22766 -0.16786 -0.05350
0.25766 -0.18760 -0.19242
-0.01232 -0.28207 0.01459
-0.11851 -0.09782 0.19904
-0.14836 0.04020 -0.10309
-0.28073 0.30494 -0.07699
0.12497 -0.18840 0.02525
0.24785 -0.18760 0.18968
-0.17227 0.03782 -0.06904
-0.00364 -0.29982 0.09829
0.04144 -0.24100 -0.05318
0.30425 -0.16735 0.13467
0.26359 -0.21004 0.12619
-0.16344 0.02017 -0.02504
-0.11705 -0.07918 0.22445
-0.11567 -0.08636 -0.09696
0.02334 -0.23248 -0.12510
-0.02067 -0.32226 -0.05444
-0.02035 -0.29982 -0.12838
0.24344 -0.20634 -0.17499
0.01900 -0.25303 -0.18635
-0.11567 -0.08449 0.02077
0.05800 -0.20180 -0.03816
0.26044 -0.21004 0.12895
-0.09209 -0.07235 0.10848
0.01625 -0.23303 -0.10514
-0.04503 -0.21664 0.04435
-0.00886 -0.29982 -0.03470
-0.17643 0.04614 0.02241
0.11438 -0.21341 0.05058
0.19773 -0.17385 0.06392
0.04144 -0.24270 -0.09565
0.24409 -0.32226 0.03082
0.24344 -0.20891 -0.00762
0.03956 -0.25493 0.03285
0.26589 -0.30774 -0.10411
-0.09443 -0.06767 0.10751
0.27269 -0.15886 0.12818
-0.09294 -0.12084 0.01926
-0.07304 -0.11045 0.01009
-0.23408 0.21163 0.10691
-0.09304 -0.07045 -0.09048
-0.13616 -0.09782 0.02996
0.15647 -0.20499 0.03340
-0.12848 -0.09782 -0.11136
0.00789 -0.31925 -0.06645
0.14803 -0.18379 -0.08600
-0.14914 0.04176 -0.04597
0.02822 -0.23248 0.07125
-0.29121 0.32135 -0.00673
-0.26780 0.23857 -0.11222
0.26052 -0.21004 -0.09827
0.09763 -0.21411 0.13467
-0.02903 -0.19846 -0.02172
0.00590 -0.22320 0.13467
0.02533 -0.23122 0.05978
-0.02662 -0.21872 0.11868
-0.17569 0.09486 0.09110
-0.26288 0.26924 -0.02105
-0.02589 -0.31387 -0.15457
-0.21353 0.17053 0.09635
0.00831 -0.23462 0.07122
-0.29472 0.31960 0.00437
-0.00977 -0.28717 -0.01744
-0.24500 0.18329 -0.09851
0.12134 -0.19631 -0.13467
-0.28548 0.31443 0.02332
-0.11722 -0.02208 -0.08215
-0.05322 -0.20027 -0.04926
-0.03105 -0.24462 0.09015
-0.01228 -0.23197 0.06599
-0.13811 -0.08207 -0.04906
0.21153 -0.19398 -0.00675
-0.24992 0.19313 -0.04369
-0.12686 -0.05299 -0.00245
0.08422 -0.19655 0.08498
0.01900 -0.23807 0.04274
0.29472 -0.15445 -0.08095
-0.06616 -0.12419 -0.06522
0.15085 -0.18322 0.13124
-0.25473 0.25293 -0.03495
-0.09862 -0.05929 -0.08399
-0.03788 -0.23095 -0.01222
0.24766 -0.16386 0.05734
-0.26845 0.26872 -0.11222
0.23184 -0.18992 -0.02209
-0.25842 0.26031 -0.02058
0.02540 -0.23248 0.09684
0.26196 -0.32226 -0.12531
-0.12305 -0.01042 0.10408
0.25800 -0.31764 -0.20200
0.11129 -0.21403 0.06665
-0.13005 -0.07537 -0.18712
0.25114 -0.32226 -0.11335
0.04144 -0.24691 0.19788
0.25949 -0.21004 0.06593
0.24344 -0.19683 0.11670
-0.02459 -0.29982 -0.13512
0.29780 -0.15384 -0.02838
0.26589 -0.20718 -0.15728
-0.04200 -0.17253 -0.07752
-0.01008 -0.32226 0.14213
0.04144 -0.24580 0.15460
-0.25425 0.25198 -0.07855
-0.06293 -0.13067 -0.06712
0.04144 -0.25162 0.07232
-0.16001 0.01330 -0.01111
-0.17419 0.04167 0.01618
0.30690 -0.17491 0.13057
-0.12458 -0.09782 0.03383
-0.00544 -0.29982 -0.09164
0.15924 -0.20444 -0.12748
-0.12802 -0.07537 -0.02810
-0.16194 0.01717 -0.01178
-0.02589 -0.30356 0.00207
-0.12653 -0.00347 0.09504
0.23402 -0.16659 0.11307
0.26175 -0.32226 0.11565
-0.22182 0.13693 0.08314
-0.21028 0.11385 0.01930
0.01295 -0.21080 -0.00652
0.21293 -0.17081 0.10384
0.10565 -0.21516 -0.02048
-0.03169 -0.19315 -0.01438
-0.13475 -0.09782 -0.09984
-0.00480 -0.29712 0.02608
-0.18774 0.11895 0.08393
-0.01058 -0.29982 0.01175
0.24599 -0.32226 0.13761
-0.13082 -0.03997 0.11222
-0.25662 0.20654 -0.01871
0.06915 -0.21834 0.13467
0.24632 -0.18702 0.10937
0.24344 -0.30646 0.05611
-0.00345 -0.32079 -0.04105
0.04533 -0.20433 -0.11360
-0.02434 -0.25804 0.07856
-0.01798 -0.27076 0.00935
-0.04918 -0.20835 -0.00511
