0.17987 -0.34331 0.14904
0.23858 -0.00186 -0.09549
-0.19013 -0.13144 0.14904
0.02810 -0.06640 -0.20350
0.03059 0.00000 0.00488
0.23021 0.00000 0.02396
0.23066 -0.34865 -0.20350
-0.23858 0.18244 -0.13605
-0.14736 0.37938 0.14495
-0.16860 0.38945 0.17496
-0.15073 0.38945 -0.01227
-0.23858 0.30487 0.10457
-0.23858 0.33687 0.13316
-0.14736 0.32753 0.14300
0.00634 0.00000 -0.12631
-0.16959 0.24311 -0.20350
-0.14736 0.14636 -0.03146
0.12612 0.11362 0.20350
-0.14736 0.06689 -0.03614
-0.21042 0.02106 0.20350
-0.14736 0.34580 -0.01929
-0.23858 0.04947 -0.06092
-0.14736 0.29659 0.10427
-0.20692 -0.37619 0.20350
-0.06515 0.00000 -0.11543
-0.14736 0.35810 0.17575
-0.23858 -0.18727 -0.17175
-0.14736 0.11161 0.08198
0.17550 0.09053 -0.20350
-0.14736 0.02519 -0.16575
0.20700 -0.04555 0.20350
0.17610 -0.22994 -0.17506
-0.14736 0.23438 0.17114
-0.16072 -0.23591 0.17938
-0.14736 0.23159 -0.03391
-0.02617 0.00000 -0.09427
-0.05554 0.00000 -0.19240
0.17610 -0.21317 -0.17784
-0.23858 0.33156 0.06377
-0.23858 0.16459 0.14710
0.23379 0.00000 0.17835
-0.23858 -0.33987 -0.16528
0.17610 -0.21091 0.15453
-0.23858 0.07552 0.10973
0.07847 0.00000 -0.05378
-0.14736 0.03841 0.07936
-0.19282 0.38945 0.09637
0.21569 -0.17228 0.20350
-0.14736 0.29003 -0.11071
-0.20419 0.38945 0.03996
-0.23858 0.21817 -0.04133
-0.14736 0.28710 -0.16190
-0.01620 0.01723 0.20350
0.14198 0.10639 0.20350
-0.17448 -0.33079 0.14904
-0.23858 0.04643 -0.00692
-0.14736 0.10354 -0.08074
0.20634 0.11627 0.20350
-0.23858 0.02406 -0.08828
0.13061 0.00000 0.13777
-0.21834 0.38945 0.15675
-0.23858 0.33438 -0.06528
-0.23858 -0.01518 -0.13230
-0.16072 -0.27338 0.18911
-0.21639 -0.38945 -0.15377
-0.14736 0.34590 -0.16587
-0.23858 -0.02434 -0.10675
-0.23858 0.37300 0.06523
-0.23858 0.16345 0.13654
-0.17719 -0.23831 -0.20350
-0.19731 0.23995 0.20350
-0.21585 -0.07076 0.14904
-0.23858 0.11277 -0.12589
0.23858 -0.02104 -0.11582
-0.14736 0.29071 0.15619
0.01937 0.00000 0.17667
-0.23858 0.12723 0.11552
0.18791 -0.01099 -0.20350
-0.23858 0.06069 -0.17017
-0.12806 0.00000 -0.04210
0.23782 -0.38945 -0.16141
-0.14736 0.27028 -0.18378
0.23084 -0.28636 -0.20350
-0.14736 0.02763 -0.01017
-0.23858 0.31187 0.01244
0.17610 -0.32189 -0.20034
0.11390 0.00000 -0.06346
-0.23858 -0.04951 0.13388
-0.17475 -0.25910 -0.18421
-0.23858 0.01717 -0.00641
0.22484 0.00000 -0.07535
-0.22833 -0.38945 -0.16654
-0.14736 0.20824 -0.03711
0.21985 -0.30481 -0.20350
0.23858 -0.36883 -0.14715
-0.14736 0.32346 0.15904
-0.20417 -0.26850 -0.20350
-0.17475 -0.10654 -0.17222
-0.03081 0.00000 -0.19768
-0.23858 -0.00217 0.20186
-0.14736 0.14873 -0.07457
-0.04441 0.08096 -0.20350
0.07317 0.00000 -0.11365
-0.09115 0.00390 -0.20350
-0.07601 0.04939 -0.20350
0.23858 -0.18502 0.17461
-0.05802 0.00000 0.04745
0.15516 0.04450 -0.20350
-0.19599 0.20835 0.20350
-0.12171 -0.03313 -0.20350
-0.22107 -0.00446 -0.20350
-0.23858 -0.20862 -0.14919
-0.23318 0.26439 0.20350
-0.18315 -0.09645 -0.20350
-0.20953 0.14462 -0.20350
0.21677 -0.29908 0.14904
0.12029 0.00000 0.10734
-0.15182 0.27349 -0.20350
0.23858 -0.05898 0.16859
0.05623 -0.04172 -0.20350
-0.06868 0.00000 -0.14075
-0.06861 0.08999 -0.20350
-0.14736 0.36366 -0.08102
0.18651 -0.38606 -0.20350
0.23858 -0.35330 -0.16190
-0.18875 -0.16984 -0.20350
-0.21262 0.07867 0.20350
-0.23858 -0.37303 0.15502
0.22024 0.00000 -0.19470
-0.14736 0.35114 -0.08594
-0.17475 -0.09868 -0.14682
0.01672 -0.00110 -0.20350
0.23858 -0.02064 0.05334
-0.22936 0.34968 0.20350
-0.23858 -0.29353 0.18913
-0.23858 0.17720 -0.07005
-0.23099 0.16634 -0.20350
-0.14736 0.11015 -0.19157
-0.13873 0.00000 -0.02256
0.13118 0.08918 0.20350
-0.14843 0.38945 -0.13274
-0.23858 -0.05020 0.03859
-0.07597 0.00000 -0.12477
0.23858 -0.08410 -0.17691
-0.23858 0.19467 -0.10569
-0.22879 -0.25892 0.20350
-0.07303 0.00000 -0.14894
-0.23858 0.11357 0.11185
-0.16141 -0.23741 0.20350
0.17610 -0.38457 -0.16010
0.13470 0.00000 -0.16314
0.00253 0.00000 -0.09821
-0.19305 -0.34734 0.20350
-0.20405 -0.18855 -0.20350
-0.21506 -0.29767 0.20350
-0.20488 0.38945 -0.02568
-0.20520 0.38945 0.20325
-0.21048 0.34055 0.20350
0.05685 0.00000 -0.11307
0.13917 0.00000 -0.16865
0.19977 -0.38945 -0.16021
-0.14736 0.24108 0.16454
-0.23858 0.13590 -0.00728
-0.21663 -0.05435 -0.20350
-0.14736 0.01844 -0.16265
-0.17475 -0.19648 -0.14847
-0.18523 0.38945 0.17598
0.23858 -0.17958 0.15707
-0.23858 0.07080 0.19820
-0.14736 0.33363 0.14893
0.23858 -0.03349 -0.20130
0.22286 0.00000 0.17919
-0.00346 0.00000 0.01454
-0.23858 0.38142 -0.10890
-0.23858 0.33495 -0.14218
-0.17007 -0.14422 0.14904
-0.23858 -0.09453 0.20245
0.07001 0.00000 -0.04448
-0.14736 0.06768 -0.06929
0.04678 0.00000 -0.08507
-0.14736 0.08493 -0.05039
0.03565 -0.04527 0.20350
-0.14736 0.10561 -0.03061
-0.22734 -0.03148 0.20350
-0.16478 -0.15863 0.14904
-0.07542 0.00000 -0.17343
0.09838 0.00000 -0.00191
-0.23858 0.17131 0.06828
-0.09133 0.00000 0.13293
-0.17377 -0.05046 0.20350
-0.23858 -0.19828 -0.19235
0.23858 -0.04372 -0.11579
-0.14736 0.19332 -0.04477
0.21007 -0.24679 0.14904
-0.17475 -0.26658 -0.15141
-0.23858 -0.01488 -0.09679
-0.17475 -0.10053 -0.15474
0.07267 0.00000 0.16065
-0.14736 0.02679 -0.09038
0.23813 0.00000 -0.11873
-0.23035 0.38945 -0.03179
0.23858 -0.03157 0.11618
0.17610 -0.33263 -0.16213
-0.16454 0.02557 0.20350
-0.23858 -0.04116 0.11258
0.23549 -0.21827 -0.20350
-0.14736 0.18117 -0.13994
-0.18059 -0.06924 0.14904
-0.22120 0.08962 0.20350
-0.00308 -0.02348 -0.20350
0.23858 -0.04221 -0.05061
-0.14736 0.32398 -0.05558
-0.14736 0.29027 -0.18422
0.18828 0.00000 0.10554
-0.14736 0.08779 -0.17256
0.11761 0.00000 -0.14006
-0.14736 0.33570 0.10838
-0.19052 0.38945 -0.12653
-0.20358 -0.03967 0.20350
0.16532 0.09087 -0.20350
-0.23858 -0.02561 -0.08653
-0.23858 0.02971 -0.19268
-0.23377 0.38945 -0.14258
0.21566 0.00000 0.14267
-0.00783 0.01778 0.20350
-0.20676 0.38945 0.14289
0.09060 0.00000 -0.01072
-0.17475 -0.27449 -0.16884
0.01534 0.00000 0.07867
-0.16486 -0.17576 0.20350
-0.23858 -0.02615 0.17197
-0.23858 -0.06042 0.19273
0.10837 -0.05578 -0.20350
-0.16296 0.35294 0.20350
0.18273 0.11585 -0.20350
-0.17475 -0.07362 -0.17556
-0.14736 0.13888 -0.07195
-0.00661 0.00000 0.04012
-0.14736 0.15688 0.12318
-0.22378 0.24440 -0.20350
-0.14736 0.21948 -0.09011
-0.23858 -0.36035 0.17043
0.17610 -0.21516 -0.16536
-0.18572 0.38945 0.02183
-0.12689 0.00000 0.02689
-0.17368 0.01269 0.20350
-0.23858 0.36197 0.01158
-0.23858 0.16009 -0.14207
0.22999 -0.05550 0.14904
0.17610 -0.38682 -0.19475
-0.23858 0.05275 0.19576
-0.03399 -0.04516 0.20350
0.23858 -0.15751 0.17241
0.17610 -0.20686 0.17522
0.21495 0.12116 0.20350
0.23858 -0.09096 0.14988
0.21683 -0.07944 0.14904
0.12004 0.00000 0.20277
0.18765 -0.05793 0.14904
0.21497 -0.26682 0.14904
0.23720 -0.38945 -0.19752
-0.20028 -0.15215 0.20350
-0.23858 0.24915 0.08408
-0.20148 0.37400 -0.20350
0.17610 -0.20635 -0.16037
-0.08928 0.00000 0.11346
-0.14736 0.18202 -0.08681
-0.14736 0.25118 -0.11220
-0.19051 0.04385 0.20350
-0.14736 0.37638 -0.01331
0.05726 -0.04446 0.20350
0.23858 -0.04194 -0.06737
-0.23858 0.00402 -0.19538
0.17610 -0.25125 0.19421
-0.23858 0.02803 0.18809
-0.14736 0.36926 0.00056
0.01833 -0.05947 -0.20350
-0.17723 -0.06009 0.14904
-0.23858 0.08703 0.09342
-0.23858 0.15334 0.17547
-0.23858 0.02249 0.01401
0.11620 0.00000 0.16679
0.09083 0.00000 0.09343
-0.14736 0.07060 0.03361
0.02982 0.00000 0.03828
-0.23858 0.14553 -0.16845
-0.01495 0.00000 0.08999
0.18513 -0.25849 0.14904
-0.14736 0.14981 -0.17609
-0.17999 0.08421 -0.20350
0.18540 0.00000 0.11955
-0.23858 0.16784 0.09588
-0.16052 0.38945 0.18401
0.23858 -0.12993 -0.16480
-0.16638 0.38945 0.09279
0.17610 -0.35000 0.15963
0.23612 -0.08083 -0.20350
0.12653 0.00000 0.12393
0.23754 0.00000 -0.08957
-0.06223 0.00000 -0.06701
-0.11681 0.00000 -0.10218
-0.23858 0.36120 -0.08794
-0.14736 0.16611 0.04851
-0.14736 0.28864 0.10236
-0.18016 0.38945 0.02659
0.09374 0.12226 0.20350
-0.14736 0.33314 0.19193
-0.14736 0.11188 0.15632
0.19201 -0.09433 0.14904
-0.23858 -0.38059 -0.18184
-0.04833 0.00000 0.06246
-0.22438 -0.36514 0.14904
-0.23858 0.32514 0.05515
0.22887 -0.26808 0.20350
0.17610 -0.20648 -0.16634
-0.14736 0.21589 -0.13238
-0.23858 0.38478 0.13293
-0.08727 0.11813 0.20350
-0.23858 0.16066 0.04138
0.02260 0.00000 0.00864
-0.14736 0.21691 0.19510
0.23858 -0.33055 -0.18106
-0.19919 -0.30626 0.14904
-0.15564 0.00205 -0.20350
0.22531 -0.21964 0.14904
0.04522 0.00000 -0.18963
-0.13545 0.00000 0.02450
-0.14736 0.33392 0.03140
-0.23858 -0.06775 -0.19407
0.23858 -0.35586 -0.16714
0.17610 -0.11364 0.17077
0.10771 0.00000 -0.09056
0.22757 0.00000 -0.14487
-0.00223 -0.06432 -0.20350
0.21008 -0.38945 -0.18721
-0.22290 -0.15449 -0.20350
-0.14736 0.22742 -0.14166
0.02400 0.00000 -0.06545
-0.18953 0.10829 0.20350
-0.12940 0.00000 0.02101
-0.20774 -0.07206 0.14904
0.17568 0.00000 0.01273
0.09489 0.00000 -0.20238
-0.23858 0.14392 0.11625
-0.23858 0.05580 0.14196
-0.14736 0.28050 -0.04764
-0.15197 0.38945 0.02457
0.17610 -0.32166 0.19330
0.23826 0.00000 -0.17494
-0.23858 0.24307 0.15765
-0.18976 0.38945 -0.11602
-0.23858 0.01161 -0.00143
-0.23858 0.22714 -0.19039
-0.14736 0.16259 -0.19019
-0.23858 0.32607 0.13417
0.23858 -0.19898 -0.14871
-0.23858 -0.00683 -0.07317
-0.14736 0.34853 0.15475
-0.23858 -0.11134 0.16184
-0.19497 0.38945 -0.17070
-0.23858 0.16938 0.18865
0.18467 -0.28578 0.20350
-0.07853 0.00000 0.13577
-0.00151 0.03916 0.20350
-0.14736 0.13985 -0.20152
-0.17831 -0.24066 0.14904
-0.16072 -0.05461 0.17728
0.20164 -0.38945 -0.16619
-0.20834 0.15257 -0.20350
-0.14736 0.33884 0.18155
-0.14736 0.25616 -0.10521
-0.23858 -0.27530 0.15869
-0.17475 -0.22589 -0.17305
0.19570 -0.15920 0.14904
0.23858 -0.07397 -0.19867
-0.23858 -0.02687 0.02767
-0.14736 0.00717 0.00895
-0.23858 -0.14672 -0.19348
0.05696 -0.05068 -0.20350
0.21265 -0.27731 -0.20350
-0.14736 0.15593 -0.10221
0.23858 -0.13061 -0.15052
0.19492 -0.23511 -0.20350
0.01739 0.00000 0.00239
-0.22293 0.38945 -0.10454
0.23858 -0.00300 -0.19630
-0.23858 -0.14322 0.17583
0.19746 -0.13492 -0.20350
-0.23858 0.12881 0.13307
-0.23858 0.03758 -0.14566
-0.21877 0.38945 -0.15710
-0.23858 -0.20247 -0.16325
-0.14736 0.19146 0.08091
-0.23858 0.16870 0.00416
-0.07660 -0.01175 -0.20350
-0.23858 -0.33850 -0.20125
-0.23858 -0.20654 0.17428
-0.00711 0.00000 0.00082
-0.14736 0.00615 -0.08619
-0.16660 0.38945 0.00568
0.17610 -0.13886 -0.14853
0.18652 -0.24702 0.20350
0.19868 -0.13514 0.20350
-0.08772 0.00000 0.08774
-0.18010 0.30398 -0.20350
-0.22124 -0.00658 0.20350
-0.14736 0.35751 0.15025
-0.04616 0.00000 -0.11795
0.11508 0.00000 0.19316
-0.14736 0.22513 -0.10432
-0.14736 0.13722 -0.01562
-0.10545 -0.00148 0.20350
0.23858 -0.15321 -0.16301
-0.20974 -0.38945 0.19411
-0.23858 -0.33549 0.15025
-0.14736 0.38634 0.10794
0.01480 -0.01915 0.20350
-0.22195 0.38945 0.00908
-0.14736 0.20098 0.09934
-0.07768 -0.00356 -0.20350
0.12623 0.00000 -0.07852
-0.07295 0.00000 -0.18285
-0.04624 0.13323 -0.20350
0.21966 -0.21693 0.14904
0.17610 -0.19733 0.20262
-0.18264 0.21873 -0.20350
-0.23858 0.34484 0.05689
-0.23858 0.13006 0.08205
0.17610 -0.21441 0.16815
-0.16835 0.07033 0.20350
-0.14736 0.13473 0.09697
-0.20943 0.15038 0.20350
-0.23858 0.34463 0.10520
0.19076 -0.24352 0.20350
-0.14736 0.01898 0.15236
-0.23858 0.30973 -0.02741
-0.14736 0.36418 -0.10834
-0.23858 0.03089 -0.01402
0.09246 0.00000 0.18058
-0.23858 0.22405 0.04304
-0.14736 0.13025 0.13944
-0.20177 0.13237 0.20350
-0.14736 0.11032 -0.06669
-0.12202 0.04223 0.20350
-0.23822 0.38141 -0.20350
-0.23858 -0.32992 0.15906
-0.22220 0.38945 -0.18999
0.23858 -0.16014 -0.18182
-0.23858 0.09928 0.13778
0.17937 0.00000 -0.17133
-0.23608 0.03639 -0.20350
0.07151 0.00000 -0.05202
-0.23858 -0.03994 -0.02125
0.23858 -0.04590 -0.08168
-0.23858 0.34964 -0.08512
-0.16072 -0.14897 0.20065
-0.23858 0.00273 -0.07081
-0.14736 0.18251 -0.04115
-0.23858 -0.27753 -0.17982
-0.15638 -0.03607 0.20350
-0.13294 -0.04545 0.20350
-0.17475 -0.33374 -0.15644
-0.23858 0.08396 -0.11635
0.22235 -0.02393 0.20350
-0.16072 -0.17546 0.19214
-0.23858 0.21399 -0.14178
0.08085 0.00000 -0.12979
-0.01354 0.00000 0.19273
-0.19553 -0.22176 -0.20350
-0.23858 0.29321 -0.15142
-0.18901 0.31640 0.20350
-0.23858 -0.01902 0.01122
-0.21530 -0.25320 0.20350
-0.14736 0.08788 0.07911
-0.23858 0.03194 -0.15726
-0.19129 0.07649 -0.20350
0.18646 -0.11490 -0.20350
0.23736 0.12023 -0.20350
-0.02788 0.00000 0.14240
0.23858 -0.04249 -0.02374
0.19499 -0.35237 -0.20350
0.20150 0.00000 -0.10465
-0.17737 0.38945 -0.03401
0.04033 0.00000 -0.16410
0.19572 0.11998 0.20350
0.16025 0.00000 -0.10038
-0.14736 0.14269 0.05585
-0.14736 0.26010 -0.12513
-0.23858 -0.06822 -0.17957
0.20186 -0.37528 0.20350
0.17610 -0.14136 0.18724
-0.23858 0.07203 -0.03150
0.23822 -0.06042 0.14904
-0.23731 -0.13195 -0.20350
-0.19414 0.29580 0.20350
0.15218 0.00000 -0.05133
-0.23858 0.13408 -0.18588
0.17610 -0.10960 -0.19975
-0.18437 0.28925 -0.20350
0.23858 -0.18826 -0.16183
0.02661 0.00000 -0.08271
0.13657 0.00000 0.12581
-0.23858 -0.01844 -0.15806
-0.14736 0.32491 0.12435
-0.23858 0.23776 -0.03157
0.00298 0.00000 -0.16701
-0.23858 0.27528 0.02695
-0.14736 0.15056 0.17859
-0.23858 -0.28177 0.17521
0.23858 -0.02042 0.07230
0.18672 0.00000 0.05006
-0.23801 0.38945 0.00240
-0.20809 0.22836 0.20350
0.23858 -0.01149 -0.06575
0.17610 -0.33280 0.17548
0.05266 0.00000 0.16172
-0.23858 0.38407 -0.02591
0.17610 -0.17057 0.16551
-0.14736 0.17579 -0.18537
0.23858 -0.34494 0.15177
-0.23858 0.03897 0.09916
0.02777 0.00000 -0.05039
-0.18040 -0.37071 0.20350
0.05823 -0.06379 -0.20350
0.18833 -0.26111 0.20350
-0.09182 0.00000 -0.15980
-0.23170 -0.11323 0.20350
-0.23858 0.11606 0.19919
0.18967 0.00000 0.07085
-0.00753 0.00000 -0.11454
-0.03821 0.08262 0.20350
0.09524 0.00000 0.14974
-0.23858 0.36656 0.08301
-0.23858 -0.07144 -0.15279
-0.13273 0.06963 0.20350
-0.16078 0.38945 0.19549
0.18799 -0.17547 -0.20350
-0.16072 -0.38398 0.18468
-0.19254 0.13881 -0.20350
0.23251 -0.38945 0.16367
0.05772 0.00000 -0.09482
-0.14736 0.22357 0.13541
0.09730 0.00000 0.16072
-0.23858 -0.32409 0.15632
-0.23858 0.00692 0.11035
-0.23858 0.01913 0.14922
-0.16185 -0.06977 0.14904
0.03869 0.00000 0.10621
-0.23741 -0.14673 0.14904
-0.23858 0.33299 0.09557
-0.23858 0.01053 -0.13178
-0.23858 -0.00301 -0.15757
0.17610 -0.29726 -0.15820
-0.21978 0.15760 -0.20350
-0.17286 0.30751 0.20350
-0.16072 -0.30905 0.18528
-0.17374 0.14630 -0.20350
-0.05175 -0.00303 -0.20350
-0.23858 -0.02686 0.13610
-0.20310 0.33220 0.20350
-0.17023 0.38945 -0.13247
-0.16964 0.38945 0.12576
-0.23858 0.04107 0.10723
0.20347 0.00000 -0.09665
0.17610 -0.29852 -0.18668
0.23621 -0.04323 -0.20350
0.19601 -0.37419 0.20350
-0.23858 0.10440 -0.13081
-0.14736 0.02267 -0.17295
0.20042 0.00000 0.11825
-0.23858 0.00586 0.15360
-0.14736 0.17654 -0.05789
0.12561 -0.06593 -0.20350
-0.14736 0.14760 0.10121
-0.23858 -0.04920 0.18265
0.22101 -0.03343 -0.20350
0.00877 0.00000 -0.03866
-0.16261 0.20035 -0.20350
-0.23858 0.22305 0.14390
-0.23858 0.17850 -0.02617
-0.00717 0.00000 0.00986
-0.23858 -0.03135 0.16805
-0.17475 -0.35768 -0.17426
-0.17475 -0.16329 -0.16242
-0.22400 0.29939 -0.20350
0.23858 -0.09250 0.15729
0.23001 -0.13288 0.14904
-0.23858 0.25305 -0.05424
-0.14736 0.14105 -0.13155
-0.22796 -0.33241 -0.20350
0.21470 -0.14132 -0.20350
0.20564 -0.17479 0.20350
-0.23858 -0.02572 0.07529
-0.23858 0.10231 -0.08766
0.07000 0.03429 -0.20350
-0.23858 0.07310 -0.15956
-0.17475 -0.27112 -0.18100
-0.17905 0.24772 0.20350
0.07562 -0.00594 -0.20350
-0.19549 0.14630 0.20350
0.18156 -0.31537 0.20350
-0.14736 0.36227 -0.13420
-0.10823 0.00000 -0.05550
-0.14736 0.16472 0.11217
-0.22939 0.31304 -0.20350
-0.14736 0.18793 -0.19602
-0.14736 0.04975 -0.20074
-0.08172 -0.01960 0.20350
-0.23858 -0.21072 0.20159
-0.23106 0.04802 0.20350
-0.14736 0.36639 -0.07322
0.02790 0.00000 0.05267
-0.14736 0.35892 -0.09931
-0.14923 0.16664 -0.20350
-0.14736 0.11250 -0.12663
-0.23858 0.11486 -0.20265
-0.20708 0.10988 -0.20350
0.21221 0.00000 0.02479
0.19552 -0.09643 -0.20350
0.05426 0.07678 -0.20350
-0.14736 0.31583 0.05940
0.11008 0.13054 0.20350
-0.23858 0.32136 -0.05544
0.23315 -0.10623 0.14904
0.17610 -0.31709 0.16391
-0.21250 -0.05501 0.14904
0.21321 0.00000 -0.16294
-0.23858 0.19300 0.05044
-0.04856 0.12199 -0.20350
0.22560 -0.31235 0.20350
-0.23858 0.09337 -0.12157
-0.14736 0.34894 -0.11432
-0.17475 -0.24059 -0.18618
-0.14736 0.01785 -0.18524
0.21488 0.00000 -0.12381
-0.15868 -0.04193 0.20350
-0.23393 -0.38945 -0.16149
-0.00455 0.00000 0.06443
-0.22753 0.38945 -0.02137
-0.14736 0.38349 0.12012
-0.23858 0.32291 -0.17808
0.14794 0.00000 -0.17796
-0.14996 -0.03004 0.20350
0.23858 -0.00602 -0.05192
0.08300 0.00000 -0.08556
0.23858 -0.14979 0.17974
0.05221 0.00000 -0.05995
-0.23495 0.27068 0.20350
-0.23858 0.36194 -0.17486
-0.17544 0.38945 0.01770
-0.15709 0.38945 0.18837
-0.14736 0.13649 -0.11286
-0.14736 0.00165 0.15067
0.17610 -0.34870 -0.18050
-0.14736 0.29489 0.06558
-0.02097 0.11354 0.20350
-0.05620 0.00000 0.13018
-0.14736 0.26144 -0.08410
0.07702 0.00000 -0.08609
0.23811 -0.38945 0.17562
0.22142 -0.17012 -0.20350
0.18945 -0.22043 -0.20350
-0.13904 0.00000 -0.10798
-0.22150 -0.18962 -0.20350
0.19603 -0.00808 0.20350
-0.23142 0.31919 0.20350
0.08119 0.12290 0.20350
0.19955 -0.28831 0.20350
0.23858 -0.31368 -0.14830
-0.01045 0.00000 -0.01306
-0.17475 -0.23796 -0.19531
-0.23858 0.22804 0.09768
-0.23858 -0.28506 0.20033
0.09740 0.00000 0.17022
0.23813 -0.19184 0.20350
-0.23858 0.23690 -0.08997
0.23858 -0.27308 -0.19523
-0.14736 0.22175 -0.06704
0.21816 0.00000 -0.05233
0.23635 -0.24160 0.14904
-0.20928 0.38945 0.08039
-0.23858 0.20858 0.07884
0.20680 -0.33934 -0.20350
-0.14736 0.23583 0.11086
-0.12850 0.00000 -0.13301
-0.07611 0.00000 -0.13687
-0.04141 0.12205 -0.20350
-0.23858 0.06356 0.05263
0.17610 -0.06673 -0.15908
0.18243 0.00000 0.03642
-0.23858 0.25914 0.15537
-0.17035 0.16509 -0.20350
0.19987 0.00000 0.06124
0.23858 -0.00155 -0.05578
0.17610 -0.14171 -0.17424
-0.22775 -0.33488 0.14904
-0.19989 0.08472 0.20350
-0.23858 0.15249 -0.05215
-0.23705 0.38945 0.03892
0.17608 0.00000 0.20324
-0.20220 0.26583 0.20350
-0.23858 0.08304 0.11506
0.12801 0.00000 -0.13461
-0.05543 0.00000 0.11088
0.13892 0.07185 0.20350
-0.23858 0.26525 0.19479
0.17610 -0.18882 -0.19777
0.19886 0.00000 -0.05150
-0.23219 0.38945 -0.01845
-0.10359 0.00000 0.03524
-0.19816 -0.38945 0.16503
-0.23775 0.38945 -0.02527
0.20453 0.00000 0.09574
-0.20472 0.20483 0.20350
-0.14736 0.31898 0.14166
-0.18163 0.38945 -0.10239
-0.20256 -0.38478 0.20350
-0.14425 0.00000 0.01010
-0.23858 0.09447 0.08481
-0.14736 0.22439 0.05711
0.07319 -0.00522 0.20350
0.17230 0.00000 -0.11786
-0.14736 0.26612 -0.00140
-0.20865 0.38945 0.02323
-0.23858 0.05678 -0.06525
-0.23858 -0.35287 0.18038
-0.23858 0.05298 -0.11550
0.23189 0.00000 -0.09046
-0.07363 0.00000 -0.07397
-0.23858 -0.32165 0.15056
-0.06198 0.00000 -0.19388
0.11367 -0.05057 0.20350
-0.23858 -0.37096 0.19084
0.21126 -0.10289 0.20350
-0.11488 0.00000 -0.19567
-0.23858 0.32302 0.15335
-0.22686 -0.25155 0.20350
-0.14736 0.23571 0.02882
-0.23858 -0.16522 -0.14807
0.23858 -0.29221 0.18225
-0.00237 0.00000 0.13181
0.04094 0.00000 -0.00739
0.17610 -0.14873 0.15826
-0.20251 -0.31547 0.14904
-0.04997 0.00000 -0.04880
-0.15666 0.38945 0.13058
-0.23858 0.22595 -0.01131
-0.14736 0.35898 -0.12496
-0.14736 0.30315 -0.12296
-0.23858 0.29907 -0.11653
0.09429 0.05406 0.20350
0.09335 0.08556 0.20350
-0.23858 0.15308 -0.10947
-0.23858 -0.36287 -0.17368
-0.14736 0.27104 -0.19992
0.23858 -0.32253 -0.19257
-0.02301 0.00000 -0.11147
0.23858 -0.02701 -0.02952
0.17610 -0.35958 0.17685
-0.18409 -0.31869 0.20350
-0.16072 -0.08756 0.19688
-0.23858 0.25260 0.17098
-0.06446 -0.04291 0.20350
-0.14736 0.07879 -0.19429
-0.16399 0.22434 0.20350
-0.14896 0.38945 -0.07837
-0.23858 0.02883 -0.12948
0.12251 0.00000 -0.05018
-0.23858 0.37227 0.17933
-0.23858 0.04030 -0.09489
-0.14736 0.00666 -0.00960
0.17129 -0.02653 -0.20350
-0.09249 0.11953 -0.20350
0.23858 -0.33595 -0.16534
-0.23266 -0.26133 -0.20350
-0.20281 0.37632 0.20350
-0.04748 -0.04005 0.20350
-0.17475 -0.08424 -0.17675
-0.04357 0.05439 -0.20350
-0.23858 0.15550 0.03939
-0.14736 0.34190 -0.13736
0.05434 0.00000 -0.02209
-0.16072 -0.12417 0.17619
-0.14736 0.03544 -0.05046
0.22037 -0.28932 0.20350
-0.22925 0.09487 0.20350
0.20417 -0.23072 -0.20350
0.23858 -0.32758 -0.16367
-0.23858 0.04629 -0.08317
-0.14736 0.07380 0.13344
-0.14736 0.16607 0.20294
-0.14736 0.26117 0.10242
-0.09183 0.13862 0.20350
-0.23805 0.05744 0.20350
0.19902 -0.38945 0.15456
0.21672 -0.09195 0.14904
-0.14736 0.21533 0.11711
-0.14736 0.01867 0.17015
-0.21246 -0.09748 0.20350
0.19697 -0.14463 0.20350
0.20016 0.00000 -0.12611
-0.14736 0.20325 0.16307
-0.04399 -0.03287 -0.20350
-0.08434 0.00000 0.17997
-0.14995 0.27415 0.20350
-0.16072 -0.37385 0.15357
0.20376 -0.33914 0.14904
-0.23858 -0.09084 -0.19581
0.23593 -0.19591 0.14904
-0.16072 -0.32288 0.19134
0.23858 -0.26975 0.17309
-0.14736 0.09373 -0.00521
-0.20398 -0.23486 0.20350
-0.13329 0.02653 0.20350
-0.20840 0.18311 -0.20350
-0.23858 0.24456 -0.16114
-0.15854 0.38945 0.15021
-0.17475 -0.30192 -0.16178
-0.23858 -0.02940 -0.10005
-0.02406 0.08303 0.20350
0.07788 0.00000 -0.00629
-0.20466 -0.33604 -0.20350
0.17864 -0.06870 0.20350
-0.14736 0.24818 0.05792
-0.23858 -0.04381 0.04999
-0.15118 0.26336 0.20350
0.16760 0.05101 -0.20350
-0.14736 0.20705 0.06978
0.18478 -0.28454 -0.20350
-0.18356 0.17836 -0.20350
-0.17475 -0.14577 -0.16708
-0.23858 0.29175 -0.09611
0.20173 -0.14736 0.20350
0.17610 -0.10761 0.18728
-0.15587 0.13029 -0.20350
0.23858 -0.17171 0.15509
-0.23858 0.05691 0.12057
0.23858 -0.09704 -0.18285
-0.23858 0.08692 0.08079
-0.04539 0.00000 0.01873
-0.20594 0.38945 -0.19516
0.03919 0.00000 0.07322
-0.20951 0.13790 0.20350
-0.23858 0.24281 0.02922
-0.23858 0.03412 0.03324
0.18092 0.00000 0.02054
-0.23858 0.17137 0.05489
-0.14736 0.08143 -0.00211
-0.14736 0.28222 -0.11347
-0.23024 -0.22823 0.20350
-0.23858 0.34433 -0.12321
-0.17475 -0.20045 -0.16041
0.23170 0.00000 -0.12925
-0.17874 0.38945 -0.16329
0.20580 0.12495 -0.20350
-0.23858 0.23543 -0.08177
-0.21269 -0.02632 0.20350
-0.03564 0.00000 -0.04132
-0.23858 0.11348 0.18402
0.20166 0.00000 -0.04410
-0.14736 0.03274 0.14695
-0.14736 0.10215 0.08105
-0.04992 0.11880 0.20350
-0.14736 0.09632 -0.18896
-0.08565 0.00000 -0.13933
0.17610 -0.36372 0.16901
-0.01344 -0.02549 -0.20350
-0.23858 -0.12981 0.18422
-0.23858 0.23231 0.10311
-0.23858 -0.11170 -0.15682
-0.14691 0.00000 -0.04171
-0.20264 0.19801 -0.20350
-0.02381 0.13732 -0.20350
-0.20696 0.17595 -0.20350
0.19267 -0.28159 0.14904
0.14879 0.00000 -0.13395
-0.14736 0.25649 0.03116
0.03627 0.00000 -0.01963
0.21510 -0.26419 -0.20350
0.23858 -0.16383 0.19617
-0.23438 -0.14290 0.20350
-0.17475 -0.19576 -0.17471
0.23641 -0.15310 -0.20350
0.23858 -0.20782 -0.18762
-0.14736 0.34489 -0.06625
0.19778 -0.29994 -0.20350
0.20720 -0.38945 0.17173
-0.14759 0.38945 0.06937
0.20512 -0.29865 0.14904
-0.14736 0.01002 0.07277
-0.14736 0.15069 0.05368
0.09556 0.00000 -0.15036
0.17610 -0.12183 0.16382
-0.16125 -0.13087 0.14904
0.17610 -0.27198 -0.16969
0.23858 -0.27492 -0.15841
-0.03345 0.00000 -0.05740
0.10823 0.00000 0.15218
-0.22254 -0.38945 -0.19670
0.16356 0.00000 0.17235
-0.14736 0.11811 0.13651
-0.17448 0.01128 -0.20350
0.22079 -0.38945 0.15674
-0.14736 0.35312 -0.17465
-0.06832 0.11935 -0.20350
0.06127 -0.00237 -0.20350
-0.23858 -0.29843 -0.17323
-0.14736 0.26179 -0.19293
-0.18785 -0.19829 -0.20350
-0.14736 0.02358 -0.09520
0.23858 -0.34174 -0.15816
-0.18698 -0.17616 0.20350
-0.14736 0.00190 -0.13046
-0.14736 0.12460 0.09792
-0.15004 0.00048 0.20350
-0.23858 0.03591 0.13191
0.07115 -0.01834 0.20350
-0.23858 0.28655 -0.05380
-0.19260 -0.33297 0.20350
-0.14736 0.11036 0.12456
-0.15752 -0.01023 0.20350
0.17610 -0.24720 0.18668
-0.18597 0.22342 -0.20350
-0.15096 0.18871 0.20350
-0.23858 0.24789 -0.14339
0.23858 -0.00003 0.00986
-0.14736 0.05455 -0.16703
0.05124 0.00602 -0.20350
0.11680 0.00000 0.15326
-0.16072 -0.19078 0.15510
0.23858 -0.17477 0.18509
-0.18076 0.11428 -0.20350
-0.15759 0.38945 0.16356
-0.14736 0.24172 0.18699
-0.23858 0.22305 0.11071
0.17610 -0.31441 -0.16536
-0.23858 0.27469 0.19079
-0.23858 0.17190 -0.02027
0.17610 -0.32335 0.18043
0.03161 0.00000 0.14037
-0.12199 0.00000 0.10687
0.23858 -0.05067 0.06009
-0.14736 0.14534 0.00422
-0.13047 -0.06136 -0.20350
-0.07257 0.06514 -0.20350
-0.14566 0.00000 0.12141
-0.23858 -0.34042 0.16595
-0.14736 0.10766 -0.10730
-0.14736 0.23153 0.04712
-0.14736 0.21882 -0.18592
-0.23858 -0.10773 0.20322
0.23858 -0.04212 0.17393
-0.23858 0.34885 0.00468
0.21983 -0.20922 -0.20350
0.21615 -0.37904 -0.20350
-0.14736 0.30184 0.09681
-0.23858 0.08388 -0.13098
-0.14736 0.03632 0.13930
0.16489 0.00000 0.09175
-0.16072 -0.11615 0.18167
0.23858 -0.02722 0.05250
-0.17475 -0.33946 -0.15519
-0.16960 -0.19611 0.20350
0.10807 0.00000 -0.06866
-0.23858 0.06300 -0.05880
-0.14736 0.27761 -0.02363
0.23858 -0.21302 0.17052
0.01393 -0.03604 0.20350
-0.23858 0.27288 -0.04410
0.20902 -0.05537 0.20350
-0.14736 0.37556 0.04733
-0.22063 -0.28164 0.20350
-0.18048 -0.24516 -0.20350
0.07119 0.00000 -0.13112
0.01702 0.00000 0.09126
-0.21127 -0.07340 -0.20350
-0.23858 0.25172 0.15816
0.19511 -0.02746 -0.20350
-0.17475 -0.26030 -0.20346
-0.08399 0.00000 -0.02385
-0.07400 0.00000 0.14422
0.11342 0.00000 0.09374
0.03500 0.00000 0.11161
-0.23858 -0.03441 0.01922
-0.17475 -0.34403 -0.18667
-0.23858 0.08695 -0.03345
0.02112 0.00000 0.13625
-0.14736 0.12187 -0.04825
0.18101 -0.09065 0.14904
0.01070 0.00000 0.07505
-0.17901 -0.00583 -0.20350
-0.23858 -0.00313 0.08651
0.22854 -0.29783 0.14904
-0.21054 0.30979 0.20350
-0.03915 0.00000 -0.07201
0.23858 -0.14539 0.16781
-0.23858 0.10249 0.03312
-0.14855 0.38945 0.18366
-0.20718 0.24198 0.20350
-0.04171 0.00000 0.10301
-0.08454 0.00000 -0.03897
-0.23858 0.19925 -0.01910
-0.19816 -0.36065 -0.20350
0.23858 -0.20296 0.17325
-0.21826 0.38945 0.05090
-0.14736 0.11349 0.10334
-0.23858 0.37069 0.12008
0.21036 -0.16380 0.14904
-0.20799 0.27012 -0.20350
-0.14736 0.11230 -0.08205
0.17610 -0.34972 -0.14862
-0.23519 -0.35365 0.20350
-0.15568 0.36960 -0.20350
-0.23858 -0.33338 -0.14880
-0.23449 0.38945 -0.01189
0.17610 -0.06117 0.18552
-0.16274 -0.24880 0.20350
0.19233 -0.04539 0.20350
-0.02998 0.00000 0.07423
-0.14736 0.30609 -0.07622
-0.17156 0.08550 -0.20350
0.23858 -0.01149 -0.04039
-0.14636 0.00000 0.08985
-0.21622 0.38945 0.13602
-0.22096 0.18186 -0.20350
-0.14736 0.03304 -0.09589
-0.16072 -0.29020 0.19317
0.00437 0.00000 -0.06254
0.21225 -0.36054 0.20350
-0.23858 -0.05873 -0.19070
-0.19826 -0.35031 0.20350
0.22229 -0.10032 0.20350
0.20591 0.13690 0.20350
-0.23509 0.24950 0.20350
-0.23858 0.15046 0.00328
-0.05938 -0.00899 0.20350
-0.13689 0.00000 -0.08586
0.23858 -0.31744 -0.15736
-0.21224 0.17969 0.20350
-0.23858 0.01929 -0.03053
-0.14736 0.02017 0.09169
-0.18689 0.37161 -0.20350
-0.23858 -0.32947 0.17807
-0.23858 0.24246 -0.00742
0.04177 0.00000 0.18021
-0.14736 0.19609 0.00141
-0.16353 -0.16595 0.14904
-0.08717 0.00000 -0.05031
0.21534 -0.18373 0.20350
0.00378 0.00000 -0.13985
-0.19848 0.25238 -0.20350
-0.15266 0.33222 -0.20350
-0.23858 0.20332 0.01612
-0.18391 0.13748 0.20350
-0.23858 0.07607 -0.03736
-0.23858 0.25304 -0.09531
-0.21270 -0.38514 0.14904
0.20330 -0.11574 0.14904
-0.22014 0.37252 -0.20350
0.19832 -0.32097 -0.20350
0.17610 -0.25635 -0.19659
-0.14736 0.07557 0.11860
0.17610 -0.29898 -0.16719
-0.23858 0.36765 -0.14989
0.17610 -0.14088 0.20118
-0.22457 -0.08515 0.14904
-0.14736 0.35842 0.08464
0.19235 0.00000 -0.15849
-0.20940 0.38945 -0.01482
-0.23858 0.08852 -0.01842
-0.18332 0.33471 -0.20350
-0.23858 0.30777 0.06898
-0.16599 -0.05641 0.20350
-0.22609 -0.06254 0.14904
-0.14736 0.13111 0.18080
0.23858 -0.31914 0.20187
-0.23858 -0.01346 0.06273
-0.14736 0.10446 0.10423
-0.23858 0.04538 0.16578
-0.14736 0.00264 -0.10016
0.20275 -0.38945 0.18328
0.18639 -0.38945 0.19578
-0.17475 -0.28240 -0.18811
-0.23858 0.12608 0.17768
0.17610 -0.33748 0.16031
-0.23858 0.25575 -0.17710
-0.23858 0.35441 0.19029
-0.03718 0.00000 0.01900
-0.17689 0.34257 0.20350
-0.23858 0.18719 -0.17877
-0.14736 0.34073 -0.09908
-0.17742 -0.38945 -0.16796
0.16509 0.00000 0.18455
-0.23858 0.30255 -0.10717
-0.20767 0.00986 0.20350
0.19560 -0.02247 0.20350
0.23858 -0.08422 0.18723
-0.20050 -0.21041 0.20350
0.10631 0.00000 -0.04428
-0.14736 0.18370 -0.15220
0.22494 -0.17189 0.14904
-0.17013 0.38945 -0.10233
0.04905 0.00000 0.18104
0.14090 0.00000 0.15329
-0.22025 0.21217 0.20350
-0.10908 -0.00399 -0.20350
-0.23858 0.23746 0.05073
-0.14736 0.22740 -0.02715
-0.17172 0.07834 -0.20350
-0.14736 0.08453 -0.19623
-0.05071 0.03762 -0.20350
-0.23858 0.28724 0.12815
0.20225 -0.23286 0.20350
0.23858 -0.30571 -0.17088
-0.22112 -0.34492 0.20350
0.23858 -0.03374 0.08115
-0.14736 0.21987 0.17167
-0.23858 0.16626 -0.04043
-0.14736 0.28461 0.14201
-0.14736 0.27287 -0.12970
-0.19514 0.38945 0.11969
-0.14736 0.14543 -0.10845
0.18890 -0.15565 -0.20350
-0.14736 0.03040 -0.06968
-0.23858 0.32488 -0.13491
-0.23858 -0.14045 -0.15163
-0.08347 0.00000 -0.20229
-0.21841 -0.05374 0.14904
0.20817 -0.37805 0.14904
-0.14736 0.01082 -0.17986
-0.23858 -0.21890 0.19893
0.21026 -0.38945 -0.16974
-0.23540 -0.20025 -0.20350
0.08701 0.00000 0.06815
-0.17475 -0.37920 -0.14588
-0.14736 0.03535 -0.12333
-0.21039 0.38945 0.07170
-0.13476 0.00000 0.07198
-0.13050 0.12835 0.20350
0.18043 -0.07156 0.14904
-0.17516 -0.26771 0.14904
-0.14736 0.23902 -0.12027
0.22382 -0.08288 -0.20350
-0.20494 0.38945 0.16184
-0.08466 0.00000 -0.06716
-0.18832 -0.17832 -0.20350
-0.23858 0.28050 -0.14635
-0.22821 0.18461 -0.20350
0.20722 0.00000 0.16488
-0.23858 0.38125 -0.08779
0.23858 -0.14787 -0.17137
-0.14736 0.22093 -0.13681
-0.19288 -0.18149 0.14904
-0.06396 0.00000 0.04109
-0.23858 0.10651 -0.15216
-0.06556 0.00000 -0.07275
-0.16072 -0.21645 0.18436
0.20625 -0.35066 0.20350
-0.19503 0.22455 -0.20350
-0.23858 0.33230 -0.15709
-0.20746 0.10055 -0.20350
0.17610 -0.27912 0.16075
-0.14736 0.35318 -0.13324
-0.23858 0.21751 0.18451
-0.23387 -0.28253 0.14904
-0.23858 0.34430 0.06943
-0.16577 0.20839 -0.20350
-0.21389 0.29283 0.20350
-0.02152 0.03274 0.20350
-0.01891 -0.02874 -0.20350
-0.14736 0.18340 0.13841
0.23858 -0.05044 0.01905
0.23070 -0.21376 -0.20350
-0.23858 0.03518 0.15596
-0.14736 0.16592 0.12640
-0.23858 0.32994 0.09073
-0.03878 0.02186 -0.20350
-0.22230 0.38945 0.00152
0.19114 -0.27955 0.20350
-0.22237 0.17178 -0.20350
-0.23858 -0.38313 0.18134
-0.14736 0.00363 0.04336
0.12879 -0.03793 0.20350
0.07933 0.00000 0.03974
-0.11730 0.00000 0.14098
-0.23858 -0.03322 -0.16764
-0.00429 0.00000 0.10319
0.09355 0.00000 0.00415
0.17610 -0.15827 0.15899
0.23858 -0.02619 -0.10252
-0.23858 -0.13472 0.19493
-0.14736 0.29312 0.07848
0.08549 0.00000 0.18773
-0.23858 -0.00412 -0.06051
0.23421 0.00000 -0.14067
0.22325 -0.00358 0.20350
-0.09777 0.00000 0.15135
-0.23858 0.34476 -0.09920
-0.05595 0.00000 -0.12815
-0.23858 0.24790 0.12358
0.16798 0.00000 0.17928
-0.23858 0.37377 0.09197
-0.23858 -0.01466 0.12027
-0.14736 0.37555 -0.04192
-0.23858 0.06949 0.05023
-0.23858 -0.36283 -0.16526
-0.23858 0.03375 0.08942
-0.23858 0.12436 -0.16514
-0.03539 0.00000 0.13324
0.11879 0.00000 0.11373
-0.23858 0.16031 -0.17358
-0.19347 -0.38931 -0.20350
0.17610 -0.35459 0.19808
-0.23858 0.14181 0.15270
0.20919 -0.13133 0.20350
-0.16098 -0.38945 0.19300
-0.18255 0.38945 0.10709
0.19718 -0.26851 0.20350
-0.22516 -0.08507 -0.20350
-0.07157 -0.00213 -0.20350
-0.14736 0.05709 -0.09907
-0.23858 0.08394 -0.18379
-0.21831 -0.33203 0.14904
-0.22644 0.27071 0.20350
-0.16072 -0.34262 0.16905
-0.08691 0.00000 0.08151
-0.08570 0.01445 -0.20350
-0.21699 -0.25741 0.14904
-0.14736 0.27259 0.17520
-0.23858 -0.02621 -0.20205
0.18970 -0.23306 -0.20350
-0.16072 -0.17550 0.16145
-0.14736 0.09903 -0.11793
0.23858 -0.16756 0.18843
0.18114 0.02055 -0.20350
-0.14736 0.24277 0.09893
-0.13761 0.00000 -0.13394
-0.06539 0.00000 0.11713
0.23858 -0.27069 -0.18617
-0.04786 0.00000 -0.19534
-0.17604 0.38945 -0.15751
-0.16519 -0.26573 0.14904
-0.01977 0.00000 0.04791
-0.16853 0.32713 0.20350
-0.23858 0.38681 -0.15729
0.18756 0.00000 0.03081
-0.20030 -0.27357 0.14904
0.16159 0.00000 -0.00918
0.04959 0.00000 -0.08015
-0.14736 0.31786 -0.20283
0.17610 -0.12448 0.19480
0.10524 0.00000 -0.17825
0.18724 0.00000 -0.04724
0.22831 0.00000 -0.17923
-0.14736 0.22967 0.08477
0.23858 -0.14197 -0.18749
0.09934 -0.05803 -0.20350
-0.23858 0.05594 0.01643
0.23858 -0.01780 0.09228
-0.14736 0.02930 0.13103
-0.14736 0.19525 0.15609
0.01418 0.00000 -0.03224
-0.19819 0.38945 0.03599
0.02769 0.13366 0.20350
0.23858 -0.33937 -0.17990
0.19250 -0.09280 0.20350
-0.14736 0.18370 0.11230
-0.23858 -0.08896 -0.17608
-0.14736 0.09051 0.00270
-0.22751 0.38945 0.09824
-0.14736 0.34284 -0.02912
-0.17475 -0.19390 -0.19082
-0.22240 -0.27604 0.14904
-0.23858 0.04026 -0.13839
0.23858 -0.02596 -0.04294
0.09212 0.00000 0.19100
-0.23858 0.11043 -0.11569
0.18466 -0.37160 0.20350
-0.23858 0.14190 -0.12177
0.15746 0.06458 -0.20350
-0.21390 0.38945 -0.11373
0.19484 0.00000 0.04398
0.23255 0.00000 -0.06166
0.19502 -0.18844 0.20350
-0.13300 0.00000 -0.15590
-0.07228 0.00000 0.03474
0.17610 -0.37462 0.18490
0.23858 -0.03928 0.14475
-0.21672 -0.26759 -0.20350
0.17610 -0.22702 0.17612
0.23858 -0.22889 0.17061
-0.17475 -0.36289 -0.19086
-0.02741 0.03369 0.20350
0.23858 -0.02010 0.07777
-0.08347 0.00000 0.12911
-0.23858 0.02335 0.16244
-0.23858 0.26541 0.14414
-0.14736 0.38437 0.02062
-0.22833 -0.38945 0.17172
-0.17475 -0.28734 -0.16255
-0.20983 0.28027 0.20350
-0.23858 0.11038 0.06197
-0.23858 -0.31150 -0.16483
-0.23858 -0.03931 0.07848
-0.02690 0.00000 0.00430
0.17682 0.00000 -0.01098
-0.23858 0.30244 -0.02763
0.20677 -0.11093 0.20350
-0.08770 -0.06555 -0.20350
-0.17474 -0.34914 0.20350
-0.17599 0.38945 -0.08829
-0.23858 0.01476 0.00542
0.23858 -0.07083 0.16334
-0.23858 0.37861 0.13378
0.05377 -0.02633 -0.20350
-0.14736 0.27002 0.10415
-0.23858 0.27042 0.06559
-0.14736 0.24058 0.04192
0.14746 0.12287 -0.20350
-0.19758 0.38945 -0.03427
-0.14736 0.29025 -0.16668
0.23616 -0.04445 0.20350
-0.14736 0.35988 -0.04708
-0.23858 0.04490 0.07201
-0.23858 0.22277 -0.13201
-0.14736 0.11943 0.11675
-0.23858 0.02054 0.06443
-0.14736 0.03147 0.15530
-0.17408 0.19276 0.20350
0.17610 -0.18153 -0.16448
-0.23858 0.34054 -0.07091
-0.16466 -0.13499 0.20350
-0.02969 0.12397 -0.20350
-0.14736 0.23767 0.11974
-0.14736 0.02166 0.06774
-0.14736 0.01257 -0.04305
-0.23858 -0.04078 0.01767
0.17610 -0.27838 -0.19183
-0.14736 0.19367 -0.00888
-0.17475 -0.32761 -0.17925
-0.14736 0.07530 0.05897
-0.18606 0.38945 0.01307
0.23858 -0.33073 0.18215
-0.23858 0.27132 0.12755
-0.16562 0.00343 -0.20350
-0.14736 0.33148 0.05054
0.17610 -0.28780 -0.17269
0.14188 0.00000 -0.11876
0.01907 0.00000 -0.00503
0.16321 0.00000 -0.05335
-0.23858 0.20144 -0.04274
0.23319 0.00000 0.10969
-0.23858 -0.00054 -0.18403
0.23858 -0.32211 -0.17986
-0.23858 0.20469 0.16004
0.23332 0.00000 0.01165
0.04890 0.02121 -0.20350
-0.14736 0.35041 0.09382
-0.23858 -0.14036 0.15533
-0.23858 0.12085 -0.02849
0.22407 -0.38945 -0.19142
-0.23306 -0.30392 0.20350
0.01930 0.00000 0.15876
0.23858 -0.04468 -0.05880
-0.23858 0.34492 0.04139
0.13991 0.00000 0.04427
-0.20803 -0.16389 0.20350
0.05990 0.00000 0.06115
0.22440 0.00000 0.05349
-0.09660 -0.00014 -0.20350
-0.23858 0.01348 -0.19644
-0.14736 0.17866 -0.01909
-0.16072 -0.08830 0.15387
-0.14736 0.09689 -0.19476
-0.15230 0.08782 0.20350
-0.14736 0.38116 0.09665
-0.23858 0.22301 -0.03729
0.17610 -0.12444 -0.17177
-0.14736 0.36528 -0.05030
-0.22375 -0.38144 0.14904
-0.23858 0.36382 0.16277
-0.17494 -0.22628 -0.20350
-0.17766 0.38945 0.01130
0.00248 0.00000 -0.18446
-0.17389 0.38945 0.09846
-0.17324 -0.38945 0.16828
0.16186 0.00000 0.02717
0.00109 -0.03455 0.20350
-0.14736 0.28044 -0.09547
-0.23672 0.38682 -0.20350
0.22963 -0.26565 0.14904
0.23858 -0.01444 0.13883
-0.17102 -0.22065 0.20350
-0.23858 0.12519 0.17066
0.14857 0.00000 0.11629
-0.23856 -0.06329 0.14904
-0.14736 0.25224 0.07801
0.22074 -0.01306 -0.20350
-0.23858 0.25143 -0.12504
0.18872 -0.00665 0.20350
-0.19425 0.31843 0.20350
-0.19552 -0.28995 0.20350
-0.23858 -0.15596 0.17181
-0.23858 0.01923 0.14248
-0.23858 0.12441 0.08572
0.17357 0.00000 -0.07753
0.17867 -0.14793 -0.20350
-0.23858 0.23858 -0.17178
0.22144 0.12650 0.20350
-0.23858 0.17587 0.09619
-0.16761 -0.38652 0.14904
0.08192 0.00000 -0.14349
0.12990 0.00000 -0.18595
-0.23858 -0.12535 0.14951
-0.23858 0.00653 -0.02621
-0.23858 0.16358 -0.02086
-0.23858 -0.25987 -0.15317
-0.19555 -0.10052 -0.20350
-0.02514 0.00000 0.12183
-0.14883 0.26601 -0.20350
-0.11688 0.00000 0.18830
0.10240 0.00000 0.08171
-0.14736 0.15389 0.09443
-0.19057 0.10050 -0.20350
-0.23858 -0.09062 0.19097
-0.16072 -0.35236 0.19487
-0.16072 -0.10213 0.16303
-0.23858 0.37141 0.18745
-0.21947 -0.11868 0.14904
0.09136 -0.02183 0.20350
-0.14736 0.19685 0.02883
-0.07759 0.00000 0.07394
-0.21483 0.38803 0.20350
-0.14736 0.18678 0.04750
-0.22595 -0.38945 -0.18339
-0.23858 0.09774 -0.16440
-0.23368 -0.21765 0.14904
0.04809 0.05340 -0.20350
-0.17475 -0.35924 -0.16583
-0.23858 -0.00754 0.09808
-0.07659 0.00000 -0.08806
0.21743 0.13700 0.20350
0.23592 -0.03001 0.20350
-0.19554 -0.37929 -0.20350
-0.23858 0.00985 -0.05427
-0.20262 -0.07487 0.20350
-0.19742 -0.23432 0.20350
-0.14736 0.07819 0.18326
-0.23858 0.00047 0.03745
0.05043 0.00000 -0.13731
-0.23858 0.30004 0.09539
0.23858 -0.23467 0.20225
0.07617 -0.01337 0.20350
0.19353 0.00000 0.06181
0.02996 -0.01469 0.20350
-0.14736 0.24683 -0.18507
0.11237 -0.00566 -0.20350
-0.01787 0.00000 -0.11562
-0.23858 -0.38344 -0.15565
-0.14736 0.29372 -0.17402
-0.18653 -0.37787 0.20350
-0.23858 0.20270 0.11941
-0.19687 -0.27358 0.20350
-0.14736 0.36321 -0.06471
0.18162 0.00000 0.12957
-0.05063 0.01281 -0.20350
0.06780 0.00000 0.01371
-0.06528 0.11783 0.20350
-0.14736 0.27904 0.09650
-0.18369 -0.27450 0.20350
-0.16531 -0.31106 0.20350
-0.14736 0.34714 -0.04156
-0.23858 0.09713 -0.19419
-0.00239 0.13610 0.20350
0.17610 -0.30495 -0.17662
0.23858 -0.10488 0.16428
-0.23800 0.23925 0.20350
-0.23858 0.14303 -0.13579
-0.23858 0.07290 -0.00582
-0.06280 0.05344 -0.20350
-0.20211 0.08990 -0.20350
0.14674 0.00000 -0.01729
0.18300 -0.19041 0.20350
-0.14736 0.02413 -0.20087
-0.14736 0.15295 -0.15341
-0.14736 0.11349 0.18786
-0.23858 0.34732 -0.07179
-0.14736 0.19796 -0.11332
0.23713 0.00000 -0.16000
-0.16072 -0.10322 0.17847
-0.16072 -0.05546 0.15183
0.09345 0.09516 0.20350
0.23858 -0.38685 0.15371
-0.14736 0.05175 -0.08094
-0.07533 0.00000 -0.04551
-0.14736 0.04265 -0.11831
-0.23858 0.17567 0.16505
-0.16703 -0.24209 0.20350
-0.17069 -0.09408 0.20350
-0.23858 0.24242 -0.02552
-0.23858 0.33317 -0.09655
-0.23858 0.13621 0.20304
-0.20987 -0.34295 -0.20350
0.17510 0.11568 -0.20350
-0.14736 0.30316 0.02426
0.23491 -0.07125 0.20350
-0.14736 0.21600 -0.07248
0.09069 0.00000 0.16387
0.17610 -0.15075 -0.15834
0.05123 0.10305 -0.20350
0.05824 0.11688 -0.20350
-0.23858 -0.22446 0.20141
0.17610 -0.31141 0.15760
0.19725 0.00000 0.13996
0.12711 0.00000 0.06630
-0.14736 0.36050 0.04112
0.10382 0.00341 0.20350
-0.23746 -0.12029 -0.20350
-0.18589 -0.38945 -0.20075
-0.14736 0.03266 -0.14192
-0.20725 -0.16771 0.14904
0.03550 0.00000 -0.02616
-0.14736 0.24608 -0.00941
-0.18933 0.18501 0.20350
0.23270 -0.12803 0.14904
0.23760 -0.33225 0.20350
-0.23858 -0.02338 0.05633
-0.14736 0.12905 0.17117
0.08622 0.13470 -0.20350
-0.23858 -0.17176 0.19511
-0.23858 0.14021 0.10529
0.18741 -0.29774 0.20350
-0.23858 0.07368 0.01163
0.18490 0.00000 0.17179
-0.22103 -0.10811 0.20350
-0.14736 0.37285 0.00942
-0.19934 0.34608 0.20350
0.22874 -0.38945 -0.17679
-0.14736 0.37873 0.05705
0.18404 -0.20144 0.14904
-0.23858 0.27322 -0.05283
-0.19300 -0.34456 0.14904
0.18996 0.00000 -0.02538
-0.10179 0.00000 0.17909
0.17354 0.00000 0.13354
-0.23858 0.12629 -0.07205
0.18120 0.00000 0.00931
0.16718 0.10464 -0.20350
-0.14170 0.00000 0.18031
0.23858 -0.01579 0.19460
-0.19426 0.34272 0.20350
-0.21839 -0.32232 0.20350
-0.23858 0.09243 -0.12852
-0.19350 0.25168 0.20350
-0.17481 -0.02525 0.20350
-0.14736 0.29669 -0.02810
-0.02234 -0.04866 -0.20350
0.17610 -0.07481 0.15695
-0.16683 0.38945 -0.15815
-0.17081 0.04191 -0.20350
0.13598 -0.00816 0.20350
-0.08464 0.00000 -0.07268
-0.14736 0.16924 0.05857
-0.15635 0.01819 -0.20350
-0.17996 0.38945 -0.15229
0.18509 -0.35698 -0.20350
0.00497 0.00000 -0.07302
-0.14736 0.27530 0.03584
-0.22412 0.03077 -0.20350
-0.14736 0.33547 0.17258
0.23858 -0.30536 0.19323
0.10764 0.00000 -0.18410
-0.14736 0.11717 0.16748
-0.23858 -0.04040 0.10625
-0.14736 0.38941 0.12140
0.23858 -0.03051 -0.01824
-0.14736 0.29131 -0.00022
-0.08744 -0.02756 0.20350
0.15336 0.00000 -0.10357
-0.03479 0.03397 -0.20350
-0.14736 0.17750 0.17705
-0.23858 0.37397 -0.17212
0.13934 -0.02020 0.20350
-0.14736 0.32590 0.04223
-0.14736 0.14622 0.12916
-0.23858 -0.25209 -0.19888
0.20604 -0.38945 -0.15647
-0.18093 0.31553 -0.20350
-0.14736 0.30046 -0.13778
-0.14736 0.30032 -0.18723
-0.14736 0.30156 -0.03148
-0.23858 0.09963 -0.06790
-0.23858 0.14697 -0.10843
0.14594 0.11360 -0.20350
-0.15475 -0.00894 -0.20350
-0.21837 -0.14834 0.20350
-0.23557 0.38945 0.08910
0.23802 -0.36185 0.14904
0.18274 -0.15657 0.14904
0.23858 -0.19065 0.16257
-0.16957 -0.25539 0.14904
-0.14736 0.16586 -0.01170
-0.23858 0.04552 -0.04722
0.23858 -0.24924 0.15470
0.17610 -0.21628 0.15671
-0.23858 0.36168 -0.13242
-0.23858 -0.04091 0.03053
0.18388 -0.16863 -0.20350
0.17610 -0.36902 -0.17098
0.23858 -0.03305 -0.19420
-0.23697 0.16039 -0.20350
-0.23858 0.37305 0.05537
0.18250 -0.23951 0.14904
-0.23858 0.31609 -0.03185
-0.23858 0.24492 0.04829
0.00362 0.00000 -0.10659
-0.23858 0.19796 -0.11702
0.23692 -0.05211 -0.20350
-0.14736 0.18071 0.02324
-0.18847 -0.34604 -0.20350
-0.20948 -0.13517 0.20350
-0.23858 0.06706 -0.02209
-0.05135 0.12632 0.20350
-0.22648 -0.30134 -0.20350
-0.23858 0.19173 0.01180
-0.19488 -0.28752 0.14904
0.17880 -0.16012 -0.20350
-0.21344 -0.38945 -0.18160
0.23858 -0.27758 -0.17100
0.07637 0.00000 -0.13891
0.08875 0.00000 0.03551
0.16415 0.00000 -0.19592
-0.08690 0.03024 -0.20350
-0.23858 0.27191 -0.11603
-0.23858 -0.00420 -0.13827
0.22411 -0.38945 -0.14710
-0.18107 -0.36703 -0.20350
-0.14736 0.26803 -0.16802
-0.19667 -0.28718 -0.20350
-0.16259 0.09787 -0.20350
0.23858 -0.06456 -0.16352
0.06948 0.00000 0.07693
-0.11236 0.00000 -0.07418
-0.23858 -0.20448 0.16881
0.23858 -0.17386 -0.19783
0.04641 0.00000 0.17436
-0.14736 0.36199 0.12524
-0.09026 -0.05812 -0.20350
-0.23203 -0.24285 0.20350
-0.23858 -0.00728 0.18546
-0.15821 0.38945 0.05767
0.17610 -0.07698 0.16380
0.23258 -0.02663 -0.20350
-0.23858 0.14571 0.07216
0.23858 -0.24906 0.16862
-0.20348 -0.03173 -0.20350
-0.14736 0.06566 0.17158
-0.16072 -0.33131 0.15353
-0.14736 0.33642 -0.09170
-0.17550 -0.18630 0.14904
-0.23858 0.20591 -0.20105
-0.07187 0.00000 0.07196
-0.16771 0.38945 -0.07391
0.19575 -0.33991 0.14904
0.17083 0.00000 -0.10443
-0.14736 0.21741 0.06568
-0.17577 -0.08390 0.20350
-0.14673 0.00000 -0.12464
-0.14736 0.12644 -0.05884
0.08152 -0.00133 0.20350
0.17610 -0.09619 0.18642
-0.20748 -0.31433 0.20350
-0.17912 -0.17436 -0.20350
0.17610 -0.23601 -0.17951
-0.19234 -0.26785 -0.20350
-0.14736 0.05897 -0.01297
-0.14736 0.08877 0.15312
-0.09850 -0.00496 0.20350
-0.23858 0.31290 -0.19775
-0.23159 0.23131 -0.20350
0.17610 -0.20425 -0.19978
0.07962 0.00000 0.14512
-0.20214 -0.37396 0.14904
0.11340 0.00000 -0.16959
0.23858 -0.22806 0.18090
-0.23858 -0.04033 -0.05167
0.18804 -0.24499 0.14904
0.23858 -0.02800 0.07964
-0.15058 0.38945 -0.12517
-0.11501 0.09769 0.20350
-0.23858 -0.13920 -0.18029
-0.14736 0.33727 0.12715
-0.17475 -0.07335 -0.15408
-0.14736 0.10727 -0.19978
-0.14736 0.04667 -0.02017
-0.14736 0.05322 -0.13398
0.02140 -0.00052 0.20350
-0.16072 -0.26108 0.17186
-0.23858 0.36993 0.15056
0.23330 0.00000 -0.07155
-0.16072 -0.09715 0.15704
-0.14736 0.13848 0.11219
-0.17475 -0.17083 -0.15610
-0.14012 0.11732 -0.20350
0.23858 -0.00958 0.04762
-0.23176 -0.07055 -0.20350
-0.14736 0.09904 0.15998
-0.23858 -0.11903 -0.18737
-0.12910 0.00000 0.00005
-0.14736 0.03150 -0.19129
-0.10066 0.00000 0.07581
-0.23858 0.14747 -0.06052
-0.17475 -0.29391 -0.17930
0.23858 -0.36013 -0.14919
-0.23858 -0.37120 -0.19817
0.23858 -0.01501 0.11562
0.23858 -0.25410 -0.17794
-0.22724 0.38945 0.12789
-0.14736 0.35163 -0.03511
-0.23858 0.05499 0.03390
-0.23858 0.33101 0.00419
-0.14736 0.05161 0.08104
-0.20383 0.38945 0.00884
-0.04598 -0.05644 -0.20350
0.23858 -0.32169 -0.14586
0.04440 0.00000 -0.12680
0.20386 -0.36549 0.14904
0.23858 -0.04135 0.08463
-0.14736 0.37640 -0.10834
-0.22445 -0.18862 0.14904
0.17610 -0.12862 -0.15760
0.09975 0.00000 -0.13462
-0.17475 -0.19263 -0.16086
-0.23858 0.23401 0.14968
-0.14736 0.28329 0.15344
-0.22770 0.37750 0.20350
-0.17475 -0.07381 -0.20076
-0.23858 -0.27118 0.16947
-0.23858 0.10027 0.18893
-0.14736 0.07461 -0.02562
0.16004 0.00000 0.01336
-0.14736 0.22648 -0.01176
-0.14736 0.12504 0.01716
-0.23858 0.07093 0.04268
0.17612 -0.33818 0.14904
-0.17475 -0.36797 -0.17345
0.23858 -0.03642 0.16747
0.00267 0.00000 -0.17660
0.18080 -0.22614 0.14904
-0.23858 0.07598 0.06481
-0.14736 0.29920 0.08311
-0.16072 -0.31934 0.16449
-0.20540 0.38945 0.01858
-0.09305 0.01600 -0.20350
-0.17992 -0.16715 -0.20350
-0.23858 0.28305 0.10267
0.17491 0.13548 -0.20350
-0.02601 0.07419 0.20350
0.21292 -0.18557 -0.20350
-0.23858 0.05787 -0.15442
-0.23858 -0.03292 -0.17961
0.11557 0.00000 -0.16383
-0.14736 0.09945 0.18110
-0.23858 -0.06531 0.19939
0.01262 0.00000 0.18425
-0.20885 -0.26808 0.14904
-0.15540 0.34752 -0.20350
0.23858 -0.36044 0.18346
-0.23858 0.07880 -0.20182
0.15650 0.00000 0.06473
-0.11206 0.00000 -0.02083
-0.23237 -0.36478 -0.20350
-0.14736 0.29196 0.09056
-0.09658 0.00000 -0.06575
-0.03989 -0.00738 -0.20350
-0.23858 0.27100 -0.18513
-0.14736 0.27109 -0.08227
-0.23356 -0.04917 0.20350
0.17610 -0.37994 -0.18309
0.11063 0.11846 0.20350
0.16843 -0.06359 -0.20350
-0.19319 0.22619 0.20350
-0.23858 0.37380 0.16073
-0.23858 0.04189 0.11273
-0.20527 0.21943 0.20350
-0.18957 -0.30492 0.14904
-0.21322 0.23749 0.20350
-0.16072 -0.13751 0.15845
-0.17475 -0.11032 -0.15801
0.14170 0.00000 -0.10409
-0.18584 -0.11890 -0.20350
0.02327 0.13114 -0.20350
-0.23858 0.01739 0.18727
-0.23858 0.25045 -0.15412
-0.23858 0.01990 0.07726
-0.23858 -0.01205 -0.11498
0.23858 -0.03284 0.17563
0.17733 0.00000 -0.18034
-0.19967 0.07408 0.20350
-0.19268 -0.08817 -0.20350
-0.14736 0.20955 -0.03093
-0.14736 0.29870 0.00174
-0.23858 -0.01530 0.19497
-0.22675 -0.37743 0.20350
-0.20236 0.34499 -0.20350
-0.23858 0.08905 0.19123
0.10169 0.07021 0.20350
0.21397 -0.17049 -0.20350
