0.17064 -0.13682 0.20211
0.04614 -0.09157 0.00540
-0.15424 0.30974 -0.03319
0.02632 -0.09157 0.01670
0.20650 -0.35590 -0.17623
-0.18943 -0.30261 0.21815
0.01776 -0.09157 0.03600
0.24460 -0.32269 0.21815
-0.27453 0.03828 0.05796
-0.17897 0.15353 0.21815
-0.15424 0.32749 0.11812
0.11620 -0.00771 0.08670
-0.03826 -0.00771 0.00339
0.26304 -0.00771 -0.08802
-0.27439 -0.03097 0.02654
-0.15424 0.10102 -0.06547
0.09502 -0.00771 -0.18334
-0.15424 0.20822 0.12857
-0.15424 0.18821 -0.07568
-0.27332 0.30177 -0.10244
-0.23098 -0.17853 -0.11147
-0.27256 0.17318 0.21815
0.26465 -0.30594 0.21815
0.17064 -0.19602 0.13347
-0.27376 0.13461 -0.11845
-0.02595 -0.04087 0.21815
-0.27342 0.22463 -0.19492
-0.19049 -0.34405 0.13606
-0.27128 -0.06426 -0.21815
-0.27500 0.12102 0.16615
-0.27395 -0.05832 -0.07394
-0.15424 -0.12768 0.15217
0.01632 -0.09157 -0.15134
0.27522 -0.31423 0.19680
-0.15482 -0.33953 -0.11147
-0.24157 -0.21432 -0.11147
0.10101 -0.00771 -0.09767
0.23240 -0.09415 -0.00416
-0.27522 -0.19432 -0.16653
-0.10899 -0.00771 -0.01125
0.27522 -0.29691 -0.15911
0.13474 -0.09157 -0.06020
-0.27336 -0.06163 -0.20947
0.26944 -0.00771 -0.17652
0.09498 -0.00983 -0.21815
-0.25817 -0.18878 0.21815
0.19589 -0.00771 0.01938
-0.16596 -0.27607 0.21815
0.00732 -0.00771 -0.11153
-0.04518 -0.09157 -0.15153
-0.15692 -0.00531 0.21815
0.18934 -0.10463 0.12089
0.05497 -0.00771 0.13893
-0.25524 0.32941 0.14941
-0.21895 -0.14014 0.21815
-0.27420 -0.04919 -0.01577
-0.15424 -0.11019 0.17835
0.17064 -0.14424 0.12575
-0.23961 0.21810 0.21815
-0.27469 0.19736 0.09603
0.05187 -0.00771 -0.14127
0.09418 -0.00771 0.15826
-0.27522 -0.24745 -0.17125
-0.27393 0.00461 -0.07968
0.20162 -0.26392 -0.11147
0.10178 -0.09157 0.12048
-0.27522 -0.12637 -0.17973
-0.21042 -0.35590 0.13912
-0.12104 -0.09157 -0.20646
-0.15424 0.05403 -0.02330
-0.17810 0.11708 -0.21815
-0.25334 -0.19903 0.13606
-0.15424 -0.00379 0.06197
-0.14956 -0.09157 -0.06372
-0.09830 -0.09157 0.06912
0.25225 -0.21216 -0.11147
-0.14932 -0.01337 -0.21815
0.12301 -0.09157 -0.02351
0.18707 -0.09226 -0.10105
-0.15424 0.04960 0.00535
-0.22842 0.09313 0.21815
0.17941 -0.28356 -0.21815
0.18598 -0.20084 0.21815
-0.11121 -0.00771 -0.21295
-0.15857 -0.12302 0.21815
0.19937 -0.25768 0.12089
-0.27522 -0.34701 -0.19274
-0.17920 0.19726 -0.21815
-0.24977 -0.31383 -0.11147
-0.27522 -0.09713 0.19364
0.04897 -0.02216 -0.21815
0.21923 -0.16934 0.12089
-0.27419 0.11315 -0.01931
0.09234 -0.00771 0.02820
-0.23177 -0.23329 -0.11147
0.22471 -0.15826 0.12089
-0.15424 0.20197 0.12239
-0.19940 -0.23674 0.21815
-0.26467 -0.09249 0.11735
-0.14205 -0.09157 0.03878
-0.15424 -0.14115 -0.14959
-0.27522 -0.35560 -0.21807
0.16229 -0.09157 -0.07838
0.25831 -0.27717 -0.21815
-0.18453 -0.35590 0.19206
0.10527 -0.00771 -0.18837
-0.24816 -0.30128 0.21815
-0.24860 0.32310 0.16455
0.00174 -0.09157 0.13082
-0.26187 0.35309 0.04661
0.27522 -0.28157 0.16081
0.18679 -0.35590 -0.11483
-0.12965 -0.00771 0.20369
-0.19067 -0.10172 -0.11147
0.09874 -0.09157 0.08525
-0.15424 0.28163 -0.02359
-0.08055 -0.04746 -0.21815
-0.27424 -0.02637 -0.00839
-0.02034 -0.00771 -0.02722
-0.13280 -0.09157 -0.14402
-0.27509 -0.05788 0.18724
-0.18650 0.15038 0.21815
-0.24303 0.34947 -0.07401
0.22058 -0.31215 0.21815
0.23899 -0.35590 0.20958
-0.17047 -0.09171 -0.04243
-0.27434 0.11521 0.01537
-0.23194 0.14179 -0.21815
-0.27022 -0.08047 -0.21815
-0.27464 0.01677 0.08330
-0.15424 0.24511 0.20702
0.19971 -0.26888 0.21815
-0.27413 0.19030 -0.03360
-0.16127 0.31863 0.17530
-0.26680 0.34289 0.10431
0.17064 -0.27699 -0.13243
0.17064 -0.16656 -0.18035
-0.15424 0.05881 -0.05704
0.27522 -0.25325 -0.19062
-0.02690 -0.00771 -0.04110
0.05907 -0.06132 0.21815
-0.27332 0.31282 0.15967
-0.19747 0.29993 -0.21293
-0.09256 -0.00771 -0.13810
0.21293 -0.20326 0.12089
-0.23028 -0.27810 -0.21815
-0.00635 -0.00771 0.05854
0.17064 -0.26388 -0.16137
-0.11097 -0.08208 -0.21815
0.01704 -0.00771 -0.15107
-0.24776 -0.14280 -0.21815
0.27522 -0.08455 0.20341
-0.24763 -0.35590 -0.13367
-0.27332 0.31496 -0.00030
0.26217 -0.21577 -0.11147
-0.15424 -0.24398 -0.15669
-0.09077 -0.08031 0.21815
0.18538 -0.26679 -0.11147
-0.07775 -0.00771 -0.18963
0.27522 -0.01252 -0.02597
0.24145 -0.00771 -0.11707
-0.15424 0.04628 0.02050
0.26352 -0.00771 -0.13413
0.12066 -0.08407 0.21815
0.09886 -0.09157 0.00435
-0.27522 -0.32957 0.20389
0.17064 -0.12982 -0.16843
-0.24782 -0.09416 -0.21815
0.07429 -0.00771 -0.04304
-0.27369 0.28092 -0.13277
-0.14594 -0.00771 -0.01068
0.27522 -0.35492 -0.16584
0.03411 -0.09157 -0.10744
0.15238 -0.00771 0.06399
0.17064 -0.31315 -0.11601
-0.27323 0.08425 0.21815
-0.21815 -0.20221 -0.11147
-0.25607 -0.10113 0.21815
0.17307 -0.09167 0.02622
-0.15424 0.00035 0.21272
-0.25366 0.34597 -0.09048
-0.04508 -0.09157 -0.05183
-0.23402 0.35407 -0.03927
-0.24674 0.35507 0.01876
-0.27072 -0.09254 0.03862
0.26734 -0.09561 0.02583
-0.27522 -0.22549 0.16297
0.27522 -0.34123 0.12221
-0.15424 0.16096 -0.00360
-0.27522 -0.09287 0.16475
-0.15424 -0.31045 0.15143
0.27522 -0.17295 -0.14242
-0.15424 -0.34427 -0.20589
-0.27332 0.34836 0.03888
-0.15424 -0.09451 -0.11162
-0.15424 0.08969 -0.12716
-0.15424 -0.26287 -0.19182
0.27522 -0.25041 0.17466
0.26311 -0.16302 -0.21815
-0.24237 -0.21474 -0.21815
-0.15424 0.18446 -0.03600
0.27522 -0.03447 0.00781
-0.23726 -0.18151 -0.21815
-0.27522 -0.27048 0.17618
-0.20053 -0.31729 0.21815
0.05182 -0.00771 -0.10639
0.27522 -0.15468 -0.14782
0.09965 -0.01738 -0.21815
-0.27369 -0.04802 -0.13319
-0.19861 0.34235 0.10675
0.27522 -0.16825 -0.13244
-0.15424 0.14999 0.17936
0.18114 -0.31093 0.21815
-0.26824 0.20316 0.21815
-0.27332 0.32942 0.08582
-0.01641 -0.09157 -0.12520
-0.15424 0.28932 -0.15984
-0.15424 0.18841 0.03687
-0.27397 -0.07126 -0.06886
0.21587 -0.03338 0.21815
-0.21377 0.04732 -0.21815
-0.27456 0.12546 0.06490
0.24286 -0.09458 -0.02683
0.18716 -0.35590 -0.17701
0.03020 -0.00771 -0.03502
0.04693 -0.07968 -0.21815
-0.15424 -0.31452 0.18841
-0.20009 0.13010 -0.21815
0.26366 -0.09545 -0.05538
-0.20858 -0.09203 -0.09387
0.22432 -0.00771 0.20968
0.21752 -0.29247 -0.21815
-0.15424 0.03601 -0.00123
0.02612 -0.07930 0.21815
0.09692 -0.09157 -0.21050
0.27479 -0.00771 0.16333
-0.15424 0.23599 -0.02338
-0.15424 0.20496 -0.06673
0.17064 -0.28880 -0.16874
-0.27457 0.12077 0.06886
-0.15424 -0.14878 -0.20428
-0.27425 0.08906 -0.00550
0.06595 -0.00771 0.14857
-0.13534 -0.00771 -0.04798
-0.18484 0.31942 0.17340
-0.27359 0.07568 -0.15754
-0.00574 -0.03343 0.21815
0.27522 -0.01688 0.17737
-0.27400 -0.04013 -0.06234
-0.03779 -0.00771 -0.06078
-0.27502 -0.04932 0.17090
-0.27437 0.19289 0.02199
0.06580 -0.09157 -0.08777
-0.16601 0.35444 0.03326
0.27522 -0.02834 -0.07046
-0.15424 0.15472 -0.17350
-0.15993 0.25536 -0.21815
0.18743 -0.27862 0.12089
-0.23483 0.09523 0.21815
0.27522 -0.06048 -0.07934
-0.11343 -0.09157 -0.19129
-0.22803 -0.35590 0.14238
0.21909 -0.09359 -0.08392
0.00453 -0.04267 0.21815
0.24309 -0.12245 0.21815
-0.04361 -0.00771 0.05323
0.18956 -0.00771 -0.02184
-0.18572 0.34241 0.10644
-0.27522 -0.21928 0.15298
-0.09772 -0.00771 -0.03770
-0.15424 -0.31094 -0.11738
-0.15424 0.10754 -0.10951
0.19433 -0.09256 0.10248
-0.23514 -0.33701 0.13606
-0.05597 -0.09157 -0.12785
-0.15424 0.11162 0.01297
-0.19035 -0.09187 0.02844
-0.15554 0.15393 0.21815
-0.22673 -0.35590 -0.18135
-0.18001 0.04260 0.21815
0.27522 -0.18085 -0.16829
0.27522 -0.06437 0.08880
-0.27395 0.28770 -0.07503
-0.15424 -0.26098 -0.21382
-0.27522 -0.17711 -0.14707
0.06695 -0.09157 0.11960
0.19902 -0.09276 -0.00668
-0.20867 -0.09203 -0.01910
0.27522 -0.09233 0.03935
0.13212 -0.00771 0.14924
-0.27449 -0.08776 0.04914
-0.15424 0.04881 -0.06884
-0.24804 -0.05037 -0.21815
-0.25092 0.07839 0.21815
-0.22966 -0.09220 0.02180
0.17064 -0.26075 0.17675
-0.27421 0.06922 -0.01438
-0.15424 -0.09247 0.15761
0.27522 -0.31151 0.14708
-0.16884 0.09084 -0.21815
-0.15424 0.10583 0.00682
0.02961 -0.09157 -0.11490
-0.07231 -0.00771 -0.00735
-0.05810 -0.00771 0.05091
-0.15749 -0.31466 0.13606
-0.22104 0.02891 0.21815
-0.17644 -0.35590 0.13985
-0.24749 0.35026 -0.06808
-0.16153 -0.05936 -0.21815
-0.21116 -0.33274 -0.21815
-0.15424 -0.24571 -0.16924
0.20297 -0.00771 0.17360
0.26590 -0.07363 -0.21815
-0.15424 0.26664 0.12147
-0.07305 -0.09157 -0.21409
-0.11476 -0.00771 -0.03652
-0.15424 0.14957 0.11282
-0.22630 -0.35590 -0.19229
-0.15424 0.23783 0.04597
-0.27359 0.19737 -0.15578
-0.27283 -0.35590 -0.11629
0.20133 -0.29879 -0.21815
-0.25783 -0.25224 -0.21815
0.21335 -0.35590 0.17964
-0.15424 -0.17339 -0.14358
-0.01006 -0.00771 -0.15257
0.17064 -0.22500 0.14565
0.18232 -0.09206 0.03733
0.27522 -0.04693 0.19528
0.11789 -0.00771 0.21313
-0.27347 0.22259 -0.18520
-0.27353 0.13650 -0.17085
-0.27512 0.14591 0.19531
-0.27337 0.20142 -0.20618
-0.15424 0.24089 -0.09786
0.17064 -0.29796 -0.19354
0.09012 -0.09157 -0.07594
0.18321 -0.00771 0.21729
0.06865 -0.00771 -0.08202
-0.22421 -0.28996 0.21815
0.26707 -0.35590 -0.18335
-0.18891 0.28597 0.21815
0.19746 -0.00771 -0.08119
-0.27342 0.15261 -0.19538
-0.02211 -0.09157 0.07119
0.17509 -0.00771 -0.03667
-0.27522 -0.30681 0.18620
-0.21311 -0.09206 -0.07080
-0.16869 -0.35590 0.21767
-0.27416 0.27529 -0.02599
-0.19131 -0.30506 0.13606
0.25585 -0.09513 -0.04579
0.27522 -0.22136 0.19308
-0.19423 -0.23429 -0.21815
-0.01367 -0.00771 0.21401
-0.27496 0.04298 0.15777
-0.15424 0.13903 0.21216
0.15599 -0.00771 -0.09786
-0.27403 0.09261 -0.05614
-0.15424 0.17177 -0.16159
-0.27351 0.00159 -0.17535
-0.15424 0.09858 -0.01093
0.02841 -0.09157 0.12722
-0.14693 -0.00771 -0.17058
0.05451 -0.00771 -0.20831
-0.25300 0.08391 0.21815
-0.15424 -0.29255 0.19172
0.27522 -0.04476 -0.19987
0.16704 -0.05253 -0.21815
-0.27507 0.02853 0.18399
-0.17382 -0.12129 -0.11147
-0.15424 -0.26014 0.16155
-0.27427 -0.03065 -0.00029
-0.27493 -0.00651 0.15137
-0.13991 -0.01671 0.21815
0.23913 -0.32829 0.21815
0.08996 -0.09157 0.03644
0.09415 -0.03385 0.21815
-0.15424 0.14840 -0.19314
-0.27354 -0.02667 -0.16906
-0.19445 -0.33387 -0.21815
-0.20341 -0.19775 0.13606
-0.15906 -0.00788 -0.21815
-0.27494 0.24996 0.15348
0.27522 -0.06805 0.18893
-0.25221 0.07170 -0.21815
0.08129 -0.09157 0.04485
-0.22401 -0.20640 -0.21815
-0.14234 -0.07675 -0.21815
-0.15424 0.00390 -0.16898
-0.15424 -0.23250 -0.16230
-0.27056 -0.02850 0.21815
-0.27522 -0.20198 0.18337
-0.26312 -0.09997 0.13606
0.27522 -0.03484 0.18720
-0.27440 0.25770 0.02880
0.05637 -0.00771 -0.19181
0.16329 -0.09157 -0.17895
0.17064 -0.23123 0.20758
-0.17674 0.23301 -0.21815
0.18119 -0.35590 -0.20273
0.00756 -0.09157 -0.17928
-0.26689 0.29896 -0.21478
-0.13750 -0.09157 -0.03115
0.17064 -0.25362 -0.19578
0.25333 -0.00771 -0.17245
-0.15424 0.20574 -0.02033
0.17064 -0.21366 0.20551
-0.21449 -0.20701 0.13606
0.27522 -0.13805 -0.14569
-0.27434 0.04964 0.01640
-0.17045 -0.15407 0.13606
-0.16801 0.28209 -0.21815
-0.19244 0.27559 -0.21815
-0.27497 0.06733 0.15880
-0.20573 -0.23535 -0.21815
0.03253 -0.07759 -0.21815
0.18060 -0.00771 -0.06023
-0.22746 0.13599 0.21815
-0.17970 0.34843 -0.07942
0.25429 -0.16542 -0.21815
0.17055 -0.09157 -0.20826
0.01455 -0.05743 0.21815
0.00180 -0.09157 0.03076
0.14072 -0.00771 0.10132
-0.15424 0.15886 0.08904
-0.27488 0.19393 0.13837
0.01080 -0.00771 -0.19312
-0.27357 0.25059 -0.16208
0.04663 -0.09157 0.11851
-0.06853 -0.02105 -0.21815
0.16421 -0.00771 -0.02763
-0.20645 -0.09201 -0.10823
-0.27522 -0.14366 -0.20239
-0.22252 -0.35590 -0.16803
-0.27444 0.22873 0.03839
-0.25277 -0.14987 0.13606
0.20249 -0.00771 0.01128
0.12131 -0.00771 -0.12297
-0.27522 -0.17748 -0.21454
0.17064 -0.29391 0.20674
0.17064 -0.23515 -0.18375
-0.10844 -0.09157 0.07937
0.17064 -0.18528 0.13328
0.27522 -0.33159 -0.17441
0.11884 -0.01587 0.21815
-0.27403 0.21119 -0.05607
0.03205 -0.00771 0.17986
-0.23438 -0.35590 0.15999
-0.27522 -0.22589 0.20099
-0.22688 0.02707 -0.21815
-0.27503 0.04214 0.17277
0.20468 -0.32357 0.12089
-0.06035 -0.00771 -0.04272
-0.15424 0.16193 -0.09078
0.20716 -0.09310 -0.03866
0.18157 -0.15713 -0.21815
0.27522 -0.03666 -0.17133
-0.27507 0.23476 0.18279
0.17064 -0.29203 -0.19138
0.22243 -0.14337 0.21815
-0.15424 0.00868 0.02377
0.22251 -0.15498 -0.21815
0.22906 -0.01661 -0.21815
0.22556 -0.00771 0.16942
-0.24883 0.35430 -0.03641
0.21473 -0.19655 -0.11147
0.13287 -0.04346 0.21815
-0.18771 -0.08958 0.21815
-0.15424 0.18702 0.08504
0.10064 -0.00771 0.18729
0.27522 -0.19847 0.12490
-0.27484 -0.07759 0.13096
-0.27522 -0.22615 0.20932
0.17064 -0.28387 0.14885
-0.15424 0.19440 -0.04063
-0.23524 -0.09225 0.05166
0.12842 -0.00771 0.17522
-0.20297 -0.09198 -0.04831
0.19341 -0.35590 0.17338
0.17064 -0.12634 0.21098
0.26711 -0.09560 0.08247
-0.27420 0.13351 -0.01572
-0.19981 -0.09195 0.11158
-0.27475 0.08844 0.10963
-0.26482 -0.10353 0.21815
0.02211 -0.09157 -0.10810
0.26934 -0.09569 -0.01081
0.21472 -0.33666 0.12089
0.18652 -0.09224 -0.01861
-0.26177 -0.14899 0.13606
-0.27393 0.24040 -0.07922
0.16923 -0.00771 0.01476
-0.15424 0.30302 -0.14341
0.11444 -0.00771 0.01869
-0.15648 0.35557 -0.00749
-0.22730 0.10718 0.21815
-0.19367 0.34864 0.07848
-0.27332 0.30749 0.15179
0.15952 -0.09144 0.21815
-0.22590 -0.21660 0.13606
0.23090 -0.00771 -0.03975
0.04582 -0.09157 -0.06563
-0.20625 0.06347 -0.21815
0.17064 -0.10068 0.15009
0.01482 -0.09157 0.13555
-0.15424 0.08043 0.00451
0.22570 -0.33243 0.12089
0.17064 -0.13201 0.16370
-0.04869 -0.05059 -0.21815
-0.08423 -0.00771 0.09600
-0.15424 -0.34427 0.18816
-0.19150 -0.35590 -0.14978
0.20594 -0.01063 0.21815
-0.15424 -0.29247 0.14593
0.06795 -0.00771 -0.17086
-0.13090 -0.09157 -0.16355
0.23646 -0.26240 0.21815
-0.27381 0.11187 -0.10558
-0.05096 -0.00771 0.15364
-0.27332 0.35219 -0.04094
0.01947 -0.09157 -0.01433
0.17903 -0.27450 0.12089
-0.12694 -0.00771 0.06295
0.22821 -0.09397 -0.04242
-0.16577 0.33854 0.12059
-0.25405 -0.09240 -0.09126
0.20294 -0.34526 -0.21815
-0.15424 0.12814 -0.05730
-0.20410 -0.09913 -0.11147
-0.07381 -0.00771 -0.16040
-0.14340 -0.08925 -0.21815
-0.01475 -0.09157 0.09168
0.27044 -0.01597 -0.21815
0.17064 -0.12933 -0.15981
0.17661 -0.16548 -0.21815
0.19364 -0.10018 0.12089
0.27522 -0.27178 -0.13104
-0.15424 0.09568 0.04930
-0.22526 -0.22701 -0.11147
-0.15424 0.24463 -0.06365
0.26574 -0.00771 0.20223
-0.27522 -0.28903 0.16819
0.23653 -0.35204 0.21815
-0.15454 -0.19531 0.21815
-0.15424 0.04638 0.13120
0.00791 -0.06479 0.21815
-0.22811 0.06978 0.21815
-0.27522 -0.33701 0.20831
-0.21627 0.34338 0.10211
-0.22866 -0.35590 0.19376
-0.15424 0.32121 -0.10600
-0.15424 0.08248 -0.00332
0.02697 -0.00771 -0.15519
-0.27468 0.16913 0.09366
-0.27369 0.24584 -0.13481
0.11545 -0.09157 0.10965
-0.27522 -0.25744 -0.18695
-0.25959 0.16567 0.21815
-0.27497 0.11847 0.16092
-0.22349 -0.09215 0.04402
0.19963 -0.09278 0.07794
-0.07059 -0.00771 -0.12489
-0.15424 -0.16495 -0.20429
0.27522 -0.03202 0.13264
0.13245 -0.09157 -0.09104
-0.27342 0.13421 -0.19673
0.25022 -0.35590 0.12476
0.27522 -0.34797 -0.19589
-0.27332 0.32959 0.09171
0.15312 -0.00771 0.11003
-0.19975 -0.01803 0.21815
-0.27522 -0.14058 0.19219
0.02226 -0.09157 -0.08313
-0.18491 -0.29494 0.21815
-0.08015 -0.09157 -0.17185
-0.18073 0.31004 0.19359
0.25944 -0.09528 -0.03333
0.09117 -0.00771 0.14566
0.18288 -0.19123 -0.11147
-0.27149 0.33831 0.12133
-0.27522 -0.35204 0.19434
0.27522 -0.15220 -0.20891
-0.21207 0.24519 -0.21815
0.13471 -0.09157 0.04490
0.07250 -0.00771 -0.01713
-0.15424 0.03733 0.11439
0.00486 -0.00771 0.10441
-0.24357 -0.28320 -0.21815
-0.09910 -0.09157 -0.19762
-0.23340 0.34393 -0.09964
-0.27361 -0.00341 -0.15235
0.27522 -0.27605 0.19783
0.05669 -0.09157 0.01058
0.24515 -0.00771 -0.00632
-0.15424 0.33314 0.08171
0.00112 -0.00771 -0.05543
0.17777 -0.00771 -0.01513
0.08552 -0.00771 0.07475
-0.26527 -0.35590 -0.11835
-0.15424 0.25626 -0.01715
-0.19090 0.35011 -0.06922
0.20680 -0.09308 -0.05280
0.18768 -0.33282 -0.11147
0.14314 -0.09157 -0.03056
-0.08603 -0.00771 0.00702
-0.19252 0.08219 0.21815
-0.15424 -0.00723 0.20954
0.17064 -0.17401 0.19936
0.07815 -0.00771 0.16034
-0.15424 0.17064 -0.17162
-0.08278 -0.09157 -0.15320
-0.15424 0.20368 0.13378
0.04250 -0.00771 -0.16188
0.20412 -0.35590 -0.21551
0.14489 -0.00771 0.17572
0.27522 -0.14700 0.17203
0.17891 -0.18307 -0.11147
0.24440 -0.01812 -0.21815
0.12947 -0.02466 0.21815
0.27522 -0.09025 0.06439
0.13435 -0.00771 0.18278
-0.27342 -0.01121 -0.19678
-0.15424 -0.28297 -0.15167
0.26510 -0.35590 -0.17541
0.18243 -0.32368 0.21815
-0.24545 0.08636 0.21815
-0.27405 0.21091 -0.05010
-0.15424 -0.18044 -0.14780
-0.27319 0.33047 -0.14608
0.06651 -0.00771 -0.14425
0.21034 -0.35590 0.14037
-0.27383 0.04637 -0.10250
-0.03880 -0.09157 -0.17725
0.17064 -0.28435 -0.15138
0.17064 -0.16449 0.13524
0.14764 -0.07491 -0.21815
-0.15424 -0.15834 0.19132
-0.12041 -0.06481 -0.21815
-0.20582 -0.06986 0.21815
-0.00298 -0.00771 -0.03971
-0.14025 -0.00771 -0.10591
-0.15203 -0.00771 0.04839
-0.01847 -0.09157 -0.18067
-0.19176 0.11366 -0.21815
-0.27373 0.13716 -0.12453
0.17064 -0.20974 -0.13907
-0.16825 0.12102 -0.21815
0.27522 -0.20587 -0.15754
-0.27332 0.29790 -0.11275
0.00847 -0.00771 0.08522
-0.15424 0.24626 0.02500
0.04438 -0.01562 0.21815
-0.27494 0.02143 0.15301
-0.15424 0.09130 0.21330
-0.15424 0.15419 -0.06495
0.27522 -0.10390 -0.18821
0.27522 -0.04005 -0.00326
-0.27484 -0.05075 0.13077
-0.16410 -0.22254 -0.21815
-0.15424 0.10351 0.12913
0.25793 -0.17036 -0.11147
-0.24765 -0.16629 0.13606
-0.27332 0.34995 0.06481
-0.22450 0.32376 -0.16298
-0.27340 0.15760 -0.19991
-0.25347 -0.22917 0.13606
0.21897 -0.19823 0.21815
0.20214 -0.16783 0.21815
-0.15424 0.24082 -0.01976
-0.20546 0.15015 -0.21815
0.18557 -0.08339 -0.21815
0.22640 -0.30036 -0.21815
-0.23023 -0.18673 0.21815
0.08629 -0.09157 0.04073
-0.26135 0.24729 -0.21815
-0.14002 -0.02646 -0.21815
-0.27475 0.24142 0.11030
0.21179 -0.00771 -0.19974
-0.15424 0.10393 -0.15983
-0.16250 -0.35487 -0.11147
0.26096 -0.00771 0.07616
0.00794 -0.00771 0.09600
-0.15424 -0.34107 -0.21787
-0.15424 -0.27811 0.17661
-0.27355 0.03861 -0.16644
-0.24082 0.29806 0.21650
-0.21299 0.15868 -0.21815
0.24630 -0.35590 0.15270
0.17422 -0.21216 0.21815
0.10491 -0.09157 0.10381
-0.27252 0.27693 -0.21815
-0.24241 -0.07600 0.21815
0.05585 -0.01796 -0.21815
0.04609 -0.09157 -0.18087
0.27522 -0.15739 -0.11422
-0.15424 0.12524 -0.21158
0.27522 -0.23764 0.12719
0.08767 -0.00771 0.10332
0.27522 -0.06940 -0.12542
-0.27522 -0.11038 0.21772
-0.04406 -0.00771 -0.08118
0.14490 -0.09157 0.11175
0.04037 -0.00771 0.12115
-0.15424 0.04094 -0.03023
0.19635 -0.35590 0.13147
0.07677 -0.00771 0.11733
0.27522 -0.02558 0.21599
0.25077 -0.35590 -0.21213
-0.20560 -0.24302 -0.21815
0.15443 -0.05130 -0.21815
-0.15424 0.00982 0.20814
-0.27400 -0.06400 -0.06280
0.10655 -0.09157 -0.13034
-0.13594 -0.02334 0.21815
-0.23513 -0.15999 -0.11147
-0.20840 0.09537 -0.21815
-0.13655 -0.00771 -0.07478
-0.11501 -0.00771 -0.05807
-0.18270 0.34987 0.07097
-0.17215 -0.24709 0.13606
0.21851 -0.31080 -0.11147
-0.12708 -0.03629 0.21815
-0.19124 -0.35590 0.15569
0.11035 -0.00771 0.20194
-0.15735 -0.14150 0.21815
0.21234 -0.12483 0.12089
-0.15424 0.13210 -0.08191
0.17064 -0.17274 0.20814
-0.27405 0.11736 -0.05068
-0.05934 -0.09157 -0.03724
-0.03474 -0.00771 -0.10658
-0.15424 0.03153 -0.06841
-0.12222 -0.09157 -0.03968
-0.27520 0.10881 0.21349
-0.27504 0.04987 0.17706
-0.15424 0.31151 -0.06108
-0.27381 0.21201 -0.10509
0.17064 -0.32034 -0.21638
-0.19513 0.32200 -0.16720
-0.17634 -0.21204 -0.21815
0.27522 -0.18302 -0.19953
-0.21846 -0.09211 -0.08737
0.19971 -0.12610 -0.21815
-0.22499 0.29351 0.21815
-0.15424 0.21992 -0.06122
0.27522 -0.04370 0.12664
-0.15424 0.32092 -0.12342
-0.15424 0.09908 -0.15700
-0.23372 -0.09223 0.04281
-0.15424 0.02794 -0.14457
0.20671 -0.13602 -0.21815
-0.15424 0.07027 0.12755
-0.15424 0.18562 -0.01549
-0.20379 -0.26197 0.21815
0.00824 -0.00771 -0.16070
-0.15046 -0.00771 -0.15240
0.09708 -0.00771 -0.10684
-0.27332 0.30462 -0.18371
0.17064 -0.29389 -0.21163
0.01731 -0.09157 -0.18953
0.12790 -0.09157 -0.04241
0.27522 -0.00857 0.06232
-0.19530 0.33667 -0.12653
-0.27418 0.18271 -0.02148
0.17283 -0.32979 0.12089
0.27522 -0.13629 -0.11315
-0.27519 0.22785 0.21159
-0.23018 -0.09221 0.06836
-0.15424 0.12066 -0.10918
0.27522 -0.12979 -0.18307
0.26456 -0.06485 0.21815
0.27522 -0.09810 -0.12904
-0.27462 0.25263 0.07933
-0.27055 0.32655 -0.15628
0.27522 -0.04671 0.08627
-0.15424 0.00958 0.14187
-0.00335 -0.00771 0.20990
0.19892 -0.00771 -0.05327
0.17064 -0.28316 0.16354
0.12728 -0.09157 -0.00438
-0.27494 0.09741 0.15240
-0.21484 -0.18195 0.13606
-0.15619 0.23456 -0.21815
-0.15424 -0.24667 -0.18663
-0.15424 0.26814 -0.03312
-0.18632 -0.35590 -0.14428
0.27522 -0.34561 -0.20750
-0.07913 -0.09157 -0.09712
-0.27411 -0.00281 -0.03642
-0.20067 0.13100 0.21815
-0.16495 0.01539 0.21815
-0.24195 0.32788 -0.15307
-0.21079 -0.35590 -0.21747
-0.23293 0.29785 0.21690
-0.15771 0.23819 0.21815
0.06139 -0.00771 0.19209
0.27336 -0.21546 -0.11147
-0.26467 -0.27138 -0.21815
-0.13663 -0.01279 -0.21815
0.01895 -0.00771 -0.12965
0.21256 -0.29956 0.21815
0.07016 -0.00771 -0.20174
0.12674 -0.04565 -0.21815
-0.27514 0.21450 0.19811
0.22869 -0.27610 -0.11147
0.27277 -0.34282 -0.21815
-0.22531 0.19391 -0.21815
-0.15424 0.08432 0.19439
0.03476 -0.00771 -0.09822
0.08410 -0.09157 -0.08649
0.07464 -0.00771 0.09147
-0.27465 0.07691 0.08678
-0.25317 -0.12029 -0.21815
0.10752 -0.01238 0.21815
-0.15424 -0.27198 -0.14408
0.19839 -0.10920 0.21815
-0.27506 0.10377 0.17995
-0.27340 -0.07229 -0.19986
0.10877 -0.09157 -0.17646
0.12932 -0.09157 -0.18272
-0.20367 -0.21855 0.13606
0.27522 -0.10060 0.12136
-0.18220 0.08265 -0.21815
-0.14317 -0.00771 -0.17500
-0.23442 0.07686 0.21815
0.27219 -0.35590 -0.19553
0.17064 -0.29963 -0.19963
-0.24132 -0.16202 0.13606
0.20740 -0.27933 -0.11147
-0.27332 0.33124 0.00080
-0.27333 0.25609 -0.21561
-0.16364 0.05216 -0.21815
-0.15424 0.10995 0.12517
-0.26680 0.05924 -0.21815
-0.16593 0.34347 -0.10170
0.13426 -0.00771 -0.17668
-0.15424 0.14791 0.14494
-0.27520 0.17535 0.21174
0.18408 -0.15661 0.12089
-0.15689 -0.13244 -0.11147
0.08807 -0.00771 -0.16030
0.14663 -0.00771 0.13881
0.26264 -0.28453 -0.21815
0.27522 -0.17341 0.13971
-0.23119 0.00668 0.21815
-0.10535 -0.00771 0.05353
-0.10505 -0.02725 0.21815
0.25442 -0.16986 0.12089
-0.27370 0.04388 -0.13140
-0.15424 -0.32881 0.20526
-0.27370 -0.08874 -0.13237
-0.27464 0.05940 0.08466
-0.15420 -0.09157 -0.10311
0.06493 -0.00771 0.13382
-0.02655 -0.00771 -0.09281
-0.24837 0.34257 0.10574
-0.15424 0.15790 0.21002
0.16462 -0.09157 -0.03531
0.00177 -0.00771 -0.00743
-0.25646 0.31824 0.17625
-0.15424 0.05093 0.21317
-0.00257 -0.00771 -0.21126
-0.04595 -0.00771 -0.03240
0.17064 -0.19075 -0.19258
0.09952 -0.09157 0.09933
-0.24018 -0.14355 -0.21815
0.23049 -0.00771 -0.21052
0.04711 -0.00771 -0.00690
0.06684 -0.00771 -0.11864
0.17064 -0.22849 -0.13582
-0.15424 0.12481 -0.15048
0.02981 -0.03468 -0.21815
0.19695 -0.00771 -0.18557
-0.15424 -0.10526 -0.15082
-0.16887 -0.09169 0.02519
-0.27380 0.09480 -0.10815
-0.12696 -0.09157 -0.18371
-0.24355 -0.09232 0.08120
-0.22465 0.28120 0.21815
-0.18217 0.33364 0.13607
-0.27484 0.22659 0.13007
-0.15424 0.20244 -0.12636
-0.27492 -0.04761 0.14756
-0.24903 0.30420 -0.20476
0.17435 -0.09173 0.04755
-0.27446 0.04509 0.04356
-0.00454 -0.00771 0.15240
-0.27522 -0.33719 0.19595
-0.26759 -0.31584 0.13606
-0.23364 -0.25251 0.13606
0.11980 -0.00771 -0.21690
-0.27492 -0.06378 0.14751
-0.15424 -0.10598 -0.21771
-0.15843 0.30027 -0.21227
0.20699 -0.28813 -0.21815
-0.15424 -0.00478 0.10691
0.21344 -0.35590 0.15017
-0.15424 0.24572 0.21333
-0.15424 0.09783 0.20978
-0.27337 0.08915 -0.20602
-0.16480 0.31038 -0.19295
-0.04238 -0.00771 -0.12431
-0.15424 -0.09990 -0.21452
0.17064 -0.27950 -0.12441
0.22651 -0.11736 0.21815
0.16699 -0.00771 -0.16245
-0.03334 -0.09157 -0.01847
-0.15424 0.13021 0.07455
-0.20734 -0.07050 -0.21815
-0.15424 0.06714 0.01020
0.21000 -0.33432 0.21815
0.26207 -0.25983 -0.11147
-0.19640 0.26549 -0.21815
-0.27522 -0.27441 -0.17608
-0.09192 -0.09157 -0.10585
0.04053 -0.09157 -0.20505
-0.27371 0.16976 -0.13014
-0.25185 -0.09239 -0.06654
0.01523 -0.09157 -0.05372
-0.26409 0.21392 -0.21815
-0.15424 0.31684 0.16142
-0.20058 -0.24335 -0.11147
-0.17716 0.10089 0.21815
-0.15504 -0.09158 -0.09421
0.00602 -0.09157 0.07226
0.01579 -0.00771 0.16111
0.27522 -0.12435 -0.11692
0.04404 -0.09157 -0.19131
-0.08002 -0.00771 0.11862
0.03021 -0.01254 0.21815
0.17064 -0.09466 -0.14531
-0.15424 -0.11699 -0.13318
-0.27435 0.28866 0.01835
-0.27369 0.10438 -0.13420
-0.27500 0.18137 0.16801
0.11060 -0.09157 -0.09697
-0.22975 0.34929 0.07536
0.21809 -0.28594 0.12089
-0.27351 0.29285 -0.17511
-0.15424 0.08799 0.10671
-0.15424 -0.33634 0.21785
-0.19470 -0.19887 0.13606
-0.11891 -0.00771 -0.16113
-0.15424 0.06145 0.03971
-0.16215 0.35566 -0.00533
-0.15424 -0.12950 0.16718
0.17064 -0.24033 -0.11308
0.26735 -0.00771 -0.20703
0.03637 -0.09157 -0.00464
0.17064 -0.15948 -0.15183
0.15044 -0.00771 0.07528
-0.16069 -0.09163 -0.00093
-0.15424 0.28870 0.12494
-0.27403 0.13225 -0.05660
-0.13854 -0.09157 -0.07811
-0.06410 -0.09157 0.07916
-0.27332 0.34265 0.03002
0.14381 -0.09157 -0.04507
-0.22921 0.34519 0.09399
-0.27448 -0.01999 0.04726
0.24168 -0.22698 0.21815
-0.15424 0.00159 -0.10121
-0.14395 -0.00934 0.21815
0.17064 -0.20935 0.16163
0.24624 -0.00771 0.14566
-0.06703 -0.00771 -0.05775
-0.15424 0.09878 0.06743
-0.27451 -0.07064 0.05365
-0.27522 -0.07292 0.21790
-0.27522 -0.24885 -0.15942
-0.15424 -0.15490 -0.17602
-0.15424 0.16000 0.04344
0.19120 -0.00771 -0.17636
-0.27350 -0.08581 -0.17731
0.19916 -0.13470 0.21815
0.22037 -0.35590 0.16384
-0.18095 0.30109 0.21071
0.26878 -0.09567 0.06456
-0.10815 -0.00771 -0.07206
-0.15424 -0.16622 -0.21743
-0.23430 0.04744 -0.21815
0.21375 -0.19007 -0.21815
-0.15422 -0.00771 -0.13830
-0.27522 -0.28985 -0.13133
-0.27503 0.21315 0.17397
-0.17700 -0.32075 -0.21815
0.27522 -0.29523 -0.15116
-0.27522 -0.23005 -0.13485
0.23958 -0.09445 -0.03146
-0.21524 -0.31543 0.13606
-0.26672 0.32440 -0.16143
-0.27522 -0.18152 -0.11591
-0.20343 -0.09198 -0.03203
0.03696 -0.00771 -0.02036
0.04535 -0.00771 -0.02371
0.22656 -0.14633 0.12089
0.27237 -0.32946 -0.21815
0.26381 -0.12470 -0.11147
-0.27361 -0.07946 -0.15169
-0.17771 -0.28731 -0.21815
-0.27337 -0.01553 -0.20666
-0.23611 0.31730 0.17851
0.23633 -0.00771 -0.08170
0.25040 -0.03383 0.21815
-0.15424 0.00512 0.17267
-0.15424 0.07226 0.21106
-0.18994 -0.01986 0.21815
0.27522 -0.27627 0.12412
0.03237 -0.09157 -0.08455
-0.27479 0.20146 0.11823
0.24496 -0.10696 -0.11147
0.27522 -0.05724 -0.09417
-0.27522 -0.25113 -0.16556
-0.15424 0.11277 -0.03958
-0.22920 0.32922 -0.14986
-0.20327 -0.28308 -0.11147
0.25220 -0.27738 -0.21815
-0.15424 0.30580 0.08757
0.12052 -0.00771 0.06787
-0.15424 0.10997 0.14095
-0.25022 -0.34557 0.21815
-0.24828 -0.35590 0.17606
0.17064 -0.26505 -0.19916
-0.27133 0.27385 0.21815
-0.17326 0.35540 -0.01134
0.27522 -0.13739 -0.15827
-0.24285 -0.26074 0.13606
0.27522 -0.01657 0.01595
0.25167 -0.00771 0.10550
0.02115 -0.00771 0.17460
-0.20032 -0.27151 -0.21815
-0.22415 -0.18594 0.13606
0.16660 -0.09157 -0.13142
-0.27332 0.32867 -0.10116
-0.27409 -0.03894 -0.04239
0.26166 -0.02218 0.21815
-0.15424 0.14504 -0.16074
-0.27485 0.20662 0.13161
-0.19185 -0.25290 0.13606
0.17064 -0.31289 0.14690
-0.27494 0.25907 0.15266
-0.27332 0.30793 -0.12938
0.07552 -0.00771 -0.14408
-0.27474 0.01320 0.10772
0.19997 -0.31475 0.21815
-0.27335 0.27048 -0.21267
-0.27473 0.03487 0.10416
0.07733 -0.00771 0.16693
0.27522 -0.35087 0.14242
0.09765 -0.00771 0.09417
0.27522 -0.00822 0.05310
-0.20714 0.05077 -0.21815
-0.27481 0.19342 0.12230
0.16661 -0.09157 0.04778
-0.15424 0.28062 0.07334
-0.06765 -0.08330 0.21815
-0.27489 0.07752 0.14182
-0.27522 -0.33930 -0.11809
-0.22645 0.29598 -0.21815
0.24020 -0.16936 -0.21815
0.27522 -0.28379 -0.19889
0.17064 -0.22983 -0.16705
0.17064 -0.16249 0.15700
0.21749 -0.35590 -0.16357
-0.08526 -0.00771 -0.02083
-0.15424 -0.32773 0.17017
0.27522 -0.34711 0.12507
0.25785 -0.00771 -0.08544
0.22943 -0.32492 0.21815
-0.27522 -0.29131 -0.12430
-0.15424 0.04670 -0.05583
-0.05773 -0.00771 -0.11277
-0.27522 -0.32743 0.18886
-0.27493 0.19517 0.15018
0.17064 -0.21528 -0.18659
0.17064 -0.21191 -0.17017
-0.15424 0.00140 0.02965
-0.27470 0.27107 0.09891
-0.13617 -0.05965 0.21815
-0.15424 0.15313 0.18706
0.17405 -0.12830 -0.21815
0.27164 -0.06609 -0.21815
0.26498 -0.00771 0.04743
-0.15424 0.25264 0.14498
0.27522 -0.07290 0.15562
-0.21122 0.18246 -0.21815
-0.27498 0.04983 0.16149
-0.19470 -0.34637 0.21815
0.18123 -0.35590 -0.13371
-0.27332 0.32615 -0.12733
0.05390 -0.09157 -0.02223
0.22040 -0.09365 0.02214
-0.15777 -0.12660 -0.21815
-0.27412 0.12349 -0.03493
-0.15424 0.24231 0.06528
0.23271 -0.00771 -0.11231
-0.25929 -0.22467 0.13606
0.09021 -0.04043 -0.21815
-0.20557 -0.25134 0.13606
-0.21565 -0.35590 0.17733
0.03735 -0.02210 0.21815
-0.17615 -0.09176 -0.07692
-0.15424 -0.33400 -0.20295
-0.27444 0.15072 0.03827
0.27522 -0.20977 -0.11961
0.04340 -0.09157 0.09432
-0.03422 -0.09157 0.00963
-0.27399 0.23345 -0.06501
0.25269 -0.23625 -0.11147
-0.27443 -0.05208 0.03620
-0.27422 0.11811 -0.01223
-0.07347 -0.00771 -0.09443
0.18166 -0.00771 0.18861
0.06891 -0.05663 -0.21815
-0.23474 0.01961 -0.21815
0.17250 -0.27657 -0.21815
-0.05069 -0.00771 -0.01756
0.19218 -0.32562 0.12089
-0.26623 -0.00671 0.21815
0.25732 -0.00771 0.00236
-0.15424 -0.10743 0.20383
-0.11298 -0.09157 -0.17931
-0.27522 -0.12843 -0.20201
0.26135 -0.00771 -0.19773
0.00839 -0.09157 -0.20491
-0.27477 0.00326 0.11364
0.17064 -0.23602 0.15385
0.25070 -0.00771 0.11629
-0.08525 -0.00771 -0.06027
0.15332 -0.09157 0.10698
-0.11615 -0.00771 -0.14347
-0.14569 -0.04228 -0.21815
0.18467 -0.14021 0.12089
0.21036 -0.00771 0.18842
0.20440 -0.24209 0.12089
-0.15424 -0.22428 0.19764
-0.27357 -0.08622 -0.16041
-0.27310 -0.26599 -0.21815
0.17064 -0.18884 0.14863
-0.27492 -0.11675 -0.11147
-0.27419 -0.08456 -0.01804
0.08272 -0.01381 0.21815
-0.15424 0.24625 -0.07237
-0.11814 -0.09157 0.08320
-0.23311 -0.35590 -0.15037
0.25241 -0.22742 -0.21815
-0.14602 -0.09157 0.11313
-0.15139 -0.00771 -0.21189
-0.15424 0.26827 0.02976
-0.15424 0.01118 0.18915
-0.15424 0.24437 -0.19422
-0.00082 -0.09157 -0.04437
-0.27522 -0.17188 0.14723
-0.27522 -0.30828 -0.14726
0.27522 -0.33622 0.16216
0.21854 -0.35044 0.12089
0.18171 -0.35590 0.20205
0.17064 -0.35582 0.21630
-0.27385 0.15030 -0.09613
-0.17012 0.34097 0.11291
-0.16086 -0.35189 0.13606
-0.01971 -0.09157 0.10234
-0.27522 -0.10645 -0.17537
0.18427 -0.26751 -0.21815
-0.20942 0.35525 0.01476
0.21424 -0.23037 -0.21815
-0.07821 -0.01765 0.21815
-0.24224 -0.30002 0.13606
-0.15047 -0.00771 0.13812
-0.15424 0.20327 -0.21292
-0.15424 0.18819 -0.17031
0.03050 -0.00771 0.20492
0.17064 -0.15365 -0.13437
-0.15424 0.34858 0.01853
-0.27366 0.20664 -0.13953
-0.27236 -0.32244 0.13606
-0.27522 -0.14268 0.15032
-0.24329 0.34292 -0.10417
0.27522 -0.05410 -0.04481
0.11774 -0.09157 -0.12976
0.27051 -0.23020 -0.21815
-0.27522 -0.30205 -0.18679
-0.27459 0.07266 0.07265
-0.15424 -0.25132 -0.16359
-0.26970 -0.10415 0.13606
-0.27358 0.29632 -0.15812
0.12770 -0.05359 0.21815
0.09520 -0.09157 -0.18485
-0.26362 -0.09594 -0.11147
-0.27451 0.18811 0.05410
0.27522 -0.20461 0.19943
0.27522 -0.15492 0.19184
0.13452 -0.00771 0.05937
0.27522 -0.17859 -0.18102
-0.12612 -0.00771 -0.15969
-0.21785 0.03916 0.21815
-0.16228 -0.18199 -0.11147
-0.27490 0.28918 0.14451
-0.18651 -0.23603 -0.11147
-0.15424 0.18524 0.07977
-0.15890 -0.01601 -0.21815
-0.15424 -0.19893 0.17640
-0.05353 -0.00771 0.01568
-0.00783 -0.00771 -0.17339
-0.27355 0.13701 -0.16529
-0.15424 -0.18067 -0.17065
0.00190 -0.07683 0.21815
-0.08853 -0.09157 -0.04190
-0.27437 0.07967 0.02201
-0.27353 0.10614 -0.17100
-0.27444 -0.05029 -0.21815
0.27522 -0.29125 -0.13828
-0.15424 -0.00164 -0.15531
-0.19526 -0.32858 -0.11147
-0.15962 -0.16460 0.13606
-0.15424 0.17882 -0.17875
0.17064 -0.33713 0.14936
-0.19992 0.32948 0.14921
-0.15424 0.26755 -0.12494
0.12205 -0.09157 0.11822
-0.01266 -0.00771 -0.03450
-0.15424 0.27677 0.00965
0.26970 -0.16240 0.12089
-0.27522 -0.30689 -0.20742
0.03312 -0.09157 -0.05989
-0.15424 -0.21810 0.17557
0.27522 -0.03661 0.14548
0.17064 -0.27403 -0.20483
-0.15424 0.00366 0.15601
-0.26883 -0.35590 0.18831
0.16363 -0.00771 -0.04334
-0.15424 -0.09575 0.14803
0.17064 -0.14193 0.16195
0.17064 -0.19317 0.12407
-0.27420 0.19333 -0.01659
0.05797 -0.00771 -0.11579
0.26433 -0.35590 -0.21496
-0.15427 0.16238 -0.21815
0.25744 -0.00771 0.05401
0.19693 -0.27297 -0.11147
-0.24678 0.05564 -0.21815
0.23072 -0.22427 -0.21815
-0.27521 0.09192 0.21619
-0.16544 0.05795 0.21815
0.12364 -0.00771 -0.12815
-0.15424 -0.20551 0.21728
0.27522 -0.04044 -0.05745
-0.15424 0.13425 -0.01302
-0.02035 -0.09157 0.12309
-0.27522 -0.09541 -0.11209
0.26414 -0.28674 0.21815
-0.09118 -0.09157 -0.05379
-0.16683 -0.15359 0.21815
0.17064 -0.34635 0.15715
-0.16175 -0.35590 0.14653
-0.15424 0.02593 0.16998
-0.15424 0.05336 -0.01468
-0.18979 0.31381 0.18640
0.20816 -0.09314 0.08195
0.22177 -0.00771 -0.06908
-0.27475 0.05073 0.10916
-0.15424 0.00134 -0.07735
-0.15424 0.14598 0.00139
0.18005 -0.09197 -0.02896
0.04920 -0.09157 -0.13728
-0.25609 -0.35590 -0.12542
0.21210 -0.00771 0.20859
-0.27494 0.07939 0.15435
-0.19452 -0.20397 -0.11147
-0.16532 -0.05791 0.21815
-0.23470 -0.35590 -0.12398
-0.16426 -0.00308 -0.21815
0.27522 -0.20472 0.15810
0.06651 -0.03262 0.21815
0.08034 -0.09157 -0.12735
-0.15424 0.30687 0.03171
-0.27395 0.19545 -0.07316
-0.06558 -0.09157 -0.13568
-0.27332 0.31397 -0.16929
-0.17972 -0.06780 0.21815
-0.13643 -0.09157 0.00285
-0.16123 0.35059 -0.06553
-0.15424 0.11575 -0.11563
-0.27501 0.04937 0.16915
-0.15424 0.30241 -0.15163
-0.27396 -0.35590 -0.19926
0.04290 -0.09157 0.05236
-0.27345 0.00455 -0.18792
0.27522 -0.21090 0.15184
-0.09062 -0.00771 0.19797
-0.16875 0.35534 0.01275
-0.15424 0.27072 0.05041
0.20816 -0.09042 0.21815
-0.17292 -0.35590 -0.21368
-0.23966 -0.09228 0.10064
0.11894 -0.00771 0.19272
-0.21655 -0.09209 -0.04571
-0.27399 0.15941 -0.06520
0.10936 -0.09157 -0.02861
-0.09641 -0.00771 0.09057
-0.16467 0.22862 0.21815
0.18013 -0.00771 -0.10867
-0.18307 -0.22749 0.13606
-0.27368 0.03365 -0.13533
-0.27407 -0.07500 -0.04571
0.03461 -0.00771 0.00629
0.17064 -0.29597 0.12370
-0.15424 0.21075 0.17257
0.23328 -0.28600 0.12089
-0.11564 -0.09157 -0.08393
0.17064 -0.22741 -0.12150
-0.26178 0.10776 -0.21815
-0.22091 -0.09213 -0.00790
-0.11637 -0.00771 -0.13253
0.17064 -0.14946 -0.19608
-0.24616 -0.11945 0.21815
0.13809 -0.00771 0.16520
-0.16981 -0.27388 0.13606
0.26646 -0.00771 -0.05935
-0.04421 -0.09157 0.03310
-0.15424 0.23502 -0.20927
-0.17666 -0.29321 -0.21815
0.27522 -0.11244 0.14133
0.09058 -0.00771 -0.08832
0.17064 -0.27963 0.20111
-0.27443 -0.02964 0.03505
-0.25822 -0.33384 0.13606
-0.27447 0.20620 0.04561
0.00673 -0.00771 0.01965
0.21186 -0.25808 0.12089
0.18029 -0.23392 -0.21815
0.18667 -0.00771 -0.16458
0.27522 -0.01331 -0.20592
0.13445 -0.09157 -0.20203
-0.16296 -0.26976 0.13606
-0.27522 -0.14665 0.15971
-0.26395 -0.35590 -0.20633
-0.15424 0.05471 -0.06507
0.16897 -0.02735 0.21815
-0.23947 -0.33102 0.21815
-0.27368 0.20216 -0.13617
0.08233 -0.08273 0.21815
0.27522 -0.02904 -0.05900
-0.15424 0.02886 0.10239
0.21185 -0.01869 -0.21815
0.26124 -0.15783 0.12089
-0.26596 0.00713 -0.21815
-0.16476 0.06275 -0.21815
-0.10044 -0.00771 0.01918
-0.15424 -0.25940 -0.12337
-0.21714 -0.30911 0.21815
0.27522 -0.23770 -0.16662
-0.27430 -0.04500 0.00705
-0.17468 0.31463 0.18482
0.26234 -0.03881 0.21815
-0.15424 0.13552 -0.15585
0.24687 -0.23410 -0.21815
-0.20009 0.34433 0.09784
0.21300 -0.31990 0.12089
-0.15424 0.29530 -0.13533
0.27522 -0.04227 -0.08139
-0.12996 -0.09157 0.13277
-0.15424 0.08590 -0.08186
0.17064 -0.16849 -0.16799
0.16538 -0.00854 0.21815
-0.27438 0.18858 0.02554
0.13080 -0.00771 -0.14471
-0.20053 -0.18851 -0.11147
0.17064 -0.24520 -0.21382
0.01215 -0.00771 -0.13798
-0.27388 0.29719 -0.03728
-0.22499 -0.09216 -0.03935
0.03313 -0.09157 -0.04949
-0.27385 -0.04785 -0.09786
-0.19805 -0.06715 -0.21815
0.06740 -0.09157 0.02077
-0.15424 0.33413 0.09626
-0.27428 0.11678 0.00214
0.22160 -0.31303 0.12089
0.11584 -0.04815 -0.21815
-0.27515 0.27244 0.20045
-0.20768 -0.35590 -0.11979
-0.23318 -0.26940 0.13606
-0.15424 0.31567 -0.09201
-0.16434 -0.01459 -0.21815
-0.27441 -0.14125 0.21815
0.10927 -0.05894 -0.21815
-0.15424 0.12959 -0.10558
-0.01772 -0.09157 0.00242
0.19082 -0.17989 0.21815
-0.27522 -0.30987 0.14295
-0.21379 -0.13773 -0.21815
-0.17164 0.35299 0.04740
-0.15424 0.14697 0.12333
0.17716 -0.09185 -0.00448
-0.15424 0.03795 0.12415
0.25492 -0.35376 0.12089
-0.15424 -0.14766 0.17942
0.24058 -0.21064 -0.21815
-0.15424 0.29925 -0.15620
0.23401 -0.00771 -0.01775
-0.15424 -0.14468 -0.21130
0.06363 -0.00771 -0.18526
-0.27369 0.01342 -0.13289
-0.17446 -0.15000 -0.21815
0.17156 -0.09161 -0.08310
-0.15424 0.28946 -0.05260
-0.27522 -0.27199 -0.12392
-0.15424 0.16563 0.09726
-0.21054 -0.29350 -0.21815
-0.17533 0.16375 0.21815
-0.16379 0.12800 -0.21815
0.27522 -0.28312 -0.15672
0.26386 -0.28166 -0.11147
-0.15424 -0.18789 0.14306
-0.21658 0.21473 0.21815
0.04060 -0.05373 -0.21815
0.17064 -0.13892 -0.11847
0.05288 -0.09157 -0.09297
-0.13196 -0.00771 -0.21767
-0.27522 -0.22533 -0.20982
-0.21240 0.34551 -0.09252
-0.18848 0.18419 -0.21815
0.27356 -0.11506 0.12089
-0.27369 0.20882 -0.13314
0.24123 -0.14991 -0.21815
0.01503 -0.09157 0.06042
-0.27078 0.06716 0.21815
0.23795 -0.35590 -0.12958
0.25311 -0.09501 0.09257
-0.25723 0.35302 -0.04717
-0.11057 -0.00771 0.18689
-0.08857 -0.09157 0.03399
-0.27522 -0.27713 -0.21770
0.22012 -0.09364 -0.00672
0.11466 -0.00771 -0.09270
-0.27447 0.28462 0.04552
-0.27203 0.32581 0.15804
-0.15424 -0.23222 -0.15006
0.27522 -0.35302 -0.17170
-0.23777 -0.18758 0.13606
-0.15424 0.23880 0.21254
-0.27386 -0.05981 -0.09443
0.04000 -0.00771 -0.19223
0.17948 -0.13595 0.12089
-0.14828 -0.09157 -0.02819
-0.20740 -0.16783 -0.21815
0.02570 -0.09157 -0.00276
0.23980 -0.30092 -0.11147
0.21295 -0.09334 -0.01229
-0.14874 -0.00771 -0.09258
-0.22714 0.20691 -0.21815
0.27522 -0.22365 0.17216
-0.22263 0.14356 -0.21815
0.25042 -0.26023 0.21815
0.27522 -0.15260 0.13586
-0.15424 0.19460 -0.00802
-0.15424 0.24078 -0.02755
0.14763 -0.09157 0.10653
0.25596 -0.15338 0.21815
-0.21358 0.02484 0.21815
-0.16921 -0.15803 -0.11147
-0.20134 -0.35467 0.13606
0.19330 -0.32893 -0.11147
-0.27286 0.07622 -0.21815
-0.08592 -0.00771 0.02072
-0.25181 -0.03019 0.21815
-0.01499 -0.09157 -0.06211
-0.16877 0.03221 0.21815
0.22732 -0.00771 0.05608
-0.27458 -0.01756 0.06931
0.27522 -0.07420 -0.06618
0.17064 -0.12672 -0.13674
-0.23327 -0.35590 0.18524
0.20048 -0.09282 -0.03492
-0.18427 0.33649 -0.12710
0.27323 -0.11066 0.21815
-0.01260 -0.00771 -0.11647
-0.10056 -0.00771 0.14808
0.03919 -0.00771 0.21241
-0.21280 -0.35009 0.21815
-0.21530 -0.35590 0.16625
-0.15424 0.11282 -0.18840
-0.15424 -0.25366 -0.15604
0.17064 -0.10246 -0.19448
-0.27394 0.14116 -0.07554
-0.15424 0.21857 -0.20368
-0.19211 0.04107 -0.21815
-0.21018 0.01125 0.21815
-0.27345 -0.07875 -0.18859
0.20244 -0.00771 -0.20665
-0.10568 -0.09157 -0.17090
-0.16654 -0.35590 0.18437
0.03915 -0.00771 0.07864
0.24044 -0.34242 -0.11147
0.25840 -0.35590 -0.19593
-0.24498 -0.35590 -0.16576
-0.16570 0.34980 -0.07157
0.03427 -0.01441 -0.21815
-0.27425 0.13716 -0.00492
-0.07253 -0.00771 -0.18205
-0.15424 -0.17574 0.19340
-0.15424 0.13152 -0.18621
-0.27417 0.14175 -0.02329
-0.15424 0.33124 0.14036
-0.15424 0.17593 0.12708
-0.15424 0.20594 -0.15595
0.17064 -0.16498 0.18803
0.16141 -0.03339 -0.21815
-0.15424 0.12781 0.11016
-0.27522 -0.28543 -0.18070
-0.17788 0.35477 0.02561
-0.19970 0.03603 0.21815
0.04896 -0.00771 0.00226
0.19368 -0.00771 0.20020
0.03033 -0.00771 -0.05575
-0.27522 -0.33195 -0.20771
-0.27332 0.33098 -0.04686
-0.24789 -0.09235 0.06488
0.27095 -0.30163 0.12089
0.19535 -0.26503 -0.21815
-0.15424 -0.15726 -0.20559
-0.27522 -0.29021 -0.11349
-0.20336 -0.09198 0.03482
-0.26814 0.26900 0.21815
0.06349 -0.06818 -0.21815
0.27522 -0.04965 0.20841
-0.27413 0.03894 -0.03395
0.27389 -0.19543 0.21815
0.21099 -0.35590 0.16215
0.20475 -0.00771 0.07937
0.26350 -0.15978 -0.11147
-0.06514 -0.00771 0.21464
-0.15424 -0.21267 0.21305
-0.15424 0.30749 0.16564
-0.27447 -0.08388 0.04505
0.21739 -0.34870 -0.21815
-0.15424 0.17808 -0.08974
-0.24793 -0.09235 0.02775
0.23207 -0.05054 -0.21815
-0.27389 0.11829 -0.08763
-0.20288 -0.10498 0.21815
-0.20496 -0.35590 -0.13756
-0.25806 -0.21385 0.21815
-0.27522 -0.20329 -0.18590
-0.15424 0.14167 -0.16534
-0.01936 -0.00771 -0.03549
0.17064 -0.10673 -0.19051
0.23829 -0.19215 -0.11147
-0.26761 -0.27047 0.21815
-0.15451 0.24306 -0.21815
0.17064 -0.26818 -0.12810
-0.17830 -0.09177 0.00567
-0.19772 0.35358 -0.04293
-0.24136 -0.09230 0.05495
0.18268 -0.20628 -0.21815
-0.15573 0.20397 0.21815
0.25062 -0.00771 -0.19998
0.20508 -0.31125 0.21815
0.02059 -0.09157 -0.20388
-0.17447 -0.31334 -0.11147
0.27522 -0.22312 -0.18917
-0.15424 -0.23728 -0.15471
-0.27447 0.22623 0.04590
-0.15424 0.00408 0.12611
-0.15424 0.10451 0.15684
-0.21441 -0.35577 -0.11147
-0.19055 0.26703 0.21815
0.22521 -0.35590 -0.16970
0.23856 -0.26976 -0.21815
0.02428 -0.09157 0.11797
0.17064 -0.25928 0.18965
0.22235 -0.20628 -0.21815
-0.17001 -0.10645 -0.21815
-0.22895 -0.13191 0.13606
0.27522 -0.02797 -0.00260
-0.15424 0.09409 -0.01567
-0.20413 -0.25567 -0.11147
-0.00593 -0.09157 -0.00537
0.22373 -0.20527 0.12089
-0.26991 -0.35590 -0.14069
-0.21912 -0.32406 -0.11147
-0.02109 -0.09157 -0.06396
-0.15424 0.12354 0.01577
-0.15424 0.02700 -0.20722
-0.27401 0.07730 -0.06099
-0.27363 0.18042 -0.14796
-0.17245 0.11765 0.21815
-0.15424 0.13033 0.00143
-0.15424 0.11355 -0.05378
0.19266 -0.04527 0.21815
-0.15604 0.19587 0.21815
-0.08638 -0.04115 0.21815
0.27522 -0.06421 -0.00784
0.25919 -0.29309 0.21815
-0.27449 0.11056 0.05014
0.27522 -0.29813 0.12685
-0.27443 0.28934 0.03739
0.03389 -0.09157 0.09061
-0.23725 -0.15207 -0.21815
0.26448 -0.19836 0.21815
-0.15424 0.27921 -0.08509
0.23805 -0.00771 -0.12951
-0.14075 -0.09157 0.01010
-0.20130 -0.33312 -0.11147
-0.15424 -0.17649 0.15713
0.27036 -0.22409 -0.11147
0.14232 -0.00771 0.12589
-0.17014 0.34868 0.07828
-0.27488 0.08391 0.13845
-0.18928 -0.09902 0.21815
-0.10855 -0.05399 -0.21815
0.00733 -0.00771 0.15264
-0.08005 -0.09157 -0.03145
-0.15424 0.32518 0.01115
-0.19884 0.31204 0.18978
-0.27429 0.16900 0.00294
0.17064 -0.19895 0.15559
-0.15424 0.27382 0.13223
0.17064 -0.20955 -0.17891
-0.15597 -0.28606 -0.11147
-0.15424 0.34558 -0.00398
0.04291 -0.00771 -0.12514
-0.16662 0.11590 0.21815
-0.27493 -0.09933 0.13606
-0.16929 0.21942 0.21815
-0.20192 -0.33617 -0.21815
0.27522 -0.22662 -0.19592
-0.27483 0.10747 0.12787
-0.15424 0.14719 -0.04898
0.12035 -0.00771 0.13128
-0.17572 -0.12156 -0.21815
-0.07015 -0.09157 -0.11259
-0.16468 0.22539 -0.21815
-0.07691 -0.05002 0.21815
0.02852 -0.00771 0.16520
-0.25802 0.11814 -0.21815
-0.27332 0.33033 0.13306
-0.27356 0.11165 -0.16457
0.27522 -0.04331 -0.03336
-0.16402 0.16524 0.21815
-0.15424 0.02539 0.09416
0.06664 -0.09157 -0.00329
0.27522 -0.23191 -0.11458
0.08625 -0.09157 -0.20875
-0.15424 0.22870 -0.05751
0.15413 -0.00771 0.15837
0.20743 -0.09311 -0.10653
-0.16361 -0.09165 -0.00657
-0.27279 -0.17433 0.13606
0.12476 -0.05758 -0.21815
-0.11296 -0.09157 0.12937
0.08081 -0.00771 0.09444
0.17064 -0.17541 -0.13750
-0.15424 0.03189 0.16312
-0.10359 -0.00771 -0.03686
-0.27509 0.29298 0.18790
-0.27522 -0.17104 -0.20878
-0.21185 -0.09205 0.03634
-0.27491 0.26614 0.14621
-0.26037 -0.35590 -0.21278
-0.27342 -0.06585 -0.19456
-0.24160 -0.02771 0.21815
-0.22104 -0.20567 0.21815
0.07737 -0.00771 -0.17879
-0.21128 -0.09205 0.05696
0.27522 -0.17015 0.16384
0.12258 -0.00771 -0.15249
0.26443 -0.00771 -0.06923
0.26737 -0.09561 -0.04574
-0.17649 0.29600 -0.21815
0.03894 -0.09157 -0.11199
-0.15424 0.07629 0.11601
-0.15424 0.25415 0.01907
-0.10088 -0.00771 -0.15139
0.23553 -0.09428 0.00406
0.17064 -0.25239 -0.12059
-0.15424 -0.19559 -0.11829
0.22035 -0.35590 -0.15141
-0.13182 -0.09157 -0.10065
-0.27522 -0.12613 -0.11793
-0.15424 0.07520 -0.07407
-0.27341 0.00697 -0.19754
-0.23853 0.05303 0.21815
-0.27393 -0.02186 -0.07890
-0.15469 0.29088 -0.21815
-0.15424 0.18084 -0.19335
0.18514 -0.00771 -0.01623
-0.10427 -0.00771 -0.06653
-0.27332 0.31667 -0.03619
-0.15424 -0.29261 0.16277
-0.15424 0.00758 -0.01387
0.25678 -0.17891 -0.21815
-0.01507 -0.05688 -0.21815
0.17064 -0.33811 -0.14485
0.06211 -0.09157 0.09371
-0.17666 0.25134 0.21815
0.01193 -0.09157 0.09245
0.16651 -0.09157 -0.06379
0.20583 -0.33217 -0.11147
0.20705 -0.31747 0.21815
-0.15424 0.07352 -0.16270
0.27522 -0.19516 0.15772
0.22643 -0.23191 0.12089
-0.05117 -0.09157 -0.17026
0.27522 -0.24405 -0.13928
0.27182 -0.07525 -0.21815
0.27522 -0.34688 0.20210
-0.27388 0.03827 -0.09041
-0.25836 0.35582 -0.00174
-0.15424 0.15063 0.15200
-0.27522 -0.29696 0.17625
0.26196 -0.27996 0.21815
-0.27370 0.25449 -0.13052
-0.15424 0.12048 0.11779
-0.25585 -0.35590 0.19330
-0.16390 0.00487 -0.21815
0.17064 -0.31927 -0.16616
0.18711 -0.20843 0.21815
-0.22946 -0.17998 -0.21815
-0.01125 -0.00771 0.20743
-0.23757 -0.09227 0.07589
-0.27332 0.34893 -0.06774
-0.27333 0.14628 -0.21700
-0.26577 0.34754 -0.08339
-0.14717 -0.09157 -0.20068
0.17064 -0.34417 0.14940
-0.27415 -0.06536 -0.02699
-0.00995 -0.09157 0.11287
-0.22694 -0.15400 -0.11147
0.20916 -0.09318 -0.06335
0.11093 -0.09157 -0.00948
0.19498 -0.00771 0.14747
0.17064 -0.20350 0.14339
0.27263 -0.34844 -0.21815
0.17137 -0.30750 -0.11147
-0.27353 0.26608 -0.17085
-0.07242 -0.09157 -0.18397
0.19178 -0.00771 -0.21749
-0.15424 -0.00738 0.00727
-0.23653 -0.04919 0.21815
-0.14695 -0.09157 0.00168
-0.15424 0.20543 0.02927
0.27522 -0.11045 -0.18970
-0.27434 -0.08577 0.01639
0.12157 -0.00771 -0.16953
0.20262 -0.04550 0.21815
0.16038 -0.09157 -0.04003
-0.20340 -0.09198 0.09845
-0.17027 -0.25621 -0.11147
-0.22543 0.28010 -0.21815
-0.23106 0.18272 0.21815
-0.27393 0.08382 -0.07908
0.19699 -0.21305 -0.11147
-0.26876 0.13644 -0.21815
-0.14429 -0.00771 0.00095
0.08858 -0.00771 -0.11357
-0.27416 0.04959 -0.02628
0.19755 -0.13568 -0.11147
-0.21345 -0.17645 -0.11147
-0.17605 -0.34351 -0.21815
0.17608 -0.00771 -0.17896
-0.15424 0.10787 -0.06635
-0.15424 -0.23072 0.19367
-0.20359 0.24145 0.21815
0.22172 -0.29782 -0.11147
-0.22980 -0.14175 0.13606
-0.20890 0.10271 0.21815
0.20566 -0.00771 -0.07087
0.27522 -0.00867 -0.05409
-0.25037 0.35580 0.00214
0.07494 -0.00771 0.03174
-0.15424 0.00355 0.01892
-0.27344 0.26304 -0.19048
-0.27353 -0.03876 -0.17067
0.06400 -0.00771 0.07489
0.17064 -0.34306 -0.11905
-0.19380 -0.14380 -0.21815
-0.25348 0.34449 0.09711
0.21740 -0.09759 -0.11147
-0.19361 0.05650 0.21815
-0.27400 0.25594 -0.06131
0.12587 -0.00771 -0.00819
-0.25156 -0.05884 -0.21815
-0.27522 -0.23091 -0.16002
0.27522 -0.04066 -0.01271
