-0.13847 -0.42679 -0.10477
-0.13768 0.03577 0.09631
-0.12712 0.40228 0.03168
0.12595 -0.12549 0.06749
-0.11495 -0.33588 0.08506
-0.17978 0.36763 0.08523
-0.10686 -0.30586 0.12546
-0.03796 -0.10552 0.18484
-0.13969 0.22038 -0.18484
-0.17978 0.26406 0.07794
-0.12712 0.35045 -0.15150
-0.03340 -0.06124 0.15721
-0.13048 -0.18426 -0.14567
-0.14412 -0.01877 0.13390
-0.16286 -0.41811 -0.09194
0.09336 -0.12549 -0.14987
-0.14377 0.02323 0.01762
0.13457 -0.06124 -0.09746
-0.16122 -0.03574 0.18484
-0.17978 -0.00990 -0.09069
-0.12712 0.01482 0.07207
-0.14307 0.23520 0.14012
-0.12712 0.41693 0.05540
-0.08319 -0.06124 0.07472
-0.15156 -0.37120 -0.12113
-0.12015 -0.40454 0.08057
-0.14227 0.32487 -0.18484
-0.16189 -0.12549 0.04876
-0.13351 0.18099 0.14012
-0.14973 0.41531 0.08733
-0.12024 -0.24557 -0.11060
-0.15525 -0.26316 0.11692
0.14052 -0.10892 -0.18484
-0.17978 0.15903 -0.08842
-0.17978 -0.03295 0.15841
-0.15962 0.00535 0.09631
-0.17978 -0.10311 -0.17355
0.15874 -0.06124 -0.07068
-0.12712 0.16176 -0.16646
-0.17897 -0.00340 0.18484
-0.17978 -0.08450 -0.05041
-0.08749 -0.06124 -0.11189
-0.14417 0.11477 0.01762
0.02754 -0.12549 0.18051
-0.17668 0.23927 0.01762
-0.08765 -0.12549 0.06169
-0.17978 0.11698 0.17911
-0.12712 -0.04639 -0.03215
-0.15501 0.10874 -0.09561
-0.00415 -0.06124 0.10447
-0.15156 -0.23181 -0.11732
-0.18256 -0.08671 0.01728
-0.13009 0.21282 0.09631
-0.12712 -0.03085 -0.10956
-0.12902 0.19845 -0.18484
-0.17978 0.21885 0.18230
-0.14862 0.03524 0.14012
-0.14841 0.32025 0.03110
-0.12923 0.00522 -0.06203
-0.09484 -0.41463 -0.15252
-0.17978 0.38672 0.11697
-0.15548 0.01830 -0.09561
-0.09579 -0.42679 0.10480
0.14892 -0.36945 0.13035
0.10128 -0.41843 0.07276
0.12674 -0.12549 0.13049
-0.00998 -0.06124 -0.05226
-0.17978 -0.02047 -0.01060
-0.12712 0.35897 -0.09313
0.16312 -0.34080 -0.13073
-0.16050 0.32025 0.02846
-0.16943 -0.12549 -0.14824
-0.17978 0.17247 -0.08696
0.13681 -0.33861 -0.10767
0.04182 -0.12549 -0.10829
-0.14481 0.19484 -0.18484
-0.17978 -0.06755 -0.03893
-0.17978 0.00566 0.16839
0.04883 -0.06124 0.09188
-0.17978 0.20256 0.06913
0.18353 -0.08688 0.04156
-0.17978 -0.10286 -0.06140
0.16312 -0.27687 0.12320
-0.12712 0.07865 0.06325
-0.13490 -0.34593 -0.14567
-0.17978 -0.03152 0.11485
-0.17978 0.18484 -0.15272
-0.17978 0.25010 0.14147
0.04788 -0.06124 -0.04176
-0.17978 0.39907 0.09291
-0.17251 0.29959 0.05973
-0.17630 0.16170 0.09631
-0.02007 -0.06124 -0.00871
0.13844 -0.27459 0.13035
-0.17978 0.12410 0.06386
0.15858 -0.06124 -0.01264
0.12566 -0.13060 -0.10767
-0.17978 -0.10318 0.05034
0.15382 -0.29991 0.08874
-0.17964 0.26212 0.18484
-0.16676 -0.01877 -0.11691
-0.11133 -0.12767 0.09652
-0.12712 0.04860 0.01027
-0.12712 0.11257 0.18304
-0.13566 0.06497 -0.14453
0.04569 -0.06124 0.13382
-0.15380 0.30431 0.09631
-0.12712 0.39748 -0.03330
-0.02442 -0.06124 -0.09511
-0.16639 0.10400 0.01762
0.09969 -0.06124 -0.15088
-0.17978 -0.09443 0.16682
-0.15156 -0.17666 -0.11610
-0.17978 -0.09977 0.15679
-0.07045 -0.12549 0.05007
0.04132 -0.11123 -0.18484
-0.11154 -0.16578 0.13405
-0.14637 0.11854 -0.06203
0.12482 -0.17419 -0.14860
-0.14889 -0.14616 -0.14567
0.15641 -0.42679 -0.15492
0.11274 -0.39497 0.10262
0.16312 -0.31775 0.10830
-0.12712 -0.01973 -0.17948
-0.16998 0.19994 -0.09561
-0.10876 -0.23013 0.11224
-0.14557 0.00790 0.01762
-0.17978 -0.06120 -0.14864
-0.11163 -0.32646 -0.13106
-0.13498 -0.32210 0.13433
-0.14268 -0.05945 -0.18484
-0.11163 -0.14859 -0.12013
-0.12712 0.11055 0.01599
-0.17978 0.31984 -0.16478
-0.17978 0.23419 0.16320
-0.13597 0.31378 0.01762
-0.12954 0.14290 -0.14453
-0.15855 0.01203 0.14012
-0.13126 -0.41796 -0.16426
-0.17978 0.05151 -0.15146
-0.15757 0.22808 0.14012
-0.14456 -0.36412 -0.11060
-0.14174 0.23624 0.09631
0.15128 -0.21901 0.13035
-0.08475 -0.06976 0.17583
0.16437 -0.12549 0.01723
-0.17587 0.07724 0.09631
-0.17978 0.25193 0.01499
0.18353 -0.08569 0.06612
-0.13642 -0.01199 0.01762
-0.11163 -0.19997 -0.13854
-0.15156 -0.30027 -0.13172
-0.15821 0.40680 -0.11503
-0.14555 0.05539 0.18484
-0.17978 0.34235 0.13173
0.16312 -0.30352 0.09251
0.02401 -0.12549 -0.13974
-0.16976 0.18191 -0.09561
-0.15344 -0.19095 0.11649
-0.15750 -0.35295 0.12621
0.10472 -0.42679 -0.13341
-0.12712 0.36397 0.01930
0.08440 -0.07542 0.18484
0.00488 -0.06124 -0.07946
-0.17978 0.02357 -0.16849
0.01836 -0.06124 0.14105
-0.15206 -0.02976 0.18484
0.10426 -0.12549 -0.01124
0.06159 -0.06124 0.08399
-0.13907 0.14784 -0.18484
-0.15654 -0.31467 0.10035
-0.17978 0.02205 0.06770
-0.17978 -0.12266 0.07805
-0.15244 -0.02023 -0.18484
-0.04735 -0.06124 0.04013
-0.14952 0.17364 -0.09561
-0.12712 0.32728 0.15805
-0.13450 0.18985 0.18484
-0.12712 -0.05999 -0.16841
0.10562 -0.06124 0.14921
-0.12712 0.19190 -0.00295
-0.17634 -0.12549 0.01386
-0.12712 0.40887 0.03756
-0.12712 -0.05445 -0.08473
-0.13741 0.24110 0.18484
-0.12712 0.40489 0.00410
-0.17978 0.01519 0.08851
0.18353 -0.07134 -0.00795
-0.13040 0.26169 -0.01652
-0.13382 0.01006 0.14012
-0.15017 0.01620 0.18484
-0.12265 -0.12549 0.05657
-0.04843 -0.12549 0.09222
-0.11909 -0.41930 -0.16498
0.18353 -0.12214 -0.06570
-0.17978 0.28126 0.08032
-0.17978 0.16257 -0.06747
-0.15222 -0.14251 0.11827
-0.12712 0.04507 0.15104
-0.00807 -0.06976 0.18398
0.13241 -0.42679 -0.15912
-0.15109 0.33581 -0.18484
-0.11232 -0.06976 0.16917
0.15497 -0.36090 0.13035
0.04091 -0.12549 0.13864
-0.12712 0.39164 -0.07336
-0.15232 -0.04896 0.18484
0.16977 -0.06766 -0.15840
0.18304 -0.06976 -0.10435
-0.12712 0.30218 0.07674
-0.14265 -0.42679 0.09395
-0.17852 0.06983 -0.14453
-0.16381 0.29031 -0.14453
0.17988 -0.06976 -0.06511
0.07788 -0.12549 0.05795
-0.15156 -0.22391 -0.12760
0.16047 -0.24222 0.08874
-0.13199 -0.41936 0.14668
-0.04378 -0.12549 -0.13175
-0.09895 -0.40739 0.12828
-0.11679 -0.17640 -0.14567
-0.07657 -0.12462 -0.18484
-0.01749 -0.12549 -0.17401
-0.10887 -0.42679 -0.10151
0.12368 -0.06124 0.06055
0.11626 -0.27701 -0.13423
-0.17543 0.35628 0.18484
-0.12712 -0.03685 0.14663
0.14642 -0.15812 -0.10767
-0.12712 0.16898 -0.01129
0.09587 -0.06124 0.12786
0.09478 -0.06124 -0.02595
-0.12712 0.29739 0.06816
-0.11944 -0.24788 0.13420
0.18353 -0.11096 -0.00490
-0.16132 0.12099 0.05973
-0.12133 -0.12549 0.14466
-0.12712 0.01785 0.17989
-0.11163 -0.34058 -0.12523
-0.12528 -0.42679 0.12532
0.18353 -0.07935 0.14964
0.16312 -0.18051 0.12748
-0.12712 0.28854 0.01210
-0.10713 -0.12549 -0.02494
-0.12712 0.29508 -0.14619
-0.17978 -0.11292 0.16988
-0.01884 -0.10814 -0.18484
-0.12712 0.21823 0.08842
-0.11163 -0.14909 -0.14185
-0.16475 0.00704 0.09631
-0.17978 0.30793 -0.15032
-0.15156 -0.21771 -0.14150
0.11909 -0.06124 -0.05961
-0.13677 0.13738 -0.01652
-0.06740 -0.12549 -0.05084
0.12712 -0.26664 -0.10767
-0.12712 0.27165 -0.01205
-0.16231 -0.40389 0.08104
0.12024 -0.17048 -0.14860
-0.16122 0.04845 0.01762
-0.14935 0.20459 -0.09561
0.11626 -0.12584 0.11804
-0.11592 -0.42679 -0.14526
0.09982 -0.06124 0.00369
-0.17978 0.42060 0.06113
0.05969 -0.12549 -0.05748
-0.17978 0.38393 0.08673
0.11626 -0.23737 0.11306
0.16239 -0.25203 0.08874
-0.12712 -0.04136 -0.10466
0.17072 -0.12549 -0.08024
0.13416 -0.12549 -0.00043
-0.04614 -0.12549 -0.07811
-0.17978 0.02589 -0.07717
0.18353 -0.10434 0.11113
-0.12712 0.34008 -0.05136
0.09936 -0.42679 0.11220
-0.17034 0.42546 -0.02848
-0.17978 -0.02657 -0.04742
-0.12353 -0.42679 0.14561
0.17170 -0.06958 0.11605
-0.15156 -0.37876 -0.11651
0.07803 -0.06124 0.01298
0.15507 -0.27599 0.08874
-0.15603 -0.12549 -0.01256
-0.17200 -0.01662 0.14012
0.08230 -0.12549 0.17102
-0.16596 -0.41020 -0.12011
-0.16382 0.20683 0.05973
-0.18203 -0.09082 -0.00554
-0.17978 0.36704 -0.10699
-0.12712 0.32161 0.01446
-0.17171 -0.42679 -0.16875
-0.02845 -0.11360 -0.18484
0.16311 -0.15501 -0.10767
-0.15722 0.01860 -0.01652
-0.17978 0.36991 0.14526
-0.16958 0.12661 -0.01652
-0.09412 -0.41617 0.12071
-0.12712 0.40018 -0.13011
-0.03665 -0.10264 -0.18484
0.03429 -0.09242 -0.18484
-0.18196 -0.08283 0.05113
-0.15116 -0.42679 0.10941
-0.09634 -0.41213 0.12798
0.18353 -0.12511 0.05851
-0.15611 -0.00483 -0.06203
-0.17645 0.42259 -0.05144
-0.12541 -0.12549 0.06593
-0.13893 -0.12549 0.07499
0.10189 -0.41540 0.11418
0.06240 -0.12021 0.18484
-0.13466 0.11055 0.09631
-0.13620 -0.39390 -0.15126
-0.17713 0.17482 -0.01652
0.04659 -0.12549 0.13285
-0.13725 0.05751 0.14012
-0.12712 0.41226 0.08056
-0.17978 -0.09171 0.12104
-0.17978 0.23851 0.18476
-0.17978 0.39711 -0.05339
-0.12712 0.12077 -0.00304
-0.12712 0.15396 0.08205
-0.15419 0.24859 0.14012
-0.02644 -0.12549 0.07749
-0.12712 0.30894 -0.09533
-0.12236 -0.15815 0.08633
-0.13547 0.41292 0.09700
0.11748 -0.34355 -0.10767
0.13905 -0.25973 0.13035
-0.16613 0.13213 0.18484
-0.14688 0.02723 0.09631
-0.14891 0.25045 -0.06203
-0.04433 -0.12549 -0.11264
0.06651 -0.12549 -0.12242
-0.17978 0.05703 -0.07888
0.10417 -0.12549 -0.09382
-0.17978 0.33086 0.13665
-0.12712 0.30998 -0.16317
-0.17687 -0.00246 0.01762
-0.14975 0.29965 0.05973
-0.12712 0.06279 -0.17153
-0.17978 -0.12148 -0.00792
-0.15498 0.29995 0.05973
-0.15156 -0.19256 -0.11454
-0.16041 0.01635 0.09631
-0.12712 0.20775 -0.17394
-0.15464 -0.23874 0.09264
-0.12935 0.22573 0.01762
-0.11166 -0.12549 -0.10545
-0.16946 -0.01877 -0.12382
0.12020 -0.09663 -0.18484
0.17186 -0.40480 0.09379
0.14435 -0.25586 0.08874
-0.09245 -0.12549 -0.01100
-0.02002 -0.12549 0.03224
-0.12541 -0.12549 -0.02230
-0.15601 0.41920 0.07099
-0.15381 -0.20585 0.12789
-0.18353 -0.07676 0.01191
-0.17978 0.32058 0.12560
-0.12712 -0.01321 0.08176
-0.14313 0.37592 0.18054
0.01590 -0.12549 -0.04767
0.18253 -0.42490 -0.16695
-0.05630 -0.12549 -0.16502
-0.15323 -0.18251 0.09674
0.04078 -0.12549 -0.00084
-0.18077 -0.09043 -0.06293
-0.12712 0.38931 0.08501
-0.12194 -0.12549 -0.03665
0.13368 -0.12549 -0.13167
0.17711 -0.06976 -0.04036
0.15983 -0.09415 -0.18484
-0.04888 -0.12549 0.16280
0.17396 -0.42679 0.12493
-0.17978 0.34692 -0.03334
0.12685 -0.06124 0.02923
0.10988 -0.06124 -0.08484
-0.14917 0.30589 0.01762
-0.12712 -0.02872 0.12276
-0.16729 0.00990 -0.14453
-0.14537 0.01840 -0.14453
-0.13357 0.05964 0.05973
-0.12712 0.12670 0.08949
-0.12803 0.23449 0.18484
-0.13803 0.32025 -0.09859
-0.08654 -0.12002 0.18484
-0.16839 0.06172 -0.09561
0.00469 -0.12549 -0.16510
-0.16023 0.30233 0.05973
-0.17978 0.32859 -0.04339
-0.11163 -0.34563 -0.12729
0.16594 -0.42679 0.14617
-0.17978 -0.09974 -0.09505
-0.17978 -0.06048 -0.16813
-0.17978 -0.05666 0.03585
-0.17978 0.04450 0.08926
-0.06446 -0.12549 0.13913
-0.17978 0.03250 -0.07370
0.12377 -0.15773 0.13035
-0.14764 0.02254 -0.01652
-0.15655 -0.34153 0.08502
0.11626 -0.30090 0.09696
0.03743 -0.12549 0.07339
-0.17978 -0.12154 -0.05363
-0.17866 -0.12549 -0.03799
-0.12712 -0.04788 -0.12952
-0.15038 0.02420 -0.14453
-0.16616 0.32025 -0.03419
-0.15695 -0.33103 0.09766
-0.17978 -0.07903 -0.04835
0.18353 -0.09347 0.10332
-0.12657 -0.06976 -0.00285
-0.11163 -0.34131 -0.13027
0.16312 -0.18378 -0.12531
0.18353 -0.07490 -0.17452
-0.11641 -0.18340 0.13409
-0.15004 -0.00895 0.18484
0.18353 -0.12437 -0.14323
-0.17978 -0.05257 0.07416
-0.04439 -0.10571 -0.18484
-0.17978 -0.11747 -0.06936
0.10893 -0.42501 -0.16808
-0.17773 0.29013 0.01762
0.12602 -0.20661 0.08874
-0.17863 0.29954 -0.09561
-0.14359 -0.01031 -0.09561
-0.16865 0.32025 -0.11138
-0.17978 0.20465 0.15390
-0.15561 0.38136 -0.17092
-0.18353 -0.08276 0.00001
0.14394 -0.32386 -0.14860
-0.12712 0.15840 -0.00373
-0.05074 -0.06124 -0.04694
-0.14560 0.10750 0.14012
-0.17978 0.19648 0.00793
-0.14817 0.21856 -0.09561
-0.10718 -0.29336 0.10216
-0.17978 0.36315 -0.02002
-0.13558 0.12634 -0.01652
0.18121 -0.12549 0.02751
-0.12712 0.10112 0.15324
-0.13328 0.07547 -0.18484
-0.15260 0.25338 -0.09561
-0.08686 -0.06124 0.01463
0.09482 -0.12549 -0.01662
-0.11663 -0.06976 0.11768
0.17164 -0.42679 0.14741
-0.15665 -0.31904 0.08538
-0.13293 -0.30735 -0.11060
0.11626 -0.19940 0.11035
-0.11163 -0.16973 -0.12317
-0.16991 0.21732 -0.06203
0.13557 -0.13992 0.13035
0.07735 -0.12549 -0.15771
-0.13922 0.42507 0.03389
0.18353 -0.07773 -0.07667
-0.17978 -0.06194 0.13569
-0.14416 -0.18287 0.08616
0.16312 -0.29504 -0.12852
-0.15907 0.04329 0.18484
-0.15862 -0.06731 0.18484
0.14634 -0.42679 0.07211
-0.17023 0.27089 0.01762
-0.12712 0.27591 -0.14718
-0.17978 0.34955 0.01955
-0.12811 0.42661 -0.00373
-0.17446 0.27201 0.18484
-0.17978 0.32780 0.09763
-0.01980 -0.06124 0.03930
-0.13789 -0.17072 0.13406
0.12207 -0.19592 0.13035
-0.17978 -0.05989 0.15660
0.12851 -0.19071 0.13035
-0.15506 -0.25540 0.13215
0.07646 -0.06124 -0.08143
-0.06235 -0.06124 -0.15770
-0.12712 0.41814 0.02593
-0.12712 0.13314 -0.01624
0.09723 -0.42417 0.13389
0.11626 -0.32494 0.11309
-0.17978 0.23625 -0.15256
-0.03565 -0.06124 0.09767
0.15408 -0.41634 0.07387
-0.14951 0.19592 0.14012
-0.15361 0.21949 0.09631
-0.12712 0.11432 -0.07696
-0.12789 0.18353 0.01762
-0.03020 -0.06124 -0.10395
-0.10791 -0.12549 -0.13445
0.14705 -0.42679 0.12788
0.03810 -0.12549 0.00752
-0.17978 0.35067 -0.17572
-0.15959 0.28016 -0.18484
0.10105 -0.10275 -0.18484
-0.14918 -0.26286 0.08558
0.14590 -0.22101 -0.14860
0.13662 -0.06948 0.16742
-0.07218 -0.12549 0.01346
-0.09150 -0.06124 0.12046
0.12465 -0.12549 0.07322
-0.17978 -0.05095 0.11410
0.14372 -0.42679 -0.11038
0.18209 -0.42407 0.09443
0.16606 -0.06398 0.11153
-0.11163 -0.35767 -0.13296
-0.15238 0.11293 0.05973
-0.17978 -0.08679 -0.08160
-0.12712 0.04633 -0.18420
-0.17978 -0.11719 0.09362
-0.12712 0.34302 0.15474
0.02036 -0.07331 0.18484
-0.12712 0.05197 0.09630
-0.06568 -0.06652 0.16460
-0.12712 -0.04640 0.11784
-0.12712 0.31172 0.17034
-0.17978 0.28565 0.06483
0.15636 -0.25701 0.08874
-0.12712 0.18776 -0.17328
-0.14945 0.00008 -0.01652
-0.12712 0.24634 0.18315
-0.17978 0.39832 -0.00935
-0.14247 0.23033 -0.06203
-0.11096 -0.14236 0.10594
0.08893 -0.09987 0.18484
-0.17978 -0.04970 -0.18449
-0.17536 -0.08240 -0.18484
-0.12712 0.23504 -0.08512
0.16312 -0.23624 0.10143
-0.13154 0.24022 0.09631
-0.15917 0.07978 -0.14453
-0.14608 0.36765 -0.18484
-0.12712 0.13350 -0.06486
0.10927 -0.06124 0.04770
0.08027 -0.12549 0.06476
-0.16199 0.12534 -0.01652
-0.14241 0.22565 0.01762
0.15575 -0.06124 0.02409
0.18353 -0.09537 0.17406
-0.14793 0.02827 -0.09561
-0.13544 -0.12549 -0.08375
-0.10265 -0.42679 0.10433
0.02029 -0.12549 -0.02289
-0.17978 0.04916 -0.17685
-0.12712 0.30376 -0.17133
-0.16271 0.27216 0.09631
-0.13514 -0.41438 0.07515
-0.17978 -0.07807 -0.14777
0.11626 -0.13985 -0.14558
-0.11974 -0.13919 0.13401
-0.17978 0.36470 0.12734
0.15472 -0.06124 0.10224
0.14909 -0.42679 -0.16823
0.16312 -0.23111 -0.14148
0.18353 -0.11254 0.12367
-0.13716 0.30890 -0.06203
0.03489 -0.12549 0.11153
0.13276 -0.17068 -0.14860
-0.11254 -0.26286 -0.14567
-0.02121 -0.12549 0.08625
-0.17978 0.32496 -0.00447
0.01059 -0.12549 0.13440
-0.14452 0.28289 0.14012
-0.15532 -0.01877 -0.02096
0.16312 -0.12897 0.11039
-0.15886 0.03237 0.05973
-0.12712 0.34059 -0.07772
-0.17978 0.32492 0.08594
-0.10880 -0.22854 0.10006
-0.10955 -0.19877 0.09122
-0.12712 0.30597 -0.07905
0.15976 -0.30607 0.13035
-0.01418 -0.12549 0.08469
-0.12712 0.18674 0.08636
0.18353 -0.07552 -0.09868
-0.12859 -0.12549 -0.01518
0.12511 -0.25551 0.13035
0.01585 -0.06124 -0.01950
-0.17791 0.10804 -0.06203
0.07706 -0.12549 -0.12802
-0.12712 0.24183 0.00719
-0.15338 -0.12549 0.16720
0.12643 -0.29073 0.08874
-0.08481 -0.12549 0.15008
0.18353 -0.12144 0.06249
-0.10976 -0.42679 0.13915
-0.07466 -0.06124 0.05505
-0.17978 0.26130 -0.16160
-0.13507 0.27219 0.05973
0.11626 -0.19985 -0.13403
0.11626 -0.14907 -0.14420
-0.12322 -0.35184 0.13439
-0.12712 0.00798 -0.08054
0.16312 -0.29519 -0.11907
-0.09546 -0.41347 -0.11271
-0.12712 -0.05317 -0.01191
-0.10589 -0.34471 0.09611
-0.14840 0.20111 0.05973
-0.17978 0.10291 -0.00779
-0.15091 0.42113 0.06175
-0.13841 0.22722 0.05973
-0.12712 0.33442 -0.15221
-0.17978 0.20497 0.01270
-0.16260 0.10988 0.14012
-0.13515 0.15909 0.18484
0.10756 -0.12549 0.07686
-0.16600 0.03543 -0.14453
-0.17978 0.39708 0.02347
0.02130 -0.06124 -0.10493
-0.05101 -0.06124 0.07539
-0.17978 0.03410 0.08687
0.07242 -0.06124 -0.00875
0.18353 -0.09548 -0.00029
-0.01265 -0.06976 0.17976
-0.13761 0.16318 0.01762
0.13602 -0.34651 -0.10767
0.06443 -0.12549 0.17742
-0.11278 -0.20033 -0.14567
-0.14769 -0.07580 -0.18484
-0.15156 -0.31750 -0.13969
0.18353 -0.11506 -0.02412
-0.12870 0.32025 -0.13781
-0.17978 0.29151 0.00339
0.17305 -0.06976 0.09562
-0.12712 0.33190 0.03670
-0.17978 0.15633 0.15901
-0.08840 -0.06124 -0.08448
0.11626 -0.31498 -0.12818
0.12587 -0.12549 -0.06463
-0.17978 -0.05941 0.05909
-0.14056 0.08724 -0.09561
0.12553 -0.28334 -0.14860
0.11525 -0.12549 -0.09954
0.15883 -0.40451 0.13894
0.14344 -0.20573 -0.14860
-0.15729 0.22557 0.18484
-0.11163 -0.28649 -0.13919
0.03891 -0.12549 -0.16319
-0.15661 0.18956 -0.06203
-0.12712 -0.06924 -0.04516
-0.12007 -0.37203 0.08480
0.16312 -0.17359 -0.11062
0.15403 -0.06124 -0.04467
-0.01408 -0.12549 -0.11551
-0.14290 0.39675 0.14033
-0.17135 0.03125 -0.18484
0.10116 -0.41677 -0.11451
-0.10585 -0.39424 -0.12201
-0.15997 0.09525 0.01762
0.06061 -0.12549 0.08064
-0.17978 0.31392 -0.07897
-0.17497 -0.09155 -0.18484
-0.17267 -0.12549 0.10237
0.16254 -0.10649 0.18484
-0.13602 0.30479 0.14012
0.03466 -0.06124 -0.13944
0.16346 -0.42679 0.11209
-0.13528 -0.42679 0.09197
-0.12712 0.03600 0.15401
-0.12712 0.07742 0.08740
-0.04998 -0.12549 0.12248
-0.12712 0.20657 -0.15671
-0.12712 0.28255 0.17983
-0.12712 -0.01472 -0.01464
-0.17978 0.12439 0.18477
-0.17978 0.12967 0.09453
-0.13657 0.20066 0.09631
-0.15193 -0.19061 0.08610
-0.17978 0.14724 -0.15987
-0.07128 -0.06124 -0.00434
-0.11114 -0.42679 0.12733
-0.02780 -0.06124 -0.12875
-0.12836 -0.14732 0.08641
-0.10855 -0.06976 0.17357
0.11779 -0.30581 0.08874
-0.07354 -0.06124 -0.06565
-0.16279 -0.12549 0.03499
0.11626 -0.14939 0.10871
-0.15446 0.27496 0.18484
0.17636 -0.12549 -0.09037
-0.11163 -0.30164 -0.13315
0.07270 -0.06124 -0.10485
-0.17588 0.00260 0.18484
0.02853 -0.12549 -0.08795
0.12115 -0.06124 0.00630
-0.16185 0.31384 -0.09561
-0.17978 0.12967 0.07758
-0.16818 0.02524 -0.01652
-0.17978 0.01851 -0.16831
0.16312 -0.20627 -0.13819
-0.15156 -0.19897 -0.13000
0.15621 -0.16456 0.08874
-0.05037 -0.06124 -0.07233
0.06025 -0.09709 -0.18484
0.02824 -0.06976 0.17249
-0.14082 0.14895 -0.01652
0.04874 -0.12549 -0.15624
-0.01190 -0.06124 0.05984
-0.15516 0.11153 -0.14453
-0.12712 0.19255 0.06239
0.15824 -0.42474 0.14968
0.05250 -0.06124 -0.10623
-0.09277 -0.06976 -0.17351
-0.17978 0.38751 -0.05280
-0.17951 0.18213 -0.18484
0.18182 -0.42356 0.13724
-0.17978 0.06032 -0.01220
-0.16988 0.41449 -0.09079
-0.17124 0.17584 -0.01652
-0.13981 -0.37683 0.08477
0.16312 -0.18562 -0.13320
-0.12712 0.15268 0.18450
-0.03484 -0.12549 0.13299
-0.16486 0.23857 0.18484
-0.13764 -0.17658 0.13407
-0.17154 -0.12549 -0.13435
-0.05218 -0.06124 0.09191
-0.17978 0.16246 -0.16024
-0.17213 -0.00160 -0.06203
0.01814 -0.12549 -0.00207
-0.16715 -0.07528 0.18484
-0.14066 0.11253 0.18484
-0.17978 0.08798 0.01064
-0.18062 -0.06774 -0.02579
0.14596 -0.12549 -0.17296
-0.13779 0.09674 0.05973
0.00435 -0.06124 0.09630
-0.08268 -0.06124 -0.14793
-0.09778 -0.41820 -0.09188
0.06069 -0.12549 -0.07403
-0.14145 0.40995 0.10575
-0.14872 -0.22977 0.08582
-0.18353 -0.07709 -0.05115
0.14893 -0.08091 -0.18484
-0.17978 0.36606 0.09523
-0.17978 0.15482 -0.06257
0.11626 -0.32472 0.12266
-0.12712 -0.05154 -0.10676
-0.17959 0.16193 -0.06203
-0.17311 0.29426 0.14012
-0.04178 -0.06919 -0.17130
-0.14316 0.14277 -0.14453
-0.13253 0.11685 0.09631
0.11626 -0.21917 0.12120
-0.12712 -0.02241 -0.07163
-0.17978 -0.02258 0.06972
-0.11368 -0.38585 0.13445
-0.16941 0.00293 -0.06203
-0.12712 0.36690 -0.07016
0.09546 -0.08748 -0.18484
-0.17978 0.24809 0.00594
-0.11792 -0.06976 -0.07322
-0.17978 0.08199 -0.17025
0.16271 -0.06124 -0.00564
-0.15156 -0.32665 -0.13835
-0.14099 -0.12549 0.09894
-0.17626 0.16042 -0.01652
-0.00970 -0.12549 -0.15262
0.14192 -0.27437 -0.14860
0.10185 -0.06124 -0.04205
-0.13264 0.14801 -0.01652
-0.10803 -0.42679 0.11746
-0.16779 0.19105 -0.06203
-0.04633 -0.06124 -0.10036
-0.12712 0.37613 -0.02048
0.18320 -0.08312 0.18484
-0.16975 0.00017 0.05973
0.18353 -0.07875 -0.12431
-0.12712 0.28866 0.16442
-0.12712 0.39167 -0.00727
-0.14401 -0.14841 -0.11060
-0.13161 -0.17342 -0.11060
0.11467 -0.06124 -0.15840
0.15388 -0.42679 -0.14057
-0.14599 0.01153 -0.18484
-0.17978 -0.11009 -0.01146
-0.02834 -0.08382 0.18484
-0.15367 -0.20019 0.09876
0.17484 -0.11643 -0.18484
-0.12712 -0.05837 0.07959
-0.12558 -0.40349 -0.15644
-0.13247 -0.24467 0.08572
-0.17978 -0.04989 0.09703
-0.12712 0.40222 -0.07158
-0.09565 -0.12549 0.14823
0.11626 -0.21992 0.12692
-0.12712 -0.01298 0.09577
-0.17978 0.15740 -0.17839
-0.05156 -0.06124 0.15113
0.01040 -0.06124 -0.12164
-0.17978 0.19313 -0.08440
-0.15213 0.20932 0.14012
-0.15399 0.05503 0.09631
-0.14477 0.13272 0.14012
-0.12280 -0.12549 -0.01785
0.16312 -0.19757 -0.12038
0.15974 -0.12746 0.13035
0.03984 -0.06448 0.16265
-0.15213 0.21152 -0.09561
0.12671 -0.06124 0.13293
-0.17740 0.25705 0.09631
-0.12712 0.01549 -0.00308
0.00029 -0.06124 -0.11234
-0.16059 0.04295 -0.06203
-0.18067 -0.05409 0.06531
-0.12712 -0.02252 0.09285
-0.17248 0.31461 0.05973
-0.17978 0.17353 -0.14624
0.16287 -0.37018 -0.10767
-0.12712 -0.03793 0.14001
-0.15789 0.27137 -0.14453
-0.15539 -0.26889 0.13289
-0.12712 0.36063 0.11618
-0.01817 -0.12549 -0.02791
0.11626 -0.22651 0.10265
-0.13868 0.04510 -0.14453
-0.12712 0.21904 0.01622
-0.16560 0.04041 -0.01652
-0.08141 -0.12549 0.02196
0.15875 -0.18710 0.08874
-0.16881 -0.12549 0.16250
-0.13080 0.42441 0.03849
-0.09169 -0.42679 -0.16888
-0.17978 0.05524 0.07683
-0.12712 0.35403 -0.14704
-0.12712 0.06639 -0.07278
-0.14295 -0.24787 -0.14567
-0.14070 -0.30056 -0.11060
0.13612 -0.06124 0.14120
-0.17376 0.13438 0.09631
0.17415 -0.12549 -0.03886
-0.12712 0.00273 0.00495
-0.12712 0.04304 -0.09232
-0.17978 0.22596 0.17036
-0.14828 -0.12549 -0.01856
-0.14087 0.21502 -0.06203
0.13077 -0.38198 -0.10767
0.03879 -0.06976 -0.17457
0.07732 -0.09891 0.18484
0.03019 -0.06124 0.06936
0.12463 -0.06124 0.13955
-0.12666 -0.29747 -0.11060
-0.12712 0.05849 -0.15926
-0.13454 -0.00063 -0.14453
0.16312 -0.27577 0.10944
0.04039 -0.06124 0.11016
-0.17082 0.31776 0.01762
-0.15949 0.26906 0.01762
-0.09684 -0.06124 0.06521
-0.10101 -0.42679 -0.10365
0.16831 -0.39812 0.10642
0.16312 -0.16438 -0.13855
-0.12712 0.17932 -0.00213
-0.15560 -0.27704 0.09096
-0.16095 0.21344 -0.18484
-0.13978 -0.19707 -0.14567
-0.12712 0.17747 0.14818
-0.12712 0.16453 -0.17935
-0.10609 -0.33650 0.10968
-0.17806 -0.12549 0.15110
0.14300 -0.30501 -0.10767
0.00224 -0.12549 0.10716
-0.12712 0.09722 0.15999
0.03656 -0.06124 -0.12056
-0.17539 0.42218 0.05432
-0.12712 0.36952 -0.12500
-0.02508 -0.12549 -0.11875
0.11053 -0.06124 0.04183
-0.11994 -0.22384 -0.14567
-0.14073 -0.01705 -0.09561
-0.12794 -0.00901 -0.09561
-0.14429 0.10996 -0.06203
-0.17978 0.07351 0.09076
-0.17978 0.31904 -0.00067
-0.09985 -0.06976 -0.18010
-0.17978 0.03723 -0.01231
-0.12524 -0.22184 0.13415
-0.12712 0.29716 0.15616
-0.17978 0.22503 -0.14542
-0.12712 0.35473 -0.04597
0.11313 -0.06124 0.07589
-0.12842 0.40375 -0.12400
-0.16684 0.00459 0.18484
0.17840 -0.12549 -0.06701
-0.15156 -0.16304 -0.13009
-0.16048 0.32025 0.12736
-0.12712 0.01171 0.15402
-0.16819 -0.41434 -0.15684
0.04802 -0.12549 -0.05109
0.12172 -0.26745 0.13035
-0.05677 -0.06124 -0.11794
0.00005 -0.06124 0.00738
0.06223 -0.07924 -0.18484
0.14249 -0.37040 0.08874
-0.14757 0.10517 -0.06203
-0.13524 0.04784 -0.18484
-0.13808 -0.01179 -0.18484
-0.13791 0.23144 0.01762
-0.11430 -0.12549 0.06422
0.04639 -0.12549 -0.06227
-0.15645 -0.31114 0.12758
-0.16227 0.27654 -0.09561
-0.12712 0.07735 -0.01606
0.11626 -0.18004 -0.10886
-0.16127 0.15260 0.18484
-0.14774 0.20079 0.01762
0.18353 -0.09927 -0.01372
-0.14976 -0.42092 0.07155
0.10992 -0.12549 0.04212
0.18149 -0.06976 0.16546
-0.10432 -0.39707 -0.11097
0.12108 -0.21104 -0.14860
-0.13326 0.12294 0.05973
-0.17978 0.41751 -0.00267
-0.06118 -0.06124 0.02754
-0.12712 0.38287 -0.12863
-0.01055 -0.06124 -0.12826
-0.17978 -0.05100 -0.04411
-0.01404 -0.12255 -0.18484
-0.00171 -0.12549 -0.01931
-0.15622 -0.35585 0.13439
-0.12765 -0.42679 0.09529
0.06804 -0.12549 -0.08250
-0.16121 -0.01877 -0.03002
0.16312 -0.32487 -0.14648
-0.16624 0.10662 -0.18484
-0.17978 0.17027 0.15493
-0.15942 -0.39809 -0.11139
-0.17978 -0.10161 0.05839
-0.17978 -0.06377 -0.17496
0.13624 -0.32986 0.13035
0.18353 -0.08901 -0.07295
-0.12760 -0.35398 -0.14567
-0.12712 0.39243 0.04802
-0.17978 -0.01161 -0.00436
0.12294 -0.33185 0.08874
0.14505 -0.12549 -0.06710
0.10881 -0.06124 -0.10958
-0.17978 0.32453 -0.13543
-0.14980 0.42662 0.00358
0.14070 -0.26151 -0.10767
0.14101 -0.20351 0.08874
-0.17978 0.19853 -0.01497
0.12594 -0.06124 0.01234
-0.17137 0.31764 -0.14453
-0.13928 -0.06541 -0.18484
0.18353 -0.08535 -0.05411
-0.16395 0.03325 0.18484
-0.15530 0.26061 -0.14453
-0.05317 -0.06124 0.11551
0.13326 -0.34807 -0.14860
-0.05179 -0.12549 -0.17398
-0.15764 -0.35842 0.10916
-0.02896 -0.12549 0.00847
0.14147 -0.06124 0.10524
-0.13722 -0.42190 -0.16638
-0.17978 -0.02795 -0.13439
0.11626 -0.15897 -0.14143
0.11626 -0.23898 0.10707
-0.12712 0.21824 -0.16029
-0.12712 -0.04233 -0.04713
0.16312 -0.18198 0.09291
-0.17978 0.00131 -0.00362
-0.17978 0.13219 -0.08778
-0.16244 0.14332 -0.18484
-0.08544 -0.09409 0.18484
-0.15557 -0.39097 -0.11788
-0.16877 0.16766 -0.09561
0.11257 -0.06124 -0.13762
0.14071 -0.12549 -0.00361
-0.15443 -0.06664 -0.18484
-0.17978 0.02786 0.00713
0.10579 -0.40806 0.13980
-0.17978 0.39315 0.01923
-0.01286 -0.12549 -0.16417
-0.03573 -0.06124 0.03429
-0.06865 -0.12549 0.02225
-0.12712 0.38442 0.05876
-0.14156 -0.12549 0.04552
-0.12985 -0.12549 -0.10418
0.04999 -0.12549 -0.12155
-0.17171 0.08923 -0.18484
-0.12712 0.37266 -0.16137
-0.17978 0.37976 -0.03167
-0.12712 0.20290 0.08169
-0.15156 -0.35178 -0.14234
-0.01964 -0.12549 0.16303
-0.17978 -0.07436 -0.09478
0.13256 -0.41389 -0.16217
-0.17978 0.06642 -0.08545
-0.12712 0.29447 0.01089
-0.17978 0.33911 0.11559
-0.16842 -0.00292 -0.01652
-0.17978 0.20046 -0.15355
-0.10106 -0.11306 -0.18484
-0.04467 -0.06124 0.03306
-0.12712 0.00130 0.07217
-0.00308 -0.06124 -0.02005
-0.15829 -0.12549 -0.05854
0.01122 -0.06976 0.17145
0.06703 -0.12549 0.14092
-0.12712 -0.05272 0.13502
-0.17978 -0.07094 0.14323
-0.15047 0.36089 -0.18484
0.11626 -0.27388 -0.11363
0.16007 -0.12549 -0.02293
-0.02786 -0.06124 0.04456
-0.17525 0.39559 -0.14291
-0.17978 0.11576 -0.17043
0.11289 -0.39467 -0.11717
-0.13195 0.05728 0.09631
-0.15502 0.12327 0.05973
-0.17978 0.27251 0.17060
-0.17978 0.01683 -0.07809
-0.11947 -0.16762 -0.11060
-0.12712 -0.04695 -0.12323
-0.17978 0.14041 0.17629
0.14871 -0.27616 0.13035
0.17753 -0.42679 0.10935
-0.16786 0.07098 0.14012
-0.01399 -0.12549 -0.01349
-0.11621 -0.12097 0.18484
-0.15754 0.17014 0.01762
-0.17978 0.17869 -0.01433
-0.17978 0.18875 -0.18036
-0.13173 -0.01877 0.10876
0.16627 -0.40451 0.13894
-0.14129 -0.12863 0.08655
0.05462 -0.12549 -0.09784
-0.10643 -0.32319 0.10308
-0.04215 -0.12549 0.14199
-0.11163 -0.13732 -0.13715
-0.17978 0.41197 0.06796
-0.11485 -0.10251 0.18484
-0.15181 0.06195 0.18484
-0.12712 0.24535 -0.15749
0.16312 -0.34701 0.12394
-0.14463 0.41709 0.07985
-0.11398 -0.12549 -0.02898
0.09837 -0.42679 -0.14508
0.15802 -0.06124 -0.02700
0.18353 -0.12030 -0.12054
-0.15514 0.16855 -0.18484
-0.10235 -0.40071 -0.12803
0.12899 -0.14969 0.08874
-0.17978 0.20205 0.18042
0.18353 -0.08976 0.14423
-0.10494 -0.38249 0.08546
-0.17497 -0.12549 0.08581
0.16312 -0.27779 -0.12327
-0.15332 -0.18636 0.10050
-0.11797 -0.16613 -0.14567
-0.17827 0.05178 0.14012
-0.15182 -0.12622 0.12676
0.12048 -0.37729 0.13035
-0.12712 0.37507 0.07555
-0.12415 -0.06976 0.06820
-0.18353 -0.08713 0.01147
-0.17978 0.36279 -0.15940
-0.16466 0.12736 -0.14453
-0.12712 0.40835 -0.09391
-0.16690 0.00037 0.09631
-0.17978 -0.12453 0.18311
0.13147 -0.31111 -0.10767
-0.11023 -0.12549 -0.11954
0.15888 -0.20432 -0.10767
-0.17978 -0.11700 -0.00557
-0.05528 -0.07511 -0.18484
-0.08704 -0.07612 -0.18484
0.18353 -0.09606 0.14364
-0.12712 0.10631 -0.07413
-0.12853 -0.16028 -0.14567
-0.12712 0.22192 -0.07617
0.15995 -0.39166 0.08698
0.04846 -0.06976 -0.18468
-0.02453 -0.06124 -0.01119
-0.17942 0.16595 -0.01652
-0.13139 0.42305 -0.04812
-0.14268 -0.18770 -0.14567
-0.07228 -0.06124 0.00282
0.08911 -0.06124 -0.06211
-0.17978 -0.05967 -0.14336
-0.13133 0.28184 -0.14453
-0.11780 -0.11201 -0.18484
0.13698 -0.25217 0.13035
-0.17978 0.33362 -0.08758
0.13901 -0.06124 -0.02881
-0.06101 -0.12549 0.03818
0.17964 -0.41946 -0.14313
0.14495 -0.19831 0.13035
-0.16935 0.03763 -0.18484
0.16247 -0.12549 -0.13184
-0.10060 -0.12549 -0.10217
-0.17978 -0.08684 0.14138
0.16927 -0.42679 0.08202
-0.17978 0.27299 0.06940
-0.11077 -0.12549 -0.07468
-0.17978 0.21225 0.00210
-0.12712 0.34451 0.13718
-0.16503 0.19548 0.05973
0.11626 -0.20598 0.09985
0.14234 -0.18306 -0.14860
-0.17978 -0.08707 -0.12039
-0.17293 -0.42679 -0.11190
-0.17978 0.21674 -0.00972
-0.14645 0.07376 0.14012
-0.04465 -0.06178 -0.16221
0.14614 -0.14014 0.13035
-0.14613 0.25410 -0.09561
0.11626 -0.23608 -0.11542
0.11391 -0.12549 -0.10444
-0.08855 -0.42679 0.12601
-0.17978 0.32749 -0.06892
-0.12712 0.19242 -0.01493
-0.13303 -0.01225 -0.06203
0.02808 -0.12549 -0.05392
0.12785 -0.06124 0.02196
-0.13039 0.02382 -0.06203
-0.17978 0.26940 0.00223
-0.12712 0.00572 -0.16523
0.13457 -0.12549 -0.14070
-0.17576 0.06261 -0.18484
-0.16806 0.09822 0.01762
-0.05249 -0.12549 0.14553
-0.12095 -0.06976 0.17221
-0.01896 -0.07703 0.18484
-0.17978 0.25709 0.07579
-0.13097 -0.42063 -0.09057
0.12088 -0.23897 0.08874
-0.14556 0.40294 0.12637
-0.09389 -0.41659 0.09548
-0.07558 -0.10432 0.18484
-0.12515 -0.22057 0.08589
-0.12712 -0.01660 -0.09558
-0.05842 -0.11919 -0.18484
-0.15359 0.20733 -0.18484
-0.12792 -0.14575 0.13402
-0.12712 -0.02559 -0.02338
-0.12712 -0.06264 -0.08631
-0.17452 0.38856 -0.15820
-0.15438 -0.12549 0.13508
-0.17978 -0.07280 -0.10704
-0.17978 0.28379 0.01028
0.14907 -0.12549 0.18069
0.07713 -0.06124 -0.11788
0.16911 -0.07668 0.18484
-0.17978 0.35297 -0.03919
-0.11460 -0.36363 0.13441
-0.15397 0.32025 0.05965
-0.17978 -0.10254 -0.14872
-0.16393 0.24762 -0.06203
-0.17133 0.25288 0.09631
-0.08245 -0.12549 -0.10578
0.08602 -0.10348 -0.18484
0.17219 -0.40543 -0.12019
0.15745 -0.06124 -0.11847
-0.10205 -0.06352 0.16174
0.13262 -0.06124 0.02709
-0.14212 -0.28423 0.13427
-0.15997 0.32025 -0.05354
0.11626 -0.19417 -0.13658
-0.10525 -0.37007 0.12915
0.15748 -0.29121 0.13035
-0.13697 0.27695 0.18484
0.17401 -0.09752 0.18484
-0.17978 -0.02699 0.15304
-0.17978 -0.02258 -0.03797
-0.17978 0.32342 -0.18328
0.09226 -0.12549 0.12575
-0.12734 0.00171 -0.18484
0.12044 -0.06124 0.11613
0.11454 -0.39562 0.13422
-0.14153 -0.40566 0.13913
-0.15156 -0.18586 -0.13376
-0.12712 0.18351 -0.06608
0.12493 -0.34857 0.08874
0.06442 -0.12549 0.08924
-0.03124 -0.06708 -0.16872
-0.12712 0.33541 -0.10867
-0.05725 -0.09801 0.18484
-0.16321 0.00087 0.05973
-0.16465 0.04601 -0.14453
-0.15641 0.24019 0.09631
0.06979 -0.08358 0.18484
-0.12712 0.11716 0.16078
0.18353 -0.11494 -0.05358
-0.15121 0.11999 -0.14453
0.15513 -0.06124 0.09521
-0.13050 0.02843 -0.18484
0.08100 -0.12549 0.07296
-0.03148 -0.12549 0.05920
-0.12146 -0.06976 0.05087
-0.13356 -0.03568 -0.18484
-0.06066 -0.12549 -0.00184
-0.15732 -0.01877 -0.02661
-0.13890 -0.12549 0.03619
0.17214 -0.42679 -0.09191
0.02041 -0.09217 0.18484
-0.10921 -0.21226 0.10279
-0.08044 -0.12549 -0.15002
-0.12712 0.31640 -0.15726
0.08082 -0.12549 0.08752
-0.17978 0.21428 0.15528
0.02015 -0.06124 -0.15104
-0.02876 -0.06221 -0.16273
0.06134 -0.12549 0.05743
-0.13135 -0.12549 -0.02480
-0.11164 -0.12549 -0.18034
-0.17470 0.03379 0.05973
0.16312 -0.19636 0.11321
0.16312 -0.34639 0.10722
-0.11338 -0.40501 -0.15726
0.16312 -0.17062 0.10845
-0.17978 0.10802 -0.08334
-0.12712 0.32951 0.08592
0.11626 -0.26004 -0.12490
0.06639 -0.06124 -0.07591
0.12668 -0.06124 -0.03831
-0.15482 0.21103 -0.06203
-0.12712 -0.01957 -0.16113
-0.17035 0.26238 0.14012
-0.15958 0.19629 0.14012
-0.13890 0.25627 -0.14453
-0.17087 0.04610 0.09631
-0.10630 -0.42679 -0.11542
-0.17978 0.06862 0.14598
-0.07589 -0.06124 -0.08266
0.15330 -0.31363 -0.10767
-0.12273 -0.06976 0.16536
-0.17978 0.38955 0.13126
0.14708 -0.06124 -0.09418
0.18353 -0.10216 0.16930
-0.14286 0.30218 0.01762
-0.12902 -0.16768 0.13406
-0.17978 0.02582 0.17871
-0.15346 -0.19165 0.12826
0.12432 -0.22550 -0.10767
0.11626 -0.18098 0.10313
0.09147 -0.06124 -0.07830
-0.17978 0.06520 -0.09181
-0.17978 0.34280 0.02340
-0.04811 -0.06124 -0.13780
-0.16254 -0.12549 -0.09721
0.05616 -0.06124 -0.07446
0.03740 -0.06124 -0.15052
-0.15569 0.23505 -0.06203
-0.17978 0.36432 0.15949
-0.00202 -0.06336 0.16159
-0.03207 -0.12549 -0.09607
-0.14131 0.18106 0.18484
-0.13147 -0.00579 0.09631
-0.10977 -0.37972 0.08475
-0.11099 -0.10469 -0.18484
-0.06581 -0.06124 0.09388
-0.11163 -0.37876 -0.11955
-0.12712 0.02463 0.00366
0.10232 -0.06976 -0.17562
-0.15007 0.22922 0.05973
-0.10995 -0.18275 0.10135
0.14723 -0.11563 -0.18484
0.15751 -0.17364 0.08874
0.16312 -0.24104 -0.13331
-0.14897 0.42023 -0.06669
-0.12410 -0.28351 0.08544
-0.16444 -0.01877 0.11952
0.09193 -0.12549 -0.11812
0.17437 -0.06976 -0.10779
-0.16968 -0.41728 0.09660
-0.13246 0.04554 0.05973
-0.05999 -0.12549 -0.18436
0.13545 -0.14863 -0.14860
-0.12712 0.22224 0.06131
0.11679 -0.12549 -0.18400
0.12300 -0.35826 0.08874
0.16135 -0.38834 -0.11296
-0.14541 -0.20719 -0.11060
-0.17219 -0.42342 0.14892
0.08957 -0.12549 -0.08154
-0.00636 -0.12549 0.11068
-0.17978 0.20896 0.14604
-0.15151 0.08745 -0.01652
-0.11700 -0.06976 0.09073
-0.17978 0.35647 -0.10497
0.11626 -0.19084 0.12420
0.15444 -0.20983 -0.14860
0.11626 -0.30120 0.09161
-0.15863 0.01087 0.09631
-0.13028 -0.01877 0.09801
-0.18353 -0.07162 0.06023
-0.13763 0.13058 0.09631
0.18353 -0.08524 -0.13183
-0.16910 -0.12549 0.11595
0.14066 -0.20104 0.13035
-0.14092 -0.32712 -0.14567
0.16749 -0.40063 0.08221
0.14044 -0.06124 0.07379
-0.05811 -0.12549 -0.13296
0.01191 -0.12549 0.00243
-0.13003 0.28057 -0.01652
-0.10880 -0.06436 0.06221
-0.15117 -0.12549 0.09634
-0.10802 -0.33705 0.13436
-0.17978 0.26626 -0.06471
-0.16752 -0.42053 0.14733
-0.07469 -0.08187 -0.18484
-0.13385 -0.00057 0.01762
-0.15654 0.39309 -0.14850
-0.12757 0.07194 -0.01652
0.01801 -0.06976 0.18039
0.03914 -0.12549 -0.02015
-0.15972 0.26959 -0.18484
-0.13975 0.27274 0.09631
-0.15449 -0.12549 -0.14643
-0.17978 0.36511 -0.02721
0.09674 -0.09352 0.18484
0.16312 -0.25110 -0.10823
-0.15851 -0.01877 -0.03927
-0.12712 0.20669 0.01407
0.03448 -0.06124 0.12126
-0.12712 0.32786 0.12086
-0.12617 -0.10243 0.18484
-0.11082 -0.20298 0.08601
-0.10815 -0.25436 0.11309
0.11815 -0.12549 0.17663
-0.10700 -0.30049 0.11922
-0.12729 -0.19957 -0.11060
0.11626 -0.24676 0.12441
-0.12712 0.13025 -0.15442
0.14195 -0.22623 0.08874
-0.13169 0.10584 0.14012
-0.18261 -0.07238 0.07008
-0.13585 -0.23258 -0.14567
-0.15377 0.06607 -0.14453
0.14729 -0.38834 -0.11644
0.15643 -0.37119 -0.14860
-0.11747 -0.07027 0.18484
0.17123 -0.42679 -0.10563
-0.12712 -0.06371 0.01897
-0.15848 0.16645 0.14012
-0.16085 0.12231 -0.09561
0.08205 -0.12549 0.14494
-0.13114 0.41364 -0.09433
-0.12712 -0.01555 -0.15079
-0.12776 -0.04456 0.18484
-0.17978 -0.03761 0.10172
-0.17070 0.07131 -0.14453
-0.13215 -0.21118 0.13414
0.01363 -0.06124 -0.01152
-0.17014 -0.12549 -0.02582
-0.15772 0.21502 0.18484
-0.12712 0.25560 -0.06969
0.16119 -0.12549 0.00371
0.16312 -0.06124 -0.09334
0.15354 -0.12549 -0.16522
-0.17978 0.34601 -0.15383
-0.15132 0.32025 -0.10047
-0.05801 -0.06124 -0.01111
-0.12712 0.41709 0.01083
0.00291 -0.12549 0.02295
-0.11667 -0.06976 -0.06566
-0.17987 -0.06341 0.02498
-0.09985 -0.41295 -0.16155
0.02960 -0.06124 0.05242
-0.12712 0.24926 0.14946
-0.00635 -0.08722 -0.18484
0.10636 -0.06155 0.15987
0.11626 -0.28841 0.11816
-0.15156 -0.31040 -0.12636
-0.15130 0.19927 -0.06203
-0.10618 -0.38084 0.13444
-0.12712 0.37444 -0.11366
0.00105 -0.06976 -0.17416
0.14031 -0.42053 -0.09057
-0.16537 -0.04469 0.18484
-0.17978 0.27948 0.17702
-0.15047 -0.01407 0.18484
0.13999 -0.42679 -0.16427
0.10269 -0.41390 0.07691
-0.17978 0.10907 0.16689
0.03916 -0.12549 -0.06717
-0.14151 -0.26350 -0.14567
-0.11505 -0.26706 0.08555
-0.13489 -0.01877 -0.05993
-0.12712 0.05282 -0.08379
0.16312 -0.38257 -0.14510
0.17519 -0.41108 -0.13986
0.14006 -0.06124 0.02170
-0.17978 0.28651 -0.09041
0.11626 -0.28254 -0.11149
-0.17978 0.18508 0.08045
-0.17978 0.22258 -0.09378
-0.03602 -0.12549 -0.05240
-0.17872 0.18688 -0.14453
-0.15500 0.14216 0.14012
-0.14049 0.10543 -0.01652
0.06344 -0.06124 -0.12582
-0.17978 -0.04699 0.03920
-0.12712 -0.02347 0.03587
0.08830 -0.07611 -0.18484
-0.15261 0.11357 0.01762
-0.12712 0.10819 -0.00965
-0.12712 0.28961 -0.07733
0.12324 -0.12549 -0.14175
-0.17978 0.13450 -0.07637
-0.17978 0.14725 -0.17244
-0.13709 0.40976 -0.10631
-0.12823 -0.28101 0.13426
0.02936 -0.06124 0.03362
-0.17666 -0.12549 -0.10827
-0.13797 0.10028 0.09631
-0.17978 -0.05501 -0.13604
-0.10287 -0.40027 0.08456
-0.16499 0.30698 -0.01652
-0.16020 0.26415 0.18484
-0.04766 -0.06124 -0.05726
-0.16593 -0.41047 0.12723
-0.15156 -0.25299 -0.12839
0.02531 -0.12549 0.01169
-0.03839 -0.06124 -0.07648
-0.12712 0.37658 0.00102
-0.17978 0.16917 0.17587
0.17157 -0.06976 0.18370
-0.15531 0.05031 0.01762
-0.15323 -0.30384 0.13430
-0.16565 -0.09944 0.18484
-0.17978 -0.09957 0.07527
-0.17978 0.17964 0.01557
-0.13307 0.39047 0.15435
-0.12206 -0.20375 0.08601
-0.13880 -0.01536 -0.06203
-0.16784 0.26072 -0.09561
-0.15045 0.08305 -0.09561
0.10772 -0.11120 -0.18484
-0.14252 0.20844 -0.09561
-0.10887 -0.22601 0.09236
0.18353 -0.11843 0.05064
-0.17042 0.09874 0.05973
-0.17978 0.10585 -0.16066
-0.12712 0.41322 0.06217
0.04625 -0.12549 0.04843
0.02705 -0.12549 -0.12143
-0.14033 0.32025 -0.04010
-0.05920 -0.10540 -0.18484
-0.14727 0.13735 -0.01652
0.16312 -0.30924 -0.11352
-0.17978 -0.12226 -0.01704
0.10205 -0.06124 0.15714
-0.08399 -0.08098 -0.18484
-0.16565 0.27758 0.18484
-0.13277 -0.39022 0.08467
-0.12712 0.25126 0.00540
0.07913 -0.06976 0.17647
0.14244 -0.15915 -0.14860
-0.17978 0.08750 0.18075
-0.17961 0.22647 0.01762
-0.12712 0.00322 0.09624
-0.11016 -0.06575 -0.06443
-0.17978 0.08873 -0.17135
-0.11163 -0.20616 -0.11834
-0.13104 -0.42679 0.12639
0.11658 -0.06234 -0.16290
-0.07762 -0.06124 0.07059
0.17791 -0.12549 -0.01264
-0.16963 0.07933 -0.18484
-0.16643 0.38602 0.16268
0.18353 -0.09848 0.07995
-0.12712 0.31145 0.15042
0.03237 -0.12549 0.12098
0.11170 -0.12549 -0.18232
-0.17978 -0.02789 -0.07224
-0.13046 0.22583 -0.01652
-0.16584 -0.40998 -0.15952
-0.13625 0.01724 -0.14453
-0.12712 0.02064 -0.09112
-0.13771 -0.12549 0.16792
-0.01522 -0.06124 -0.11476
-0.13891 -0.12549 -0.03991
-0.09581 -0.42679 -0.12293
-0.17978 -0.07088 0.17962
-0.11272 -0.37639 -0.14567
-0.10467 -0.39327 0.09700
-0.11163 -0.18558 -0.11196
-0.12712 0.06303 -0.00104
-0.13941 0.30437 -0.14453
-0.04734 -0.06124 0.08734
0.05937 -0.12549 0.16367
-0.01923 -0.12549 0.06250
0.14762 -0.21589 -0.14860
0.01634 -0.06124 -0.12248
-0.18353 -0.05567 0.05856
-0.16596 0.26364 -0.06203
-0.14301 0.35392 -0.18484
-0.14954 -0.01877 0.03968
-0.17978 0.19379 -0.17497
0.15834 -0.12593 0.08874
-0.13906 0.32025 -0.02806
-0.13681 0.15092 0.05973
-0.12712 0.23431 0.17828
-0.12712 0.27031 -0.15677
-0.15028 0.00425 -0.18484
-0.12712 -0.05770 -0.18300
0.14495 -0.13493 0.08874
0.11581 -0.42679 0.06914
0.16312 -0.32408 0.10558
-0.12712 0.27465 -0.17005
0.15660 -0.12549 -0.03757
-0.15135 0.26674 0.18484
-0.11208 -0.06772 0.11996
0.11626 -0.13034 0.11324
-0.18032 -0.06465 -0.06588
-0.12824 0.03473 0.18484
-0.11961 -0.21246 0.13414
-0.02362 -0.12549 -0.00053
-0.13198 0.08877 -0.18484
-0.17978 -0.03886 -0.01755
-0.15651 0.14062 0.09631
-0.12712 -0.06841 -0.08521
-0.06524 -0.12549 0.09614
-0.14426 0.28934 -0.06203
0.13028 -0.06124 -0.08835
-0.12712 -0.03585 -0.01488
-0.15106 0.17882 -0.18484
-0.17450 0.10460 -0.14453
0.15069 -0.30651 -0.14860
0.18353 -0.11715 0.01830
0.11091 -0.39840 -0.13805
-0.14715 0.38035 -0.17270
-0.14578 0.25446 0.18484
0.18353 -0.10361 0.02008
-0.17978 0.40523 -0.01108
-0.13292 0.10009 0.01762
-0.14446 0.21396 -0.18484
0.11626 -0.16778 0.10986
0.14522 -0.06124 0.06369
-0.13581 0.11502 0.18484
0.15622 -0.32204 -0.10767
-0.10702 -0.06254 0.12859
-0.12712 0.32604 -0.16041
-0.16313 -0.06899 -0.18484
-0.11163 -0.27541 -0.13004
-0.17978 0.37619 0.08217
-0.12712 0.10344 0.07709
-0.14157 0.20454 -0.14453
-0.17432 0.02554 -0.18484
-0.13620 -0.12549 -0.06093
-0.12851 -0.24893 0.13420
0.06739 -0.06124 0.03976
-0.17978 -0.04328 0.07251
-0.10464 -0.39461 0.12649
0.14303 -0.26971 0.08874
-0.17978 0.13021 0.16911
-0.13307 -0.11622 0.18484
-0.12712 0.27410 -0.17550
-0.13592 -0.00527 0.14012
-0.12712 0.15231 -0.08404
-0.13143 0.29102 -0.09561
-0.16961 -0.12549 0.12801
0.18353 -0.09570 -0.17147
-0.17978 0.15234 0.06861
0.11626 -0.17159 -0.11827
-0.01840 -0.06825 -0.17014
-0.15525 -0.12549 -0.16157
0.16184 -0.41486 -0.09359
0.18050 -0.12549 -0.17176
0.01545 -0.12549 0.11574
0.03748 -0.10475 -0.18484
-0.15404 -0.00734 -0.09561
-0.14305 0.17732 -0.18484
0.17804 -0.42679 -0.09193
-0.14217 -0.20249 0.13412
-0.15833 -0.38585 0.11846
0.09436 -0.12549 0.17147
-0.13335 -0.42679 -0.13797
-0.12712 0.38616 0.10040
-0.17064 0.12510 -0.18484
0.14647 -0.06124 0.01276
-0.17836 0.08540 0.09631
0.14869 -0.24872 0.13035
-0.14292 0.25957 0.18484
-0.17978 -0.03170 -0.08849
-0.10823 -0.25941 0.08561
-0.16554 0.31829 -0.01652
0.15676 -0.25000 -0.10767
-0.10178 -0.06124 -0.14262
-0.09106 -0.06124 0.10545
-0.06597 -0.06124 0.12876
-0.10477 -0.40576 0.13919
0.12577 -0.41387 0.14391
-0.12712 -0.01079 0.14103
-0.09985 -0.12549 0.10426
-0.08371 -0.06124 0.03403
-0.12712 -0.02292 -0.14178
0.14051 -0.12549 -0.01182
-0.17978 -0.11549 -0.05707
-0.12712 0.12200 0.00419
0.18353 -0.11319 0.14537
-0.09491 -0.12549 -0.09152
-0.01049 -0.12549 0.00552
0.05181 -0.06124 0.03813
-0.13211 0.23951 -0.18484
0.14801 -0.42679 -0.16018
0.08675 -0.12549 0.09862
-0.00522 -0.12549 0.10315
-0.17978 0.26212 0.09373
-0.13185 0.30494 -0.18484
-0.17978 -0.02098 -0.11335
-0.17978 -0.10147 -0.10612
-0.12712 0.23343 -0.01238
0.06194 -0.12549 0.03651
-0.10466 -0.42679 -0.16528
-0.11089 -0.14541 0.12708
0.11626 -0.33411 0.09185
-0.14476 0.13676 -0.14453
-0.17978 -0.04220 -0.10001
0.18353 -0.10861 -0.01189
-0.08931 -0.06124 -0.10111
0.18353 -0.11200 -0.17173
-0.14688 -0.00186 -0.06203
-0.12712 0.18068 0.08652
0.12604 -0.17505 -0.10767
-0.17978 0.18248 -0.08762
-0.12825 0.03674 -0.01652
-0.13826 -0.31239 -0.14567
-0.11163 -0.31700 -0.11142
-0.15762 0.00201 0.14012
0.03480 -0.12549 -0.12527
-0.16887 0.34434 -0.18484
-0.17358 0.36320 -0.18484
-0.17681 -0.01877 0.10032
-0.00940 -0.06124 -0.12022
-0.12712 0.31549 0.16482
0.16522 -0.06315 -0.15918
0.12174 -0.12549 -0.07210
-0.12712 -0.05433 -0.00458
-0.15403 0.21948 -0.01652
-0.12674 -0.06976 0.01858
0.00093 -0.06124 0.01540
0.14157 -0.12549 0.17034
-0.10600 -0.10256 0.18484
-0.15145 -0.15625 -0.11060
-0.13989 0.32025 0.02287
0.14405 -0.12549 -0.01768
-0.17978 -0.02328 -0.08290
-0.12193 -0.06976 -0.03662
-0.17978 0.00909 0.00586
-0.12712 -0.00544 0.06906
-0.12712 0.37321 0.14777
-0.12712 -0.04627 0.05118
-0.17978 0.37800 0.17450
0.08884 -0.12549 0.02810
-0.11102 -0.14030 0.11520
0.11626 -0.13003 0.10440
-0.17978 -0.05242 -0.01195
0.09661 -0.12549 0.14319
0.16152 -0.06124 0.12215
0.15155 -0.23855 0.13035
0.10045 -0.12549 -0.03612
-0.12768 -0.12549 -0.17644
0.14066 -0.42679 0.09341
-0.17978 0.40148 -0.11569
-0.17585 0.27904 -0.09561
-0.17978 0.00619 0.15256
-0.06706 -0.12549 0.15879
-0.07614 -0.06124 -0.07404
-0.17978 0.31759 -0.00614
-0.06075 -0.08538 0.18484
0.13031 -0.06124 0.09991
0.16693 -0.06485 -0.00217
0.01371 -0.06124 -0.11263
-0.15156 -0.14187 -0.14513
-0.12712 0.32008 -0.08641
0.12433 -0.18909 -0.14860
-0.08083 -0.06124 0.05615
-0.05432 -0.12549 -0.11566
0.11626 -0.29579 0.11323
-0.13909 -0.12549 0.14694
-0.16495 0.13404 -0.09561
-0.14752 0.16189 0.18484
-0.17014 0.42668 -0.00228
-0.17978 -0.07831 0.16746
-0.17199 0.29101 -0.14453
0.16312 -0.19606 -0.14256
-0.12712 0.33743 -0.11921
0.14451 -0.19284 0.08874
-0.14008 0.30110 0.05973
-0.17978 0.30877 0.09353
-0.12748 0.32025 0.12117
-0.12712 0.38116 0.12363
0.01962 -0.06124 0.07288
0.08610 -0.08092 0.18484
-0.12712 0.37001 0.03475
-0.15205 0.05410 0.05973
-0.12712 0.34589 -0.01183
0.10471 -0.06124 0.08413
0.18064 -0.06976 0.11409
-0.17978 -0.05245 -0.03839
-0.17978 -0.00046 -0.08167
-0.14064 0.11618 -0.06203
-0.17687 0.10186 0.14012
-0.17508 0.32025 -0.04589
-0.11339 -0.27542 -0.11060
0.15951 -0.12549 -0.01764
-0.16170 -0.42679 -0.09327
-0.12712 0.21008 0.16593
-0.16923 -0.01877 0.05427
0.11550 -0.12549 0.09725
0.13458 -0.12549 0.05241
-0.14541 0.19433 0.01762
-0.12712 0.34182 -0.02069
-0.13693 -0.12549 -0.12926
-0.00472 -0.06124 0.08913
-0.13199 0.01945 0.09631
0.14407 -0.41339 0.14366
-0.16446 0.08819 -0.18484
-0.17978 0.34106 0.00484
-0.05436 -0.06124 0.08656
0.16673 -0.40738 -0.09755
-0.12712 0.39596 0.10488
-0.17436 0.20521 0.01762
0.15524 -0.34993 0.08874
-0.12712 0.13548 0.06212
0.14970 -0.06124 0.14062
-0.17978 0.04224 -0.18100
0.11922 -0.38834 -0.12012
-0.12712 0.00057 0.17799
0.01959 -0.12549 -0.05427
-0.17978 0.33120 -0.16196
-0.17318 -0.42364 0.10511
0.04572 -0.06124 -0.06545
-0.05499 -0.06731 0.16535
0.17889 -0.06976 0.15995
-0.12712 0.22334 0.16998
-0.17978 -0.06943 0.00169
-0.16028 0.02325 0.01762
-0.12712 0.40324 0.08981
-0.12712 0.23006 -0.14868
-0.12712 0.08929 -0.07680
-0.03390 -0.09057 0.18484
-0.07480 -0.06261 0.16087
-0.11163 -0.32139 -0.12782
-0.11011 -0.42679 -0.12214
-0.17978 -0.10352 0.15347
0.03818 -0.12549 0.14791
-0.12712 0.27128 0.07874
0.07935 -0.12549 0.04905
-0.07346 -0.06124 0.01045
0.04166 -0.08638 -0.18484
-0.15739 0.20332 -0.01652
0.02486 -0.06124 0.00762
-0.13524 0.38418 -0.16594
-0.17978 -0.05700 0.17343
0.18208 -0.06976 -0.13490
-0.15700 -0.33299 0.11292
0.14022 -0.12549 0.13759
0.18353 -0.08058 0.11792
0.02674 -0.06124 -0.01021
-0.10562 -0.35558 0.10669
0.18353 -0.08328 0.07655
-0.12712 0.30613 0.00876
-0.17899 0.10387 0.18484
0.17913 -0.06976 0.04625
-0.12712 0.00498 -0.15987
-0.16310 0.16586 0.05973
-0.17072 0.10298 -0.06203
-0.13940 0.42461 -0.03713
-0.15156 -0.24216 -0.11437
-0.08512 -0.12549 0.02646
-0.00714 -0.06124 -0.02961
0.16312 -0.23173 0.12130
0.12473 -0.29928 0.13035
-0.15505 -0.25525 0.12660
-0.12851 0.31375 0.05973
-0.12712 -0.04624 -0.03757
0.06130 -0.06124 -0.01857
-0.17978 0.36200 0.05274
-0.14717 -0.12549 -0.14534
-0.14257 -0.21718 0.13415
0.18353 -0.11819 -0.08410
-0.15382 -0.32735 0.08512
-0.17128 0.04026 -0.09561
-0.17978 -0.05247 -0.09338
-0.12487 -0.18596 -0.11060
-0.13883 -0.33727 -0.14567
-0.17978 0.34939 0.12419
-0.13395 -0.17850 0.08619
-0.15968 0.42634 0.00953
