0.02325 -0.05447 -0.20868
0.17915 -0.05447 0.08671
0.20904 0.02182 0.22269
0.14567 0.00764 -0.04604
-0.20588 0.28546 -0.14111
-0.18830 0.21247 -0.12445
-0.15953 0.26508 0.04414
0.09356 -0.05447 -0.05397
-0.00456 0.02546 -0.09055
0.11227 0.00017 -0.07022
-0.10731 -0.13916 -0.19355
-0.20707 0.29536 -0.00850
0.19163 -0.20430 0.22128
-0.18770 -0.28214 -0.21990
0.04581 -0.13657 -0.20365
-0.02327 0.02546 0.20756
0.22319 0.02546 -0.05455
-0.17317 -0.25893 -0.21321
0.21727 -0.26118 0.18375
-0.03106 0.02546 -0.04483
-0.18364 0.08106 0.20585
0.03424 -0.01729 0.13592
0.14135 0.02546 -0.00252
-0.20318 0.26067 -0.01477
-0.18584 0.35487 -0.06220
-0.16233 0.19904 -0.09972
-0.13927 0.09439 0.20527
-0.17607 0.10002 0.15858
-0.07784 -0.04236 -0.11661
0.06542 -0.01031 0.08240
-0.02826 0.02546 0.17341
0.10945 0.02546 0.13353
-0.03316 -0.12000 -0.19011
0.07452 -0.03790 0.22012
-0.06552 0.02546 0.18859
-0.02402 -0.03032 -0.01784
0.07498 0.02546 -0.02762
-0.15666 0.21247 -0.03636
-0.06909 0.02546 0.03989
-0.12609 -0.05316 -0.07220
-0.19075 0.21247 -0.03357
-0.17671 -0.08618 0.20803
-0.18435 0.19600 -0.17078
0.06987 -0.05447 0.04552
-0.11298 -0.00884 0.21141
-0.01760 0.00171 -0.21539
-0.16018 -0.17661 -0.21121
0.03604 -0.05447 -0.15703
0.15731 -0.05447 -0.21518
-0.12957 -0.05393 0.11703
0.19011 -0.13540 0.22042
-0.15585 -0.10786 0.16523
0.15050 0.02546 -0.20556
-0.02202 -0.02987 -0.19715
0.13440 0.02546 -0.21742
-0.19491 -0.04037 0.18476
0.20372 0.02063 -0.09596
-0.20880 0.30965 -0.02608
-0.14603 0.15587 -0.17078
-0.01284 -0.05447 0.01726
-0.15515 0.19904 -0.11212
-0.15359 -0.12765 0.18387
0.06265 -0.01093 -0.16897
-0.17206 0.31166 0.05056
0.02026 -0.05447 0.00516
0.22045 -0.10747 0.20258
0.19835 -0.35136 -0.22388
-0.19989 0.20843 0.16756
-0.13195 -0.03182 -0.18431
-0.16585 -0.05550 0.19406
0.22162 -0.29665 -0.22320
0.07955 -0.00715 0.21634
-0.19347 0.19676 0.17078
-0.10431 -0.04828 -0.17643
0.08628 -0.00564 0.09504
-0.18163 0.00788 0.20905
0.06658 0.02546 0.14761
0.22124 -0.17028 -0.20421
-0.15344 -0.05583 -0.18742
0.11647 0.00111 -0.21250
-0.19928 0.21866 -0.02017
-0.18605 0.35549 0.01470
-0.19876 0.21238 -0.02183
-0.06514 -0.12316 0.20423
0.20475 0.02546 -0.16593
0.08858 0.01478 -0.21977
0.12161 -0.13530 -0.19981
0.16469 0.01190 -0.04775
-0.01745 -0.05447 -0.17059
-0.19340 -0.00066 -0.17663
-0.09760 0.02546 0.10976
-0.15482 0.24486 -0.12973
-0.20244 0.25346 -0.07401
0.20292 -0.05447 0.22142
-0.02137 -0.03588 0.21659
0.21229 0.00553 -0.22519
-0.08121 -0.04312 -0.07402
-0.19252 0.05546 0.18239
0.01178 -0.02231 0.00311
0.20541 -0.05447 -0.20301
0.13309 0.02546 -0.12047
0.03702 -0.05447 -0.18988
0.19549 -0.29704 0.22243
0.17913 0.02546 0.18202
-0.20688 0.29376 0.07006
-0.19880 -0.12927 -0.18952
0.22214 -0.24259 -0.22218
-0.21956 -0.33011 -0.19269
-0.20114 0.24066 -0.07940
0.22190 -0.22383 0.21301
0.00784 -0.02319 -0.16553
-0.12087 -0.05447 0.11511
0.09834 -0.13568 -0.20751
-0.16433 0.28397 0.16984
-0.21870 0.37715 -0.17364
-0.16938 0.20575 0.12848
0.11427 -0.12808 -0.21305
-0.17400 0.01723 -0.17078
-0.19347 -0.05268 -0.16468
0.05343 -0.05447 0.05083
-0.08599 0.02546 -0.15267
-0.03499 -0.03278 0.03924
-0.14455 0.18759 -0.20195
0.04223 -0.01550 0.05029
-0.21789 0.37205 -0.11891
0.04893 0.02546 -0.13850
-0.13195 0.00201 -0.01997
0.17903 -0.02169 -0.22397
-0.20422 0.27094 -0.12341
0.13034 0.00421 0.19065
0.06650 0.02546 -0.05980
0.03195 -0.01780 -0.00053
-0.19048 -0.05663 -0.16894
0.21412 -0.09764 -0.17676
-0.09868 -0.04702 -0.12473
-0.21002 -0.23741 -0.19998
-0.18772 -0.24918 -0.21803
-0.02606 0.00288 -0.21494
0.17609 0.01445 0.13191
-0.15013 0.17822 0.16166
-0.19700 0.18798 0.17746
0.22489 0.02546 0.16498
0.18285 -0.24764 -0.20444
0.21813 -0.18649 0.22105
0.18165 -0.05447 -0.12607
0.05416 -0.01283 0.03862
0.22529 -0.02839 0.18402
-0.16538 0.20575 -0.00047
-0.06375 0.02546 -0.00386
-0.12586 -0.05310 -0.15651
-0.02198 -0.02986 0.01784
-0.00197 -0.05447 -0.21116
0.02612 -0.13699 0.20471
-0.02143 -0.05447 -0.20761
-0.15950 -0.17007 0.16904
0.00747 -0.05447 -0.13218
-0.16888 0.21247 -0.07372
0.04076 -0.01583 -0.04683
-0.07077 -0.05447 -0.15818
-0.20200 0.34313 0.19441
0.18653 -0.28312 -0.20320
-0.15430 0.21878 -0.20058
-0.07121 0.02546 0.02547
-0.18449 -0.27939 0.21897
-0.21057 0.32270 0.17115
0.22529 -0.05296 0.22056
-0.00190 -0.13252 0.19049
-0.16708 -0.09019 -0.16501
-0.20290 -0.17299 0.16927
-0.19154 -0.32471 0.18982
-0.14719 0.14521 0.15858
0.19226 0.01807 -0.21722
0.11141 -0.05447 -0.14484
-0.04288 0.02546 0.15187
0.22529 -0.01061 0.04786
-0.18077 0.33962 -0.09673
-0.21233 0.33531 0.07931
-0.18704 0.35835 -0.07243
0.20820 -0.05447 0.04980
0.10457 -0.00155 0.09416
-0.16356 0.25105 0.19843
0.22529 -0.02215 -0.19329
0.22529 -0.02277 -0.21874
-0.17041 -0.24396 -0.21522
-0.19314 0.36392 0.19350
0.21852 -0.16084 0.17708
0.18529 0.02546 -0.04293
0.22529 0.01985 0.16224
-0.05865 0.02546 -0.17216
-0.04053 0.02546 0.07601
-0.15462 0.24401 0.03947
0.00976 -0.02276 0.15474
0.13455 0.00516 0.11321
0.17989 0.02546 0.08223
-0.07602 -0.04196 0.14389
0.17791 -0.17386 -0.21518
-0.21080 -0.24594 -0.17864
-0.10332 0.02546 -0.15679
-0.13195 0.02386 -0.06964
-0.07589 0.02546 -0.10073
-0.20524 0.28018 -0.11169
0.18636 0.01675 0.08464
0.02405 -0.05447 0.16937
-0.13195 0.01021 -0.19948
0.19781 -0.06877 -0.17640
-0.11218 -0.13885 0.18568
-0.06145 0.02546 -0.17731
-0.21463 -0.28124 -0.21879
0.20798 -0.05447 0.20677
-0.20525 0.28023 -0.04692
-0.19515 -0.09403 -0.18854
-0.13195 0.02170 -0.20098
-0.13353 -0.00304 0.16603
-0.13881 0.12232 0.20405
-0.20825 0.30509 -0.06203
-0.18855 0.09953 0.16345
-0.14060 0.16347 0.17337
-0.18841 -0.04155 0.17078
-0.20854 -0.29176 -0.22044
0.10655 -0.00111 0.16916
-0.20706 0.38320 -0.06977
0.21988 -0.06143 0.20953
0.22002 -0.07281 0.18618
0.09742 0.01179 0.22031
-0.14923 0.21097 -0.15506
-0.04601 -0.03524 0.12007
0.22529 -0.01691 0.01963
-0.03066 -0.05447 0.00595
-0.21839 0.38105 0.14314
0.18640 -0.23028 -0.18173
-0.20685 0.38323 0.03505
-0.20567 -0.19573 -0.19213
-0.14933 0.21788 0.03705
0.18167 -0.05447 0.18428
-0.14168 0.16157 -0.16999
-0.20100 -0.15260 -0.16860
-0.15530 -0.03439 0.17078
0.22529 0.01360 0.10657
0.20988 0.02546 0.00873
0.18582 -0.27690 -0.21796
0.08749 -0.12660 -0.21188
-0.16141 0.21247 -0.13127
-0.14286 0.08806 -0.17078
0.06572 0.01669 0.21862
0.02269 -0.01987 0.14014
0.16493 -0.01429 0.22345
-0.03145 0.02546 0.11783
0.16432 0.01182 0.10709
0.12005 -0.05447 -0.18991
-0.16401 0.19904 0.08307
0.09467 -0.00377 0.20006
-0.09821 -0.04692 -0.19256
-0.16154 0.16738 0.20208
-0.02050 0.02546 -0.19730
0.22296 -0.30823 0.19085
0.14252 0.00694 -0.07531
-0.06289 -0.05447 -0.08520
-0.13195 -0.04124 0.07712
-0.00612 -0.05447 0.04139
0.03044 -0.13222 0.20840
0.10512 0.02546 -0.10963
0.17789 -0.17316 0.19089
0.15654 0.02546 -0.12503
0.22529 0.01226 0.05895
-0.14936 0.14673 0.17078
-0.19371 0.20575 -0.11589
-0.03324 -0.03238 -0.18300
-0.18107 0.34052 0.04477
-0.12011 0.02546 0.06081
0.12846 -0.12102 0.19618
-0.16162 0.01296 0.15858
-0.13195 -0.03280 -0.04839
0.12109 0.00214 -0.15189
-0.17439 -0.26528 0.21563
0.21464 -0.28691 0.22231
0.15523 -0.11857 0.19735
-0.15998 -0.17652 0.17520
-0.07693 -0.13844 -0.20470
-0.05005 -0.05447 0.15969
-0.11478 0.02546 0.13988
-0.20042 0.23235 0.00473
0.14112 -0.11271 0.20685
-0.18918 0.13173 0.17078
-0.08050 -0.05447 -0.01074
-0.13195 -0.01386 0.02979
-0.11372 0.02546 0.07292
0.12716 0.02546 0.04308
-0.21261 0.33733 0.15130
-0.10487 0.02546 -0.13235
0.19728 -0.05447 0.04938
0.07064 -0.05447 -0.07948
-0.13195 0.00311 0.15705
-0.10652 0.00640 -0.21104
-0.19362 0.37625 0.06590
-0.05613 0.02546 0.19406
-0.13195 0.01678 0.05245
-0.14368 -0.04344 0.17078
0.04979 -0.05447 0.09099
-0.20312 0.38394 0.14767
0.18623 -0.20153 0.22124
-0.21166 0.35754 -0.19453
-0.21477 0.35237 -0.13271
-0.18648 0.14891 0.17078
-0.03815 -0.03348 -0.09449
-0.17661 -0.04259 0.15858
-0.01162 -0.02755 -0.00020
0.12330 -0.05447 0.21247
0.17178 0.02546 -0.12666
-0.21826 0.37441 -0.16523
0.22529 -0.00620 0.05552
0.10454 -0.00156 -0.17118
-0.15103 0.22635 0.02803
-0.14228 -0.01389 0.17078
-0.20629 0.28889 0.07471
-0.20096 0.23881 -0.19942
0.04367 -0.01518 -0.12109
-0.18015 0.27045 0.19758
-0.13964 -0.02863 0.16441
-0.18042 0.21247 -0.02139
0.09294 0.02546 -0.13194
-0.20078 0.23670 0.08057
0.13934 0.00623 -0.16512
-0.21215 0.33403 0.13362
0.06681 -0.01000 -0.21677
-0.18211 0.00846 -0.20977
-0.15383 0.24031 0.17953
0.18413 0.01625 -0.12758
0.17790 -0.16048 -0.22150
-0.20113 -0.32693 0.19026
0.13598 0.02546 -0.14341
0.00352 0.00303 -0.21632
-0.10920 -0.05447 -0.00067
0.05635 0.02546 0.11895
-0.21663 0.38139 0.05342
-0.14840 0.21327 0.04547
0.00641 -0.11536 0.20662
-0.01396 -0.11577 0.19653
-0.14804 0.21119 -0.12302
0.19269 -0.05447 0.05035
-0.17528 -0.27007 0.20787
0.11100 -0.00011 0.08400
0.01458 -0.12998 0.19121
-0.18384 0.34884 -0.06020
-0.09992 -0.05447 -0.13548
0.00966 -0.05447 0.05418
-0.14558 -0.13981 -0.18665
-0.17647 0.19904 -0.02453
-0.00972 -0.05447 -0.07568
-0.19912 -0.30112 -0.18626
-0.00870 -0.05447 0.15794
0.06874 0.02546 -0.21372
0.22529 -0.00955 -0.13817
0.01431 0.02546 0.09029
-0.16624 0.21247 -0.02625
-0.13939 0.15466 -0.19897
0.16067 0.01100 0.07977
0.03688 0.02546 0.07739
-0.03095 0.02546 0.18860
-0.17716 0.21848 -0.20060
-0.17907 0.16404 -0.15858
-0.16747 0.20575 -0.02113
-0.13165 -0.11809 0.18978
-0.20317 0.26059 -0.09533
0.06906 -0.05447 -0.10278
-0.20967 -0.23341 0.21429
0.11814 -0.05447 -0.01325
-0.15478 0.24469 0.06321
0.08864 0.02546 0.09865
-0.21405 0.38188 -0.04670
0.00256 -0.11535 -0.19906
-0.17526 -0.12515 0.21024
-0.16508 -0.00858 0.20976
-0.16568 0.28907 -0.07089
0.10378 -0.00173 -0.15379
-0.07709 -0.04220 -0.20944
-0.16445 0.20575 -0.03419
0.22325 -0.33194 0.21571
0.22070 -0.12714 0.20845
-0.03116 -0.05447 -0.15826
0.20864 -0.05526 -0.22019
0.21665 0.02546 0.04110
-0.16790 0.29741 -0.16124
-0.21400 0.34735 -0.16831
0.05373 -0.01293 -0.13072
-0.19519 0.15757 -0.17627
0.22529 -0.01908 0.13642
0.03151 -0.05447 0.20920
-0.16883 0.08632 0.15858
0.22529 -0.02411 0.07509
-0.06195 -0.03881 0.09550
-0.02406 -0.11597 0.19638
0.05573 -0.01501 -0.21943
-0.06716 -0.03997 -0.03654
0.22080 -0.13510 -0.19633
0.18465 -0.26596 0.20870
-0.15192 0.23079 0.01626
0.11651 -0.05447 -0.11831
0.17744 -0.14813 0.22058
-0.12649 -0.01056 -0.21085
-0.18201 0.05826 0.15858
-0.13881 -0.01651 -0.16468
0.10312 -0.05447 -0.01801
0.18883 -0.15740 0.17696
-0.00078 -0.02512 -0.11339
-0.19320 0.37513 -0.00876
-0.21484 0.35279 0.08416
0.14672 0.00788 -0.08976
0.17611 -0.07652 -0.18463
-0.16627 -0.03003 0.21070
0.18992 -0.09784 0.17599
0.10677 -0.05447 -0.15011
0.14682 -0.05447 -0.08544
0.22529 -0.01121 0.17316
-0.05144 -0.05447 0.14552
-0.20873 0.30909 0.04113
-0.16401 -0.04839 -0.15858
-0.14222 0.16550 0.16745
-0.18358 -0.15525 -0.21271
-0.09432 -0.04605 -0.19944
-0.18142 0.34158 -0.01090
0.20794 0.02158 0.02566
0.03078 -0.11620 0.20842
-0.18793 0.19904 0.05557
0.17878 -0.05447 0.21817
0.09059 -0.00468 -0.12670
0.06351 -0.01074 -0.13629
0.15252 -0.03669 0.22299
0.22529 0.01904 0.02189
0.17598 -0.06617 0.18725
-0.13874 0.12028 0.17078
-0.00883 -0.04371 0.21705
-0.05917 -0.05447 0.03922
0.22529 0.00821 0.00305
0.17878 -0.05447 -0.22366
0.00937 0.00170 -0.21665
0.22529 0.02446 -0.19449
0.19134 0.02546 -0.12926
0.13743 0.02546 0.10699
-0.21563 0.35781 -0.09659
-0.17956 0.19904 -0.08265
-0.15441 -0.12600 0.16875
-0.01567 -0.05447 0.09438
-0.19403 0.20575 -0.16137
0.04163 0.02546 -0.21378
-0.13195 -0.01749 0.12675
-0.14543 0.19572 0.18577
0.02023 -0.02042 -0.11244
0.06858 -0.03504 -0.21990
-0.17250 0.31316 -0.13406
0.03241 -0.12938 -0.19298
0.16682 0.01238 0.12731
-0.16100 0.27142 0.16713
-0.04147 0.02546 0.18268
0.08124 -0.04812 0.22037
-0.19359 -0.00753 -0.18971
0.11294 -0.11576 -0.21299
0.10000 -0.05447 0.06929
-0.16996 0.30464 0.03921
0.20895 -0.22116 0.22149
-0.20234 -0.31885 -0.18950
0.18720 0.02031 -0.22412
-0.18661 -0.05833 -0.16320
0.22529 -0.01086 0.01034
0.18049 0.02546 0.02676
0.10213 -0.11349 0.19905
0.15564 -0.01707 0.22311
0.18035 -0.21745 -0.18820
-0.19292 0.09458 -0.17956
-0.07640 -0.05447 0.20807
-0.16443 -0.12607 -0.21106
-0.21659 -0.30152 -0.19022
-0.09649 0.02145 0.21085
-0.19254 0.05834 -0.19669
-0.17696 0.09319 -0.17078
-0.19315 0.10289 0.18034
-0.15055 0.07374 0.15858
-0.17177 0.05172 -0.17078
0.15328 -0.05447 0.08860
-0.19973 0.20659 0.09163
-0.17766 0.19904 -0.10660
0.21085 -0.10535 -0.22081
-0.18327 0.21247 0.02981
-0.10700 -0.05447 0.17626
-0.19022 0.19904 -0.00080
0.12079 0.00208 -0.01981
-0.06199 -0.05447 -0.15999
-0.01137 -0.11571 0.20367
-0.17198 0.21247 -0.15183
0.02790 -0.05447 0.13948
0.14353 -0.05447 0.04955
0.10648 -0.00112 -0.12620
0.17642 -0.10166 0.18655
0.17689 -0.13678 -0.18349
-0.14552 0.08979 -0.15858
0.09613 0.02546 -0.03932
-0.16242 0.27675 0.17219
-0.19277 0.08239 -0.18278
-0.16178 0.27437 -0.10493
-0.08049 0.01041 0.21208
0.09998 -0.12439 -0.19593
-0.17818 0.19904 0.05164
0.05811 -0.12222 0.20961
-0.10447 -0.00590 -0.21168
-0.01078 0.02546 0.04776
0.21026 0.02209 -0.07730
0.20394 -0.19812 -0.22197
-0.21398 0.34716 -0.09314
-0.17613 0.15865 -0.15858
-0.19129 0.10700 -0.17078
0.15170 -0.05447 -0.06838
-0.10905 -0.04934 -0.03341
0.13914 -0.11514 0.21315
0.06220 -0.01103 0.18459
-0.14851 0.12596 -0.15858
-0.17131 0.20575 0.08265
-0.16427 0.28373 -0.13620
0.21898 0.02405 -0.16362
0.17938 -0.20238 0.21549
-0.14824 -0.06493 -0.19844
-0.13515 0.11190 0.18684
-0.18935 0.21247 -0.02916
-0.01799 -0.13089 -0.20727
0.16242 0.02546 -0.00360
-0.06834 -0.02481 -0.21418
0.18658 -0.05447 -0.15385
0.19906 -0.25363 0.18302
0.15861 -0.05447 -0.05883
0.14180 -0.05447 -0.02104
-0.10687 -0.05447 -0.07117
-0.20903 0.31155 -0.03617
0.22529 -0.04385 -0.14218
0.16055 -0.11942 -0.21507
-0.20125 0.24178 0.05056
0.19272 -0.05447 0.08200
-0.18160 0.11561 0.15858
0.06929 0.02546 0.21118
-0.19453 0.01829 0.16622
-0.02958 -0.03156 0.12769
0.22068 -0.12578 -0.20092
-0.15621 -0.14255 0.18899
-0.07546 0.02546 0.00190
-0.21748 0.36946 -0.17280
-0.07505 -0.04174 0.17303
0.17880 0.02546 0.09425
-0.20224 0.25149 0.18026
0.22019 -0.08608 -0.21681
-0.01480 0.02546 -0.14069
-0.10798 -0.04147 0.21306
-0.13745 0.11915 -0.17078
-0.06277 -0.03899 -0.20349
-0.05271 -0.03674 -0.06161
-0.16860 -0.13657 0.16686
-0.04582 -0.05447 0.05192
0.05523 -0.01259 0.09433
0.16719 0.01246 0.09457
-0.16761 0.15288 -0.15858
-0.12443 -0.05278 -0.11164
-0.18394 0.20575 -0.15571
0.15473 0.02546 -0.06126
0.09390 -0.05447 -0.06187
0.21247 -0.05447 0.00163
-0.14906 0.20994 0.09384
-0.19288 -0.07293 -0.16854
-0.20234 -0.16351 0.18949
-0.15249 0.19050 -0.20182
0.19592 -0.07337 0.21964
-0.19279 0.08495 0.17983
-0.17909 -0.27565 -0.21953
-0.13195 0.00163 0.05572
0.22529 -0.02870 0.17280
-0.19749 0.24713 0.19860
-0.01106 -0.05447 -0.05888
0.11706 -0.05447 -0.04530
-0.20273 0.25632 -0.19438
0.08727 -0.00542 0.08984
-0.15291 0.07165 0.20626
0.12705 0.00348 -0.09537
0.21690 -0.07677 -0.17650
-0.15346 0.22893 0.19939
0.02524 0.02546 0.03192
-0.17661 0.12225 -0.20480
-0.13195 -0.02028 -0.17222
0.07446 0.00322 -0.21962
-0.12473 -0.05447 0.16382
-0.18724 -0.00412 -0.21032
-0.16080 0.27054 -0.13012
-0.13195 -0.01924 -0.08290
-0.18238 -0.30452 0.18687
-0.15653 0.03910 0.17078
-0.16059 0.26965 0.01816
0.10724 0.02546 -0.17820
-0.16229 0.21247 -0.14598
0.21557 -0.05447 -0.20956
0.12030 0.02546 -0.16960
-0.10634 -0.05447 -0.20755
0.06719 -0.05447 -0.00727
0.12883 -0.05447 -0.06956
-0.12144 -0.05447 0.01320
0.03443 -0.01724 -0.17615
0.04027 -0.05447 -0.19979
-0.20607 -0.22809 -0.21684
0.11988 0.02546 -0.13358
0.13351 0.00492 -0.00376
0.17072 0.01325 -0.08060
0.19956 0.01970 0.13705
-0.16592 0.12002 0.20415
-0.13363 0.09047 -0.20534
-0.16840 0.11500 0.20437
-0.13195 0.00445 0.14207
-0.17463 -0.15744 -0.16891
0.18378 -0.08417 -0.22055
-0.10101 -0.05447 -0.05002
0.21505 0.02546 0.14155
-0.15093 -0.09114 0.19535
0.17811 -0.17834 -0.20050
0.04187 0.02546 0.02356
-0.17829 -0.19328 0.21410
0.06250 -0.01096 0.02764
0.17597 -0.06540 -0.20097
-0.14641 0.02670 -0.15858
0.04994 0.02546 -0.21021
0.08357 0.02546 -0.08818
0.03219 -0.05447 0.16901
-0.00716 -0.05447 0.20991
0.13730 0.02546 0.14015
0.21601 -0.37509 0.19990
0.16278 0.01147 0.10017
0.20929 0.00758 0.22508
0.20150 -0.33599 -0.22369
-0.19942 0.22040 -0.03022
-0.15318 0.20575 -0.11992
-0.20347 0.26353 0.00507
0.17595 -0.06347 0.21461
-0.08407 -0.11997 -0.20439
-0.16780 0.19904 -0.02636
0.02682 -0.05447 0.05655
-0.17212 0.20575 -0.10505
-0.19732 0.38504 -0.03078
-0.04943 0.02546 -0.11770
0.14116 0.02546 0.05080
-0.15395 0.19904 -0.09479
-0.16962 -0.23644 0.21654
0.19002 -0.29231 0.18727
0.04998 -0.05447 0.02036
0.22099 -0.15067 0.21263
-0.20334 0.26231 0.12935
-0.17345 0.19904 -0.01948
0.04545 -0.01478 -0.08004
-0.17329 0.31578 -0.13795
-0.10648 -0.04877 0.18884
0.17269 0.01369 -0.13104
0.18548 -0.00732 0.22421
-0.19216 -0.06464 0.19709
-0.17578 -0.14849 0.16757
-0.01987 -0.02939 -0.02114
0.18726 0.01695 0.15075
-0.20705 0.29515 0.18708
-0.03671 0.02546 -0.01854
-0.18799 0.36093 0.02509
0.00981 -0.02275 -0.09677
0.22162 0.02463 -0.12106
-0.21513 0.35463 0.17611
0.05752 0.02546 -0.20933
-0.15643 0.25176 -0.11127
-0.05472 -0.03719 -0.20081
-0.10117 0.02546 -0.19415
-0.15643 -0.14464 -0.18892
-0.14400 0.12728 -0.16042
-0.20512 0.27915 0.18409
-0.19077 -0.04757 -0.15946
-0.16775 0.29684 -0.13658
0.22111 -0.16015 0.20477
-0.15695 0.17426 0.20178
-0.16587 0.28979 0.16934
-0.13195 -0.01916 0.07033
0.21737 -0.02567 0.22538
0.21363 0.02546 -0.03622
-0.04938 -0.05447 0.01394
0.22238 -0.26210 -0.20654
0.11519 0.02546 -0.11035
0.22279 -0.05447 -0.15295
0.05962 -0.05447 0.08690
-0.18996 -0.05447 0.18045
-0.13195 0.02824 -0.20185
0.22529 -0.02362 -0.10835
-0.16263 0.21247 -0.05637
-0.18117 -0.03068 0.17078
0.02920 0.02546 -0.10729
0.19066 -0.05447 0.21296
-0.19080 -0.33812 0.22228
0.20073 -0.23991 0.18174
0.19500 0.02546 -0.14540
-0.15565 -0.08848 0.16414
-0.10959 -0.12454 -0.18678
-0.01335 -0.02793 -0.01431
0.20262 -0.17209 0.22087
0.21016 -0.23866 -0.22247
0.01195 -0.05447 0.17073
-0.05645 0.00153 -0.21359
0.20891 -0.34651 0.19498
-0.10078 -0.04749 0.12685
-0.08687 -0.04438 0.18828
-0.07528 0.02546 0.19270
0.20003 -0.16453 -0.17798
-0.18129 0.25940 -0.19881
0.10216 0.02546 -0.00284
-0.15283 -0.05447 0.19949
0.21482 -0.28965 -0.18772
-0.19294 -0.26745 -0.21907
0.22529 -0.01589 0.02523
0.12642 -0.05447 -0.21570
-0.15344 0.20068 -0.03208
-0.19255 -0.27452 -0.21947
-0.13573 0.09294 0.17078
-0.18594 -0.04745 -0.15858
0.21094 -0.14161 0.17660
-0.18659 0.35713 0.09523
-0.22118 -0.34508 -0.20891
-0.07147 -0.04094 -0.06861
0.03618 -0.01685 0.15421
0.22311 0.02546 0.08773
0.21796 -0.29562 -0.18844
-0.18046 0.33871 -0.15160
-0.02769 -0.03114 0.10043
0.08715 -0.05447 -0.09758
0.01931 -0.05447 0.18136
0.10611 0.02546 0.08946
-0.02220 -0.05447 0.15412
-0.19083 -0.24365 -0.21772
-0.16592 0.07899 0.17078
-0.19877 0.21252 -0.07817
-0.13248 0.06529 -0.20705
-0.19552 -0.09831 -0.17208
-0.21318 -0.26809 0.19711
0.09064 -0.05447 0.07023
-0.13071 -0.05447 0.05303
0.10055 -0.12689 0.21146
-0.17757 -0.04666 -0.21217
0.04302 -0.05447 -0.07881
-0.13817 -0.01806 0.21018
0.18180 -0.23610 0.20674
-0.13195 0.00091 0.19696
0.22529 -0.02641 -0.07443
-0.15133 -0.09558 0.18172
-0.20367 0.26553 -0.06721
0.12273 -0.05447 -0.06958
0.21676 0.02355 0.09978
-0.14117 -0.12103 -0.20190
0.20031 -0.14367 -0.22129
-0.19109 0.21247 -0.14774
-0.18258 0.34506 0.15686
0.10325 0.02546 0.18466
-0.15463 0.11997 -0.20490
-0.10523 0.02546 0.07300
-0.16740 0.20575 -0.11090
0.13218 -0.05447 0.12246
0.20932 -0.16737 -0.22159
-0.17755 -0.13658 0.21089
0.21995 -0.06679 0.20122
-0.02753 -0.03111 -0.20570
-0.15381 0.19904 0.08887
-0.03776 -0.03339 0.09292
0.13561 0.02546 0.07809
-0.19333 0.12414 0.20397
0.19462 -0.11328 0.17618
0.20306 -0.22755 -0.22234
0.04059 -0.05447 -0.18541
0.10186 0.02546 0.20614
0.21477 0.02310 -0.12353
0.17818 -0.17966 0.21618
0.14869 0.00832 -0.14121
0.22529 -0.02381 0.18526
-0.11914 -0.05160 0.15858
0.15373 0.00945 -0.09717
-0.04974 0.02546 -0.15373
-0.07606 -0.04196 0.00404
0.07565 0.02546 -0.10548
-0.18069 -0.24029 -0.21753
-0.19148 0.37043 -0.08130
-0.19328 -0.21508 -0.17400
-0.19574 0.16857 0.18906
0.18060 0.01546 0.06056
0.03741 0.02546 0.17225
0.10739 -0.00092 -0.09532
0.04889 0.02274 -0.21757
-0.19465 -0.17062 0.16908
0.01344 -0.02194 -0.11355
-0.20367 0.26549 -0.05586
-0.02688 -0.05447 0.21322
-0.09724 -0.04888 -0.21379
-0.21208 0.33356 0.18394
0.20741 -0.31673 0.22268
-0.11141 -0.04987 -0.05701
-0.13195 -0.03881 -0.06220
-0.20022 -0.14365 0.17457
-0.13195 -0.03704 -0.08291
0.22529 -0.02264 0.17611
0.18908 -0.30367 0.20481
0.02160 -0.05447 0.19242
-0.17791 0.21247 -0.14561
-0.06180 0.02546 0.16924
-0.19379 0.37673 -0.13436
-0.06036 -0.03845 -0.10979
0.21712 -0.32317 0.22276
-0.17393 0.31793 0.15783
0.06168 -0.00279 0.21928
0.00577 -0.11528 -0.20349
-0.20103 0.23964 -0.15566
0.20960 -0.33719 -0.19428
-0.11616 -0.05447 -0.16431
0.17812 -0.05447 0.00627
-0.19206 0.21212 0.17078
0.13530 0.00532 0.13034
-0.13195 0.00891 -0.18562
0.17602 -0.06899 -0.18499
-0.15538 0.19904 0.15758
0.09374 -0.00397 0.07972
0.12494 -0.01491 -0.22198
-0.13062 -0.05417 0.03115
-0.20932 0.31380 -0.08250
-0.18650 -0.18241 -0.21425
0.17016 -0.13456 0.20505
0.07178 -0.05447 0.02339
0.20150 0.02013 0.21684
0.22046 -0.10817 -0.21986
-0.14678 -0.03933 -0.17078
-0.01622 0.02546 -0.01806
-0.19346 -0.07701 -0.20215
0.22365 -0.36420 -0.21788
0.01934 -0.02062 0.18423
-0.18758 0.19904 0.04327
-0.16326 0.20575 0.03605
-0.00680 -0.02647 0.03928
0.21795 -0.05447 -0.02221
0.21289 0.02268 -0.15778
-0.19908 0.21247 0.00263
-0.19031 0.14756 -0.16468
-0.19259 0.04851 -0.17271
0.08449 -0.00604 -0.15158
-0.15918 0.26361 0.12013
-0.20990 -0.24592 0.21708
-0.15873 0.20575 0.07957
-0.17933 0.10826 0.17078
-0.13195 -0.04367 0.10184
-0.13195 -0.04272 -0.16591
-0.17051 0.30649 -0.15615
-0.13653 0.12817 -0.19854
-0.15643 0.06613 0.20650
0.00252 -0.02438 -0.03888
-0.19771 -0.36541 0.20068
0.05583 0.02546 0.03968
-0.03747 -0.03333 0.21357
0.09407 0.02546 0.01408
-0.04563 -0.01000 -0.21460
0.22529 -0.01468 -0.17256
-0.18572 0.20334 -0.17078
-0.08795 0.02546 0.09609
-0.19257 0.05044 -0.18856
0.22529 -0.02361 -0.16469
-0.17640 0.19904 -0.15150
-0.19507 0.15503 0.17771
-0.15247 -0.07802 0.16355
-0.18760 0.14830 0.20291
-0.12959 0.02546 0.02508
-0.20472 0.27578 -0.06597
0.22529 0.00365 0.13339
0.17592 -0.06097 -0.17700
0.17881 -0.05447 0.08042
-0.08772 -0.11722 0.20217
0.20192 0.02023 -0.05814
-0.20024 0.23020 0.17155
-0.22314 -0.36421 0.20560
-0.16975 0.10041 -0.17078
0.17078 -0.01298 -0.22367
-0.07294 0.02546 0.10432
-0.15869 0.26147 -0.04845
0.18763 -0.29211 0.19633
0.21206 0.02546 -0.09113
0.07479 0.02546 -0.13934
-0.01543 -0.02840 -0.20486
-0.18673 0.35752 -0.01464
-0.13195 0.01377 0.15334
0.20509 -0.14985 -0.17753
0.14776 -0.05447 -0.19415
0.22529 -0.01470 -0.08909
-0.15289 0.23562 -0.19671
0.09906 -0.00279 0.03986
-0.11672 -0.05447 -0.12172
-0.19538 0.38106 -0.01608
0.19983 -0.37260 -0.21570
-0.03762 -0.03336 -0.15252
-0.03663 -0.05447 0.04391
-0.17511 0.05898 0.15858
0.04077 -0.01583 0.20443
0.16095 -0.05447 -0.04194
0.16997 0.01308 -0.20340
-0.18136 0.18688 -0.17078
-0.18754 0.21247 -0.01378
0.02463 -0.04745 -0.21828
0.14711 -0.12353 0.21350
-0.03693 -0.05447 -0.06918
0.22056 0.02440 -0.20154
0.02614 -0.01910 0.06408
0.22529 0.00984 -0.00832
-0.19510 -0.09299 -0.20003
0.04515 0.02546 -0.04803
0.13734 0.00578 -0.10019
0.00895 -0.05447 0.13494
0.22529 0.02124 -0.21923
-0.19310 0.20268 0.10975
-0.19352 0.19995 0.20066
-0.16554 0.28854 0.18472
0.22087 -0.14075 -0.21583
0.19895 -0.36775 0.19898
-0.21898 0.37896 -0.05918
0.14418 -0.05447 0.19260
0.17788 -0.17300 -0.20631
0.01425 -0.01232 0.21749
-0.19220 0.30169 0.19622
-0.13098 -0.03541 -0.21173
-0.19388 0.12914 -0.18041
-0.07498 -0.05447 0.11161
0.22529 0.01919 0.06492
-0.16720 -0.22669 -0.18130
-0.19321 -0.12022 -0.16670
-0.09809 0.02546 -0.17681
-0.22238 -0.35677 0.20840
0.18556 -0.27447 0.20904
-0.18737 0.20644 0.20037
-0.18830 -0.08607 0.16400
-0.04233 0.02546 -0.15319
0.22260 0.02546 -0.15509
-0.15514 0.17300 -0.20258
-0.11446 0.02546 -0.07007
-0.16734 0.01569 0.20870
-0.15098 0.22610 -0.14380
-0.15525 0.24670 0.07432
0.20377 -0.27893 -0.18642
0.18757 -0.05447 -0.04813
0.00185 -0.02453 -0.06141
0.21446 -0.21275 0.17966
0.22529 -0.03539 -0.06483
-0.17839 -0.28586 -0.19745
-0.19677 -0.32347 0.22147
-0.19984 0.20780 -0.12263
-0.15951 -0.17176 0.19951
0.12104 -0.05447 -0.05341
0.02109 0.02546 0.12223
-0.17280 0.17500 -0.20250
-0.09284 0.02546 0.18838
0.22529 -0.03158 0.04423
-0.19932 0.21909 -0.11926
-0.09368 -0.04591 -0.07785
0.21202 0.02546 -0.00034
-0.12151 -0.02000 0.21150
-0.17585 0.32435 -0.04837
-0.08822 -0.04468 -0.11029
-0.07084 -0.05447 -0.02463
-0.15661 -0.05447 -0.20420
-0.19581 0.38221 0.18460
-0.19289 0.09344 -0.17369
-0.03500 -0.03278 0.15750
-0.17874 -0.01971 -0.17078
0.22529 -0.00599 0.04458
-0.17195 -0.25240 0.21373
0.13638 -0.05447 0.08426
0.22529 0.01329 -0.17499
-0.17337 0.31605 -0.06510
-0.13548 -0.13483 0.18466
-0.06326 -0.05447 -0.07100
-0.12048 -0.05447 -0.04985
-0.20128 0.24207 -0.07444
-0.20383 0.26704 -0.18343
-0.16694 0.13895 -0.20407
0.21560 -0.08301 -0.17658
-0.02729 -0.05447 -0.15401
-0.17564 0.32367 0.11421
-0.21175 0.33121 0.06244
0.22529 -0.05001 -0.15487
-0.20020 0.22964 0.14055
-0.12769 0.02546 0.11594
-0.02219 -0.05447 0.04821
-0.20974 0.31674 0.02484
-0.18283 -0.05631 -0.17628
-0.21822 0.37412 0.08240
0.17585 -0.05573 0.20883
0.07394 -0.01216 -0.22010
0.03702 -0.01667 -0.21748
-0.16789 -0.22952 0.21049
0.22529 -0.02865 0.20902
0.11968 0.02546 0.14815
0.03761 0.02546 -0.09596
-0.15767 -0.05447 0.20839
0.01983 -0.05447 0.04045
0.21268 -0.07331 -0.22041
0.12275 -0.05447 0.20667
-0.17450 -0.06712 -0.16370
-0.21898 0.37895 -0.00044
0.14505 -0.05447 0.05680
0.22529 -0.01126 0.06408
-0.19759 0.20575 -0.10730
0.01564 -0.05447 0.03165
-0.17241 0.02591 -0.20900
0.21525 -0.09313 0.21989
-0.13195 0.00728 -0.12771
-0.09130 0.02546 0.09088
-0.20141 0.24331 -0.05651
-0.04056 -0.03402 -0.02104
0.05931 0.02546 -0.03157
0.22351 -0.35274 -0.20072
-0.20419 0.27067 0.12975
0.21796 -0.06275 -0.17632
-0.13619 0.02951 -0.16468
0.10843 -0.05447 0.04443
0.15429 0.00957 0.17765
-0.00792 -0.02672 0.13509
0.10356 -0.05447 0.12148
0.15929 -0.13474 0.20872
0.19399 -0.05447 -0.19204
-0.17342 -0.02420 -0.17078
0.02464 -0.01943 0.01424
0.22060 0.00611 -0.22550
0.00653 0.02546 -0.18876
0.04276 -0.01538 0.13831
-0.13195 -0.02685 -0.08740
-0.04957 -0.03604 0.16381
0.15537 0.02546 -0.00401
0.04105 0.02546 0.19314
-0.19029 0.10522 0.17078
-0.22234 -0.35667 0.20059
0.18777 -0.05447 -0.20885
-0.11175 -0.04995 -0.15095
-0.15603 0.25007 -0.04992
0.14116 -0.05447 -0.02583
0.06759 0.02546 0.05596
-0.00309 -0.05447 0.19290
0.18542 0.02546 0.09406
0.20653 -0.26641 -0.18508
-0.20578 0.37368 0.19307
-0.17624 0.32566 0.18550
0.17736 -0.15791 0.18346
-0.01292 -0.04850 -0.21690
0.04572 -0.01472 -0.02906
-0.04198 -0.03434 -0.14398
-0.15112 0.22679 0.09809
0.19408 -0.18398 0.17800
0.14890 -0.11256 0.20238
0.11071 -0.05447 0.11693
-0.16292 0.27864 -0.03523
-0.20628 -0.20162 0.19174
-0.10884 0.02546 0.18705
-0.06175 -0.05447 0.04915
-0.16636 -0.03191 -0.15858
0.02095 -0.05447 0.09897
-0.13213 0.04521 0.20196
-0.18160 -0.27450 0.18110
0.20427 -0.31338 0.19003
0.20119 -0.05447 -0.22451
-0.16778 0.29695 -0.04256
0.22529 -0.04835 -0.17957
0.00167 0.02546 -0.19812
-0.18003 -0.05447 0.17928
-0.18982 0.13997 -0.16331
-0.19816 -0.20037 -0.21527
0.22101 0.02450 -0.17412
-0.13195 -0.03083 -0.00840
0.09591 -0.11350 -0.20364
-0.11866 0.02546 -0.08144
-0.21301 -0.36651 0.19861
-0.17371 0.31720 -0.18447
0.10900 0.02546 0.11192
0.09930 0.02546 -0.13509
-0.15339 0.14886 0.20289
-0.15010 -0.08316 -0.19425
-0.18819 -0.28941 0.18349
-0.14274 0.09104 0.15858
0.15116 -0.01005 -0.22294
-0.19364 -0.00942 0.20772
-0.07539 0.02546 -0.07507
0.22529 0.01231 0.06873
-0.09924 -0.05447 -0.01523
-0.00267 -0.05447 -0.09303
-0.15888 0.21247 0.14036
-0.16554 0.28855 -0.13669
-0.02623 -0.03081 0.15343
0.17769 -0.16733 -0.18490
0.17335 -0.05447 -0.05924
-0.15017 -0.08352 0.20154
-0.19864 0.21098 0.12795
-0.14738 0.20729 0.17085
0.14919 0.00843 0.21611
0.15882 -0.05447 -0.03422
-0.15392 0.21247 0.13462
-0.01513 0.02546 0.07466
0.15709 -0.05447 -0.15558
0.20333 0.02546 0.10156
-0.07385 -0.04147 0.19558
-0.21085 0.38248 0.13415
0.22054 -0.31384 0.22264
-0.10029 -0.12655 -0.18718
0.22529 -0.03588 0.14494
0.16074 0.01101 0.17996
0.14465 0.00741 0.16316
0.22084 -0.13858 0.20211
0.21387 -0.05447 0.09531
0.06119 -0.05447 -0.21175
-0.15091 0.22576 -0.13637
0.00655 -0.05447 0.08189
-0.04398 -0.03479 -0.21352
-0.21579 -0.29322 0.20041
0.06437 -0.01055 -0.20921
-0.15314 0.20575 0.15741
0.09893 0.00243 -0.22079
0.05581 0.02546 0.06578
-0.17736 0.12699 -0.17078
0.11831 -0.05447 0.13316
-0.05546 -0.03735 -0.02194
-0.05628 -0.05447 0.08714
0.06361 -0.05447 0.19934
0.19774 -0.05447 0.07360
-0.14661 0.05609 0.17078
0.06250 0.01755 -0.21843
-0.19337 0.20575 0.03499
0.09443 -0.05447 -0.11035
0.18554 -0.05447 -0.08310
-0.15781 0.25771 -0.19429
-0.10647 -0.04877 0.00455
-0.12544 0.02546 0.14175
0.11255 0.00023 0.02284
0.22010 -0.07912 0.20350
-0.11371 -0.05447 0.08926
0.03639 -0.01681 -0.07797
-0.20675 -0.26046 -0.17976
-0.16488 0.21247 0.12035
0.05176 -0.05447 0.08112
-0.13625 0.07853 -0.20671
0.15975 0.01079 0.20760
0.19150 0.01790 -0.11318
-0.14879 0.20836 -0.08157
0.04196 -0.05447 0.06971
0.17487 0.02546 0.05053
0.13683 0.00567 0.16272
-0.16475 0.28554 -0.14082
-0.18220 0.11339 0.17078
-0.21664 0.36414 -0.09581
-0.21159 -0.25330 -0.18513
0.22529 -0.03231 -0.14794
0.10879 -0.12830 0.19532
0.18469 -0.06962 0.21960
-0.19866 0.21125 -0.19380
0.18904 -0.05447 0.17160
0.07541 -0.00808 -0.09901
-0.21524 -0.28747 0.21134
-0.04426 -0.03485 -0.10741
0.13224 -0.05447 0.19432
-0.16457 0.22451 -0.20033
-0.18117 0.34084 -0.13756
-0.15149 0.15508 -0.20336
-0.08147 0.02546 -0.07123
-0.18750 0.21247 0.11222
-0.15796 -0.12379 -0.18466
-0.03153 -0.12663 0.18920
0.21637 -0.06439 -0.22030
0.02183 -0.11497 -0.19303
0.14978 -0.05447 0.19858
-0.21625 0.36169 0.17349
0.13165 -0.05447 0.08908
-0.15591 -0.14053 -0.16804
-0.08882 0.02546 0.00471
-0.18499 0.21247 0.14597
-0.19395 -0.11832 0.20985
0.21421 -0.36434 0.19795
-0.07030 -0.03314 0.21446
-0.18125 0.05284 -0.15858
-0.16275 0.27800 -0.18737
0.20522 0.02546 0.07348
0.22054 0.02546 0.19717
0.00442 -0.13055 0.20727
0.07691 -0.00774 -0.13699
0.11836 -0.05447 0.12110
0.02258 -0.05447 0.13221
0.16320 0.02546 0.21086
-0.05492 -0.12083 -0.20566
-0.00013 -0.05447 -0.12597
-0.19967 0.20576 0.14178
0.21940 0.02546 -0.01040
-0.09125 -0.05447 0.13836
0.04911 -0.13228 0.19272
-0.04069 -0.13812 0.19478
0.18935 -0.20384 -0.17986
0.22039 0.02436 0.15032
0.22373 -0.38416 0.21974
-0.16446 0.28446 -0.02043
0.17919 0.02546 -0.19731
0.00366 -0.02413 -0.12271
-0.10194 -0.05447 0.04120
-0.14948 -0.07685 -0.20149
-0.16101 0.27147 -0.15922
-0.13195 0.01187 -0.05124
-0.02479 -0.03049 0.20114
0.03639 0.02546 0.03259
-0.19890 0.21406 0.10551
-0.20077 0.38438 -0.05306
-0.04241 0.02546 0.15819
0.01915 -0.02066 -0.10164
-0.16088 0.27088 0.17806
0.02132 0.02546 -0.19931
0.04906 0.02546 -0.08281
0.19611 -0.23513 -0.18211
0.15832 -0.05447 0.18174
-0.05398 -0.05447 0.10840
-0.19264 0.37358 0.05150
-0.01970 0.01452 -0.21473
-0.16129 0.00003 -0.15858
0.18085 -0.22394 0.19732
-0.17764 0.33023 0.15581
0.02717 -0.12247 -0.19275
-0.18456 0.05169 -0.17078
-0.18169 0.34240 -0.06841
-0.16262 0.02539 0.17078
0.07899 0.02546 -0.18115
0.01021 -0.02266 -0.03305
0.22279 -0.29533 0.20851
-0.18987 -0.33524 -0.20423
-0.10462 0.02546 0.13947
0.17406 0.01400 0.00969
0.21305 0.02546 -0.10977
-0.20982 0.38267 -0.18049
-0.13195 -0.04927 0.00808
-0.03207 0.02546 0.13209
0.11615 -0.05447 0.19418
-0.10186 -0.04774 -0.18032
-0.11664 0.02546 -0.15969
0.04770 -0.01427 0.19397
-0.16287 0.27846 0.07868
0.22529 0.00053 0.07043
-0.21566 0.35799 -0.08609
-0.09159 0.02546 0.07236
0.06451 -0.01051 0.13714
-0.17124 0.30892 0.16892
-0.13167 0.02546 -0.14003
0.08802 -0.05447 0.00993
-0.13195 -0.01587 -0.02702
-0.12664 -0.05447 0.08681
-0.21059 0.32286 -0.10211
0.02810 0.01598 -0.21690
0.19645 0.01900 -0.13743
-0.21317 0.34136 -0.04348
-0.09204 -0.05447 0.04761
-0.19717 -0.36274 0.21483
0.22529 -0.03774 0.00918
0.03370 -0.05447 -0.13855
0.00266 -0.02435 -0.15148
-0.14712 -0.05447 -0.19300
0.20964 -0.06577 -0.22032
-0.17501 0.10826 0.15858
-0.19925 -0.13373 0.18675
-0.21276 0.33843 0.01461
0.08413 -0.11789 -0.21173
-0.19132 -0.34093 -0.20680
0.06103 -0.01129 -0.04516
0.18745 0.01699 0.00230
-0.02123 -0.02970 0.19824
-0.06161 0.02546 -0.07722
-0.07560 -0.04186 0.09257
-0.20999 0.31854 -0.05691
0.22003 -0.38416 -0.20331
-0.12228 0.02546 -0.16026
0.18259 0.01590 0.01824
-0.19225 0.37253 -0.01834
-0.20131 -0.15265 -0.21054
-0.17658 0.24053 -0.19963
-0.16509 0.28682 -0.18260
0.17966 -0.15627 -0.17769
-0.20568 0.28382 0.08479
0.18048 -0.07816 -0.17652
-0.11524 -0.12660 0.20204
0.18810 -0.23060 0.18099
0.03019 0.02546 0.11048
0.19080 -0.00373 -0.22440
0.03062 -0.05447 -0.04971
-0.17084 0.21247 0.15134
-0.18700 -0.05447 -0.20953
-0.16765 -0.22294 -0.21655
-0.09987 -0.12767 0.18621
-0.19482 0.14969 -0.19280
0.21579 0.02546 0.12167
0.18910 -0.18723 -0.17893
-0.00564 -0.02621 0.06861
-0.16131 0.27258 0.18281
0.19028 -0.07964 -0.17653
0.11811 0.01092 -0.22131
-0.04888 -0.03588 0.02481
-0.17263 0.10623 0.17078
-0.19406 -0.02177 0.19314
-0.18872 -0.30333 -0.18664
0.18737 0.02546 0.19562
-0.18649 -0.16928 -0.16975
0.05331 -0.01302 0.07138
-0.18665 0.35729 -0.02066
-0.16665 0.03395 -0.20865
-0.19412 0.37763 -0.06762
-0.05485 -0.00189 0.21381
0.22529 -0.00151 -0.13121
-0.15919 -0.01108 -0.15858
-0.16917 0.20575 -0.11672
-0.15884 -0.16631 0.19762
0.02795 0.02546 -0.05619
0.19246 -0.09039 0.21986
-0.18853 0.01416 0.16340
0.18046 0.02546 -0.10542
0.17827 0.02546 0.12923
-0.14398 0.17838 0.16992
0.05244 -0.05447 -0.08034
-0.15491 0.24525 0.16226
0.08502 0.02546 0.06757
0.20646 0.02124 0.21350
-0.19671 0.38467 0.11478
0.21008 -0.28548 0.18644
-0.15588 0.19904 0.07719
-0.17897 0.16867 -0.17078
0.16389 0.01172 -0.12452
-0.14597 0.16588 -0.20289
-0.20129 -0.37746 0.21477
-0.09024 -0.04514 -0.01745
-0.12970 -0.05397 -0.03954
-0.19866 0.28610 -0.19764
-0.16001 0.21247 -0.07688
-0.02953 -0.05447 0.14228
0.22529 -0.01941 0.05049
0.04709 -0.03324 0.21911
-0.16411 0.13281 0.20359
0.21847 -0.30921 0.22258
-0.20070 0.23573 0.04016
0.08552 -0.00581 -0.08598
0.18053 -0.21979 -0.18092
-0.19103 0.06218 0.16468
0.18804 0.01712 0.19448
0.09993 -0.05447 0.08910
-0.16686 0.00416 0.15858
0.14010 0.00640 0.10299
-0.18100 -0.00098 0.17078
0.11080 -0.02483 -0.22146
0.07060 0.02546 0.03390
-0.20672 0.29241 -0.15922
-0.18863 0.17295 0.17078
0.18343 -0.12741 0.19858
0.21125 -0.32996 0.19241
0.20789 -0.08888 0.17588
0.18146 0.02546 0.12094
0.07079 -0.05447 0.14779
-0.13229 0.05608 -0.18099
0.21024 -0.05447 0.11573
-0.19903 0.19611 -0.16950
0.19391 0.01844 0.15948
0.07332 0.02546 0.09379
-0.06976 -0.05447 -0.00135
0.12893 0.00390 -0.19090
0.11154 0.00001 0.07291
0.16143 0.01117 -0.08844
-0.07850 -0.04251 -0.02926
-0.19462 0.19092 -0.16468
-0.00371 -0.05447 0.11003
-0.04578 -0.03519 0.03840
0.20098 -0.02416 -0.22478
0.17749 0.01476 0.04117
-0.16048 0.26918 -0.17096
-0.16045 0.26905 -0.07057
-0.13195 0.02238 0.15779
0.18741 -0.29028 -0.21065
-0.10096 -0.05447 0.21028
-0.01194 0.02546 0.21101
-0.18360 0.06097 0.17078
0.04858 0.00215 -0.21846
-0.12729 -0.05447 -0.08028
0.11794 0.00144 -0.11194
0.15095 0.02546 0.03078
0.01422 -0.05447 -0.17240
0.20513 -0.18540 -0.22181
0.05762 -0.03266 0.21950
0.05454 -0.05447 0.07375
0.22529 0.00613 0.12942
-0.17681 0.22828 0.19942
-0.04857 -0.05447 -0.08376
-0.21563 0.35783 -0.14433
-0.14297 0.15543 -0.16468
-0.05356 0.02546 -0.00792
-0.15809 -0.04773 0.21147
-0.08634 -0.04426 -0.16068
0.12287 0.00254 -0.20910
-0.10461 -0.05447 -0.17085
0.17445 -0.05447 -0.13296
0.22103 -0.15363 -0.20968
0.18371 -0.07937 0.21972
-0.21331 0.36624 -0.19415
-0.16414 0.19904 -0.06604
-0.21480 0.35255 -0.19018
-0.11388 -0.05447 0.02529
-0.13195 -0.00919 0.04949
-0.19647 -0.03849 -0.16651
-0.20544 -0.31772 0.18852
0.10655 0.02546 -0.02120
0.14742 -0.11315 -0.21450
0.14895 0.00838 -0.02906
-0.20576 0.28444 0.04810
-0.17363 -0.23382 0.17542
-0.15126 0.20575 -0.08834
0.11643 -0.05447 0.11644
0.18304 -0.24968 0.18738
-0.18623 0.35603 0.14523
-0.20776 0.30106 -0.19369
0.14531 0.00756 0.08186
-0.09680 -0.04660 0.19201
-0.13195 0.01131 -0.16155
0.14418 0.02546 0.09933
-0.18712 -0.08202 -0.16454
-0.13195 -0.04990 0.14161
-0.20873 0.38288 0.15055
0.07242 -0.00874 0.15185
0.21253 0.02260 -0.18592
0.19774 -0.22908 -0.22235
-0.13195 -0.05039 -0.11832
-0.18210 -0.29649 0.21994
-0.15671 -0.14695 -0.19950
0.20636 0.02546 0.16201
0.16377 0.02546 0.01841
0.18676 0.02546 -0.10924
-0.21618 0.36129 -0.07161
0.22529 -0.04806 -0.18634
-0.12171 0.02150 0.20967
0.07080 -0.00911 0.04150
-0.01858 -0.02910 0.13092
-0.08277 -0.05447 -0.04785
-0.03639 0.02546 0.09902
0.06204 -0.01107 0.17437
0.22144 -0.05447 -0.05289
-0.07688 -0.11702 0.18849
-0.17520 0.04294 -0.20826
0.18768 0.01704 0.17685
-0.21620 0.36137 -0.00252
-0.18721 0.16900 -0.17078
-0.18668 -0.32218 -0.20683
-0.15762 0.25689 -0.09738
-0.15616 -0.14243 -0.18122
0.06137 -0.01122 -0.17811
-0.19246 0.20575 -0.05668
-0.17861 0.21247 0.12017
-0.04544 -0.03511 0.16569
-0.18466 0.11257 -0.20522
0.14799 0.02546 0.18498
0.00687 -0.02341 -0.12599
-0.14725 0.11187 -0.17078
-0.16165 0.20575 -0.15427
-0.10934 0.02546 0.08802
-0.15379 0.21247 -0.02460
-0.14478 0.05997 -0.17078
-0.20224 -0.23195 -0.21706
0.16121 -0.00364 -0.22331
-0.20827 0.30526 0.05936
-0.21505 -0.28533 0.21811
0.19332 -0.15166 0.17680
-0.13195 -0.02741 0.19718
0.19655 0.01903 0.12914
0.16442 0.02546 0.12041
0.08843 -0.00516 -0.18827
-0.15892 0.26247 -0.01214
0.20376 -0.08177 0.21975
-0.21386 -0.27534 0.18229
-0.13195 0.01819 0.06901
0.11316 -0.05447 0.16614
-0.13560 0.06840 0.20640
-0.07174 -0.05447 -0.04595
-0.18414 -0.19913 -0.21520
-0.21015 0.31971 0.03114
0.01043 0.02546 0.11510
-0.21591 -0.29417 -0.20685
-0.15011 -0.05124 -0.17078
-0.20194 0.24855 0.00811
-0.09070 -0.05447 -0.18748
-0.10378 -0.05447 0.00273
0.13776 0.02546 -0.03533
-0.14294 0.18042 -0.18571
0.15255 0.02546 0.16310
0.11848 -0.05447 0.10953
0.05475 -0.11432 -0.19708
-0.21903 0.37926 0.07782
0.21298 0.02546 0.06805
-0.11324 0.02546 0.01724
-0.17554 0.02154 -0.20920
0.21283 0.01389 -0.22521
0.20526 -0.05447 -0.07587
0.19024 -0.31215 -0.21636
-0.16990 0.30443 0.08485
0.05091 -0.01356 -0.01032
-0.19615 0.17484 -0.18514
0.00631 0.02546 -0.06334
-0.12999 -0.05447 0.19645
0.21368 -0.31221 -0.22339
-0.20500 0.27820 -0.03566
-0.05072 -0.03629 0.11505
-0.16391 -0.20444 0.20231
0.07835 0.02546 -0.21575
-0.19091 0.26464 -0.19858
-0.20196 -0.22874 0.17479
0.07570 -0.13616 0.19991
-0.21247 0.33637 0.05645
0.14544 -0.03403 0.22273
-0.21351 0.34383 -0.03803
0.02065 -0.05447 0.02999
-0.19366 0.37638 -0.18097
0.04003 0.02546 -0.12105
-0.18459 -0.31350 -0.20188
-0.19418 0.30645 -0.19676
0.02645 -0.11497 0.20394
0.07082 -0.12087 0.19367
0.07392 -0.05447 -0.14261
0.09851 -0.00291 -0.07868
0.18011 0.02546 0.01569
-0.18038 0.28899 0.19677
-0.17655 0.32670 -0.10421
0.21909 -0.18274 -0.22178
0.22049 -0.05447 -0.22182
-0.19793 0.20575 0.10322
-0.02434 -0.13775 -0.20546
-0.14903 0.20975 0.05900
0.19911 -0.16432 -0.22155
0.12668 0.02546 -0.20456
-0.19786 0.20132 -0.17661
-0.19764 0.21247 0.14343
0.20338 0.02546 0.17764
-0.03764 -0.13799 -0.19038
0.17975 -0.20810 0.20742
0.04910 -0.05447 -0.12776
-0.18857 -0.25346 -0.17878
0.12637 0.00333 -0.08157
0.07101 -0.00906 -0.21429
-0.16933 -0.23439 -0.21719
-0.18678 0.19904 0.02865
-0.20130 0.24228 0.17528
-0.17557 0.32343 -0.12120
-0.21473 -0.28286 -0.20531
0.11672 -0.05447 0.21763
0.21862 0.02396 -0.07519
-0.17681 0.20575 -0.13431
0.17672 -0.12558 0.20833
-0.11574 0.02546 -0.09936
-0.20122 -0.19009 -0.21469
0.08308 -0.00636 -0.12658
0.21065 -0.18801 -0.22184
-0.16865 -0.01748 0.15858
0.09150 -0.05447 -0.08631
0.09234 0.02546 -0.04215
0.17600 -0.06770 -0.21529
0.17586 -0.05668 0.18023
0.05063 -0.01362 0.02823
-0.11574 -0.03297 0.21233
0.11046 0.02546 0.03460
-0.20017 0.22934 -0.01989
-0.09569 -0.04636 -0.02171
-0.19455 0.14377 0.20036
-0.20180 0.24716 -0.09247
-0.11432 0.02546 -0.00607
0.21065 0.02546 0.01607
-0.20859 0.30794 -0.14444
-0.06693 0.02546 -0.18121
-0.20708 -0.20884 0.20158
0.08279 0.02546 -0.06597
-0.20094 0.38435 -0.12291
-0.19310 0.19944 0.07722
-0.20832 0.30565 0.05341
0.21409 -0.05447 -0.15388
-0.15277 0.21247 0.10974
0.06228 -0.01101 0.08859
-0.07250 0.02546 -0.06349
0.03928 -0.01616 -0.13515
-0.07154 0.02096 -0.21204
0.17834 -0.09190 0.17592
-0.19351 0.37596 0.01420
-0.01157 0.02546 0.07808
-0.19972 0.20644 -0.01413
-0.17381 -0.23855 -0.17678
-0.14908 0.21664 0.19898
-0.15889 0.12569 -0.20465
0.21042 -0.38416 0.21264
0.00897 0.02546 -0.01723
0.04437 -0.01502 0.09726
-0.03370 0.02546 0.03938
-0.06976 -0.05447 -0.16989
-0.03310 -0.12665 -0.20662
0.15779 -0.05447 0.01479
0.02927 -0.01840 0.04441
-0.14951 0.04224 -0.15858
-0.09590 -0.12371 -0.20387
-0.17986 -0.12462 0.16618
0.21020 -0.19930 0.17880
0.22010 -0.07864 0.21910
0.16691 -0.03194 -0.22352
0.11233 0.02546 0.08756
0.20852 -0.16570 -0.17802
-0.17359 -0.16712 0.21262
0.14948 -0.05447 0.22080
0.06547 -0.05447 -0.03048
0.08933 -0.03923 -0.22067
-0.13661 -0.00911 0.17078
-0.18216 -0.05679 0.16461
-0.13964 -0.02441 -0.16097
-0.17061 0.19904 -0.13358
-0.13895 0.13764 -0.16612
-0.13836 0.14533 -0.17126
-0.19390 0.33081 -0.19569
-0.21268 -0.26266 0.21110
0.18850 -0.29921 -0.18901
-0.00608 0.02546 0.03116
-0.04590 0.02546 -0.02612
0.03758 -0.05447 -0.12792
-0.14991 -0.08243 0.16736
-0.18996 -0.02993 0.16382
-0.20643 -0.27013 -0.21922
-0.07128 0.02546 0.04571
-0.07585 -0.13481 0.20376
-0.08132 0.02546 -0.14204
-0.21431 0.34945 0.06247
-0.14133 0.09184 -0.15908
-0.20688 0.29373 -0.08547
0.22529 0.01909 -0.19369
0.16162 -0.12131 0.21413
0.08453 0.02546 0.02257
-0.21915 -0.32549 -0.20702
-0.07126 -0.13154 -0.20495
-0.17336 0.20575 0.11629
-0.18572 0.01503 0.20873
0.16243 0.01139 0.21557
0.18786 0.02546 -0.17329
0.14137 0.02546 -0.05747
-0.22312 -0.36411 -0.20332
-0.18286 -0.09261 0.20840
-0.04245 0.02546 -0.11482
-0.16842 0.08730 -0.15858
0.13256 -0.11278 -0.21367
-0.21187 0.33203 -0.06695
-0.13360 -0.05447 -0.19685
0.20998 -0.29721 0.18787
-0.13132 0.02546 0.15098
-0.14972 0.21986 0.08454
0.22529 -0.01625 0.07509
-0.14668 -0.01870 -0.21095
-0.19853 -0.29423 -0.18508
-0.15183 0.23037 -0.04741
0.19863 -0.36597 -0.20835
-0.12568 -0.13217 -0.18607
0.21180 0.02244 0.16198
0.06053 0.01263 0.21855
-0.11060 -0.05447 -0.17531
-0.19841 0.37317 0.19310
0.13404 -0.05447 0.07558
-0.18659 0.20575 -0.04112
-0.17503 0.02560 0.17078
-0.15312 0.23679 0.04935
-0.21526 0.38165 -0.18812
-0.17475 -0.26704 -0.21827
-0.18299 0.21247 -0.16434
-0.03300 -0.05447 -0.12764
-0.17186 0.31099 0.17769
-0.17558 0.00811 -0.17078
-0.19611 0.38303 -0.12866
0.17968 0.01525 -0.12685
0.01288 0.02546 -0.19918
0.10730 0.02546 -0.16416
0.22242 -0.26552 0.20038
0.13677 0.00565 -0.03914
-0.16051 0.09882 -0.15858
0.01083 0.02546 0.17770
-0.03039 -0.02494 0.21596
-0.19991 0.22619 0.09871
-0.11213 -0.05003 0.11088
0.22529 -0.00637 -0.04327
-0.13195 -0.03727 -0.11198
-0.19846 -0.29034 0.21959
0.22357 -0.35711 0.19980
-0.18959 -0.24569 -0.17769
-0.19210 -0.06433 -0.19086
-0.13251 0.06599 0.17870
-0.14004 0.06667 0.20648
-0.16504 -0.21264 0.18646
-0.19585 -0.09988 -0.20941
-0.18388 0.19023 0.15858
-0.09844 0.02546 -0.02113
-0.00236 0.02546 -0.02820
-0.16339 0.09544 -0.17078
0.02018 0.02546 0.15036
-0.18225 0.34407 -0.15386
0.21535 -0.05447 0.21025
-0.15100 0.20575 0.04569
-0.09880 -0.01417 -0.21230
-0.17819 0.33104 0.19493
-0.14362 -0.04142 0.15858
-0.17387 0.31773 -0.03428
-0.12694 -0.02950 -0.21166
-0.19558 -0.09909 0.16584
0.21788 -0.05447 -0.13589
-0.13281 0.07254 -0.18015
0.22014 -0.08239 0.19007
-0.16768 -0.04880 -0.17078
-0.14199 0.17356 -0.19111
-0.09128 -0.05447 -0.11405
-0.21408 0.34789 0.03138
-0.19368 0.12846 -0.17078
-0.13195 -0.04814 0.18737
-0.17598 0.29816 0.19637
-0.09588 0.02546 -0.12244
0.19431 0.01853 0.06420
0.19980 0.02546 0.04508
-0.11937 0.02546 -0.13770
-0.16964 0.07651 -0.20680
-0.19501 -0.04245 -0.19962
-0.06898 -0.01431 -0.21370
-0.00660 -0.05447 0.12198
-0.13195 -0.01109 0.19675
0.17766 -0.16663 0.21312
-0.13195 0.01522 0.16542
-0.14888 0.21567 0.13994
-0.07771 -0.05447 -0.13992
0.19691 -0.14091 0.17658
-0.05756 0.02546 -0.19656
-0.15862 -0.16449 -0.19384
-0.12070 -0.05195 -0.10489
-0.03440 0.02546 0.00082
-0.19335 0.00123 0.17413
-0.06598 -0.05447 0.08276
0.22086 0.02446 0.04337
0.04952 0.02546 0.13607
-0.16819 0.20575 -0.07861
0.22309 0.02496 -0.04625
0.19444 -0.14064 0.22048
-0.12549 -0.05447 0.13036
-0.13195 -0.01374 -0.08153
-0.22151 -0.34800 0.21457
-0.15062 -0.02836 0.15858
-0.15439 -0.10334 0.16498
-0.17608 -0.21424 0.17314
0.18901 -0.13998 -0.22124
0.20734 -0.31008 -0.22336
-0.15451 0.24353 -0.14999
-0.09180 0.02546 -0.00094
-0.13195 -0.01768 0.09620
-0.16531 0.21247 0.02731
0.09294 -0.00415 0.01470
0.16226 -0.05447 -0.12937
0.19455 -0.34156 0.21755
-0.12460 0.02546 -0.18401
0.18237 0.01865 0.22397
-0.19198 -0.19766 0.17143
0.14050 0.02546 -0.04801
-0.17387 0.18583 -0.15858
0.03172 -0.01785 0.08264
-0.20017 0.21186 -0.03830
-0.04301 -0.12182 -0.20618
0.22232 0.00628 0.22556
0.12188 0.01387 -0.22136
-0.18329 0.09561 0.17078
0.17690 -0.13760 0.18675
0.13773 -0.05447 0.20903
0.18088 -0.05447 -0.19439
0.22529 -0.05155 -0.02800
0.07467 -0.05447 -0.10389
-0.13932 0.15420 0.20210
-0.07631 -0.04202 -0.05659
0.22529 -0.01017 -0.01043
-0.04182 -0.12906 -0.18973
-0.10727 -0.04895 0.03186
-0.19425 0.13727 -0.18102
0.04853 -0.05447 -0.01764
-0.17514 0.32197 -0.09420
-0.16664 -0.02067 -0.21104
-0.18582 -0.30128 0.22021
-0.18901 0.11647 -0.16334
-0.14228 -0.02170 0.17078
-0.13195 0.02240 0.01920
-0.12300 -0.05247 0.14827
-0.21271 -0.26370 -0.19536
-0.19756 0.20495 -0.06250
0.22264 -0.28254 0.21745
0.18856 -0.25333 0.22189
-0.20529 0.28055 -0.09921
0.07553 -0.00805 -0.01775
0.14037 0.00646 -0.18094
0.16318 -0.05447 -0.03711
0.19419 0.00495 0.22453
-0.19704 -0.11317 0.16789
0.03158 0.02546 0.01622
0.22529 0.01967 0.11822
-0.18128 0.34117 0.06125
0.02100 -0.02025 -0.18558
0.22219 -0.05447 0.12112
0.05426 -0.04768 0.21937
0.09308 -0.13578 -0.20178
0.20414 -0.14030 -0.17734
-0.20065 0.23514 0.02671
-0.13195 -0.01841 -0.13623
-0.13195 -0.02204 0.15741
-0.04514 -0.05447 0.21037
-0.01130 0.02546 0.13891
-0.11571 -0.05083 -0.02228
