-0.03635 -0.04590 -0.13829
-0.01089 -0.09513 0.14201
-0.16187 0.03949 -0.19160
-0.18960 0.06136 0.15570
-0.03804 -0.04590 -0.07902
-0.18960 0.33735 0.15706
0.06659 -0.04590 0.16695
-0.18960 0.35255 0.08746
0.11112 -0.04590 -0.00551
-0.13470 -0.04618 -0.19160
-0.08240 -0.04590 0.02210
-0.17684 -0.26407 -0.15732
-0.10297 0.02243 -0.19160
-0.11779 0.41060 -0.07722
0.15102 -0.25609 0.18852
-0.07208 -0.04590 -0.12036
0.15102 -0.31380 0.16760
-0.18960 0.14802 -0.05966
-0.18960 -0.08610 0.14756
-0.05394 -0.04590 -0.05133
-0.18307 0.11752 0.19160
-0.18052 -0.24248 0.19160
-0.02710 -0.04590 0.10078
0.08910 -0.09513 -0.11460
-0.17812 0.08843 -0.19160
-0.18960 0.15519 -0.09308
-0.18960 0.04389 -0.18133
-0.08717 0.09828 -0.11712
-0.08717 -0.03048 -0.13392
-0.18960 0.27820 -0.09951
-0.18960 0.15923 -0.08400
0.06181 -0.09513 0.17545
-0.10038 0.05428 -0.19160
0.17215 -0.09513 -0.06071
-0.08717 0.35653 -0.11467
0.02814 -0.04590 0.09466
-0.03985 -0.09513 -0.03110
-0.18960 0.06697 -0.18794
0.02836 -0.04590 -0.09116
-0.18960 0.02610 0.03656
0.09642 -0.09513 -0.04467
0.01172 -0.09513 0.04498
0.16551 -0.08474 -0.19160
-0.08717 -0.03708 -0.18077
0.00231 -0.04590 0.06832
-0.18960 0.14100 -0.17138
-0.18960 0.32411 -0.12694
0.14565 -0.09513 -0.08928
-0.06194 -0.04590 0.13576
-0.17647 -0.21615 0.19160
0.04426 -0.04590 0.11289
-0.18960 0.21741 0.11793
-0.18960 0.31403 0.05732
0.09579 -0.09513 -0.14766
-0.08717 0.17622 0.04506
-0.11793 0.13077 0.19160
0.16335 -0.21096 0.15056
-0.08717 0.03657 0.05135
0.15254 -0.04590 0.07634
0.18960 -0.14877 0.15297
0.05653 -0.04590 -0.13534
0.18960 -0.06950 0.08130
-0.18960 0.39305 -0.04280
0.12484 -0.09513 0.15650
-0.08765 -0.09513 -0.02820
-0.08717 0.21648 -0.08426
-0.08717 0.12950 -0.15774
-0.18960 0.18473 -0.18872
0.15382 -0.30266 0.15056
-0.18960 -0.03588 -0.09749
-0.18960 0.23492 0.17183
-0.18960 0.13781 0.15565
-0.15157 -0.21083 -0.15732
-0.08717 0.28395 0.02311
-0.08717 0.32409 0.02614
-0.18960 -0.11563 0.15364
-0.18960 -0.04607 0.04880
-0.08717 -0.00235 0.16660
0.18960 -0.09191 0.00478
-0.18960 0.22806 -0.02690
-0.18960 0.27034 0.07327
-0.18960 0.35011 0.01373
-0.08717 0.19319 0.08773
-0.18960 -0.23214 0.15916
0.01096 -0.09513 0.10207
-0.18960 -0.32103 -0.17905
-0.08717 0.16744 0.16529
0.17671 -0.29845 -0.19160
0.06445 -0.09513 0.05177
-0.09158 -0.09513 0.01500
-0.10003 0.11314 -0.19160
-0.08717 0.32787 0.10427
0.15102 -0.36987 -0.16748
-0.08717 0.05302 0.05633
-0.08717 0.00391 0.03636
-0.01625 -0.04590 0.18391
-0.07781 -0.04590 -0.05759
-0.15102 -0.32263 -0.17424
-0.11413 -0.06018 -0.19160
0.02076 -0.04590 0.02433
-0.18960 0.39217 -0.05765
0.15102 -0.19812 0.15809
0.15102 -0.15844 0.16654
-0.05806 -0.04590 -0.19124
0.02467 -0.09513 0.04238
0.18960 -0.04703 -0.09535
-0.18960 0.34108 -0.10557
0.15102 -0.28317 -0.19160
-0.09919 0.25315 -0.19160
-0.18960 0.07932 0.05656
0.18960 -0.16533 -0.18997
0.16687 -0.10008 -0.15045
-0.18960 0.05140 0.17165
0.11124 -0.09513 -0.09723
-0.08717 0.19301 -0.02554
-0.18174 -0.34079 -0.15732
-0.18960 0.35289 -0.11293
0.18960 -0.39538 -0.16113
-0.08717 -0.02951 0.02827
0.03190 -0.04590 -0.17059
-0.07863 -0.09513 -0.05612
-0.17499 -0.16985 -0.19160
-0.18960 0.00377 -0.17402
0.16886 -0.11967 -0.19160
-0.09744 -0.09513 0.10640
-0.17324 -0.40287 -0.15732
-0.18960 0.01997 0.06718
-0.08717 0.00544 -0.08357
-0.18960 0.01569 -0.11285
-0.18960 0.35893 0.08427
-0.13256 0.23593 0.19160
-0.08717 0.32456 0.17796
0.16830 -0.11803 -0.15045
-0.08717 0.16955 0.04370
0.18960 -0.30842 0.18758
0.16862 -0.31597 0.19160
-0.18960 -0.33179 -0.16656
-0.18960 0.35468 0.00472
-0.08529 -0.06417 0.19160
-0.12212 0.34566 -0.19160
0.15541 -0.09513 0.04232
-0.18960 -0.27306 0.16794
-0.08717 0.00520 0.15139
-0.18960 0.37572 -0.09511
-0.08743 0.28584 0.19160
-0.04272 -0.09513 -0.14315
0.15343 -0.09513 -0.09858
0.04608 -0.09513 -0.06646
0.15842 -0.12279 -0.15045
-0.17210 -0.38976 -0.15732
0.17557 -0.04590 -0.00000
0.01267 -0.04590 0.02805
-0.18960 0.37827 -0.04009
0.07052 -0.09513 -0.00938
-0.10466 -0.09513 0.01899
-0.16260 -0.30750 0.19160
0.18409 -0.09513 0.01035
-0.18960 -0.09244 0.17155
-0.18960 0.38959 0.09287
-0.18960 -0.03740 -0.10692
-0.08717 0.26669 -0.12465
-0.08717 0.02105 -0.02905
-0.18960 0.25043 0.10463
0.06592 -0.09513 -0.01238
0.15102 -0.26221 -0.17520
-0.18892 -0.31349 -0.19160
0.18960 -0.28738 -0.15783
-0.08717 0.34676 -0.07932
0.13294 -0.09513 0.00466
-0.12542 -0.09513 0.05188
-0.02858 -0.04590 0.19102
-0.15843 -0.09513 0.08310
-0.18960 -0.09398 0.04866
0.16215 -0.40641 0.15056
-0.15146 -0.22040 0.19160
-0.17452 -0.35861 0.14902
0.15450 -0.04590 0.10192
0.03668 -0.04590 0.06591
-0.15146 -0.31730 -0.15732
-0.08717 0.08885 0.11471
0.15301 -0.25625 0.15056
-0.18960 0.24099 0.16159
0.08774 -0.09513 0.10624
-0.18960 -0.04694 0.02007
0.12869 -0.09513 0.01161
0.18960 -0.24641 0.16000
-0.04602 -0.09513 0.12100
0.02217 -0.09513 0.11883
-0.06070 -0.04590 0.14289
0.15102 -0.13994 -0.18596
-0.01740 -0.09513 0.13266
-0.08717 0.38863 0.01201
0.18960 -0.11053 -0.15816
-0.08717 0.04086 -0.07163
-0.10471 0.38777 -0.13697
0.15102 -0.11944 0.16111
0.17533 -0.04590 -0.03477
-0.02379 -0.04590 0.13511
-0.16215 0.02344 0.19160
0.17458 -0.38145 -0.19160
-0.08717 0.22935 -0.00604
0.16064 -0.09513 -0.10439
-0.09092 0.41474 0.05953
-0.18261 -0.18056 0.19160
-0.00729 -0.09513 -0.13691
0.14002 -0.09513 -0.13268
0.14767 -0.09513 -0.01962
-0.08717 0.27541 -0.05599
-0.18960 0.22377 0.12347
0.18960 -0.07468 -0.04278
-0.18960 0.25083 0.11833
-0.08717 0.25358 -0.17865
-0.18960 0.27114 0.10153
-0.18960 0.19559 0.13339
-0.18960 0.16148 -0.11668
0.00281 -0.04590 0.10199
0.13824 -0.09513 -0.15732
-0.04093 -0.09513 -0.10909
0.18960 -0.34668 0.17886
-0.15426 -0.09870 -0.19160
-0.08717 -0.03282 0.07100
-0.08717 0.24266 0.09206
0.18067 -0.33413 0.15056
0.18950 -0.22697 -0.19160
-0.06277 -0.04590 0.03581
-0.16989 0.12371 0.19160
-0.16176 0.15640 -0.19160
-0.16806 -0.09513 -0.10831
0.00195 -0.09513 -0.10757
-0.10604 0.35694 -0.18473
-0.15102 -0.40984 -0.18063
0.09263 -0.09513 0.18086
-0.13962 0.39264 -0.12669
-0.16732 -0.14543 0.19160
-0.08717 0.06269 0.11740
-0.08717 0.11072 0.03684
-0.18960 0.05687 -0.12527
-0.08717 -0.01511 -0.02946
-0.18345 -0.11982 0.14902
-0.18960 -0.01019 -0.13423
0.02938 -0.09513 -0.08838
-0.15102 -0.30172 -0.16759
-0.18960 0.34128 0.13840
-0.08717 0.14889 0.11039
-0.18960 0.27197 -0.11563
-0.14702 -0.27334 0.15523
-0.17094 -0.22503 0.14902
-0.14702 -0.19627 0.15275
-0.06472 -0.04590 -0.04731
-0.18960 0.25388 -0.17819
0.03343 -0.09513 -0.12474
-0.09075 0.40477 0.09684
-0.18960 0.03192 0.08439
-0.18960 -0.07505 -0.17642
-0.16359 0.35990 0.18072
-0.10573 -0.09513 0.13970
-0.18960 0.25038 -0.03432
0.02906 -0.04590 0.03233
-0.08717 0.19370 -0.05177
-0.18960 0.38664 -0.06678
-0.18960 0.28741 0.16749
-0.18960 0.22164 0.19140
-0.18960 0.34490 -0.09408
-0.10335 -0.09513 -0.11464
-0.17477 -0.24554 -0.15732
0.14942 -0.04590 0.13969
0.03674 -0.04590 0.13900
0.04222 -0.09513 0.12020
0.10197 -0.07989 0.19160
-0.14103 0.35862 -0.18246
-0.06012 -0.05245 -0.19160
-0.04589 -0.09513 -0.08289
-0.18960 0.35822 -0.01427
0.18960 -0.26269 0.17951
-0.15612 -0.40663 -0.15732
-0.08717 0.33213 0.18044
0.12346 -0.09513 -0.00476
-0.08717 0.24984 0.14085
-0.13308 -0.09513 -0.13868
0.13918 -0.09513 -0.04828
-0.18960 0.03913 -0.13816
-0.05754 -0.04590 -0.11510
0.09115 -0.04590 -0.16334
0.15102 -0.40298 0.16247
-0.18960 0.36017 -0.10312
0.15102 -0.38955 0.15906
-0.08717 0.19992 -0.11629
-0.08927 0.22249 -0.19160
-0.09003 -0.09513 0.06333
-0.18960 -0.07143 0.09199
-0.18583 -0.27395 -0.19160
-0.16816 -0.09513 -0.01301
0.13692 -0.05217 -0.19160
-0.15102 -0.34439 -0.16869
0.15695 -0.10029 -0.15045
-0.08717 -0.01313 0.18828
-0.18960 0.30978 -0.13173
-0.08717 0.05557 -0.00519
0.07783 -0.09513 -0.03968
0.12585 -0.04590 0.00784
-0.18960 0.16857 0.06178
-0.18701 0.06227 0.19160
-0.18960 0.20855 -0.08206
-0.08616 -0.04590 -0.18168
-0.18960 -0.32696 0.15932
-0.18027 -0.21296 0.19160
-0.08717 0.35969 0.06419
0.18960 -0.06201 0.12367
-0.05048 -0.04590 0.08617
-0.08717 0.19773 -0.11162
0.18252 -0.14736 0.19160
-0.18960 0.18502 0.08281
0.06335 -0.04590 -0.13707
-0.12613 -0.09513 -0.16599
0.15102 -0.28551 0.18606
-0.05823 -0.04590 0.10787
-0.14702 -0.10703 0.14960
-0.08717 0.06632 -0.01275
0.08166 -0.04590 -0.05312
-0.08717 0.22621 -0.17655
-0.16937 -0.01165 -0.19160
0.10833 -0.04590 0.02925
-0.18960 -0.22916 -0.17153
-0.08717 0.03369 -0.08109
-0.05232 -0.04590 -0.09669
0.16384 -0.04590 0.15255
0.00909 -0.04590 0.07226
-0.03912 -0.05235 0.19160
-0.11784 0.41762 0.04314
-0.14564 -0.09513 0.08358
0.14430 -0.09513 -0.04906
-0.08717 0.18271 0.02144
-0.15102 -0.32550 -0.17881
-0.00646 -0.09513 -0.04092
0.18816 -0.04590 -0.03413
-0.14763 -0.09513 -0.01811
0.08145 -0.04590 -0.07132
-0.04236 -0.09513 -0.03952
-0.18960 -0.02230 0.17043
0.07686 -0.04590 0.10044
-0.17215 0.32882 0.19160
-0.14492 0.13883 0.19160
-0.02738 -0.09513 0.03630
-0.18960 -0.08767 0.09640
-0.16254 -0.39850 0.17121
0.00557 -0.04590 -0.07980
0.18960 -0.08341 0.06333
-0.18960 0.13644 0.09108
-0.18882 0.00158 -0.19160
0.17750 -0.04590 -0.05389
-0.17575 -0.38029 -0.19160
-0.16539 -0.09513 0.10982
-0.08717 0.07367 0.08286
-0.17747 -0.09513 -0.13936
-0.12326 0.41762 0.04309
0.18663 -0.27367 -0.19160
-0.17300 0.39084 -0.13090
-0.09156 -0.09513 -0.10660
-0.18960 -0.10168 0.17422
0.18795 -0.04590 0.16421
0.09688 -0.09513 0.15291
-0.08717 0.10264 -0.00976
-0.16051 0.10057 -0.19160
0.15207 -0.08381 -0.19160
-0.08717 0.05106 -0.13943
-0.12747 -0.09513 0.08205
-0.08717 0.27186 -0.00516
-0.08717 -0.04042 0.11560
-0.09711 -0.02878 0.19160
-0.03619 -0.09343 0.19160
-0.18960 0.22271 0.17416
-0.08717 0.09526 0.18967
-0.08717 -0.01418 -0.12284
0.07454 -0.09513 -0.00099
-0.18062 0.40007 0.10934
0.18960 -0.09422 0.04308
-0.18960 0.05190 0.06132
-0.14570 -0.09513 0.05446
-0.18960 0.04551 -0.15640
-0.08717 0.37481 0.04435
-0.08690 -0.09513 -0.05866
-0.18960 0.25511 0.13475
-0.18960 0.02227 -0.05474
-0.14702 -0.29694 0.17555
-0.08717 0.30421 0.06729
-0.00495 -0.09513 0.04322
-0.12569 0.06303 -0.19160
-0.08717 0.20135 -0.18539
0.13886 -0.04590 0.14083
-0.18960 0.24621 -0.10031
-0.08717 0.30135 -0.07044
-0.15779 -0.09513 0.11208
0.18960 -0.05213 0.17660
-0.18313 -0.09513 0.00108
-0.18960 0.08470 0.05148
-0.08717 0.01537 -0.00381
-0.18960 0.08986 0.18829
-0.18960 0.14278 0.15811
0.18960 -0.09793 -0.18264
0.12480 -0.04590 -0.13495
-0.18960 -0.08005 0.14201
0.18778 -0.15547 -0.15045
-0.08717 0.34709 0.00289
-0.18960 0.31459 0.10391
-0.05173 -0.04592 -0.19160
-0.08717 0.36479 0.04438
-0.08789 -0.09513 0.17496
-0.01797 -0.09513 -0.03850
0.00890 -0.04590 -0.05263
-0.15102 -0.23618 -0.16851
0.18960 -0.04626 -0.15337
0.15102 -0.16729 -0.18121
0.18932 -0.27134 0.19160
-0.07539 -0.09513 0.01745
-0.08717 -0.03082 0.00206
-0.18960 0.16089 0.10081
-0.18960 0.13453 -0.10294
-0.12121 0.30324 -0.19160
0.10088 -0.09513 -0.14859
-0.08717 0.31388 0.02330
-0.15510 -0.39399 0.14902
-0.08717 0.01912 0.00802
-0.08717 0.22881 -0.05142
-0.08717 0.40192 -0.02067
0.13012 -0.09279 -0.19160
-0.08717 0.12952 -0.11205
-0.08526 -0.09513 -0.11053
-0.18777 0.36925 0.16805
0.15102 -0.21490 0.15982
0.15102 -0.27744 0.16579
-0.18960 0.16958 0.15947
0.16255 -0.09513 -0.07851
-0.18960 -0.02482 0.17717
0.18417 -0.09513 -0.01256
0.18038 -0.13913 -0.19160
-0.18960 0.34014 0.05974
-0.18960 0.32939 -0.11842
0.16354 -0.35714 -0.15045
-0.11858 0.23046 0.19160
-0.18960 0.36907 0.03013
-0.05550 -0.09513 -0.09765
-0.17630 -0.20721 -0.19160
-0.16365 -0.31299 -0.15732
0.14714 -0.09513 -0.11191
-0.15662 0.41548 -0.05532
-0.08732 0.38400 -0.14354
-0.11680 -0.09513 0.08332
-0.09804 0.24960 0.19160
-0.08717 0.03740 -0.05414
-0.14702 -0.31500 0.16488
-0.13615 0.04211 -0.19160
0.12032 -0.04590 0.18687
-0.00277 -0.09513 -0.06618
-0.00363 -0.04590 0.11073
0.18884 -0.19141 -0.19160
-0.18960 -0.21151 -0.18215
-0.08717 0.31792 -0.18192
-0.14822 0.41880 0.03636
-0.08717 0.37124 -0.16001
-0.17371 0.10856 -0.19160
-0.18960 0.39413 0.06314
-0.11280 0.38123 0.14837
-0.08717 0.15007 0.15609
-0.08717 0.23734 0.02936
0.07058 -0.09513 0.09808
-0.18960 -0.12011 -0.17261
-0.01797 -0.06776 -0.19160
-0.08717 0.16109 -0.06486
-0.18960 0.36316 -0.06747
-0.15455 -0.09513 -0.08439
-0.15938 -0.11094 -0.19160
-0.07708 -0.04590 0.04054
0.15785 -0.24994 0.15056
-0.17982 -0.41051 -0.19160
-0.00570 -0.04590 -0.04396
0.16613 -0.20272 0.19160
-0.08717 0.02908 0.04519
0.15102 -0.29419 0.18669
0.01629 -0.04590 0.14579
-0.18960 0.08397 0.13967
-0.15629 -0.06736 -0.19160
0.18960 -0.28841 -0.16514
-0.16563 -0.03031 0.19160
0.18960 -0.08251 0.17324
-0.15270 -0.07654 -0.19160
0.06639 -0.05506 -0.19160
0.16793 -0.04675 0.19160
-0.18960 0.20012 0.00153
0.17918 -0.30606 -0.15045
0.02640 -0.04590 0.15352
-0.18960 0.09910 -0.01606
-0.08717 0.17195 0.13997
-0.17933 -0.09513 0.09412
-0.12939 0.01141 -0.19160
-0.08717 0.09178 -0.09486
-0.18960 0.19988 -0.09255
-0.17638 -0.10649 -0.15732
-0.18960 0.17826 0.16850
-0.16081 -0.22442 0.19160
-0.18960 -0.12868 0.15020
0.15102 -0.31700 -0.19062
-0.12584 0.22188 0.19160
0.00499 -0.04590 -0.12103
-0.18960 0.41952 -0.02384
-0.18036 -0.09513 -0.07667
-0.16856 -0.09839 -0.15732
-0.18960 -0.27981 0.15669
0.15102 -0.22039 -0.16057
-0.15102 -0.12067 -0.16826
-0.17344 -0.25397 0.14902
-0.08717 0.35906 -0.03156
-0.18082 0.05704 0.19160
0.15102 -0.12361 -0.17884
0.15145 -0.31339 0.15056
-0.01169 -0.09513 0.18370
-0.02547 -0.09513 -0.17865
0.07528 -0.09513 -0.13634
-0.18960 0.37512 0.12148
0.18960 -0.18702 0.18624
-0.18960 0.36229 -0.02367
-0.08717 0.06625 0.02062
0.15980 -0.30496 -0.19160
-0.14010 0.41924 -0.03239
-0.14695 -0.09513 0.02807
-0.15210 -0.25614 -0.15732
0.18280 -0.11016 0.19160
-0.07321 -0.04590 -0.07657
0.12093 -0.04590 -0.03713
-0.18960 0.40069 -0.07449
-0.18960 0.15274 -0.14887
-0.08717 0.30989 0.06600
-0.18960 -0.00621 -0.07194
-0.12652 0.02476 0.19160
-0.06775 -0.04590 -0.16508
-0.11765 0.31871 0.19160
0.08110 -0.09513 -0.17198
-0.14702 -0.19477 0.16797
-0.18960 0.08339 0.11163
-0.08717 0.08583 0.16513
-0.08717 0.16251 0.17719
-0.18960 0.20131 0.18554
-0.17158 -0.09513 -0.07787
0.00140 -0.08479 0.19160
-0.17732 -0.17567 -0.15732
-0.09819 -0.09513 -0.08741
-0.18960 0.40439 0.05194
-0.08717 0.00229 0.13652
-0.18960 0.36602 0.08782
-0.08717 0.02409 -0.15661
-0.18960 -0.08633 -0.00165
0.17876 -0.33456 0.19160
-0.18960 0.31356 -0.17828
-0.18960 0.04950 -0.13583
-0.18960 0.04388 -0.09067
-0.06277 -0.04590 -0.06172
0.10624 -0.09513 0.12405
-0.17255 -0.09513 0.05278
-0.14666 -0.09513 0.14208
-0.17019 -0.04316 0.19160
-0.16204 0.24389 -0.19160
-0.15537 -0.09513 -0.00987
-0.18960 0.32062 0.14255
-0.18960 0.03303 0.10138
-0.18960 0.14603 0.17128
-0.07647 -0.06949 0.19160
0.14730 -0.04590 -0.00957
-0.15102 -0.32058 -0.19046
-0.15887 -0.37536 0.19160
-0.18960 0.25399 0.09299
-0.05819 -0.04590 -0.14763
0.01965 -0.04590 -0.09985
-0.04021 -0.04590 0.10452
-0.18960 0.17560 0.01830
-0.18960 0.07384 0.14273
0.15102 -0.26287 0.18963
0.05772 -0.04590 0.06861
0.11605 -0.09513 0.11484
0.03855 -0.09513 -0.00960
-0.18960 0.13604 -0.18296
0.04746 -0.04590 -0.01800
-0.18960 0.35798 -0.16525
0.16985 -0.41313 0.18449
0.12507 -0.09513 -0.07134
0.08788 -0.04590 -0.13576
0.09951 -0.09513 0.05372
-0.07305 -0.04590 0.13751
0.18960 -0.21662 0.16702
-0.13384 0.27189 -0.19160
-0.08717 0.29203 -0.14669
0.15102 -0.16904 -0.16081
-0.18960 0.11907 -0.08590
-0.08717 0.23681 -0.04515
-0.18960 0.31369 -0.15772
-0.02320 -0.09513 -0.16815
-0.18240 0.38434 -0.14294
-0.16551 -0.22431 0.14902
0.00948 -0.04590 0.05127
-0.08717 0.05971 0.14422
0.00698 -0.04590 0.11855
-0.15181 -0.09513 0.08676
-0.18960 0.19101 0.09197
-0.08717 0.03623 0.13727
-0.18960 -0.15013 -0.17271
0.18904 -0.25269 -0.15045
-0.15102 -0.30059 -0.18274
-0.18960 0.12529 0.15143
0.16720 -0.05098 -0.19160
-0.18960 0.34946 -0.14689
-0.02649 -0.09513 -0.06043
-0.18960 -0.11095 0.17304
-0.14702 -0.14091 0.17444
0.15642 -0.04590 0.08595
-0.18677 -0.09513 0.03328
-0.18960 0.04481 0.08416
0.17611 -0.09513 -0.10866
-0.15467 -0.22697 -0.15732
-0.18960 -0.04643 0.11151
-0.08717 -0.03256 0.15359
-0.18960 -0.07452 -0.08802
-0.10286 -0.09513 0.07750
-0.14702 -0.38832 0.15035
-0.18960 0.36814 -0.03159
0.18353 -0.04590 -0.12227
-0.08717 0.14098 -0.08540
-0.12201 0.24022 0.19160
0.01124 -0.09513 0.00992
-0.08717 -0.02979 0.19002
-0.18874 -0.18102 -0.15732
-0.08717 -0.01572 -0.10616
-0.18960 0.09949 -0.15033
0.04369 -0.04590 0.07838
-0.18960 0.29907 0.02586
-0.08717 0.24439 0.07984
-0.18960 0.12395 0.16782
0.18960 -0.05807 0.00808
-0.15825 0.29917 -0.19160
0.15102 -0.16762 0.15442
-0.13112 -0.09513 0.03392
-0.10746 0.36140 0.17868
-0.11178 0.41451 -0.06086
-0.14786 0.19107 0.19160
-0.18960 -0.00146 0.02338
0.01847 -0.04590 -0.04489
0.17084 -0.09513 -0.00568
-0.08795 -0.09513 0.08492
0.16606 -0.28588 0.15056
-0.09821 0.15187 0.19160
0.16365 -0.32681 0.15056
-0.15487 -0.26406 -0.19160
-0.18960 0.37800 -0.06498
0.18960 -0.31152 -0.15891
-0.14250 0.26318 -0.19160
-0.08974 -0.09513 -0.16019
-0.18960 0.26640 0.13616
-0.18960 0.39645 0.05438
-0.18960 -0.21343 -0.18769
0.17915 -0.04590 0.05632
-0.13645 -0.09513 0.01768
-0.16110 -0.39850 0.15745
-0.18960 0.04209 -0.13353
-0.15102 -0.17398 -0.17478
-0.12505 0.38544 0.14102
-0.16197 0.21594 -0.19160
-0.18960 0.16328 -0.02923
-0.08717 0.09581 0.11469
-0.18960 -0.27804 -0.17826
-0.18960 -0.00166 0.18806
0.18960 -0.21916 0.17719
0.15826 -0.36898 -0.19160
-0.18960 0.01223 -0.14961
-0.18960 -0.08621 0.14171
0.18960 -0.08270 -0.04224
-0.08717 -0.02525 -0.18236
-0.08717 0.28517 -0.04390
-0.18960 0.01823 0.11218
-0.18960 -0.05644 -0.07201
-0.08717 0.27789 0.00346
-0.00288 -0.04590 0.12027
0.18960 -0.09326 0.11677
-0.08717 -0.01515 -0.00529
-0.08717 0.01757 -0.01462
-0.18960 -0.02511 0.02191
-0.08717 0.13496 -0.14627
-0.18960 0.02898 -0.05982
-0.18960 0.24965 -0.08267
-0.11590 -0.09513 -0.08092
0.18960 -0.08663 -0.16072
-0.08717 0.17578 -0.12834
-0.11444 -0.04525 -0.19160
0.10842 -0.06205 0.19160
-0.12035 -0.01431 -0.19160
-0.09197 0.05966 0.19160
0.00545 -0.09513 -0.12524
0.17850 -0.22346 -0.19160
-0.18960 0.02993 0.00946
-0.08717 0.07147 0.15551
0.15102 -0.18400 -0.15479
-0.18960 0.28917 0.13372
-0.14160 0.41130 0.07487
0.18960 -0.06076 -0.15695
-0.08717 0.21623 -0.03355
-0.18960 -0.05369 -0.03062
-0.08717 0.30852 -0.14103
-0.18960 0.06569 0.07410
0.18669 -0.23782 -0.15045
-0.15570 -0.09513 0.10226
-0.00824 -0.04590 -0.00418
-0.06381 -0.06510 -0.19160
-0.18960 0.06878 0.07798
-0.08717 0.22804 -0.10644
-0.18960 0.04031 0.15398
0.14292 -0.04590 0.04369
-0.17537 -0.20164 -0.19160
0.04854 -0.04590 0.00079
0.15166 -0.13155 -0.15045
-0.02037 -0.06125 0.19160
-0.14702 -0.18298 0.17142
-0.08717 0.27577 -0.03191
-0.18960 -0.04238 -0.01490
0.15102 -0.35843 0.19017
-0.01100 -0.04590 -0.11973
-0.18960 0.22590 0.05083
-0.14702 -0.35380 0.17322
-0.14569 0.04022 0.19160
-0.08717 0.03038 -0.00097
0.17367 -0.41498 -0.19160
0.11098 -0.04590 0.10536
-0.11286 -0.07876 0.19160
0.16156 -0.10662 0.15056
-0.01138 -0.04590 0.04329
0.07084 -0.09513 0.15081
-0.18960 -0.04263 0.18156
0.00055 -0.07240 -0.19160
-0.09828 0.21071 -0.19160
0.14736 -0.05621 0.19160
0.15102 -0.23321 0.16512
-0.15945 0.05878 0.19160
-0.08717 0.23984 -0.08716
-0.18960 0.28015 0.00560
-0.18960 0.01673 0.17492
-0.18960 0.29596 0.00271
0.03848 -0.04590 -0.04064
-0.08717 0.19522 -0.14038
-0.09633 0.10084 -0.19160
0.13137 -0.04590 -0.06917
0.12058 -0.09513 0.14195
-0.04395 -0.09513 0.08629
-0.16807 -0.24033 0.14902
-0.08717 -0.04048 0.06792
-0.00143 -0.09513 -0.15804
0.14972 -0.04590 0.17859
0.18836 -0.21299 0.19160
-0.08636 -0.09513 -0.06697
-0.18960 0.20549 0.00424
-0.09740 -0.09513 0.13248
-0.10594 0.27349 -0.19160
-0.18960 -0.07229 -0.00066
-0.18960 0.18351 0.03413
-0.17886 -0.33659 0.14902
0.16522 -0.04590 -0.04705
-0.14655 0.22272 0.19160
-0.15122 0.36613 -0.17227
-0.08717 0.02848 -0.18995
-0.08717 0.34670 0.01119
-0.08717 0.16439 -0.03183
-0.08717 0.32004 -0.14375
-0.18960 0.16800 -0.04671
-0.16048 -0.35434 0.19160
-0.13719 0.08522 0.19160
-0.08717 0.32931 0.06003
-0.17691 -0.01492 0.19160
-0.08717 0.32580 0.12828
-0.18960 -0.27620 0.18356
-0.08717 0.06676 -0.05022
0.06153 -0.04590 0.03996
-0.15566 -0.16614 -0.19160
-0.14474 -0.03904 -0.19160
-0.18960 0.34830 -0.16517
-0.08717 0.03543 -0.04001
-0.08717 0.05720 -0.16089
-0.11224 -0.09513 -0.16241
0.10389 -0.09195 -0.19160
-0.16947 0.41085 0.07640
-0.12496 0.32381 0.19160
0.11363 -0.04590 0.09405
-0.14313 -0.09513 -0.16487
0.03238 -0.04590 -0.02035
-0.18960 0.03240 -0.05597
0.18960 -0.30326 0.17161
0.15102 -0.26875 -0.17976
-0.08717 0.25721 -0.00393
-0.18960 0.26954 0.12039
-0.08717 0.25181 -0.07464
-0.08717 0.29532 0.10858
-0.18901 0.37838 -0.15335
0.00305 -0.09513 0.05598
-0.18960 0.10050 0.05396
0.00227 -0.09344 -0.19160
-0.11122 0.32543 0.19160
-0.08717 0.12816 -0.07668
0.06614 -0.04590 0.03578
0.01575 -0.04590 0.12263
0.14700 -0.04590 -0.05343
0.11553 -0.09513 0.08200
-0.11283 0.20203 -0.19160
-0.18960 0.19558 0.06600
-0.08717 0.17181 0.07834
-0.04675 -0.09513 0.03470
-0.08717 0.10136 0.13938
-0.08717 0.19207 -0.16001
-0.08717 -0.02518 0.09060
0.15220 -0.11357 -0.19160
-0.18960 -0.06284 0.02710
0.00770 -0.09513 0.13818
-0.18960 0.27886 0.16142
-0.08717 0.19220 -0.00459
0.06011 -0.04590 -0.04515
-0.08717 0.26065 0.02487
-0.12745 0.31878 -0.19160
-0.16116 -0.09513 -0.11730
-0.18495 0.38224 0.14662
-0.04084 -0.09513 0.02457
0.01870 -0.09513 0.09149
-0.18960 0.30463 -0.14945
-0.18960 -0.05245 0.07227
-0.08735 0.36208 0.17776
-0.18960 0.17182 0.17533
-0.18960 0.31156 -0.01516
-0.16817 -0.24788 -0.15732
-0.13190 -0.09513 -0.12570
-0.18960 0.20946 0.11122
0.08747 -0.09506 0.19160
-0.18960 0.02932 -0.18665
0.04907 -0.09513 0.14948
-0.10125 0.09131 0.19160
0.15650 -0.04590 -0.01584
-0.08717 0.24666 -0.07002
-0.18960 -0.06561 -0.05898
-0.15102 -0.17788 -0.17007
0.17175 -0.04590 0.12580
-0.15102 -0.20251 -0.17724
-0.18960 -0.06290 0.16673
0.18960 -0.08427 0.05596
-0.08717 0.23741 -0.12920
0.15986 -0.32761 -0.19160
-0.18960 0.36546 0.13626
-0.18960 0.23089 0.15113
-0.08717 0.18293 -0.10763
0.18960 -0.15748 -0.17150
0.06762 -0.04590 -0.03995
-0.15218 -0.33626 0.19160
-0.18960 0.14087 -0.12698
0.05857 -0.04590 0.18635
-0.12489 0.41865 0.03723
-0.12572 0.37511 -0.15905
0.15796 -0.07011 -0.19160
0.17765 -0.16430 0.19160
-0.08717 0.34220 -0.00961
-0.18960 0.38765 -0.12174
0.18960 -0.31951 -0.15714
-0.05861 -0.04590 0.10100
-0.08717 -0.01291 0.01048
-0.12790 -0.09513 0.15834
-0.08717 0.28166 -0.12607
-0.15102 -0.31411 -0.16692
-0.18960 0.04163 0.17227
-0.08717 0.35181 0.09609
0.11110 -0.09513 0.13043
0.18960 -0.19528 0.18396
-0.18014 0.37300 0.16275
-0.16123 -0.23701 -0.19160
0.03831 -0.09513 0.16511
-0.18960 0.28841 0.05824
-0.07166 -0.09513 -0.02937
-0.08717 0.30963 0.14435
-0.18960 0.15176 -0.17487
0.15782 -0.04590 0.12123
-0.18960 -0.01336 0.16601
-0.18960 0.17015 -0.18189
-0.08717 0.01558 0.00465
-0.09652 0.00138 0.19160
0.18960 -0.07179 -0.14628
-0.15257 0.40775 -0.08682
0.14499 -0.04590 -0.07158
-0.15102 -0.15635 -0.17524
-0.08717 0.29250 0.17816
-0.13347 0.06232 -0.19160
-0.00931 -0.09513 -0.12570
-0.12758 -0.09340 0.19160
0.00273 -0.04590 -0.13021
-0.18960 0.30244 0.17485
-0.18360 0.23963 -0.19160
-0.18254 -0.24627 0.14902
-0.08717 0.33870 0.16920
-0.16706 -0.24054 -0.15732
-0.08717 0.13456 0.16950
0.18960 -0.30225 0.18342
-0.17827 -0.08270 0.19160
-0.17999 -0.39850 0.17377
0.02921 -0.09513 0.18439
-0.05046 -0.09513 0.07351
0.18960 -0.24816 0.16615
-0.18960 -0.06292 -0.18643
-0.18960 0.36499 0.02300
-0.07718 -0.09513 -0.15830
0.15102 -0.26309 0.15520
0.18960 -0.06223 -0.10329
-0.18960 0.29176 -0.06215
0.09245 -0.04590 -0.08360
-0.13301 -0.09513 -0.00061
0.02987 -0.09513 0.15226
-0.18960 0.10300 -0.10112
-0.15922 -0.03533 0.19160
-0.12684 0.11867 -0.19160
-0.08717 0.10199 0.07742
0.06006 -0.04590 -0.08237
0.15102 -0.24768 -0.15873
-0.08717 0.18252 0.05656
-0.08717 0.04354 -0.18971
-0.18960 0.13112 -0.16144
-0.08717 0.30809 0.12947
-0.18960 -0.06731 0.07946
-0.12515 0.29327 0.19160
-0.18960 0.30574 -0.13959
0.12709 -0.04590 -0.01402
-0.01021 -0.05143 0.19160
0.18960 -0.06376 0.08743
0.15102 -0.22967 -0.18290
-0.18960 0.18307 0.05061
0.15268 -0.06100 0.19160
-0.18960 0.08994 0.02482
-0.12258 -0.09513 0.17395
-0.08717 0.32831 -0.03847
0.17894 -0.39339 0.19160
0.18960 -0.04795 0.05676
0.00051 -0.04590 0.18053
-0.18960 0.16842 -0.02900
0.03468 -0.05573 -0.19160
-0.18619 -0.36885 -0.19160
-0.08717 0.36268 -0.02676
0.02416 -0.09513 0.16732
0.18933 -0.40769 -0.15045
-0.18294 -0.23891 -0.19160
-0.17173 0.41119 -0.07523
-0.18960 0.18862 0.18045
0.10810 -0.09513 0.15612
-0.08717 0.19200 0.01191
-0.18960 0.23317 0.08232
0.07562 -0.04590 -0.17146
0.15191 -0.42112 -0.18715
0.05866 -0.09513 -0.12540
-0.08717 0.10979 0.18766
-0.09386 0.14461 -0.19160
0.04795 -0.09513 0.13753
-0.13997 -0.00176 0.19160
-0.17752 -0.09513 0.06932
-0.18960 -0.29931 -0.16783
-0.12423 0.15075 -0.19160
-0.16813 0.38268 -0.14584
-0.18960 0.22901 -0.04092
-0.18960 -0.20621 0.16975
-0.11208 -0.09513 0.17897
-0.18960 0.07405 -0.11039
0.18960 -0.19819 -0.18705
-0.18960 0.35051 -0.11757
-0.15937 -0.05829 -0.19160
0.08302 -0.04590 0.13534
-0.18960 0.34613 -0.18668
-0.18960 0.05508 0.11800
-0.18960 -0.02251 -0.06755
0.10157 -0.04590 -0.18722
-0.09304 0.36407 -0.17506
-0.16289 -0.27288 -0.19160
-0.15102 -0.23175 -0.16618
-0.08717 -0.03424 0.04566
-0.08717 -0.01790 -0.03653
-0.18960 0.21244 0.00451
-0.17828 0.38185 -0.14729
-0.08717 0.08213 -0.15930
-0.18960 0.24448 0.04777
0.12025 -0.05942 -0.19160
-0.12406 0.14241 0.19160
-0.15077 -0.09911 0.14902
0.13711 -0.09513 0.15718
0.16287 -0.20539 -0.15045
0.18960 -0.04651 0.13974
-0.10008 -0.05101 0.19160
-0.18960 -0.05646 0.03555
-0.18960 -0.02000 -0.10417
0.01973 -0.04590 -0.12107
0.13964 -0.04590 0.01699
-0.18960 0.22075 0.18266
0.18960 -0.06222 0.01630
0.10960 -0.04590 -0.11836
0.13315 -0.09513 0.10013
-0.17460 -0.26667 0.14902
-0.13286 0.34449 0.19160
-0.08717 0.35383 -0.04954
-0.18822 -0.36095 0.14902
-0.05690 -0.04590 -0.09161
0.07165 -0.04590 0.00754
-0.11345 -0.05047 0.19160
-0.08717 0.20871 0.10656
-0.18960 -0.14418 -0.16143
-0.18960 0.22102 0.00502
-0.18960 0.41054 -0.01141
-0.18960 0.19292 -0.14518
-0.18960 0.25127 -0.16052
-0.08717 -0.04058 -0.05853
-0.08717 0.26184 -0.15452
0.14632 -0.09026 0.19160
0.05982 -0.09513 0.03641
0.05182 -0.09513 0.08207
-0.08717 0.20041 -0.08629
0.16072 -0.30374 0.15056
-0.07007 -0.04590 0.12012
-0.15739 -0.09513 -0.13373
-0.18960 0.11474 -0.07422
0.17359 -0.11992 -0.15045
0.13405 -0.04590 -0.06349
-0.18286 -0.37855 0.14902
-0.18960 0.35004 0.14457
0.16894 -0.13403 0.19160
0.04511 -0.04590 0.04742
0.04299 -0.04590 0.03310
-0.08717 0.31361 0.07427
-0.18960 -0.24154 0.17962
0.09668 -0.04590 0.06941
-0.11220 0.13915 -0.19160
0.06860 -0.04590 -0.07080
-0.16553 -0.19244 0.19160
-0.08717 0.17879 0.03820
-0.18960 -0.37995 -0.18988
0.17655 -0.04590 0.02900
-0.18960 0.27395 0.13032
-0.08717 0.14282 -0.10438
-0.12375 0.07571 0.19160
0.07137 -0.09513 0.17652
-0.08717 0.25333 -0.03306
-0.18604 -0.24909 -0.15732
-0.08717 0.32793 -0.14678
-0.18960 -0.41223 -0.16000
0.05610 -0.09513 0.07078
-0.15724 0.33842 0.19160
0.16238 -0.11865 0.19160
-0.15306 0.09445 -0.19160
-0.18960 -0.11206 0.18941
0.13794 -0.09513 -0.14345
0.15102 -0.16368 0.15762
-0.18960 -0.29993 0.15847
-0.17660 0.17462 0.19160
0.16314 -0.41520 -0.15045
-0.09784 -0.06179 -0.19160
-0.08717 0.10120 0.08670
-0.00754 -0.04590 0.16690
-0.06106 -0.04590 0.09460
0.18960 -0.18133 -0.15083
0.17251 -0.29828 0.19160
-0.18960 0.00825 0.13527
0.16990 -0.19167 0.15056
0.18960 -0.35229 -0.18716
0.04599 -0.09114 -0.19160
0.16925 -0.04590 0.01337
0.18915 -0.16258 0.19160
-0.18960 0.10117 0.04559
-0.18960 0.18323 -0.03806
-0.02882 -0.04590 -0.12372
0.00076 -0.04590 0.01823
-0.18960 0.08497 -0.07574
0.18058 -0.22673 0.15056
-0.13911 -0.09513 -0.15786
0.07712 -0.09513 -0.01288
-0.03276 -0.09513 0.05423
-0.16118 -0.08315 -0.19160
-0.08717 0.06793 0.10619
0.04827 -0.09513 0.02881
-0.06802 -0.09513 -0.16892
-0.00161 -0.04590 -0.15070
-0.18960 0.12098 0.11253
-0.18960 0.25542 0.14734
-0.12183 -0.09513 0.04169
0.18960 -0.07152 -0.00525
0.18960 -0.20224 -0.17283
-0.00171 -0.09513 0.00569
-0.08717 0.11118 -0.02409
0.09468 -0.09513 -0.10939
-0.18960 0.34221 0.00133
-0.18960 -0.09767 -0.18574
0.03564 -0.09513 0.05459
-0.09619 -0.08505 0.19160
-0.14702 -0.17191 0.17895
-0.11409 0.41498 0.05817
-0.08717 0.24386 -0.06341
0.18960 -0.32199 0.17647
-0.17215 0.42006 -0.01825
0.06819 -0.04590 -0.01356
0.15986 -0.41094 0.19160
0.18960 -0.11245 0.18471
-0.16209 -0.32243 -0.19160
-0.18960 0.26731 0.04058
0.18960 -0.09167 -0.00407
-0.16305 -0.06402 0.19160
-0.15755 0.28208 -0.19160
-0.18960 0.08819 -0.08033
0.01863 -0.04590 0.04728
-0.18960 0.13229 -0.09797
-0.08717 0.24469 0.00165
-0.17043 0.10254 -0.19160
0.18383 -0.38160 -0.15045
-0.08399 -0.09513 0.14127
0.15102 -0.29276 0.17406
0.15559 -0.14118 -0.19160
-0.18960 -0.35548 -0.16829
0.04594 -0.04590 -0.16123
-0.08717 0.03849 0.12033
-0.08717 0.31185 -0.00723
0.17519 -0.20492 0.15056
-0.00215 -0.04987 -0.19160
-0.11315 -0.07153 -0.19160
-0.10007 0.32461 -0.19160
-0.12047 0.29058 0.19160
-0.08261 -0.09513 0.06048
-0.18960 0.10057 0.10243
0.15793 -0.21995 -0.15045
-0.15472 -0.37627 -0.15732
0.05545 -0.09513 0.12059
-0.08717 0.40883 -0.02541
-0.08717 0.13840 0.01114
-0.15102 -0.33736 -0.17011
-0.13656 0.40428 0.09847
-0.18960 -0.02421 0.18648
-0.05153 -0.04590 0.09964
-0.08717 -0.01424 -0.13402
-0.15102 -0.37623 -0.17094
-0.08717 -0.03793 0.09553
0.08548 -0.04590 0.06356
-0.16535 0.42077 -0.00605
0.10508 -0.04590 0.07608
0.16863 -0.15444 -0.19160
0.16110 -0.33887 -0.19160
-0.15751 0.28208 0.19160
-0.18960 -0.33380 0.15150
-0.07800 -0.09513 -0.18906
-0.08717 0.35087 0.14116
0.18554 -0.23913 0.15056
-0.11157 -0.09513 -0.12413
-0.18960 0.03062 0.05693
-0.17555 -0.19414 -0.15732
-0.18960 -0.30645 0.16459
-0.08717 0.10398 0.09401
-0.08717 0.24443 -0.13225
-0.15327 0.41944 0.02907
-0.14702 -0.34611 0.18437
0.13879 -0.09513 -0.16413
-0.18960 0.28907 -0.14955
-0.18960 -0.04616 0.11676
0.15102 -0.17934 0.16854
-0.17306 -0.14414 -0.19160
0.15892 -0.15836 0.19160
0.07782 -0.07900 0.19160
-0.18960 -0.08358 -0.13625
-0.18960 0.28817 0.08323
-0.18960 0.15728 0.05659
0.18960 -0.07539 -0.01697
0.00665 -0.09513 0.11153
-0.17480 -0.16073 0.19160
-0.08717 0.07840 -0.09826
-0.08717 0.22210 -0.12551
-0.05792 -0.09513 0.08439
0.10790 -0.09513 -0.12964
-0.18960 0.09971 0.00405
-0.08717 0.00508 -0.14399
-0.15615 0.17602 -0.19160
-0.15494 -0.09152 -0.19160
0.06035 -0.09513 0.01668
-0.18960 0.12431 0.01182
-0.06414 -0.07045 0.19160
-0.18336 0.15141 -0.19160
-0.18960 0.13830 -0.08263
-0.08717 0.11545 0.16310
0.02896 -0.04590 -0.01513
-0.18960 0.20055 -0.06281
0.18960 -0.34304 0.18455
0.07359 -0.07987 -0.19160
-0.06916 -0.04590 -0.06199
-0.16030 -0.05314 0.19160
-0.17550 0.31824 0.19160
0.13094 -0.04590 0.07257
0.13535 -0.09513 0.07341
-0.18720 -0.09513 -0.13134
0.18960 -0.07130 -0.03205
0.18888 -0.32218 0.15056
0.18960 -0.09051 -0.08434
-0.17252 -0.28113 0.19160
0.15041 -0.04590 -0.14149
-0.09411 0.41661 -0.04886
-0.18960 0.26457 -0.12877
-0.18960 0.02570 -0.07216
-0.08717 0.21529 0.00205
-0.18960 0.01672 -0.07590
-0.08856 -0.07222 0.19160
0.13678 -0.06411 0.19160
0.15102 -0.35579 -0.16232
-0.14310 0.01431 -0.19160
0.02204 -0.09513 0.06996
-0.18960 0.32883 -0.02109
0.11025 -0.09513 0.18403
-0.13461 -0.09513 -0.16877
-0.18960 -0.08939 -0.04696
-0.15504 -0.19124 0.14902
-0.18264 -0.12488 -0.19160
-0.18960 -0.36806 -0.16310
0.18960 -0.06107 -0.02169
0.10822 -0.09513 0.06505
0.12633 -0.04590 -0.00644
0.18937 -0.39673 -0.15045
-0.08717 -0.03498 -0.01626
-0.09335 -0.09513 -0.01075
-0.18960 0.34406 0.16805
-0.18960 0.16003 0.13819
-0.18960 0.17111 0.03756
-0.18034 -0.11003 -0.19160
-0.18960 -0.05848 0.12668
-0.08717 0.00065 -0.15062
-0.18960 0.38659 0.10644
0.15102 -0.19840 -0.17523
-0.09907 -0.09513 -0.18833
-0.05430 -0.04590 0.17397
-0.18960 -0.01725 -0.12863
-0.18960 -0.05490 0.05345
-0.17315 -0.27858 -0.19160
-0.02123 -0.09513 0.02877
-0.08717 0.11910 -0.17240
0.05559 -0.09513 0.10170
0.15102 -0.40607 0.18760
0.04581 -0.04590 -0.13350
-0.18960 0.35292 0.14012
-0.08717 0.25306 0.15476
-0.18960 -0.05340 0.09259
0.09344 -0.04590 -0.12859
-0.17547 0.02659 -0.19160
0.10319 -0.09513 0.01151
-0.16917 -0.39905 -0.15732
0.14011 -0.04590 -0.02474
0.04118 -0.09513 0.04771
-0.06005 -0.04590 -0.00708
-0.00320 -0.09513 0.09917
-0.08717 0.04291 0.16771
0.15884 -0.09513 0.12987
-0.18960 0.25844 0.04198
-0.08717 0.18022 0.10832
-0.15336 0.02593 0.19160
-0.00819 -0.09513 0.12768
-0.14702 -0.39612 0.17810
-0.13964 -0.09513 -0.07187
0.15102 -0.20002 -0.19065
-0.08717 0.15156 0.17680
-0.18960 0.06651 -0.16013
-0.01022 -0.06808 0.19160
0.06666 -0.04590 -0.07946
-0.18084 -0.28058 -0.19160
-0.08717 0.11042 0.00466
0.11104 -0.09513 -0.00288
-0.17762 -0.15621 -0.15732
-0.18960 0.06161 0.17149
-0.18960 0.00103 -0.14781
-0.08717 0.06396 0.03496
-0.08717 0.35509 0.05586
-0.08717 0.39239 0.02917
-0.12687 0.42074 0.00656
0.18740 -0.04590 -0.04619
-0.05623 -0.09513 -0.12669
0.15716 -0.18211 -0.19160
-0.14491 -0.08882 -0.19160
-0.16280 0.29799 0.19160
0.17695 -0.09513 0.07015
0.15102 -0.20338 0.18995
-0.12780 -0.09513 -0.18098
0.01677 -0.04590 -0.08579
0.18592 -0.04590 0.07742
0.18770 -0.04590 0.12792
-0.08717 0.40013 -0.09639
0.13180 -0.09513 0.13537
-0.18960 0.07869 -0.13051
-0.14702 -0.17070 0.18705
-0.17891 0.41562 0.05453
-0.15444 0.03066 0.19160
0.18960 -0.05794 0.15760
0.15926 -0.24192 -0.19160
-0.09694 0.12563 -0.19160
0.18942 -0.26126 -0.15045
-0.08717 0.37353 -0.02585
0.09126 -0.09513 -0.01380
-0.16251 -0.16893 -0.19160
-0.18960 0.08970 -0.03368
0.00290 -0.09513 -0.11531
0.15102 -0.37625 -0.18537
-0.14431 -0.06484 0.19160
-0.12618 -0.09513 0.17934
0.02615 -0.04590 -0.17927
-0.13184 0.06691 0.19160
0.16135 -0.36132 -0.19160
0.18960 -0.27713 0.17049
-0.08717 0.28942 0.01523
-0.08717 0.12831 0.09436
-0.15674 0.08246 0.19160
0.16731 -0.29251 -0.19160
-0.15568 0.04163 -0.19160
0.10422 -0.09513 -0.14480
-0.18960 -0.00275 -0.02489
0.18618 -0.19426 -0.15045
0.14514 -0.07067 0.19160
-0.01787 -0.09513 -0.01478
0.18960 -0.06886 -0.12551
-0.09792 0.40175 -0.10544
0.15102 -0.28084 -0.17263
-0.18960 0.20580 0.12205
-0.18960 -0.27696 -0.19127
-0.18960 0.30655 -0.06224
-0.09229 0.29140 0.19160
0.18960 -0.41588 -0.16428
-0.14702 -0.11538 0.18302
0.18960 -0.18471 0.16638
-0.14708 0.33542 -0.19160
-0.14702 -0.23085 0.17869
0.18406 -0.07614 0.19160
-0.16181 0.23171 -0.19160
0.18811 -0.04590 -0.05593
-0.04633 -0.09513 0.07975
0.15810 -0.34355 0.15056
-0.16193 0.41435 -0.06180
-0.11446 0.03840 -0.19160
0.01647 -0.08049 0.19160
0.10386 -0.04590 0.00775
-0.08717 0.03574 0.11344
-0.14702 -0.34203 0.15715
0.13828 -0.09513 -0.13847
-0.18960 0.19460 -0.03046
-0.08717 0.03680 -0.14100
-0.08717 0.26505 -0.07951
-0.18960 0.25533 0.02877
-0.14845 -0.18883 0.19160
-0.15102 -0.11142 -0.18016
0.18960 -0.05346 0.02569
-0.08717 0.29710 -0.03027
0.16091 -0.09513 -0.14089
0.18960 -0.06004 -0.12313
-0.08717 0.07319 0.17149
-0.14999 0.14327 0.19160
-0.18846 0.42018 0.01614
-0.03377 -0.04590 0.07768
-0.06108 -0.09513 -0.03660
0.14943 -0.09513 -0.18598
-0.18960 0.06876 -0.12967
0.15463 -0.09513 -0.02623
-0.18960 0.33044 -0.06257
-0.18960 0.39208 -0.09344
-0.14794 0.08046 0.19160
-0.08717 0.16951 -0.05926
0.15739 -0.07563 0.19160
-0.04081 -0.04590 -0.18371
-0.18960 -0.04851 -0.17561
-0.12355 0.27790 -0.19160
-0.08717 0.36868 0.05844
-0.18912 -0.38259 0.14902
-0.08177 -0.09513 0.08236
0.08998 -0.09513 0.12038
0.13190 -0.04590 0.08727
0.17888 -0.09513 0.11600
0.18736 -0.09513 -0.14755
-0.18330 -0.29414 0.14902
-0.10172 -0.07180 -0.19160
-0.18960 0.36827 0.03772
-0.18960 0.06097 -0.13715
-0.15102 -0.26671 -0.16761
0.18960 -0.04663 0.18924
0.16482 -0.19106 0.19160
-0.17059 -0.17441 -0.15732
-0.18581 -0.20596 -0.19160
-0.18960 0.20877 0.15201
0.15102 -0.26045 -0.16951
0.17538 -0.09513 0.03881
-0.13028 0.07634 -0.19160
-0.18960 -0.08324 0.03882
-0.18960 0.21082 0.02452
-0.15102 -0.23695 -0.18598
-0.18443 0.16982 -0.19160
-0.09222 0.31156 0.19160
-0.16033 -0.35738 -0.15732
-0.14017 0.30742 -0.19160
-0.17536 -0.18677 0.14902
0.18198 -0.09513 -0.02833
0.18960 -0.09103 0.15932
-0.18960 0.30311 0.14466
0.15102 -0.22169 0.16747
0.17685 -0.23455 0.19160
-0.08717 0.07923 -0.19139
-0.14702 -0.33925 0.16422
0.16859 -0.39680 -0.19160
0.15512 -0.09666 0.19160
-0.15102 -0.24538 -0.18143
0.18960 -0.30815 -0.18932
-0.15932 -0.30828 0.14902
-0.08717 0.19255 -0.06519
0.15102 -0.25922 -0.15076
-0.15313 0.25248 0.19160
-0.18960 0.27842 -0.04695
-0.18880 0.25069 -0.19160
-0.08717 0.26559 -0.11880
-0.14073 0.34501 -0.19160
-0.18960 -0.01720 -0.09675
0.14963 -0.04590 -0.16401
0.07369 -0.09513 -0.15427
-0.08717 0.21953 0.18680
-0.14702 -0.19370 0.19153
-0.08717 0.05849 0.09648
-0.18960 -0.03550 0.18061
-0.16606 -0.15974 -0.15732
0.13332 -0.07854 0.19160
0.09534 -0.09395 -0.19160
0.14972 -0.09513 0.04469
0.06268 -0.09513 -0.06539
-0.12048 0.39741 0.11556
-0.14702 -0.27274 0.16071
0.17070 -0.20784 -0.15045
0.15289 -0.13632 0.19160
0.00354 -0.09513 -0.01716
-0.01431 -0.09513 -0.18926
-0.12851 -0.09513 0.06521
-0.18960 -0.28220 -0.17280
-0.04769 -0.07522 0.19160
-0.16262 -0.10578 0.19160
0.15102 -0.34294 0.15093
0.05437 -0.04590 -0.04097
-0.18960 0.24351 -0.05898
-0.18960 0.38569 -0.11569
-0.02007 -0.04590 -0.13106
-0.18960 -0.04493 -0.09844
-0.08717 -0.02332 -0.17028
0.16052 -0.35402 0.15056
-0.18960 -0.37714 0.15459
-0.18960 -0.09299 0.14320
-0.08717 0.01220 -0.07017
-0.15102 -0.16310 -0.17969
-0.14619 0.41232 0.07143
0.18193 -0.40477 -0.15045
-0.13014 0.42097 0.00253
-0.15844 0.11249 0.19160
-0.18221 -0.39850 0.19021
-0.18960 -0.26170 -0.17457
-0.15710 -0.08396 0.19160
-0.18960 0.17916 -0.00072
0.13921 -0.08610 -0.19160
-0.14829 -0.31053 0.19160
-0.18960 0.25525 -0.00199
-0.18508 0.04562 0.19160
-0.18960 0.40418 -0.04271
-0.18960 -0.14330 0.14999
0.15102 -0.17052 -0.18752
0.02306 -0.04590 -0.14514
0.06392 -0.04590 0.07220
-0.08717 0.39477 -0.02094
-0.18960 -0.17206 0.16160
0.04068 -0.09513 0.13417
-0.18960 0.24789 0.02170
-0.08717 -0.04198 0.14253
0.18960 -0.05423 0.06791
0.09068 -0.04590 0.05433
-0.08717 0.36786 -0.03943
0.18960 -0.15113 -0.17038
-0.18960 0.16636 -0.12909
-0.03750 -0.09513 0.16079
0.18960 -0.06478 0.11835
-0.18960 0.00896 0.12538
0.14458 -0.09513 0.07253
-0.12273 -0.09513 0.13148
-0.18960 0.01908 0.14815
-0.18076 0.42036 -0.01316
-0.08717 0.22288 -0.13349
-0.08717 -0.01996 0.06768
0.09547 -0.09513 -0.18599
-0.18960 0.02791 0.06281
0.18960 -0.23241 -0.18534
0.15102 -0.36164 -0.17408
-0.03574 -0.09513 -0.09630
-0.18960 0.33089 -0.15585
0.14782 -0.09513 0.11420
-0.03677 -0.09513 -0.06383
-0.09787 0.35823 -0.18298
-0.08717 0.18219 0.17408
-0.18960 0.37467 0.15324
-0.18960 -0.15760 0.15785
0.00197 -0.09513 -0.18097
-0.18960 0.01602 0.07776
-0.16248 -0.41713 -0.16934
0.17754 -0.15412 -0.15045
-0.18960 0.33203 -0.17194
0.08856 -0.04590 -0.00737
-0.14702 -0.26454 0.17301
-0.17983 -0.28737 -0.15732
0.16932 -0.10390 0.19160
0.01602 -0.09513 -0.14351
-0.05261 -0.04590 -0.16599
-0.04044 -0.04590 -0.16822
-0.08717 0.03696 -0.17877
-0.08717 0.00633 -0.18788
-0.18960 -0.02966 0.02350
-0.12615 -0.00230 -0.19160
0.17687 -0.34417 0.15056
-0.17365 -0.11851 0.19160
-0.17008 -0.24837 0.19160
-0.16476 -0.28227 0.14902
-0.15201 -0.39192 0.19160
-0.08717 -0.01479 0.03017
-0.17679 0.02819 0.19160
-0.18960 -0.10829 0.16631
0.17463 -0.42112 -0.15512
-0.18960 0.40208 -0.08019
-0.15519 -0.12568 0.19160
-0.11781 0.25050 -0.19160
-0.08717 0.34196 -0.13085
-0.08717 0.09493 0.07943
-0.08717 0.23074 0.09790
-0.00942 -0.04590 0.07512
-0.18960 0.19640 0.05876
-0.08717 0.03272 0.14868
0.14507 -0.04590 -0.15294
-0.18960 0.30071 -0.05071
0.15409 -0.41313 0.16112
-0.13332 -0.00022 -0.19160
-0.18960 0.32874 0.10042
0.18960 -0.24748 0.15515
-0.11264 0.14501 0.19160
-0.10092 0.42079 -0.00575
-0.08717 0.02824 -0.16629
0.03426 -0.07281 0.19160
0.10686 -0.04590 0.04764
-0.08717 0.40660 0.04004
-0.18960 0.41711 -0.01382
-0.03396 -0.09513 -0.02219
0.16983 -0.34185 0.19160
0.02971 -0.09513 0.16577
-0.06207 -0.09513 -0.06052
-0.18960 0.16358 -0.17818
-0.18818 -0.20723 0.19160
-0.08717 0.06624 -0.16407
-0.08717 0.19667 0.16159
-0.18960 0.13802 0.01061
-0.14253 0.17714 -0.19160
-0.08717 0.00583 0.00420
0.16909 -0.26771 0.19160
-0.18960 -0.07730 -0.06734
-0.08717 0.21558 0.05729
-0.18181 -0.17799 0.14902
-0.18960 -0.26326 0.19050
-0.18089 0.04981 -0.19160
-0.18960 0.05485 0.19077
0.18960 -0.41089 0.17465
0.15934 -0.22292 0.19160
-0.18960 0.11746 0.02425
-0.00038 -0.04590 0.08599
-0.13139 -0.09513 -0.11911
-0.18960 0.26130 -0.09652
-0.08717 0.15691 -0.07035
-0.18960 -0.36291 -0.17059
-0.08717 0.25838 0.04926
-0.18960 0.21965 0.07620
0.18960 -0.34842 -0.15297
0.15252 -0.38932 0.19160
-0.06608 -0.04590 -0.07102
-0.08717 0.04926 -0.03776
-0.17295 -0.25678 0.19160
0.15344 -0.09513 -0.05974
-0.16810 0.25834 0.19160
-0.18960 0.08303 -0.10771
0.14100 -0.04590 0.04940
0.09372 -0.04590 -0.09078
0.04100 -0.04590 -0.06486
-0.17737 0.40084 -0.10754
-0.18960 0.29056 0.06278
-0.18960 0.23700 -0.01951
0.07143 -0.08640 -0.19160
-0.18960 0.29243 0.02288
-0.18960 0.14962 -0.03756
-0.18960 0.18902 -0.06374
-0.18196 -0.17360 -0.19160
0.18960 -0.18993 -0.17864
-0.08717 0.10513 -0.06339
0.14367 -0.04590 -0.13911
0.15102 -0.19311 -0.15168
-0.18960 0.25584 0.08729
-0.15944 -0.09513 0.05273
-0.18960 -0.04381 0.18783
-0.14702 -0.21686 0.17450
-0.18960 0.38192 -0.07775
-0.18887 -0.31539 -0.15732
-0.08611 -0.04590 -0.16514
0.18960 -0.06883 0.14937
-0.07410 -0.04590 -0.07174
-0.18960 0.10787 -0.15278
-0.09762 0.11404 0.19160
-0.17334 0.18027 -0.19160
0.11579 -0.09513 -0.16798
-0.08717 0.17238 -0.11892
-0.05962 -0.04590 0.01324
-0.08717 0.38267 0.02597
-0.08717 0.05914 -0.11810
-0.06371 -0.09513 0.15895
-0.18960 0.36188 0.12227
0.17794 -0.35054 -0.15045
-0.07919 -0.04590 -0.17572
-0.08717 0.35463 0.10280
-0.14180 -0.03331 0.19160
-0.08227 -0.04590 -0.14984
-0.08717 -0.03875 -0.08543
-0.18960 0.00877 0.05339
0.15102 -0.38475 0.18148
0.12394 -0.04590 -0.17285
0.17301 -0.09513 -0.07463
0.12473 -0.05137 -0.19160
0.08220 -0.09513 0.07222
-0.18960 0.36964 0.01522
0.09531 -0.04590 0.13369
-0.18960 -0.04827 -0.03345
-0.08717 0.31259 -0.05777
0.17092 -0.15444 0.15056
-0.16884 0.06894 -0.19160
-0.18960 0.32552 0.13296
-0.12106 -0.09513 0.05914
0.17633 -0.11171 0.15056
-0.18566 0.41305 0.06899
0.00657 -0.09513 -0.10381
-0.11211 0.41961 0.02614
-0.17883 0.38879 -0.13518
-0.18960 -0.00157 -0.03500
-0.10244 0.14946 0.19160
-0.10596 -0.09513 -0.05218
-0.18960 0.26310 0.15716
0.09037 -0.06354 -0.19160
-0.08717 0.12694 0.04445
-0.18960 -0.19970 0.18289
-0.08717 0.19165 -0.19064
-0.08717 0.40271 -0.05266
0.17165 -0.04590 0.10515
-0.08717 0.09920 -0.10939
0.06785 -0.04590 0.11608
0.18201 -0.04590 0.01369
-0.16517 -0.33417 0.14902
-0.08717 0.37246 -0.15062
0.18960 -0.34434 0.17150
-0.18960 0.29397 -0.15706
0.18463 -0.23167 -0.15045
-0.08717 0.28337 0.17116
0.18960 -0.19232 -0.15749
-0.18960 0.29718 -0.10204
-0.14131 0.04609 0.19160
-0.08717 0.03908 0.15318
-0.00214 -0.04590 -0.09702
-0.18960 0.28156 0.11269
-0.18960 0.04585 0.13611
-0.17579 -0.28387 -0.15732
-0.05213 -0.09513 -0.13263
0.14458 -0.04590 -0.02849
-0.10176 0.05739 0.19160
-0.12171 0.19547 -0.19160
-0.08717 0.37258 -0.07983
-0.17256 0.24711 0.19160
0.18927 -0.09513 0.08207
-0.10562 0.34914 -0.19160
0.18689 -0.15492 0.19160
-0.18960 -0.08812 0.18255
-0.18960 -0.13676 -0.16096
-0.08717 0.39719 0.11503
-0.17447 0.24221 0.19160
-0.14702 -0.21047 0.17855
0.04694 -0.09513 -0.13908
-0.14702 -0.12109 0.18378
0.16117 -0.04590 0.00204
-0.08717 0.08174 0.08943
-0.08717 0.32052 0.12018
-0.18960 0.37276 -0.01403
-0.18960 0.22987 -0.12095
-0.18960 0.25560 0.17480
-0.18960 -0.05576 -0.05779
-0.08717 0.18290 -0.11911
0.01889 -0.05421 0.19160
-0.10650 0.06030 0.19160
0.18960 -0.26606 -0.18332
-0.15480 0.41634 -0.05040
-0.08717 0.04075 -0.17562
-0.15102 -0.36851 -0.18124
-0.16246 -0.31671 0.19160
-0.08717 0.11549 0.07867
0.15102 -0.24287 -0.16041
-0.08717 0.37390 0.00220
0.02775 -0.09513 0.14399
-0.16918 0.26575 0.19160
-0.08717 -0.00844 0.05627
-0.08717 0.18527 0.08350
-0.08717 0.21705 0.07629
-0.08717 0.28531 -0.15586
-0.13271 -0.09513 0.05280
-0.18960 0.05430 -0.04786
-0.18960 0.24809 0.12793
-0.01285 -0.04590 -0.15712
-0.08717 0.14873 -0.03790
-0.10282 0.42018 -0.01620
-0.18960 0.10715 0.08155
0.08386 -0.04590 -0.15312
-0.16193 0.16250 -0.19160
0.16845 -0.04590 -0.00715
0.02709 -0.04590 -0.10948
-0.08717 0.11294 -0.03546
-0.16889 -0.30895 0.19160
-0.08717 0.36621 -0.15168
-0.15102 -0.21115 -0.18918
-0.08717 0.17462 0.08300
-0.05105 -0.09513 0.18391
-0.01136 -0.09513 0.10685
-0.08717 -0.00008 0.07006
-0.07392 -0.09513 -0.08296
-0.10179 -0.04161 0.19160
-0.18960 0.26885 -0.17069
-0.18960 0.29511 -0.05222
0.09771 -0.05502 -0.19160
-0.12814 0.37628 0.15702
0.03485 -0.09513 -0.08407
-0.17730 -0.39850 0.14903
-0.13375 0.36733 0.17064
0.07943 -0.09513 0.14384
-0.08717 0.21377 -0.01377
-0.15624 0.22355 -0.19160
-0.08717 0.29703 0.08125
-0.08717 0.35226 0.00516
-0.08717 0.07014 0.04594
-0.18960 0.06589 -0.01929
-0.18960 0.12577 -0.12324
-0.18960 0.14047 0.08045
0.18499 -0.04590 0.06825
-0.12184 0.39232 0.12745
-0.18960 0.30449 0.15395
-0.16452 0.30543 0.19160
-0.08717 0.09938 -0.08431
0.18204 -0.24258 -0.19160
0.17539 -0.18108 -0.15045
-0.18960 0.06143 0.12200
-0.18960 0.14530 0.03384
-0.18960 -0.08303 0.05325
-0.08717 0.20138 0.04539
-0.08717 -0.03666 0.05939
-0.08717 0.35116 -0.14182
0.15038 -0.04590 0.18701
-0.13479 0.11938 -0.19160
-0.18960 -0.02168 0.07630
-0.18960 0.10036 0.16920
0.15102 -0.12316 -0.19115
-0.18960 -0.20402 -0.17435
-0.18960 -0.33463 0.19088
-0.01565 -0.04590 0.12331
0.15102 -0.15199 -0.16483
0.03852 -0.09513 0.07184
0.16111 -0.41313 0.15765
-0.18960 0.07403 0.18649
0.15244 -0.17073 0.15056
0.17338 -0.33397 -0.15045
0.15080 -0.09513 -0.13432
0.15638 -0.09513 -0.00845
-0.18960 0.34011 -0.16848
-0.08717 0.16050 0.14300
-0.18960 0.08115 0.14605
-0.15102 -0.15411 -0.18431
-0.17580 0.36618 0.17221
-0.08717 0.35566 0.15783
-0.08717 0.36364 0.09168
0.15102 -0.32191 -0.15065
-0.14630 0.38717 -0.13800
-0.09081 0.39430 0.12282
-0.18960 -0.05493 -0.00502
-0.11733 0.23911 -0.19160
-0.18194 -0.25541 0.19160
-0.05434 -0.09513 0.17060
-0.15905 0.17319 0.19160
-0.03419 -0.08531 -0.19160
-0.17350 -0.21995 0.19160
0.18960 -0.05746 -0.07568
0.18960 -0.08464 -0.06921
0.08995 -0.04590 0.09866
-0.01389 -0.08996 -0.19160
-0.08717 -0.02847 -0.08822
-0.08888 0.33144 -0.19160
0.01997 -0.09513 0.18387
