0.18036 -0.02205 -0.14930
-0.13904 -0.16552 0.11262
0.08140 0.04795 0.13212
-0.17422 -0.22718 0.11552
-0.01721 -0.16552 -0.18008
-0.01688 0.04795 -0.16440
-0.13986 0.31982 0.01346
-0.18036 0.07683 0.13505
-0.11230 0.04837 0.08898
0.18036 -0.41659 0.15718
-0.10878 -0.08006 -0.15777
0.16195 -0.16552 0.09363
-0.18036 -0.39931 -0.15019
-0.11488 -0.43005 -0.17515
0.12115 -0.04586 0.14649
-0.12532 0.28745 -0.04246
-0.11258 -0.16552 -0.00053
-0.17242 0.02705 -0.05539
0.18036 -0.05535 0.13614
-0.12502 0.20881 0.18036
-0.05358 -0.16552 -0.07556
-0.18036 -0.18979 -0.15737
-0.18036 0.13824 0.13881
0.15885 -0.12200 -0.15134
-0.11462 -0.06000 0.02164
0.06787 -0.12200 -0.09802
-0.16540 -0.07023 0.02164
-0.17663 0.15812 0.18036
0.12115 -0.23515 0.13415
-0.12164 0.05021 0.11552
-0.18036 0.05706 -0.15801
-0.14657 -0.09464 0.11016
-0.12351 -0.27058 -0.18036
-0.18036 -0.00540 -0.01068
-0.10878 -0.01076 -0.00870
0.14568 -0.16552 -0.06401
0.15535 -0.26269 0.18036
-0.15931 -0.16552 0.10085
-0.16240 -0.07420 0.18036
-0.05727 0.04307 0.18036
-0.16958 -0.23540 -0.12029
-0.17051 -0.03054 0.02022
0.12115 -0.26571 0.15659
-0.05830 -0.16552 0.11159
-0.18036 0.08231 0.07016
0.18036 -0.04352 -0.14492
-0.09497 0.04232 -0.18036
-0.18036 -0.35539 0.12976
-0.18036 -0.41128 0.15136
-0.01527 -0.12200 0.14132
-0.14307 0.16291 -0.18036
0.14663 -0.08018 -0.18036
-0.11280 -0.27834 0.11779
-0.02367 -0.16552 0.12740
-0.17542 -0.02975 0.02310
0.18036 -0.13952 0.13357
0.14487 -0.40127 -0.18036
0.13670 -0.12200 -0.12208
-0.14255 -0.09464 0.01662
-0.13050 -0.31729 -0.12029
-0.11280 -0.31346 0.11846
-0.16549 -0.07187 -0.18036
-0.10878 -0.04934 0.16191
-0.13476 -0.07752 -0.02640
-0.17784 -0.35320 -0.18036
0.12115 -0.33714 0.12876
-0.03067 -0.12200 0.07621
-0.10878 0.24252 -0.07040
-0.16214 0.29062 -0.01228
-0.10878 0.14847 -0.14987
0.12861 -0.11958 -0.18036
-0.10878 0.08038 0.14685
0.11196 -0.12200 0.09435
-0.15193 -0.32507 0.18036
0.14077 -0.07295 -0.18036
-0.17057 0.29140 -0.00016
-0.11493 0.12181 -0.07039
-0.10878 0.07651 0.15460
-0.11059 -0.03239 0.00618
0.10095 -0.12200 0.16916
-0.11904 -0.09464 -0.01403
-0.13243 0.03155 -0.12029
-0.15186 0.42728 -0.02889
0.00221 0.01822 0.11552
-0.10878 0.06949 0.09216
-0.15526 -0.28724 -0.12029
0.10891 -0.12200 -0.03753
-0.01484 -0.12200 -0.17411
-0.14080 0.01573 0.03101
-0.15647 0.40184 -0.08462
0.13073 -0.08252 -0.12029
0.16888 -0.25945 -0.18036
-0.03132 -0.16552 -0.00097
0.18036 -0.13309 -0.05625
0.12115 -0.05694 0.12066
0.16984 0.04795 0.13559
-0.10878 0.17115 0.15231
-0.10878 0.19854 -0.16566
0.18036 -0.37110 -0.13495
-0.18036 0.03778 -0.05939
-0.06895 0.01290 0.18036
-0.18036 -0.12941 -0.15281
-0.14427 0.26706 -0.10826
-0.18036 -0.10731 0.01409
-0.01305 -0.16552 -0.10728
-0.13744 -0.01486 0.05213
0.10388 0.04795 0.12465
0.00813 -0.12200 -0.06678
0.17884 -0.24852 -0.18036
-0.15417 -0.16552 0.10518
-0.17119 0.26541 0.11165
0.13060 -0.05524 0.18036
-0.13855 0.32829 -0.05333
-0.18036 -0.03046 -0.00184
0.18036 -0.01063 0.13695
-0.14522 -0.00928 0.11552
0.16850 -0.16552 0.07192
-0.13014 -0.31594 0.18036
-0.14978 -0.02469 0.18036
-0.15771 0.24749 0.14305
0.12821 -0.04285 0.11552
-0.11527 0.15115 -0.00954
-0.12306 0.11774 -0.07351
0.12712 -0.16552 0.03790
-0.15352 -0.09464 -0.05132
-0.08499 -0.16552 -0.04999
0.16848 -0.16552 -0.11102
-0.05842 -0.16552 0.15260
-0.07607 0.01066 -0.14134
-0.10878 0.18195 0.01126
0.09828 -0.16552 0.08114
-0.12387 0.08589 0.08619
-0.03115 -0.12200 -0.17170
-0.13780 0.33450 -0.06750
0.07922 0.04452 -0.18036
-0.11302 -0.09464 0.07161
0.00651 0.04795 0.17485
0.18036 -0.20334 -0.12285
-0.10878 -0.06738 0.14811
0.06982 0.01066 -0.13096
-0.14092 0.34586 -0.08332
-0.04415 0.04795 -0.16880
0.00625 -0.15735 0.18036
0.14489 -0.16552 -0.00402
0.03489 0.04795 -0.13378
0.16785 -0.13739 0.18036
0.18036 -0.15251 -0.16527
0.18036 -0.14623 0.02146
-0.11247 0.15610 -0.18036
0.02583 0.00846 0.13293
-0.10878 0.20626 -0.08274
-0.15174 -0.09464 -0.10934
0.12115 -0.34005 0.16545
0.16158 -0.12200 0.07126
-0.18036 -0.13562 0.02598
-0.18036 -0.07262 -0.14289
-0.02307 -0.12893 0.18036
0.05555 -0.16552 -0.17550
0.01515 -0.12200 -0.11955
-0.16077 0.00947 0.18036
-0.10227 -0.12200 0.04894
-0.14977 0.06388 0.08982
-0.09046 -0.12200 0.16287
-0.06407 0.02351 -0.12029
-0.17217 0.10861 -0.02579
-0.17225 0.29096 0.00703
0.14075 -0.12200 0.13465
-0.11280 -0.17963 0.13657
0.15704 -0.06925 -0.18036
0.12644 -0.16713 -0.18036
-0.03250 0.02893 0.11552
0.15383 -0.18063 -0.12029
-0.18036 -0.37011 0.16978
0.14066 -0.29523 0.12834
0.13281 -0.12200 -0.14902
-0.15296 0.23464 0.16087
-0.07282 -0.13437 0.18036
-0.18036 -0.10406 -0.04540
0.00875 -0.12200 0.06606
0.05948 0.04795 0.17333
0.14281 0.01618 -0.18036
-0.12261 0.17855 -0.02566
0.13181 -0.11613 -0.12029
-0.18036 -0.14663 -0.04001
-0.18036 -0.15864 -0.07839
-0.13707 0.35685 0.09176
-0.14817 -0.07514 -0.12029
0.18036 -0.01473 -0.12823
-0.13230 -0.16552 -0.08889
0.16002 -0.43005 0.18032
-0.11280 -0.39362 0.13353
0.03442 0.04795 -0.17654
-0.07033 -0.12200 -0.16332
-0.13038 -0.07267 0.18036
-0.17066 -0.40743 0.11552
0.06797 0.04496 -0.18036
0.18036 -0.11288 -0.14722
-0.17049 0.08608 -0.18036
-0.05863 -0.12200 0.05789
-0.14012 0.17280 0.09395
0.18036 -0.16374 -0.07381
-0.04889 -0.13960 -0.18036
-0.16183 0.42861 0.01914
-0.16785 -0.09464 -0.05881
-0.13613 -0.26973 -0.18036
0.11132 0.01619 0.18036
-0.18036 -0.13706 -0.08805
-0.09645 -0.16552 -0.00383
-0.13436 0.10968 0.11552
-0.15172 0.26860 -0.10508
0.13421 -0.16869 0.12834
-0.10878 0.12050 0.02662
-0.18036 0.26484 -0.10298
0.17304 0.04795 -0.17207
-0.18036 -0.11345 -0.10273
-0.18036 -0.10161 -0.03183
0.01073 -0.16552 0.03689
0.13478 -0.07539 0.11552
-0.14129 0.12832 -0.06357
-0.12841 0.07038 -0.12029
-0.15653 0.01968 -0.08557
0.02845 -0.16552 -0.11632
-0.11896 -0.21473 0.11552
-0.11013 -0.16552 -0.07444
-0.10878 0.38330 -0.05588
0.18036 -0.21027 -0.15920
-0.05964 0.04777 0.18036
0.17385 -0.12200 -0.16851
0.18036 -0.03883 0.14663
-0.17799 -0.43005 0.17322
-0.11825 -0.03151 -0.02640
-0.15836 -0.08535 -0.18036
-0.11975 0.07005 0.11552
-0.10878 0.21986 -0.11373
0.04728 -0.12200 0.02486
-0.12662 0.06803 0.18036
-0.11280 -0.32031 -0.12892
-0.10878 -0.11558 0.14100
0.13151 -0.21055 0.18036
-0.13095 0.32055 -0.02324
0.18036 -0.00937 0.15730
-0.12652 -0.03179 -0.01550
-0.18036 -0.39318 -0.14884
0.00932 0.04207 0.18036
-0.15939 -0.03103 -0.02127
-0.15198 0.06834 -0.09400
-0.18036 0.05641 0.12507
-0.18036 0.41914 -0.03446
-0.17086 0.42879 0.01663
-0.11502 0.00377 0.11552
0.03160 -0.16552 0.13501
0.03352 0.01066 -0.17476
-0.11280 -0.40064 -0.15260
0.17552 0.04795 -0.14325
-0.02229 0.01694 0.11552
-0.11280 -0.42036 0.17569
0.05429 -0.16552 -0.06164
0.00440 0.02795 0.18036
-0.10878 0.03972 0.08309
-0.18036 0.27388 0.01113
0.00208 -0.16552 0.17603
-0.10878 0.25958 0.04101
-0.18036 0.09920 -0.17227
-0.12487 0.03154 -0.09048
-0.16428 -0.38554 0.11552
-0.10878 0.15263 -0.02240
-0.14509 -0.16552 -0.03436
-0.11841 0.31983 -0.01365
-0.09612 0.00846 0.17088
0.16963 -0.21357 0.18036
-0.18036 0.10503 0.03821
0.12981 -0.20040 0.18036
-0.15074 0.29040 -0.01573
-0.18036 -0.08277 -0.02476
0.12115 -0.26171 -0.12117
-0.10878 -0.12105 -0.03160
-0.18036 -0.15375 -0.11076
-0.04661 -0.12200 -0.01521
-0.16865 -0.14045 0.18036
0.13106 -0.41177 0.18036
-0.17807 0.14771 0.11552
-0.11471 0.07350 -0.12029
-0.11280 -0.21256 -0.17744
-0.10878 0.11595 0.04639
-0.17447 0.27094 -0.10025
-0.10878 -0.09691 -0.13897
-0.11280 -0.26931 -0.16387
-0.03529 0.03462 -0.18036
-0.18036 -0.31540 -0.17733
0.11059 -0.15489 0.18036
-0.13457 -0.25487 0.11552
-0.18036 0.04535 0.11737
0.04621 0.00846 0.15130
-0.18036 -0.09477 -0.04930
-0.10878 0.02925 0.13239
0.03438 0.00846 0.13162
-0.05259 0.00846 0.16487
0.18036 -0.16145 0.08702
0.12154 0.01816 0.18036
0.01045 -0.16552 0.00451
0.03134 -0.16552 0.11867
0.05833 -0.12200 -0.16431
0.18036 -0.21156 -0.17353
-0.18036 -0.35100 -0.16263
0.18036 -0.18229 -0.16416
-0.10878 0.27403 0.01213
-0.18036 0.12852 -0.14766
-0.17965 0.42390 -0.04317
-0.14558 0.09108 0.11552
0.14692 0.04795 -0.14469
-0.18036 -0.11492 -0.01919
0.16840 -0.12200 -0.06316
-0.11280 -0.28434 -0.12248
0.15930 -0.39509 -0.12029
-0.15832 0.04400 -0.18036
-0.17268 0.05389 0.05204
-0.17441 0.13398 -0.12029
0.17852 -0.34527 -0.12029
-0.13347 0.12041 -0.00536
0.02718 -0.12200 -0.01287
-0.18036 -0.13289 0.11462
-0.17168 0.33300 0.06408
-0.14081 -0.24219 0.18036
-0.11290 0.18872 0.18036
0.17303 -0.32733 0.18036
-0.10878 -0.07957 0.12250
0.13725 -0.08341 0.18036
-0.13900 0.06464 -0.09448
-0.18036 -0.06446 0.00280
-0.14680 0.20370 -0.03854
-0.10054 -0.16552 -0.01221
-0.17883 -0.16552 0.10208
-0.10921 0.08331 0.10923
-0.18036 0.18760 -0.01150
-0.18036 0.15444 -0.12250
-0.10878 0.34250 0.04552
-0.14129 0.05200 -0.09423
-0.15231 0.08735 -0.05681
-0.18036 0.22000 0.05952
0.03187 0.04795 0.16076
0.12115 -0.21024 -0.13781
0.12115 -0.25959 0.15513
0.03879 -0.12200 -0.10205
-0.14790 -0.43005 -0.15082
0.15381 -0.16195 -0.18036
0.17816 -0.07009 0.18036
0.05350 0.03095 -0.12029
0.12115 -0.32948 -0.14624
-0.18036 -0.14479 0.10926
-0.10878 0.15258 0.11886
-0.17997 -0.09464 -0.06984
-0.03337 -0.12200 0.07217
-0.12860 0.40728 -0.07755
-0.11280 -0.31951 -0.16944
-0.02172 0.00864 0.11552
0.12115 -0.36736 -0.14109
-0.17995 0.01534 0.07900
-0.10878 0.03818 0.17204
0.01892 -0.16552 -0.16884
-0.15562 0.04262 -0.12029
0.05808 -0.12200 0.00284
-0.16044 0.07504 0.08835
-0.09862 -0.16552 0.16958
-0.18036 0.39949 -0.02282
0.12663 -0.16552 -0.11821
-0.18036 0.25606 0.02118
0.12115 -0.05217 0.16713
-0.18036 -0.38599 0.14218
-0.09172 -0.16552 0.04876
0.13319 0.04795 -0.18015
-0.11896 -0.26985 0.18036
0.10338 0.03301 0.18036
-0.11694 -0.36071 -0.12029
-0.12967 -0.37924 0.18036
-0.15884 -0.33883 0.11552
-0.18036 0.23511 0.04512
-0.18036 -0.15377 -0.05562
0.01576 -0.12200 -0.07972
-0.16579 0.10870 0.18036
-0.17563 -0.17294 -0.18036
0.14271 -0.13022 -0.18036
-0.18036 -0.16551 0.08707
-0.18036 0.39708 -0.08610
0.14711 -0.19803 -0.18036
0.01367 -0.16552 -0.05409
-0.18036 -0.04762 -0.14454
-0.13136 0.02034 -0.04377
-0.14535 0.03804 -0.05681
-0.18036 -0.15893 -0.03492
-0.10878 0.02311 0.15053
-0.15760 0.02256 0.18036
-0.00051 0.00846 0.12490
-0.09599 -0.12200 0.05731
-0.11418 0.18050 0.18036
0.12115 -0.24122 0.17239
-0.11280 -0.21369 -0.15610
0.16585 -0.36863 -0.18036
-0.09002 0.04714 -0.18036
0.18036 -0.09373 0.13971
-0.17748 0.04279 -0.05681
-0.18036 -0.23564 -0.16736
0.14289 0.04795 0.12750
0.14199 -0.01170 0.11552
-0.05339 -0.16552 0.07658
-0.10878 0.34853 -0.00818
-0.13569 0.08331 0.11340
0.14523 -0.32568 -0.18036
-0.13347 0.13389 0.05153
0.14306 -0.12200 -0.10354
0.03345 -0.16552 -0.12932
-0.13128 -0.31080 0.11552
-0.10878 -0.01735 -0.13600
0.12115 -0.08803 0.13222
0.17705 -0.07427 -0.12029
-0.12819 0.10082 -0.18036
0.15821 -0.14624 0.18036
0.18036 -0.13001 0.06050
0.12821 -0.24849 0.12834
-0.12283 -0.37279 -0.12029
-0.02604 -0.16552 0.05574
-0.16544 0.29102 -0.00615
-0.16157 0.00357 0.00995
-0.10878 0.01508 -0.12135
0.00096 -0.12200 0.06882
0.18036 -0.32070 0.16591
-0.10878 0.24735 -0.06849
-0.10878 0.20718 -0.14977
-0.18036 -0.01152 -0.04819
0.18036 0.02232 -0.14734
0.00733 0.04604 0.11552
-0.17570 -0.09022 0.02164
-0.18036 0.06361 0.14320
-0.16174 0.21197 0.18036
0.13678 0.04795 -0.13569
-0.03767 0.02090 -0.12029
-0.12942 0.06444 0.08974
0.14798 -0.26588 0.18036
-0.10878 0.41141 0.06812
0.09129 -0.16552 -0.07897
-0.18036 0.38859 -0.06971
-0.16573 -0.15134 0.18036
-0.10878 0.21231 -0.08593
0.18036 -0.14457 0.13662
-0.00903 0.01066 -0.14227
-0.12613 -0.00555 -0.06862
-0.11280 -0.32448 -0.15171
-0.10878 0.31984 0.02172
0.09213 -0.13126 -0.18036
-0.18027 0.15076 -0.01252
0.04987 -0.12200 -0.10372
-0.18036 -0.01633 0.02953
-0.18036 0.23110 0.08624
-0.10878 -0.06182 -0.17084
-0.10878 0.05151 0.06908
0.17348 -0.34911 0.12834
-0.18036 -0.22017 -0.16583
0.07136 -0.13147 -0.18036
-0.09320 -0.12200 -0.02955
0.12115 -0.05912 0.16749
-0.15334 -0.38132 -0.12029
-0.16702 -0.04967 -0.18036
-0.08543 -0.13221 -0.18036
0.06460 -0.12200 0.16363
-0.13668 -0.24293 -0.18036
-0.10878 -0.09426 -0.12745
0.17759 -0.42453 -0.12029
-0.00594 -0.12200 -0.09975
0.07675 0.04795 -0.15970
0.12444 -0.31180 -0.12029
-0.11213 0.12991 -0.12029
-0.14962 0.10884 0.18036
-0.12935 -0.02807 0.02716
-0.12656 0.13363 -0.05664
-0.17015 0.02474 -0.08767
0.13299 -0.00221 0.11552
0.03341 -0.12200 0.15652
-0.10878 -0.04812 -0.00787
-0.10878 0.27568 -0.04931
0.02598 0.04795 -0.14087
-0.14744 -0.42229 -0.18036
-0.14773 0.05825 -0.05681
0.17012 -0.03537 -0.18036
-0.11280 -0.42179 -0.16317
-0.11302 0.30441 -0.02520
0.07182 0.01066 -0.12476
-0.15593 0.03709 -0.12029
0.14676 -0.12200 -0.16808
-0.18036 0.21213 0.08698
-0.05389 -0.12200 0.02823
0.13657 -0.12200 0.13028
-0.18036 -0.34594 0.12316
-0.18036 0.10437 -0.17588
-0.17864 0.24013 -0.15429
0.07506 0.00846 0.11769
-0.10878 0.38629 -0.02285
0.13558 0.01333 0.11552
0.13939 -0.12200 -0.15144
-0.13063 0.08429 -0.18036
-0.12292 -0.09464 0.04427
-0.13760 0.32593 0.04732
-0.17546 0.29036 0.01632
0.12115 -0.41123 -0.15344
-0.00187 -0.12200 0.12729
-0.12211 0.20834 0.00056
-0.14636 0.37135 0.09667
-0.17644 0.40025 -0.08577
-0.16634 0.01886 0.11552
-0.18036 0.17449 0.15563
-0.13474 0.40487 0.08079
-0.15853 -0.06257 0.11552
-0.08720 0.02301 0.18036
-0.18036 -0.18502 0.15580
-0.16884 -0.04442 -0.18036
-0.18036 -0.14683 -0.07823
-0.12844 0.19908 0.04890
-0.04852 -0.12200 -0.17260
-0.10878 0.26033 -0.06594
-0.17570 0.15637 -0.18036
-0.17101 -0.09464 -0.11653
-0.10878 -0.11814 0.00962
-0.14921 0.11879 0.11552
0.18036 -0.07820 0.17262
-0.07590 0.04795 -0.16340
0.03795 -0.16552 0.07870
-0.13299 0.15243 0.11408
-0.12782 -0.43005 -0.17564
0.02884 -0.16552 0.16631
0.02167 -0.14141 0.18036
-0.13156 0.19565 -0.18036
-0.18036 0.38973 0.04408
-0.11944 -0.09464 -0.11223
-0.17092 -0.42262 -0.18036
-0.10878 0.38212 -0.09139
0.16775 -0.43005 0.15059
-0.10878 0.23342 -0.13730
-0.17876 0.09744 -0.04514
-0.18036 0.19693 -0.14884
-0.18036 -0.33571 -0.14945
-0.10878 0.08522 0.11780
-0.18036 -0.06172 -0.12502
0.06611 0.01066 -0.16511
-0.18036 -0.39835 -0.13967
-0.14576 0.19387 0.18036
-0.18036 -0.08481 -0.14522
-0.17770 -0.42768 0.11552
0.13498 -0.43005 -0.16275
0.17929 -0.11300 0.11552
-0.18036 0.40969 0.04989
-0.16298 -0.00607 -0.12029
0.08684 0.01735 -0.12029
-0.06485 0.04572 -0.12029
-0.10878 0.10497 -0.14705
-0.17152 0.23399 -0.16163
0.16686 -0.43005 -0.14728
-0.18036 0.25062 0.03572
-0.10878 0.41600 0.01962
0.12115 -0.40432 0.14138
0.00989 -0.12200 0.00667
0.06676 -0.16552 0.16087
-0.11932 -0.16552 0.03956
-0.04770 -0.12200 -0.15062
-0.17126 0.29128 0.02520
-0.10878 0.25191 0.06878
-0.12161 0.32756 0.05167
0.12115 -0.25981 -0.16959
-0.18036 -0.26754 0.17447
0.18036 -0.03178 0.14375
-0.10878 0.29723 -0.01271
-0.14710 -0.35095 0.11552
-0.10878 0.04826 0.16605
-0.11617 0.32198 -0.03062
-0.18036 0.38313 0.03280
-0.18036 0.22757 -0.07942
-0.10897 0.17281 -0.09870
-0.16552 -0.26239 0.11552
-0.13952 -0.43005 -0.16958
-0.15220 -0.32724 -0.18036
0.01951 0.04795 0.11684
0.12115 -0.39765 0.13645
-0.15111 -0.03420 0.18036
-0.13973 0.32045 -0.02188
-0.14491 -0.09464 0.00650
-0.07397 -0.16552 -0.03221
-0.17884 -0.03071 -0.18036
-0.15014 0.15630 0.11058
-0.18036 0.13056 0.17967
0.08383 -0.16552 0.16935
-0.10878 0.33175 0.05299
-0.17698 -0.43005 0.15184
-0.12033 -0.01919 0.04649
-0.18036 0.05587 -0.05901
-0.15023 0.16379 -0.18036
-0.11812 0.25067 -0.13822
0.14201 -0.07019 0.11552
0.12199 -0.16088 -0.18036
-0.10878 -0.12187 0.11025
0.13059 -0.23134 -0.18036
-0.16306 0.10555 0.07804
-0.05956 0.04795 -0.15440
0.12115 -0.11756 0.15832
0.12213 -0.43005 0.13759
-0.13932 0.00164 0.00662
-0.11389 -0.40757 -0.12029
-0.18036 0.12164 -0.13212
-0.11923 0.14053 -0.12029
-0.00434 -0.12200 -0.16565
-0.12458 -0.10602 -0.18036
-0.17094 0.24229 0.15098
-0.13186 -0.43005 -0.15093
0.12115 -0.08576 0.12107
-0.18036 0.06739 0.15882
0.02447 0.04447 0.11552
-0.17056 0.08637 0.05204
-0.13270 -0.02129 0.18036
-0.18036 0.21892 0.05147
-0.10878 0.13790 -0.17271
-0.13134 -0.16552 -0.00868
0.15487 -0.07602 -0.18036
-0.12273 0.00416 -0.07606
-0.01989 0.01351 -0.12029
-0.18036 0.18797 -0.14179
-0.17346 0.02972 -0.12029
-0.11897 0.15467 -0.11682
-0.11410 0.05493 -0.18036
-0.10878 -0.07673 -0.00965
0.00297 -0.12200 -0.02700
-0.10878 0.15177 -0.00415
0.04088 0.03687 0.11552
-0.17461 0.32650 -0.04926
0.17980 -0.12200 -0.12498
0.14075 -0.16552 0.06956
-0.10878 -0.10839 0.03560
-0.18036 -0.18594 0.14849
-0.10878 -0.02087 -0.12075
-0.13615 -0.43005 0.15267
-0.18036 -0.03305 -0.16215
-0.16031 0.25354 -0.13383
-0.18036 -0.03736 -0.12526
-0.04066 -0.12200 -0.02999
-0.15522 -0.16552 -0.10789
-0.12776 -0.41351 -0.18036
0.15343 -0.37272 0.18036
0.18036 -0.02587 -0.12341
-0.03596 -0.16552 -0.04912
-0.16486 -0.09033 -0.12029
-0.16139 -0.39059 0.18036
0.06618 -0.12200 0.12383
-0.10878 0.38795 0.00589
-0.18036 -0.29960 0.17536
-0.10878 0.03804 0.15561
0.12151 -0.05334 -0.15050
0.07931 -0.16552 -0.09915
0.01309 0.03858 0.18036
-0.15558 0.42989 -0.00209
-0.13541 -0.14323 -0.18036
0.12115 -0.22007 0.15422
0.18036 -0.12879 -0.13417
-0.17269 0.19024 0.06857
-0.07769 -0.12200 0.06869
-0.11280 -0.19614 -0.13348
0.12115 -0.28720 -0.14580
-0.11280 -0.25649 -0.16967
0.05487 0.04795 -0.17298
-0.18036 0.22655 -0.03346
-0.10878 0.12321 -0.02021
0.12115 -0.02289 0.11761
0.03971 -0.16552 0.16857
-0.15525 -0.16552 0.00827
0.00666 -0.12200 -0.02380
-0.17994 -0.12813 -0.18036
-0.16196 0.14559 0.02969
-0.07836 -0.16552 0.03036
-0.14901 0.14196 -0.04324
0.17447 -0.34046 -0.18036
-0.13909 0.19365 -0.02528
0.12115 -0.30431 -0.18005
-0.18036 -0.14712 0.16616
-0.05561 -0.16552 0.09009
-0.17822 0.05594 0.11552
0.16378 -0.21817 0.12834
-0.17034 0.00809 -0.07908
-0.10878 0.13082 -0.15041
-0.11280 -0.26688 -0.17364
0.12129 -0.16552 0.09311
0.18036 -0.14570 0.11773
0.07144 -0.12200 -0.04992
-0.16744 -0.36792 -0.18036
-0.17419 0.03392 -0.09147
0.18036 -0.00800 -0.17067
-0.16885 0.03286 0.11552
-0.15619 -0.03049 -0.02542
0.12115 -0.42913 0.17449
-0.00130 -0.16552 -0.15259
-0.14400 -0.03525 0.11552
0.12151 -0.03721 -0.16095
-0.04215 0.04795 0.13265
-0.12684 -0.07339 0.11552
-0.18036 0.13977 0.01047
-0.10878 0.28793 -0.03458
-0.17192 -0.00639 0.11552
-0.18036 -0.39588 0.13792
-0.14124 -0.17217 -0.18036
-0.12446 0.11778 -0.00992
-0.13957 -0.07214 0.11552
-0.18036 0.25884 -0.03759
-0.10878 0.20030 -0.14651
0.13716 -0.04636 0.18036
-0.02614 -0.16552 -0.09835
0.12115 -0.25057 -0.12607
0.06451 -0.16552 0.09994
-0.14815 -0.16552 0.05277
0.18036 -0.16511 0.11431
-0.11980 0.39173 0.09195
-0.17506 0.31972 0.01221
-0.18036 -0.33776 0.16981
-0.15196 0.06136 0.11552
0.12815 -0.19731 -0.18036
-0.14489 -0.37116 -0.12029
0.13464 -0.07051 -0.12029
0.16136 -0.24225 -0.18036
-0.12506 -0.16921 -0.12029
-0.18036 0.22064 -0.15615
-0.16489 0.39634 0.08861
-0.12622 -0.42113 0.18036
-0.14810 -0.06004 0.11552
-0.18036 -0.12246 -0.09427
-0.18036 -0.00839 0.04247
-0.18036 0.06396 -0.16195
-0.17514 0.07937 0.05204
0.17642 -0.22970 -0.18036
0.12151 -0.01312 -0.12140
-0.11316 -0.16552 0.06083
-0.11114 0.38066 -0.09595
-0.17724 0.08331 0.10710
-0.18036 0.07304 -0.17583
-0.11696 0.20618 -0.02783
0.18036 -0.29685 -0.13512
-0.16804 -0.40980 -0.12029
-0.10878 0.35320 -0.06991
-0.10176 0.00846 0.15509
-0.10878 0.02037 0.04775
0.04931 0.02538 0.11552
0.14407 -0.22296 -0.18036
0.18036 -0.11834 -0.12878
-0.12026 0.35290 0.08890
-0.12694 0.31925 -0.00586
0.18036 -0.15456 -0.02805
0.13645 -0.43005 0.14836
-0.10878 -0.04002 0.13959
-0.14540 -0.16552 0.07565
-0.18036 0.27018 -0.09491
-0.11965 0.26924 -0.10376
-0.18036 0.02112 0.12583
-0.15083 0.03410 -0.05681
-0.07348 -0.12200 0.11205
-0.18036 0.18098 0.14436
-0.10878 0.37453 0.04087
-0.12230 -0.40235 -0.18036
-0.10878 0.07468 -0.12983
-0.18036 0.22441 -0.06219
-0.11280 -0.36658 -0.14151
-0.14631 0.06778 -0.18036
-0.11867 0.06002 -0.18036
-0.10878 0.16309 0.00578
-0.14858 -0.43005 0.17302
-0.03583 -0.14270 -0.18036
0.17919 -0.12200 0.06423
-0.14119 0.31010 0.02520
-0.14154 0.09913 -0.04221
-0.18036 -0.31629 0.17349
-0.16448 -0.27655 0.18036
0.13634 -0.35469 0.18036
-0.10878 0.25115 0.03998
-0.00280 0.00846 0.14933
0.02594 0.01066 -0.15758
-0.12958 -0.09464 0.02368
-0.10878 -0.07261 0.13652
0.18036 -0.12899 -0.02975
0.15981 -0.31817 0.18036
-0.11649 0.01237 0.18036
-0.15371 0.07786 -0.09274
-0.02117 -0.16552 -0.11327
-0.18036 0.16778 0.13315
0.18036 -0.14882 -0.14698
-0.13945 0.09849 -0.18036
-0.13471 0.42376 0.04378
-0.03222 0.04795 0.12419
-0.10878 0.13867 0.14817
0.05466 -0.16552 -0.11787
0.17463 -0.43005 -0.13625
0.14113 -0.33640 0.12834
0.01858 -0.16552 -0.05867
0.12115 -0.30065 0.17314
-0.18036 -0.04333 -0.02547
0.12115 -0.37005 -0.12625
0.11476 0.01066 -0.15333
-0.11280 -0.17679 0.16822
0.12115 -0.34466 0.14580
-0.13844 0.34110 0.07692
-0.18036 -0.05228 -0.17682
-0.10623 -0.12200 0.15966
-0.13331 -0.14445 0.18036
-0.15489 0.00345 0.07075
0.15841 -0.18546 -0.12029
0.14948 -0.10392 -0.18036
-0.10878 0.21877 0.13999
-0.13072 -0.04985 -0.18036
-0.18036 -0.33182 -0.16401
0.12115 -0.23137 0.15928
-0.10878 0.02924 -0.07325
-0.05730 0.04795 -0.16884
-0.00433 -0.12200 0.05364
-0.10878 -0.04344 0.13475
-0.18036 0.02057 0.13100
-0.17553 0.04389 0.08839
0.13797 -0.15851 -0.18036
0.05501 -0.12200 0.14111
0.12115 -0.35468 -0.16996
0.16669 -0.36729 -0.12029
-0.00495 -0.16552 -0.03532
0.14049 -0.12200 -0.04503
-0.10878 0.19900 -0.09956
0.18036 -0.10708 -0.12851
0.02811 0.03238 -0.12029
-0.18036 0.16203 -0.00721
-0.17541 0.41389 -0.06856
0.10129 -0.16552 0.15760
0.11875 0.03864 -0.12029
-0.18036 -0.06550 -0.17094
-0.10878 0.40804 0.02902
0.04821 -0.12200 0.05979
-0.10495 -0.16552 -0.11956
-0.18036 0.23761 0.06913
0.13949 -0.37727 -0.18036
0.14370 -0.25004 0.12834
-0.10878 0.07098 0.13122
0.18036 -0.34728 0.12959
-0.16935 -0.03311 0.00075
0.07475 0.01066 -0.14171
-0.11280 -0.17665 0.14889
-0.18036 -0.12449 0.15402
-0.14788 -0.06534 -0.12029
-0.14949 0.40587 0.07946
-0.18036 0.11144 0.15144
-0.18036 0.24798 0.02840
-0.10878 0.11644 -0.05086
-0.18036 0.06653 -0.08332
0.03685 -0.12200 0.08495
0.00453 -0.14552 0.18036
-0.10878 0.26678 0.08100
0.11579 -0.16552 0.13112
-0.03351 0.04795 0.14867
0.10614 0.04795 -0.13231
-0.12270 -0.19341 -0.12029
0.13135 -0.12200 -0.02692
0.15021 -0.05797 0.11552
-0.05244 0.03769 0.18036
-0.10878 -0.04144 -0.17855
0.14990 -0.12200 -0.12041
-0.18036 0.25069 -0.12538
-0.03704 -0.12200 -0.02437
-0.11280 -0.41632 -0.18035
0.15356 -0.29537 0.18036
0.17363 -0.12200 0.12924
0.15187 -0.43005 -0.12256
0.18036 -0.16176 0.13891
-0.18036 0.26434 -0.00829
-0.18036 0.23222 0.10788
-0.15426 -0.04110 -0.02640
0.13578 -0.04358 0.11552
-0.18036 -0.09701 -0.15332
-0.07865 0.04795 0.16250
0.03239 -0.12200 0.03221
-0.11244 -0.09464 -0.00151
0.17360 -0.16552 -0.09225
0.07859 -0.16552 0.13547
-0.04867 0.04795 0.13456
-0.10878 0.24815 0.03446
0.04000 -0.16552 0.11060
0.18036 -0.14477 -0.01768
-0.14116 0.14499 -0.12029
-0.10987 0.31936 0.00739
-0.10878 0.38066 0.05975
-0.15337 0.08331 -0.10438
0.14782 -0.07849 0.18036
0.14998 -0.43005 -0.17626
-0.01896 0.04795 0.15794
-0.18036 -0.39166 -0.16543
-0.10878 0.17257 -0.11254
-0.10878 0.34187 -0.04161
-0.15292 0.32023 -0.01895
-0.14404 -0.05022 0.02164
-0.10878 -0.11797 0.12799
0.01874 -0.15442 -0.18036
-0.18036 -0.41713 0.16536
0.12364 -0.38968 0.12834
-0.12926 0.05929 -0.11658
-0.06113 -0.12200 0.11879
-0.08053 -0.16552 0.06257
0.04710 0.02040 -0.18036
-0.16436 0.08613 0.08609
-0.15792 0.17797 -0.18036
-0.03825 -0.15417 0.18036
-0.10878 -0.03719 0.01429
-0.11299 -0.38824 -0.18036
-0.11280 -0.33961 0.14223
-0.17733 0.10726 -0.08155
-0.11089 0.20555 -0.03058
0.12115 -0.01752 0.11917
-0.10878 -0.10850 0.15145
-0.16652 0.08331 0.10456
0.12151 -0.04873 -0.15716
-0.14787 0.20703 0.01772
-0.08296 -0.16552 -0.07143
-0.10878 0.01081 0.15816
-0.12732 0.02206 -0.12029
-0.18036 0.24584 0.07771
-0.18036 0.15815 -0.01582
-0.16465 0.11914 -0.00756
-0.10878 0.20878 0.01695
-0.15313 -0.09464 -0.05674
0.12115 -0.22225 -0.15381
-0.10878 -0.12136 0.14251
-0.17796 0.02961 0.05204
-0.13141 0.32009 0.01709
-0.08983 -0.13694 -0.18036
0.14925 -0.25159 0.12834
-0.11470 0.15195 0.18036
0.17512 -0.03300 0.18036
0.15249 -0.12200 -0.08363
-0.04672 0.04624 -0.12029
-0.13706 0.16558 0.10216
-0.18036 -0.09409 0.15823
-0.18036 -0.37824 -0.12269
-0.15180 0.12121 -0.00397
-0.15493 0.20619 0.02301
0.14433 -0.34431 -0.12029
-0.13228 0.13694 0.04756
-0.11554 0.08331 -0.09995
0.00579 0.04795 0.13229
-0.18036 -0.14386 0.06620
-0.17502 -0.02949 0.18036
-0.18036 -0.14891 -0.15182
-0.08163 -0.16552 -0.07632
-0.06910 0.01066 -0.14922
0.07372 -0.12200 0.10837
-0.18036 -0.13560 0.10273
0.17161 -0.02631 0.11552
-0.11978 0.11151 0.07352
-0.13176 0.28994 0.02276
-0.15737 -0.07640 -0.02640
0.08553 0.01419 0.18036
0.16031 -0.12279 -0.18036
-0.11847 0.10930 0.01984
-0.14394 -0.09464 0.08897
-0.11510 -0.06855 -0.18036
0.15888 -0.41261 0.18036
-0.17323 0.28368 0.06171
-0.10878 0.00769 0.13707
-0.18036 -0.07715 0.14020
-0.10878 0.12311 0.14914
-0.12006 0.01957 0.11552
-0.14349 -0.07248 0.18036
-0.17728 0.25737 0.12799
-0.10878 0.10280 0.15691
0.01273 -0.12200 0.15761
0.16147 -0.12200 0.11471
0.18036 -0.39095 0.13559
0.05576 -0.16552 -0.07336
-0.10878 0.19591 0.08771
-0.03746 -0.16552 0.07188
0.15074 -0.24326 -0.12029
-0.12337 -0.09464 -0.02383
0.15313 -0.27306 0.12834
-0.10878 0.35941 -0.03179
0.12115 -0.11458 0.16961
-0.11684 -0.30336 0.18036
0.16176 -0.07751 -0.12029
-0.18036 -0.28440 0.11964
-0.18036 0.08211 -0.09415
0.01811 0.02404 -0.18036
0.08223 -0.16552 0.08191
-0.11253 0.17159 0.09543
-0.10421 0.04795 -0.17464
-0.17554 -0.43005 -0.17040
-0.15096 -0.09464 0.01798
0.18036 -0.11396 0.17468
0.11299 0.00846 0.13757
0.18036 -0.09892 0.15248
-0.18036 0.23083 0.06277
-0.18036 0.19386 0.01181
-0.14401 -0.03327 -0.00047
-0.10878 -0.01486 0.15083
0.15333 -0.43005 -0.16439
0.16517 -0.03731 0.11552
-0.18036 -0.01043 -0.01645
0.00539 0.04634 -0.12029
-0.10878 0.04057 0.17689
-0.14774 0.27694 -0.08359
0.18036 -0.22904 -0.17074
-0.17620 0.19235 -0.02532
0.17390 -0.40712 0.12834
-0.18036 -0.04913 0.01179
-0.15016 0.13376 -0.12029
0.02715 0.01831 -0.12029
-0.10878 0.03253 0.15429
0.12151 -0.02122 -0.17963
-0.16619 -0.22963 -0.12029
-0.18036 -0.40691 0.14814
-0.18036 0.40255 -0.06586
-0.10878 0.37062 -0.08911
-0.12051 -0.16552 -0.06362
0.02015 -0.12943 0.18036
-0.02889 -0.12200 -0.04640
-0.11767 0.10546 -0.08285
-0.15345 -0.16552 -0.08362
-0.11584 0.31898 -0.00231
-0.16733 -0.09464 -0.09594
0.06566 0.00992 0.11552
-0.12668 -0.21178 0.11552
-0.11350 -0.43005 0.16408
-0.10878 0.12214 -0.16991
-0.05646 0.02350 -0.18036
-0.13102 -0.06998 -0.02640
-0.13581 0.36036 -0.09414
-0.12678 0.19644 -0.06029
0.07775 -0.16552 0.17559
0.18036 -0.05429 0.14616
0.15912 -0.04366 -0.12029
-0.18036 0.10964 0.05386
-0.10048 0.01066 -0.13692
-0.16043 -0.12136 0.18036
0.11760 0.04795 -0.12403
0.18036 -0.39530 -0.13760
-0.17442 0.08331 0.11295
0.12641 -0.23969 0.18036
-0.12771 -0.09464 -0.11554
-0.04687 0.03719 -0.12029
0.02073 0.01974 0.11552
-0.16139 0.11427 0.01122
-0.11804 0.10591 0.18036
-0.12226 0.05929 -0.10490
-0.10878 0.08265 -0.06255
-0.14230 0.28418 0.05918
0.05425 -0.12200 -0.13864
-0.13309 0.27478 0.09005
0.12115 -0.19213 -0.14718
-0.17891 -0.03400 -0.02640
0.12151 0.00629 -0.12270
0.12115 -0.18874 0.13026
0.07714 0.01066 -0.17591
-0.07194 -0.16552 -0.14142
0.16870 -0.12200 -0.12128
-0.11280 -0.18218 -0.12316
-0.11280 -0.18864 0.13759
-0.18036 0.08923 0.05725
-0.02000 -0.12200 -0.05812
0.09584 -0.12200 0.11485
0.11766 -0.16552 0.03089
0.18036 -0.14776 0.00504
-0.02062 -0.16552 -0.12887
-0.18036 0.12668 0.01856
-0.14678 0.20488 0.02869
-0.17022 -0.06184 0.18036
-0.12173 0.09608 0.11552
0.08378 -0.12200 -0.14686
-0.14952 0.11215 -0.18036
-0.10878 0.02073 -0.15847
0.15482 -0.01316 -0.18036
-0.01694 0.04795 0.11638
-0.18036 0.21751 -0.15207
-0.18036 0.34266 -0.03978
0.12727 -0.43005 -0.13525
-0.11746 0.28820 -0.03867
-0.14089 0.24993 -0.13934
0.06442 -0.16552 0.14189
-0.10257 -0.16552 0.02007
-0.14563 0.18068 0.02084
0.18036 0.01635 -0.17173
-0.10878 0.15763 -0.02107
0.12450 -0.04459 0.18036
0.12115 -0.23609 0.15759
0.18036 -0.42108 -0.12613
-0.10027 -0.12200 -0.04712
-0.05910 0.04795 -0.17625
-0.13367 0.07609 -0.18036
-0.04347 0.04795 0.16021
-0.10878 0.16450 0.13580
0.18036 -0.35247 0.12979
0.18036 -0.10538 0.17857
-0.17780 0.34466 -0.08171
0.12151 -0.05548 -0.14538
-0.16884 -0.19439 -0.18036
0.18036 -0.13129 0.11580
-0.15251 -0.35693 0.18036
0.15432 -0.43005 -0.14665
0.18036 -0.40777 0.15781
-0.18036 0.05258 0.13350
0.16542 0.04795 0.12565
0.02712 -0.15637 0.18036
-0.03622 0.00846 0.15302
0.18036 -0.14189 0.09240
-0.18036 -0.11209 0.17143
-0.10878 0.36743 -0.01485
0.14439 0.04795 0.16273
0.12151 -0.09029 -0.13461
0.18036 -0.18894 0.14855
-0.18036 0.38033 0.00321
0.14941 -0.03472 0.11552
-0.12280 -0.11561 0.18036
0.03860 -0.12200 -0.00973
0.16777 -0.37768 -0.12029
-0.10878 -0.07836 0.00874
0.16836 -0.12200 0.04425
-0.11954 -0.30727 0.11552
-0.16618 0.05440 -0.05681
-0.13036 0.00295 0.07037
0.05148 -0.15730 -0.18036
-0.18036 -0.35327 -0.12688
-0.11509 0.06639 -0.05681
-0.02744 0.01066 -0.16169
-0.11280 -0.17988 -0.16411
-0.10878 0.07429 0.07682
0.06562 -0.12200 0.02634
-0.12133 0.04795 -0.09370
0.18036 -0.41912 0.16377
-0.10878 0.13856 -0.00103
-0.09044 -0.12200 0.00046
0.18036 -0.33436 0.15828
-0.18036 0.24857 0.12654
-0.18036 0.11899 0.15990
-0.12952 -0.19474 -0.18036
-0.05208 -0.12200 -0.06210
-0.11280 -0.33288 -0.15563
-0.12944 0.38337 0.09532
-0.18036 0.38282 0.09421
0.02722 -0.16552 -0.06068
-0.17192 0.42244 -0.04904
-0.16852 -0.35966 0.18036
-0.12470 0.05929 0.09650
0.16002 -0.22354 -0.18036
-0.18036 -0.07657 0.11791
0.10873 -0.16552 0.17480
-0.02781 -0.16552 -0.11041
-0.14214 -0.09464 -0.02792
-0.16545 -0.40657 -0.18036
0.10884 0.00846 0.17133
-0.18036 0.22552 0.10418
-0.05096 0.01502 -0.18036
-0.13419 -0.37089 0.11552
0.07549 -0.12200 0.14160
-0.14445 -0.09464 -0.04738
-0.13017 0.15114 0.00481
-0.18036 -0.30477 0.15051
-0.10878 0.21170 -0.13844
-0.07993 0.02547 -0.12029
0.12115 -0.31765 -0.12419
-0.18036 0.20535 0.07344
-0.18036 0.11938 0.03228
0.11943 -0.16552 0.13460
-0.15955 0.20782 -0.01217
0.09753 0.04795 0.16536
-0.18036 0.07162 0.06711
-0.14292 0.09375 0.18036
-0.18036 0.06537 0.06231
0.12343 -0.10939 0.11552
0.18036 -0.27636 -0.15754
0.04552 0.04795 0.12376
0.11815 -0.16552 -0.13676
0.14427 -0.43005 0.13015
-0.17926 -0.40150 -0.12029
0.14502 -0.12200 0.02657
0.15791 -0.12200 -0.14498
-0.14868 -0.16552 -0.11860
-0.11029 0.12789 0.18036
-0.16564 0.05929 -0.11266
-0.11807 -0.09464 0.05861
-0.07481 0.00846 0.16846
0.02973 0.04718 0.18036
0.10572 -0.16552 -0.12351
-0.12129 0.42906 -0.01316
-0.18036 0.17708 0.18017
0.12699 -0.40156 -0.18036
-0.10878 0.26434 0.05641
-0.18036 0.24963 0.11251
0.08941 -0.12200 -0.13246
-0.18036 0.18199 -0.17725
-0.05105 -0.16552 -0.09389
-0.17889 0.31996 -0.02520
-0.00460 -0.12200 0.13182
-0.18036 0.12010 -0.04016
-0.18036 0.03426 -0.15111
0.00778 0.04795 -0.13243
-0.18036 0.25886 -0.09245
0.09079 -0.12200 0.03366
-0.17543 -0.37064 0.11552
-0.15350 -0.16552 -0.07408
0.18036 -0.17086 0.13353
0.09418 -0.12653 -0.18036
-0.10878 0.27326 0.02530
-0.18036 -0.41059 0.16543
-0.18036 0.19270 0.11363
0.16653 -0.12681 0.18036
0.12115 -0.36813 0.16763
-0.12102 0.20133 -0.04803
0.13817 -0.00304 -0.12029
0.07796 -0.12200 -0.16927
-0.05382 -0.16552 -0.15883
0.14161 -0.12200 -0.08314
-0.18036 -0.13547 -0.05805
-0.18036 -0.13776 -0.16689
-0.11280 -0.29462 -0.15872
-0.17426 0.20704 0.01764
0.10842 0.01066 -0.13978
-0.10878 0.20758 -0.03848
-0.11214 0.06413 0.05204
0.18036 -0.17649 -0.16301
0.11332 -0.16552 0.01665
-0.15377 0.27548 0.08796
-0.14972 0.20847 -0.00360
-0.17016 0.14894 0.02156
-0.13357 0.00359 -0.07563
0.15019 -0.16997 0.12834
0.16556 -0.12200 0.01519
-0.18036 0.03713 0.08071
0.07960 0.04079 -0.12029
-0.10878 0.28841 -0.00268
0.18036 -0.11889 0.16824
-0.10878 0.37582 -0.01819
0.16738 -0.16552 -0.05877
0.04260 -0.12200 0.11434
-0.15214 0.07117 -0.12029
0.12721 -0.00130 -0.18036
-0.18036 -0.10931 0.04656
-0.10878 0.12320 -0.12415
-0.18036 0.17438 -0.10143
-0.17498 0.08331 -0.09902
0.03689 -0.12200 -0.16246
-0.18036 -0.01683 0.11635
-0.17244 0.12422 -0.12029
0.08843 -0.12200 -0.09993
-0.16939 0.17752 -0.09292
-0.18036 0.08722 0.12100
-0.00885 -0.16552 -0.16223
0.17454 -0.06548 -0.18036
-0.16841 -0.04776 0.18036
-0.10878 0.03766 0.06139
0.06797 -0.16552 0.15399
0.14825 -0.10226 0.11552
-0.15214 0.17528 0.02097
0.15920 -0.03682 0.18036
-0.14860 0.34198 0.07811
-0.18036 0.22165 -0.09131
-0.14074 0.16216 -0.11003
-0.16244 0.20681 0.02018
-0.10799 -0.16552 0.01092
-0.18036 -0.22309 -0.15344
-0.18036 -0.04397 -0.00228
-0.11280 -0.27930 0.12934
-0.10878 -0.09553 -0.03252
-0.07390 0.00846 0.11717
-0.01062 -0.12200 0.10669
-0.10878 0.05067 -0.12839
0.18036 -0.02639 0.12807
-0.14655 -0.03940 -0.18036
-0.13101 0.18003 0.02086
-0.12293 0.15047 0.00992
-0.14068 -0.16552 -0.09914
-0.01620 -0.16552 0.12522
-0.11927 -0.27166 0.11552
0.04314 -0.12200 0.08435
0.02340 0.02151 -0.12029
-0.10878 -0.01627 0.17870
0.07020 -0.12200 0.15806
-0.10878 0.23486 -0.10893
-0.16302 0.08524 -0.09123
-0.10878 -0.12048 -0.12432
-0.10878 0.17719 -0.16329
0.08763 -0.16552 -0.11509
0.17934 -0.33752 0.18036
-0.18036 -0.13594 0.09743
-0.16114 -0.04737 0.02164
-0.16300 0.20361 -0.03894
-0.10878 0.02248 -0.13272
-0.14489 -0.03266 -0.00894
-0.18036 -0.05048 0.12098
-0.15199 0.42679 0.03096
-0.14471 0.28748 -0.04234
-0.15273 0.09938 0.08060
-0.18036 -0.25752 -0.15791
-0.11280 -0.38300 -0.16626
0.03555 0.00846 0.17096
0.12949 -0.38320 -0.12029
-0.16358 0.27853 -0.07882
-0.11280 -0.25614 0.11750
-0.03312 0.04795 -0.15258
0.12115 -0.19730 -0.16030
-0.10878 -0.02925 0.15196
-0.05825 -0.16552 0.09753
0.18036 -0.16695 0.16901
-0.13503 -0.07778 -0.18036
0.15650 -0.23100 0.18036
-0.03581 0.04795 -0.17983
-0.18036 -0.12113 0.14335
-0.11469 0.02210 -0.04682
0.16141 -0.12160 -0.12029
-0.01144 -0.12200 -0.12245
0.10541 -0.16552 -0.11268
0.18036 0.01901 -0.15760
0.15869 -0.29792 -0.18036
-0.14982 -0.16552 0.04164
-0.11095 0.05447 0.18036
-0.10878 -0.08720 0.16037
-0.13424 0.10765 0.02269
-0.10892 0.42091 -0.05253
-0.00690 -0.16552 -0.05378
-0.11280 -0.41787 0.16829
-0.01574 -0.12200 0.11242
-0.10878 0.20926 0.05686
0.08357 -0.12200 0.06951
0.12883 -0.16552 -0.09465
-0.15670 0.18615 -0.18036
-0.18036 -0.31064 -0.17147
0.16968 0.04795 0.16893
-0.15884 0.01327 0.02675
0.18036 -0.02769 0.17740
-0.10878 0.03907 0.12327
-0.13991 0.02303 0.08219
-0.16240 0.12665 0.11552
-0.18036 0.13729 0.17426
0.18036 -0.38528 -0.13548
-0.17254 0.23602 0.15926
-0.15542 0.20224 -0.18036
0.14697 -0.29736 0.12834
-0.18036 0.18407 0.15412
-0.02035 -0.12200 -0.17117
-0.12659 -0.40589 0.11552
-0.18036 -0.09952 -0.13506
-0.17697 -0.09464 0.04796
-0.15334 -0.32591 -0.12029
0.16070 -0.33746 -0.18036
-0.10878 0.24954 -0.08194
0.03037 -0.12200 -0.08947
-0.18036 0.17773 -0.15128
-0.14576 0.37570 -0.09709
-0.11643 0.39666 0.08838
0.14274 -0.12200 0.08260
0.01391 0.01450 0.11552
-0.11498 -0.35275 0.11552
-0.18036 0.32722 0.05032
-0.11578 0.10295 0.03084
-0.10878 -0.07937 -0.12712
-0.11580 0.07244 0.08869
-0.12779 0.18496 0.07756
0.16298 -0.32444 0.12834
-0.00458 -0.16552 0.13771
0.04339 -0.12200 0.10397
-0.16883 0.20774 -0.01321
0.11064 -0.12200 0.08890
-0.05012 0.04795 -0.15056
0.17885 0.02616 0.11552
0.15690 -0.22130 0.12834
-0.15014 -0.24425 -0.18036
-0.13480 0.05220 -0.18036
-0.05898 -0.16552 -0.16313
-0.02053 -0.16552 -0.00890
-0.14029 -0.04904 0.18036
-0.17630 0.10598 0.02559
-0.10878 0.31922 -0.00441
0.03600 0.01066 -0.14785
-0.10878 0.29640 0.01906
-0.16249 0.08232 0.11552
-0.18036 -0.09071 -0.12858
-0.13409 -0.26919 -0.12029
-0.10871 -0.12200 -0.01778
-0.18036 0.22156 -0.04837
-0.13602 -0.12557 -0.18036
-0.10878 0.26955 0.09412
-0.04699 0.01066 -0.12100
0.14806 -0.12200 0.16776
-0.10878 0.22779 0.12247
-0.18036 0.20745 -0.05289
-0.16403 -0.20875 -0.12029
-0.16380 -0.02318 -0.04374
-0.09073 -0.12200 0.01019
0.13116 -0.06313 -0.18036
-0.18036 -0.12751 0.13249
-0.17773 -0.00141 0.11552
0.12115 -0.08739 0.15885
-0.09195 -0.16552 0.14707
-0.15101 0.14709 -0.03085
0.17699 -0.34329 0.18036
0.02431 0.04129 -0.12029
-0.09228 -0.15748 -0.18036
-0.12565 0.19664 0.02044
-0.11280 -0.19036 0.17173
-0.00524 -0.12200 0.00911
0.15453 -0.12200 0.11275
0.01176 0.01198 -0.12029
-0.18036 0.29444 -0.01826
0.18036 -0.36071 0.15692
0.18036 -0.24662 -0.13938
-0.15960 -0.25206 0.18036
-0.12594 0.26532 0.11184
0.06057 -0.12200 0.15905
-0.11520 -0.40129 0.11552
-0.16282 0.06867 -0.12029
-0.10878 0.25646 -0.10837
-0.11280 -0.29517 -0.17360
0.17211 -0.11123 -0.12029
-0.18036 -0.13133 0.09002
-0.10571 -0.12200 -0.10206
-0.18036 0.26263 0.04922
-0.10878 0.33702 -0.04813
0.02814 0.02047 0.18036
0.12260 -0.30279 0.12834
-0.18036 -0.38660 -0.17394
0.02481 -0.16552 -0.00557
-0.10415 -0.16372 0.18036
0.07964 -0.16552 -0.07580
-0.14327 0.00285 -0.18036
-0.18036 0.12710 -0.15712
0.11329 0.00846 0.12704
-0.10878 0.12440 -0.15468
-0.11485 0.10828 0.11552
-0.13131 -0.16552 0.06019
-0.14661 -0.11853 -0.18036
-0.00733 0.00846 0.13479
-0.10878 0.01277 0.14225
-0.11270 -0.09226 0.02164
-0.10878 0.19820 0.10172
-0.18036 -0.27096 0.12093
-0.11707 0.07252 -0.18036
-0.17120 -0.00274 0.06600
-0.01959 0.01066 -0.17205
0.15018 -0.12200 0.00407
-0.14266 0.42975 0.00390
-0.06907 0.01066 -0.16259
-0.10878 0.21124 -0.07745
0.16162 -0.12200 0.13698
-0.17734 0.14423 -0.03774
-0.03320 -0.12200 -0.10144
-0.11025 0.15459 0.11213
-0.16870 -0.31576 -0.18036
-0.11666 -0.09464 0.00211
0.15993 -0.25480 -0.12029
-0.14577 -0.09464 0.05520
-0.18036 0.23572 0.08010
-0.14759 0.14980 -0.01975
0.09800 0.00846 0.16466
-0.18036 -0.20332 0.14673
-0.10878 -0.10211 -0.06803
-0.11919 -0.04465 0.18036
-0.10878 0.04054 0.16651
-0.18036 0.08272 0.17613
-0.12592 -0.16552 0.01574
0.14678 -0.12200 0.01322
-0.16469 -0.21945 -0.18036
-0.17443 0.18501 0.02073
-0.18036 -0.01346 -0.02427
0.17356 -0.04230 0.18036
-0.17459 -0.21105 0.18036
-0.16541 0.38558 0.09481
0.12115 -0.40980 -0.12613
-0.18036 0.07785 -0.14869
0.14412 -0.02906 0.18036
-0.15091 -0.38390 0.11552
0.15910 -0.01909 -0.18036
0.15865 -0.30981 -0.12029
-0.11415 -0.09994 0.18036
0.08969 -0.12200 -0.04723
0.09298 -0.16552 0.15290
-0.10878 -0.09575 -0.14877
-0.10878 0.22963 -0.10586
0.09540 0.01076 0.11552
0.18036 -0.14555 0.02901
-0.03695 -0.12200 0.11683
-0.18036 0.36928 0.01515
0.12115 -0.07827 0.16088
-0.14744 -0.27299 -0.18036
-0.05047 -0.16552 -0.12226
-0.05577 -0.13302 0.18036
-0.18036 -0.01599 0.17203
-0.13633 0.23173 -0.16427
0.17076 0.04795 -0.14829
-0.15047 -0.19079 -0.18036
0.14938 -0.36866 -0.18036
-0.10878 0.23461 0.09647
-0.18036 0.38515 0.03740
0.14127 -0.16552 0.12355
-0.11280 -0.26519 -0.13236
-0.01103 0.00846 0.17157
-0.12794 0.32951 0.05612
-0.18036 -0.20930 -0.14771
-0.17446 -0.30247 -0.12029
-0.13238 -0.13667 0.18036
-0.13825 -0.40342 -0.18036
-0.11280 -0.22520 0.14935
-0.11781 -0.01692 0.11552
-0.18036 0.37337 -0.06881
-0.18036 -0.10915 -0.13478
-0.04400 -0.12200 -0.11368
-0.18036 -0.30101 0.16691
0.09223 -0.12200 -0.10883
-0.18036 -0.17492 -0.13520
-0.09912 -0.16552 -0.12097
-0.13088 0.00486 0.18036
0.09305 -0.16552 -0.11498
-0.14725 -0.16552 -0.08718
-0.10878 -0.07000 -0.14880
0.18036 -0.12754 -0.04310
0.08506 0.00846 0.17734
-0.12271 0.10111 0.03402
-0.09747 0.01066 -0.14168
-0.16529 -0.33914 0.18036
-0.15738 -0.16552 -0.03135
-0.14337 -0.32728 0.11552
-0.11280 -0.23126 0.17703
0.03499 0.01066 -0.14067
-0.18036 -0.22087 -0.17529
-0.16024 0.42344 -0.04511
-0.18036 0.13164 -0.03212
0.18036 -0.27981 0.15297
-0.12012 0.39801 -0.08740
-0.12423 0.22793 -0.16868
-0.12639 0.03624 0.11552
0.17460 -0.01221 0.18036
-0.18036 0.10702 -0.12734
-0.10878 0.00713 0.02123
-0.06123 -0.16073 0.18036
-0.10878 -0.02039 0.03018
-0.12093 0.33706 -0.07150
0.11371 -0.16552 0.00973
0.17258 -0.10554 -0.12029
-0.18036 -0.08754 0.00020
0.15224 -0.14258 -0.18036
-0.12287 -0.43005 -0.13201
0.14833 0.04795 0.11965
0.18036 -0.31397 0.17235
-0.11110 0.32505 0.04358
0.17149 -0.05907 -0.12029
-0.10878 0.13737 0.13767
0.12752 -0.31214 0.18036
-0.18036 0.20768 0.09322
-0.11786 -0.06497 0.11552
-0.11981 0.20406 0.03223
0.16653 -0.30998 -0.18036
-0.12937 -0.16552 0.02791
-0.09670 0.04795 0.15485
-0.10878 -0.00276 -0.17525
-0.11280 -0.35310 0.17052
0.05050 -0.12200 -0.06220
0.13562 -0.23219 0.12834
-0.13470 0.07362 -0.09330
-0.11765 0.24027 -0.15407
-0.11280 -0.16958 0.14535
0.14082 0.04432 0.18036
-0.18036 0.24191 -0.13375
-0.11310 0.30121 0.02520
-0.11280 -0.18371 -0.15063
0.16269 -0.31317 0.12834
-0.17406 -0.05013 0.02164
0.17463 -0.23582 -0.18036
-0.12578 0.19479 0.05966
-0.10878 -0.04955 0.00395
0.17150 -0.17725 0.12834
-0.14328 0.07039 -0.12029
-0.16699 -0.15548 -0.18036
0.12115 -0.17264 -0.14893
-0.05198 -0.12200 0.04170
-0.10968 0.42893 -0.01486
0.03534 -0.12200 -0.14424
0.18036 -0.08208 0.11575
-0.10878 0.03652 -0.13813
-0.13177 -0.00961 0.05897
-0.02145 -0.16552 -0.08104
-0.17478 -0.03229 0.00692
-0.18036 0.38519 -0.02010
0.14342 -0.22846 0.18036
-0.10878 0.27232 -0.02822
0.04839 -0.16552 -0.03527
0.13428 -0.00805 -0.18036
0.14255 -0.16552 -0.04236
-0.09281 0.02996 0.18036
0.12115 -0.34290 0.14120
-0.15596 0.07969 0.05204
-0.10878 0.32117 0.01496
-0.12381 0.13873 0.18036
-0.12758 -0.41061 0.18036
0.18036 -0.40288 -0.15130
0.15326 -0.23169 0.12834
0.07255 -0.16552 -0.05363
-0.18036 -0.39553 0.16013
-0.18036 0.27870 -0.04846
-0.14361 0.16127 -0.02609
-0.18036 -0.18988 -0.13937
-0.11280 -0.38963 0.17719
0.16791 0.01979 -0.18036
0.12115 -0.39313 -0.15880
-0.07177 -0.12200 0.16342
-0.09942 -0.16552 -0.08127
-0.14143 0.10098 0.18036
-0.12538 -0.07147 0.02164
0.17568 0.00912 0.18036
0.18036 -0.27062 0.15305
0.14394 -0.04252 0.18036
-0.11910 -0.18858 -0.18036
-0.14541 0.28009 0.07416
-0.18036 0.37793 0.08314
-0.05677 -0.12200 -0.08294
-0.11280 -0.23404 0.12640
-0.17229 0.11620 0.00789
-0.06488 0.04491 0.11552
-0.18036 0.02184 0.06568
-0.18036 -0.00646 0.16079
-0.10878 0.02392 0.15676
0.15065 -0.16552 0.03426
-0.13987 -0.40601 0.18036
0.14074 -0.27212 0.18036
-0.18036 -0.15250 -0.06693
-0.16746 0.42476 0.03955
-0.18036 0.02064 0.13993
-0.18036 -0.41601 -0.17719
0.17190 -0.39278 0.18036
0.18036 -0.41959 0.13948
-0.07006 -0.12200 -0.11587
-0.16619 0.35729 -0.09208
-0.18036 -0.14829 -0.00571
-0.10896 0.22390 -0.17338
-0.18036 0.13257 -0.16975
0.17307 -0.01288 0.11552
-0.14220 -0.17252 0.11552
-0.10878 0.23144 0.03315
-0.14823 0.40501 -0.08061
-0.00213 -0.16552 -0.10400
-0.07847 -0.12200 0.01238
-0.14129 0.06371 0.11552
-0.13242 -0.05926 0.11552
0.18036 -0.07208 0.14002
-0.05925 -0.12200 0.14363
0.18036 -0.04610 -0.17249
-0.18036 0.06481 -0.11368
0.07296 -0.16552 -0.15320
-0.10878 -0.07009 0.17121
-0.18036 -0.30383 -0.14936
-0.18036 -0.06995 -0.12609
-0.10878 0.40129 -0.06441
0.12115 -0.36008 0.13807
0.06367 -0.12200 -0.07925
0.02179 -0.12200 0.14659
0.16726 -0.17998 -0.12029
0.16680 -0.12200 0.12590
0.04914 -0.12200 -0.16149
-0.17514 0.20095 0.04422
-0.15571 0.02371 -0.18036
-0.00655 -0.12200 0.07403
0.05356 0.01066 -0.14853
-0.04929 -0.12200 0.05188
0.12785 -0.06918 -0.18036
-0.10878 0.23484 0.00358
0.18036 -0.13022 -0.12921
-0.10377 -0.12200 -0.13380
-0.16942 -0.09464 -0.03337
0.04310 -0.12200 -0.07042
-0.17273 -0.16499 0.18036
0.16463 -0.12200 0.03278
-0.05918 -0.12200 0.18027
-0.11825 0.20754 0.01104
-0.17979 0.20595 0.18036
-0.18036 0.23447 -0.14067
-0.13483 0.09083 0.11552
0.13540 -0.16552 0.01578
0.16530 -0.40317 -0.18036
0.18036 0.04746 -0.15436
-0.10878 0.03634 -0.15371
-0.17228 0.10806 0.07617
0.18036 -0.12692 -0.16738
0.14630 -0.16552 -0.02439
0.05638 -0.16552 -0.05522
-0.11713 0.00709 -0.12029
-0.16100 0.20711 -0.02155
-0.17310 0.04627 0.11552
-0.18036 0.33332 0.00869
-0.04085 -0.16024 -0.18036
-0.18036 0.21641 -0.01294
-0.16107 0.28366 0.06183
0.02570 0.00846 0.14731
-0.13805 -0.03330 -0.12029
0.17185 -0.37571 0.12834
0.14028 -0.41968 0.12834
0.14143 -0.27496 -0.18036
-0.00406 0.04795 0.15896
-0.10878 0.06875 -0.11839
-0.11729 -0.09464 -0.00291
-0.10878 0.40211 -0.05031
0.12115 -0.38198 -0.13376
-0.10059 -0.12200 0.00039
-0.16617 0.29992 0.02520
-0.06668 0.03400 -0.18036
-0.12620 0.11473 0.01043
0.04015 -0.12200 0.14374
0.14972 -0.20948 0.18036
-0.12094 0.02846 -0.18036
-0.13986 0.18084 0.02084
0.18036 -0.40066 0.13902
-0.06799 -0.12200 -0.12298
-0.16764 0.08331 -0.11842
-0.11280 -0.36684 0.14198
-0.10318 -0.16552 -0.12756
-0.10878 0.37479 0.05326
-0.10878 0.25587 0.05330
-0.18036 -0.00844 -0.14400
0.15748 -0.28812 0.18036
0.06878 -0.15853 -0.18036
-0.16625 0.02030 0.03893
0.05045 -0.13617 -0.18036
-0.18036 -0.18116 0.12100
-0.18036 0.02125 0.16994
0.15617 0.01329 -0.18036
-0.08530 -0.12200 0.01902
-0.14473 -0.40525 -0.18036
0.18036 -0.37147 -0.16937
0.04090 -0.16552 -0.11457
-0.14438 -0.34251 -0.18036
-0.18036 -0.23757 0.13729
0.17160 -0.43005 0.17111
-0.18036 -0.13932 0.13720
-0.18036 0.17218 -0.11770
0.12151 -0.06069 -0.17944
-0.13324 -0.28321 -0.18036
-0.13532 0.02507 0.08304
0.03943 -0.12200 0.02406
0.12115 -0.33679 -0.13194
-0.17323 -0.05761 0.02164
-0.11280 -0.33456 -0.16726
0.12151 -0.07379 -0.17349
-0.02142 0.04795 -0.12857
-0.18036 -0.42209 -0.12551
-0.06754 -0.12200 -0.13560
0.18036 -0.39110 -0.17137
-0.16884 0.37809 -0.09654
-0.13049 0.29064 0.01190
0.01196 -0.16552 -0.03041
-0.17224 -0.00887 -0.06471
0.13592 -0.07861 -0.12029
-0.18036 0.02120 -0.08219
-0.12557 -0.18394 -0.12029
0.09445 0.04795 0.17067
-0.15291 -0.04237 0.11552
0.02161 -0.12200 0.02228
0.12115 -0.29997 0.16395
-0.10878 0.32301 -0.01462
-0.12412 0.14958 -0.02142
-0.10878 0.12792 -0.05193
-0.10878 0.41910 0.03104
0.18036 -0.33414 -0.13673
-0.14631 0.32336 0.03643
-0.12352 -0.34468 -0.12029
-0.11280 -0.39116 -0.16816
-0.15042 0.17615 -0.02572
-0.13941 -0.39570 0.18036
-0.18036 0.09375 -0.13995
-0.09992 -0.16552 -0.10274
-0.18036 0.40602 -0.01891
-0.11280 -0.38115 -0.14359
0.13339 -0.34437 -0.12029
-0.10878 0.25260 0.01529
-0.04804 -0.16552 0.12763
-0.02838 0.01066 -0.12417
-0.10878 0.00827 -0.14975
-0.10878 0.32465 0.00068
-0.13689 -0.43005 -0.14404
-0.08932 -0.16552 -0.13173
0.06970 -0.16552 -0.08914
0.14381 -0.12200 0.10615
-0.13163 0.15442 -0.11704
-0.18036 0.34649 -0.02819
-0.10878 0.08309 0.15088
0.15885 -0.05164 0.11552
-0.11280 -0.36381 -0.17484
0.09705 0.04795 0.17827
-0.18036 -0.15144 0.04413
0.01357 0.00846 0.17607
-0.15871 0.16096 0.02133
-0.12723 -0.16552 -0.02639
-0.18036 -0.11533 0.10127
0.01050 -0.16552 0.06294
0.07747 -0.12200 0.15126
0.10982 -0.16552 -0.02769
-0.12758 -0.33214 0.11552
-0.03165 -0.14823 -0.18036
0.07271 0.03957 -0.18036
-0.15338 -0.16552 -0.06224
