-0.16364 -0.12239 0.19749
-0.15738 -0.39395 -0.14812
0.15429 -0.31502 0.19134
-0.15422 0.39006 -0.13259
-0.19235 -0.01975 0.17020
0.02927 0.01086 -0.19749
0.15429 -0.25699 0.17707
-0.16280 0.41473 -0.17973
-0.15422 0.37750 0.09259
-0.15826 -0.41473 0.18575
-0.18207 -0.18609 -0.14812
-0.06955 0.01975 -0.08160
-0.17878 0.30988 -0.02029
-0.19288 0.03620 0.14812
0.15150 -0.01975 0.02867
0.09602 -0.01975 0.14885
-0.14812 0.35431 -0.19669
-0.16616 -0.01975 -0.05387
-0.17830 0.27271 0.13439
-0.19080 0.37146 -0.12910
0.16389 -0.07762 -0.15429
-0.19138 0.30012 -0.10642
0.04464 -0.01975 -0.16709
0.19749 -0.10869 -0.16477
-0.19749 -0.16935 0.18088
0.19468 -0.31300 0.15429
-0.19749 -0.06438 -0.16690
-0.14287 0.01975 0.19172
-0.12554 0.01975 0.00197
0.19749 -0.00877 0.05434
0.16823 0.01975 -0.12498
-0.19749 -0.34947 0.15126
-0.15458 0.27271 -0.05119
0.19668 -0.01975 0.15576
-0.09825 -0.01975 -0.00472
0.19749 0.01255 0.05473
-0.11860 0.01975 0.17117
0.02853 0.01975 0.02225
0.16741 0.01975 0.15040
-0.11429 0.01975 -0.17014
-0.19749 0.00129 -0.09075
0.12720 0.01975 -0.11308
-0.06880 0.01975 -0.15885
-0.19138 0.38155 -0.06828
0.15429 -0.05675 0.17602
-0.16532 0.03357 0.14812
-0.02102 -0.01975 -0.14723
0.02778 -0.01975 -0.16337
-0.02405 -0.01721 0.19749
-0.12850 0.01975 0.18898
0.15429 -0.15062 0.18284
-0.16929 0.32177 -0.14812
-0.14812 0.07199 0.18630
-0.18116 0.40862 -0.03573
-0.17021 -0.41406 -0.19749
-0.19749 0.38013 -0.16769
-0.18448 -0.41473 -0.18639
-0.15163 0.41473 0.19436
-0.13577 0.01975 -0.12937
0.17323 -0.01975 -0.19291
-0.11314 0.01975 0.01307
-0.15422 0.40028 -0.14774
-0.19749 0.15926 -0.17886
-0.02654 -0.01975 0.09390
-0.19749 -0.01305 -0.10958
-0.19749 -0.36588 0.16732
0.19359 0.01975 -0.19289
-0.15289 -0.01975 -0.18391
-0.15422 0.30217 0.13381
-0.19749 -0.32881 -0.17543
-0.18803 0.30988 0.02189
-0.15157 -0.28355 -0.19749
-0.19265 0.02547 0.14812
0.15791 -0.41077 -0.15429
-0.01380 -0.01975 -0.18558
0.13169 0.01975 0.04507
-0.08837 0.01975 0.18790
-0.14812 0.33715 -0.17300
0.19749 -0.01749 -0.02860
0.18956 -0.34631 -0.19749
-0.17527 0.09918 0.14812
-0.19749 -0.01751 0.14638
-0.19749 0.40613 -0.16021
-0.14812 0.02112 -0.19318
0.01419 0.01975 0.15526
0.16401 -0.30312 -0.15429
-0.15044 0.01561 -0.19749
-0.01630 0.01975 0.04578
0.01207 0.01975 -0.15727
-0.19749 0.37182 -0.18557
0.19749 -0.01087 -0.01314
0.15154 -0.01975 0.19237
-0.18898 0.40862 -0.00780
-0.00530 -0.01975 0.00530
0.19749 -0.00048 0.15344
-0.19743 0.22556 0.14812
0.16199 -0.41473 0.18772
-0.19749 -0.20680 -0.17166
-0.15700 0.16920 0.19749
-0.04906 -0.01975 -0.01636
-0.19749 -0.25865 0.16223
-0.03011 -0.01975 0.03819
-0.15323 -0.26062 -0.19749
0.15072 0.01975 -0.14296
-0.19597 0.24751 0.19749
-0.15152 -0.01975 -0.09020
-0.12201 -0.01975 -0.00816
0.09096 0.01117 -0.19749
-0.19749 -0.12134 -0.18991
0.12450 0.01975 0.08376
0.19633 -0.12607 -0.15429
0.10293 -0.01975 -0.11848
-0.18581 0.15709 -0.19749
0.17460 -0.12356 0.19749
0.02022 -0.01975 -0.05960
-0.16413 0.32947 -0.14812
-0.17339 -0.35912 -0.14812
-0.18669 0.30988 -0.11586
0.13165 -0.01303 0.19749
-0.15422 0.39741 -0.03170
-0.19749 -0.40084 0.19401
0.19749 -0.18508 -0.17550
0.19749 0.01479 0.10780
0.03624 0.01975 0.01836
0.15429 -0.35659 -0.15762
0.01332 -0.01975 0.05400
-0.10099 -0.00809 -0.19749
0.19749 -0.24608 -0.17444
0.19749 -0.32132 -0.19349
-0.19629 0.07292 0.19749
-0.09747 0.00806 -0.19749
0.03400 -0.01975 0.09776
0.15120 -0.01975 0.11738
0.19212 -0.36153 -0.15429
0.07882 0.01975 -0.00775
-0.17581 -0.41286 0.14812
-0.14974 0.34666 0.14812
0.16308 -0.41386 0.15429
-0.12295 -0.00120 0.19749
0.19749 -0.04599 -0.19070
-0.14977 -0.00541 -0.19749
-0.16897 -0.11199 0.14812
-0.15767 0.40862 -0.06933
-0.17959 -0.09511 -0.14812
0.03970 -0.00574 -0.19749
0.18871 -0.01975 -0.09252
-0.09900 -0.01975 0.10975
-0.19749 -0.23780 -0.15872
-0.14812 -0.20760 -0.18701
-0.19749 -0.15311 0.15909
0.16085 -0.02602 0.15429
-0.19749 -0.07260 -0.16514
0.10449 0.01975 0.14391
-0.17286 -0.15007 -0.14812
-0.14812 0.28362 0.17107
-0.19749 -0.00446 0.04802
0.19749 -0.00120 0.06625
-0.14812 -0.40571 -0.19135
-0.16959 -0.01975 0.09039
-0.19749 0.22946 0.19550
0.07120 0.01975 -0.07771
-0.18427 0.02620 -0.14812
-0.17111 0.23397 0.14812
0.15429 -0.39814 -0.18483
0.19749 -0.35433 0.18426
-0.19225 -0.01975 0.04375
0.15534 -0.41473 0.16362
-0.19749 -0.36175 0.15792
-0.19138 0.27886 -0.04189
-0.19749 -0.00937 0.17632
-0.14812 -0.24163 0.17429
-0.19627 0.12374 0.19749
-0.13458 -0.01975 -0.06354
0.03416 -0.01114 -0.19749
0.19749 -0.35441 -0.18195
-0.18693 0.41473 -0.15944
-0.00123 -0.01975 0.04880
-0.18881 0.27271 0.06252
0.15429 -0.16529 0.16325
-0.01228 -0.01975 -0.13222
0.08385 0.01975 -0.00029
-0.14812 -0.39161 -0.18894
-0.19749 -0.16220 0.17492
0.19749 0.00503 0.05133
-0.18934 0.37146 0.03127
0.11848 -0.01975 0.06487
-0.19749 -0.20697 -0.18540
-0.08126 -0.01923 -0.19749
0.12900 -0.01975 0.16659
-0.19749 0.07413 -0.16928
-0.15422 0.27603 0.06207
0.19749 0.01491 -0.01214
-0.14812 0.37673 -0.18502
0.19749 -0.37936 -0.16304
0.19749 0.01165 -0.00725
-0.16147 0.37146 0.14353
-0.17350 0.30988 -0.10086
0.15429 -0.18256 0.17596
-0.14812 -0.28629 -0.17596
-0.17459 -0.01569 0.19749
-0.15422 0.37506 0.07962
0.16481 0.01975 0.12165
-0.19477 -0.26042 -0.19749
-0.19749 0.35425 0.15022
0.08744 -0.01975 0.12633
0.07861 -0.01975 -0.01482
0.15429 -0.19827 -0.19601
-0.18520 -0.15790 0.14812
0.15429 -0.37067 0.18126
-0.17288 0.06079 0.14812
0.08677 -0.01975 -0.04532
0.11427 -0.01975 -0.14819
0.19749 -0.39587 0.19001
0.18676 -0.01975 -0.17504
-0.18859 0.30988 -0.09246
-0.17198 0.37146 0.13977
-0.19749 -0.32708 0.17260
-0.01587 0.01942 -0.19749
-0.19749 -0.41107 0.14867
-0.16832 0.01975 -0.01019
0.06185 -0.01975 -0.12384
-0.06343 -0.01975 0.18205
-0.15551 -0.13733 0.19749
0.19749 -0.11922 0.17421
-0.00309 -0.01975 -0.03838
0.14735 0.01975 -0.07706
0.01277 0.01975 -0.10012
0.08576 -0.00856 -0.19749
-0.19749 -0.01077 0.02802
-0.14685 0.01975 -0.03421
0.16349 -0.07344 0.15429
-0.18871 0.14438 0.19749
0.19749 -0.21757 -0.15691
0.11692 -0.01975 0.10909
-0.11119 -0.01975 0.18219
-0.19749 -0.00703 0.02395
-0.17272 -0.20977 -0.14812
-0.14812 -0.31761 0.15024
-0.08150 -0.01975 0.12677
-0.19309 0.37604 -0.14812
0.17531 -0.21119 -0.19749
0.19276 -0.35525 -0.19749
0.04386 -0.01975 -0.06214
0.16897 -0.34224 0.15429
-0.15422 0.29015 -0.04287
0.15429 -0.07374 -0.16501
0.16454 -0.06019 -0.19749
-0.04601 0.01186 -0.19749
-0.14812 0.05240 -0.18262
0.07036 -0.01975 -0.08309
0.15429 -0.09391 0.17786
-0.14812 0.05543 -0.17480
0.17262 0.01975 -0.12874
-0.14812 0.25047 0.18508
-0.07300 -0.01975 0.16187
-0.14812 0.08572 0.16309
-0.18527 0.30988 0.01641
-0.13271 -0.01975 0.07531
-0.19749 0.36139 0.16240
0.17118 -0.30759 0.15429
-0.19749 0.07850 -0.18887
-0.04095 0.01975 -0.04310
-0.19749 0.38572 0.19665
-0.14812 0.15648 0.16038
-0.15000 -0.14566 -0.19749
0.04863 0.01975 0.06251
0.07726 -0.01975 0.18699
0.05564 0.01975 0.10569
0.15429 -0.13322 -0.17287
0.15749 -0.15460 -0.15429
-0.03061 -0.01975 0.05746
0.09857 0.01975 0.05045
-0.14812 0.14845 0.18167
0.15429 -0.25589 0.16783
0.18840 -0.19531 -0.19749
-0.19138 0.30364 0.09605
-0.14812 -0.34119 -0.19138
-0.14812 0.13880 0.17336
-0.14812 -0.09664 -0.18538
-0.18895 -0.39957 -0.14812
-0.19749 0.34735 -0.18238
-0.07380 -0.01975 -0.13349
-0.16082 0.37146 0.11634
-0.04835 -0.01975 0.08334
0.16846 -0.22177 0.19749
-0.19749 0.01961 -0.01899
0.14156 -0.01975 0.10227
0.12890 0.00265 0.19749
-0.14812 0.35460 -0.14819
0.15429 -0.33403 -0.18559
-0.15422 0.37457 0.05860
-0.16197 0.01975 -0.01476
-0.16865 0.27271 0.14213
-0.08488 0.01975 0.05465
0.09279 -0.01975 0.03824
-0.17534 0.36480 0.19749
0.04830 0.01975 -0.15362
0.00954 -0.01975 -0.14896
-0.17900 0.37146 -0.05705
-0.14812 0.12425 0.18586
-0.09587 0.01975 -0.18343
-0.19749 0.34770 -0.19507
0.13486 0.01453 -0.19749
-0.19749 0.27169 0.17080
-0.18407 0.01975 -0.01193
-0.15422 0.29488 -0.10974
-0.15599 -0.36282 -0.19749
-0.04405 0.01975 0.16474
-0.17447 0.33756 -0.19749
0.07368 -0.01975 -0.13695
0.16317 -0.40395 -0.19749
0.13251 -0.01975 0.15039
0.19749 -0.15939 0.15728
-0.19749 0.11378 0.17610
0.19721 -0.03336 0.15429
-0.19749 0.15001 0.18744
-0.17619 -0.26901 0.14812
0.11438 -0.01975 -0.18155
-0.19437 0.06399 -0.19749
-0.18979 0.27271 -0.02544
0.11231 -0.00372 0.19749
-0.19384 0.23333 -0.19749
0.18044 -0.08319 -0.15429
-0.17206 0.38200 -0.19749
-0.08409 0.01975 -0.15332
-0.02751 0.01975 0.16278
-0.18108 0.36434 -0.14812
-0.19749 -0.04297 0.15274
0.15429 -0.04091 0.18712
0.15429 -0.28512 -0.16316
-0.19749 -0.29631 0.19645
0.12811 -0.01975 -0.01530
-0.14812 0.41221 -0.16100
0.15429 -0.16595 0.19738
0.18334 -0.01975 -0.09920
0.19749 -0.30007 -0.16097
-0.14062 0.01975 -0.06427
-0.19749 0.17052 -0.17730
-0.18868 0.01975 -0.04813
-0.16573 -0.02829 -0.19749
-0.19749 -0.39619 -0.18589
-0.15095 0.10772 0.14812
-0.07384 0.01975 0.02895
-0.14888 0.40881 -0.19749
-0.18793 -0.26883 0.14812
-0.19749 -0.30922 -0.15156
-0.15422 0.29655 -0.14791
-0.19749 0.02731 -0.17387
-0.14812 -0.20290 0.19505
0.12562 0.01975 0.06829
-0.19749 -0.06744 0.19104
-0.18607 -0.14489 -0.14812
-0.17450 0.30988 -0.06039
-0.18474 -0.25308 0.14812
0.15429 -0.37611 -0.18769
0.05704 0.01975 0.08276
-0.16256 0.07506 0.14812
0.18365 -0.27608 -0.15429
-0.17035 0.25215 -0.19749
-0.06165 -0.01975 -0.17949
-0.10685 -0.01975 -0.06965
0.16974 -0.40109 0.19749
-0.14914 0.01975 0.00093
-0.14812 0.31514 0.15167
-0.15422 0.28477 -0.14202
-0.13185 0.01975 -0.03653
-0.16984 -0.02051 0.14812
-0.10104 -0.01975 0.09245
0.11359 0.01975 -0.15265
-0.15694 -0.31701 0.19749
-0.18582 0.35816 -0.14812
0.19749 -0.26823 0.16533
0.19749 -0.18884 0.17820
0.19749 -0.06997 0.15477
-0.14812 -0.40602 -0.16828
0.18434 -0.01975 -0.01061
-0.15031 0.01975 -0.07771
-0.16084 -0.26366 0.19749
0.19249 -0.01975 -0.07780
-0.15765 0.30988 -0.08653
-0.14812 0.37411 -0.17986
-0.16808 -0.19802 -0.14812
-0.19749 0.24371 0.17470
-0.18794 -0.27992 0.14812
-0.17159 0.02212 0.14812
0.19749 0.00845 -0.13902
-0.15775 -0.36397 0.19749
-0.12766 -0.01975 -0.14063
0.19705 -0.01975 -0.00181
-0.17879 0.33127 0.14812
0.15429 -0.35404 0.18543
-0.16274 0.29062 -0.19749
-0.14812 -0.04542 0.17969
-0.19749 -0.15106 0.17846
0.18520 -0.14641 -0.19749
-0.19749 -0.00739 0.08785
-0.19585 0.01975 -0.08578
-0.14812 -0.19245 -0.16704
-0.14812 -0.30060 0.19700
0.10941 -0.01975 0.00877
-0.02356 -0.01975 0.04023
-0.01793 0.01975 0.08311
0.19749 -0.37015 -0.16835
0.14017 -0.01975 -0.00052
-0.14744 -0.01975 0.05783
-0.10427 0.01975 0.19718
-0.17819 0.27271 -0.07250
0.15429 -0.22851 -0.17288
-0.06919 0.01975 -0.11678
0.07110 -0.01975 0.18363
-0.17280 -0.02013 -0.19749
-0.06572 -0.01975 -0.03454
-0.18963 -0.03167 0.14812
-0.06135 -0.01975 -0.11542
0.18178 -0.25283 0.15429
-0.19749 -0.02979 -0.15592
-0.16656 -0.05353 0.14812
0.12588 0.01975 -0.00616
-0.18090 -0.30235 -0.19749
-0.17936 -0.01975 -0.01646
-0.17930 0.30988 0.10393
-0.01682 0.01975 0.09516
0.19492 -0.33757 -0.15429
0.15882 -0.15482 0.15429
-0.07613 -0.01975 0.07596
-0.19749 0.23385 0.18868
-0.16128 0.30988 0.04196
-0.19749 -0.25145 0.15546
-0.18607 0.08471 0.19749
-0.19749 0.31362 -0.16852
-0.17310 -0.22565 -0.19749
0.11767 0.01975 0.10855
-0.14812 0.33770 -0.15133
-0.19749 0.11393 0.15171
-0.19749 -0.02693 0.18747
-0.14812 0.29731 -0.17666
-0.10703 0.01975 0.09385
0.19681 -0.18512 -0.15429
-0.14812 -0.11083 -0.16475
-0.19138 0.38288 0.00083
-0.19749 -0.12657 0.17851
0.18776 -0.21566 0.15429
0.15493 -0.04997 0.15429
-0.19749 -0.30898 0.18135
0.19474 -0.41473 0.17673
-0.19749 0.35666 0.16875
-0.12926 -0.01975 0.00850
0.15681 -0.25071 0.19749
-0.16215 0.41473 -0.16688
-0.19749 -0.33874 -0.16445
-0.01097 -0.01975 0.01442
-0.19650 -0.22931 -0.19749
0.03556 0.01975 -0.18884
-0.18832 0.30988 -0.08058
-0.00681 -0.01975 -0.18872
-0.19517 -0.37515 0.19749
0.09914 0.01975 0.10920
0.16610 -0.14206 -0.15429
0.16983 -0.01975 -0.06406
0.19749 -0.32084 -0.17614
0.16128 0.01975 0.06568
0.18107 0.01110 -0.19749
-0.14812 0.25839 0.17744
-0.16436 0.40862 0.05992
-0.19133 0.08634 -0.19749
-0.19749 0.00530 -0.07539
-0.00374 -0.01975 0.06011
0.19749 -0.07578 -0.19095
0.19749 -0.06581 -0.19229
-0.16250 -0.29799 0.19749
0.19749 -0.40405 -0.17402
0.17556 -0.40416 0.19749
-0.14812 0.07421 -0.16371
-0.19070 -0.28718 -0.19749
0.15429 -0.29464 0.17492
0.15429 -0.08940 0.16174
-0.18707 -0.37180 0.19749
-0.19138 0.30891 0.04091
-0.19749 -0.00060 -0.14296
-0.04529 0.01975 0.04291
-0.14812 -0.04646 0.14950
-0.19400 0.28754 0.19749
-0.19749 -0.24382 -0.18458
-0.19749 -0.14351 0.17638
-0.15669 -0.14392 0.14812
-0.00218 -0.01975 -0.00577
0.00173 -0.01975 0.18810
-0.14812 0.31150 0.17008
-0.19518 0.21990 0.14812
0.15429 -0.12084 0.19181
-0.17089 -0.27041 -0.19749
-0.04385 0.01975 -0.04861
-0.19749 0.11860 0.17895
-0.19749 -0.30910 0.17416
-0.17690 -0.25490 0.14812
0.04815 0.01975 -0.12568
0.17450 0.00795 0.19749
-0.18101 -0.05745 -0.19749
-0.09241 -0.01975 -0.00107
0.18862 -0.39916 0.15429
-0.14812 0.32428 -0.17128
0.19749 -0.00983 -0.18242
-0.18004 -0.03179 -0.19749
0.19749 -0.32844 0.19661
0.19749 0.00681 -0.08178
-0.01599 0.01975 0.17730
0.16058 -0.01975 0.14030
0.14772 0.01975 0.10488
-0.00190 -0.01975 0.07666
-0.19138 0.40191 0.02887
-0.14812 0.07866 0.16997
-0.17512 0.41473 0.16218
0.15429 -0.20167 -0.18667
-0.17990 -0.01975 -0.12842
-0.11798 -0.01975 -0.14899
-0.15841 0.39911 0.19749
-0.19121 0.37146 0.14514
-0.19465 -0.41303 -0.14812
0.10208 0.01975 0.08011
-0.15695 -0.19614 0.14812
0.15429 -0.29824 0.18322
0.05526 -0.01975 -0.18358
-0.18972 0.30988 -0.00231
-0.14812 0.31139 0.18921
0.16392 -0.13756 0.15429
-0.18685 0.00787 0.19749
0.19749 -0.03567 -0.17255
-0.16761 -0.10744 -0.19749
0.15635 -0.09409 -0.15429
-0.16240 0.08631 0.14812
0.18501 0.01975 0.08633
-0.03088 0.01975 0.14901
0.15429 -0.11117 0.18697
0.16979 -0.38773 -0.15429
0.15429 -0.14605 -0.17326
-0.16608 -0.34289 0.19749
0.12347 -0.01975 -0.14875
-0.19749 0.13530 0.16643
-0.19749 -0.01314 -0.13715
0.17414 -0.12370 -0.19749
-0.14812 0.07383 0.16129
0.14179 -0.01975 0.06769
-0.16791 -0.30209 -0.19749
-0.18308 0.37146 -0.05088
-0.08812 0.01975 0.06471
0.15429 -0.10574 -0.18812
-0.19138 0.30865 -0.05738
-0.19749 0.00300 -0.18558
-0.18755 0.40862 0.03805
-0.14812 0.16310 0.15125
0.03025 -0.01975 0.07001
-0.19749 0.40734 0.18792
-0.19749 0.00698 0.05305
0.19749 -0.39206 -0.16928
-0.17667 0.18667 -0.14812
0.19696 0.01975 -0.18879
0.04958 0.01975 -0.08907
0.11321 -0.01975 0.14487
0.17014 -0.01975 0.17061
-0.01083 0.01917 0.19749
-0.19749 0.28959 -0.18921
-0.16870 0.41473 -0.18372
0.15429 -0.29979 0.16520
-0.16368 0.37146 0.09549
-0.19138 0.39116 -0.10757
-0.14812 -0.32536 0.16150
-0.16858 0.40862 -0.04361
-0.19138 0.38952 -0.14099
-0.14812 -0.20295 -0.16527
0.04581 0.01975 0.00077
0.17269 0.01975 -0.07226
-0.18227 -0.12590 -0.19749
-0.18519 -0.27556 0.14812
-0.02045 -0.01975 0.16085
-0.09041 -0.01975 0.10127
0.12198 0.01975 0.07668
-0.14452 -0.01975 -0.01633
-0.19749 0.29794 -0.19544
-0.19138 0.38600 0.04111
-0.14812 -0.03015 0.14831
-0.17698 0.27271 -0.05204
0.11541 -0.01975 -0.11871
-0.04113 0.01975 0.13682
-0.18123 0.37146 0.04562
0.18963 0.01975 0.19535
0.18779 -0.40938 -0.19749
0.18265 -0.01975 0.00427
0.09012 0.01975 0.00200
-0.19138 0.37634 -0.02864
0.15429 -0.35224 -0.17421
-0.19749 0.17469 0.16356
0.15874 -0.30665 0.19749
-0.09370 0.01975 -0.01116
-0.17641 -0.11663 0.14812
0.03478 0.01975 0.06223
-0.19142 0.36761 0.19749
0.18114 -0.07395 -0.15429
-0.14812 0.11087 0.18812
-0.17461 0.01975 0.12610
-0.19138 0.37567 0.12399
-0.14477 0.01975 0.13440
0.02611 0.01975 -0.02208
0.19749 -0.23812 0.18201
-0.19749 -0.26030 0.19059
-0.14648 0.01975 -0.08757
-0.19749 0.19389 -0.16710
-0.19749 -0.28308 0.17026
0.01303 -0.01975 0.03233
0.19651 0.01975 0.11906
-0.16234 0.30988 0.09209
-0.14812 0.30665 0.18344
0.16851 -0.36594 -0.15429
-0.15422 0.39114 0.09526
-0.18911 0.33287 0.19749
0.19749 0.01911 0.11370
0.18966 -0.38762 0.19749
0.06128 0.01975 -0.15284
-0.18807 -0.32088 -0.14812
0.19749 0.00886 0.12429
-0.18513 -0.14150 -0.19749
0.03262 0.01975 0.09695
-0.16354 -0.01975 -0.14227
-0.14812 -0.40847 -0.18011
-0.15422 0.29866 -0.01389
0.06425 -0.01975 0.19114
-0.19749 0.21729 0.18757
-0.16589 0.06277 -0.14812
-0.16362 0.00202 -0.19749
-0.15442 0.40862 -0.11551
-0.10798 -0.01975 0.08798
-0.19749 0.30403 0.16381
-0.14812 -0.08295 -0.18597
-0.19138 0.38121 -0.05667
-0.02102 0.00169 -0.19749
0.18625 -0.39278 -0.19749
-0.16563 0.16524 -0.14812
-0.15422 0.38528 0.14264
0.19749 -0.14663 0.18243
0.15429 -0.04898 -0.19298
0.19749 -0.02737 -0.15764
0.02223 0.01975 -0.12485
-0.19711 -0.29295 -0.19749
-0.14812 -0.26975 -0.16313
-0.14402 -0.01975 -0.15271
-0.19138 0.38771 0.08192
0.15429 -0.40823 -0.17936
0.16443 -0.26172 0.19749
-0.19749 0.08827 0.18231
0.15429 -0.26066 -0.16415
-0.18764 0.41183 -0.19749
-0.19749 -0.32357 -0.15659
-0.18201 -0.05174 -0.19749
-0.17097 0.37146 0.09528
0.19749 -0.28591 0.18219
0.02748 -0.01975 0.13800
-0.16979 0.40862 -0.13444
-0.12839 0.01975 -0.00774
-0.14932 -0.41473 0.18080
-0.14812 0.17533 0.16877
0.14374 0.01975 0.06177
-0.18181 -0.25450 0.19749
-0.14812 0.02545 -0.14924
0.03859 -0.01975 0.06466
-0.16598 0.30988 0.02220
-0.16697 -0.27996 0.14812
0.10071 -0.01975 -0.09040
-0.19138 0.37196 0.03684
-0.15771 0.12204 -0.19749
-0.07186 -0.01975 0.08304
-0.16292 0.27271 0.07797
-0.19749 -0.41002 -0.19419
0.10048 -0.01975 -0.05584
0.19749 -0.30295 0.17661
-0.17291 -0.03308 0.19749
0.19749 -0.11856 -0.17822
-0.14812 0.31443 -0.16463
0.15213 0.01975 0.14966
-0.16035 -0.36226 0.14812
0.19749 -0.10009 0.18133
-0.17268 0.40862 0.03946
0.13090 -0.01975 -0.12768
-0.14812 0.06743 -0.17493
-0.14812 0.36376 0.19475
0.15429 -0.30492 -0.17573
-0.00691 -0.01975 0.04849
0.10229 0.01975 -0.17751
-0.16236 0.30988 0.01392
-0.19749 0.09616 -0.16476
-0.03422 -0.01975 -0.03141
-0.16104 0.35369 -0.14812
-0.18538 0.27271 -0.09412
0.07806 -0.01975 -0.04564
-0.17138 0.30988 0.00932
-0.14812 0.34179 0.19492
-0.18688 -0.01975 -0.05504
-0.17939 -0.36679 -0.19749
0.16423 -0.29513 -0.15429
-0.18428 0.24613 0.14812
-0.18742 0.27271 -0.07242
0.17253 -0.28588 -0.19749
0.18103 -0.37665 0.15429
0.07513 -0.01975 0.16290
-0.16093 -0.11480 0.19749
-0.14812 0.22555 -0.15532
-0.19749 0.00216 0.10800
-0.15422 0.30470 0.02698
-0.16293 0.22221 0.19749
-0.19749 -0.09458 -0.16719
0.12085 -0.01975 0.13078
-0.18522 0.20381 -0.14812
0.15193 -0.01975 0.17058
-0.06659 0.01975 0.09855
0.15429 -0.16113 -0.15650
-0.03337 0.01975 -0.01794
0.19621 -0.29344 0.19749
-0.05768 0.01975 0.08186
-0.17133 -0.33219 0.14812
-0.15838 -0.12809 0.14812
0.15429 -0.18855 0.18632
-0.19749 -0.32221 0.17591
-0.05031 -0.01975 0.01211
-0.16929 0.11546 -0.19749
-0.14812 -0.07476 0.15106
0.19749 -0.13663 0.17910
0.07689 0.01975 -0.01341
-0.19749 0.00012 -0.11711
-0.14812 -0.07093 0.19041
-0.19415 -0.21480 -0.14812
0.15627 -0.27320 0.19749
-0.19749 0.20963 -0.15308
-0.16307 -0.01975 0.11666
0.01388 -0.01975 -0.17838
0.17026 -0.32130 0.15429
-0.15422 0.40862 0.08912
-0.14812 0.24442 0.15690
0.13714 -0.01975 0.07170
-0.19749 0.16201 -0.14831
0.14016 0.01975 0.14922
0.06568 -0.01975 0.01259
0.15429 -0.24757 0.15990
0.17039 0.01975 0.02298
-0.09209 -0.01975 -0.18622
-0.09627 -0.01975 -0.09756
-0.19241 0.01975 -0.07716
-0.10248 -0.00203 0.19749
-0.12919 -0.01975 -0.00946
0.03816 0.01975 -0.02201
-0.16048 0.37146 -0.05908
0.15475 0.01975 -0.03966
0.19749 -0.21004 0.19531
-0.00888 -0.01975 -0.10015
-0.17746 0.41473 0.17541
-0.16856 0.41473 -0.15572
-0.14812 -0.23278 0.17314
-0.11089 -0.01975 -0.08281
0.00966 -0.01975 -0.17387
0.08221 -0.01975 -0.15812
-0.19749 -0.33332 -0.15425
0.16130 -0.01975 0.12809
0.14593 0.01975 -0.15824
-0.19749 -0.29885 0.16799
0.06815 -0.01975 -0.02711
-0.06056 -0.01975 -0.19183
-0.14812 -0.19289 0.17203
-0.14812 -0.13536 0.17419
-0.12118 -0.01975 0.11662
-0.00141 -0.01975 -0.05657
0.16616 0.01975 0.18519
-0.00462 -0.01975 -0.11132
-0.16400 -0.41473 0.17541
0.19749 -0.41014 0.16084
0.11635 0.01975 0.02451
0.19117 -0.32327 0.15429
-0.15750 0.06986 0.19749
-0.15624 0.08214 0.19749
-0.19404 -0.09251 0.19749
-0.14812 -0.05235 0.18372
-0.14308 0.01975 -0.10243
-0.18895 0.10026 -0.14812
-0.14812 -0.31870 -0.15168
-0.19749 0.24668 0.16127
0.19749 -0.33016 0.16899
-0.17531 -0.24517 0.14812
-0.19138 0.27832 0.00937
-0.05673 -0.01975 -0.01125
0.09285 -0.01975 -0.01273
-0.11992 0.01975 -0.13821
0.16565 0.00162 -0.19749
-0.19138 0.27692 0.08468
0.05423 0.01975 0.17391
0.00470 -0.01298 -0.19749
0.19749 -0.16707 -0.17445
-0.14812 -0.24336 0.15434
0.15429 -0.24949 0.18084
-0.03490 0.01975 -0.09875
-0.19023 0.30988 0.12073
-0.18571 0.12684 -0.14812
-0.08059 0.00673 -0.19749
0.16806 -0.40211 -0.19749
0.19749 -0.01293 -0.04758
-0.19138 0.30143 -0.04580
0.11252 0.01975 0.19093
-0.17659 0.22787 0.14812
0.04096 -0.01975 -0.04783
0.14294 -0.01975 0.08456
-0.01202 0.01975 -0.08028
-0.14812 -0.29284 0.15431
0.06194 0.01975 -0.01647
-0.16957 -0.33443 0.19749
-0.15422 0.40660 -0.12543
-0.16130 0.37146 0.08543
-0.18757 -0.03468 -0.14812
0.10053 0.01975 -0.13270
-0.18729 0.35637 0.14812
0.15429 -0.20770 -0.19423
0.08535 0.01975 0.13276
-0.19749 0.01267 -0.11880
-0.15314 0.41473 0.17011
-0.15032 -0.39624 0.19749
-0.04479 -0.01975 -0.02289
-0.13570 -0.01975 0.03318
-0.13587 0.01975 0.15980
-0.14812 -0.13448 0.15843
0.17686 -0.01975 -0.04902
-0.18994 -0.10345 -0.14812
-0.14812 -0.18126 -0.17442
-0.19749 -0.12101 0.15821
-0.02029 -0.00635 0.19749
-0.05972 0.01975 -0.05410
0.04126 0.01975 0.07176
-0.19749 0.14989 -0.14938
-0.10537 -0.01975 0.11646
0.18016 -0.25873 0.19749
-0.19138 0.39460 0.13610
0.10764 0.01975 -0.04686
-0.19749 0.30464 -0.15994
-0.19689 -0.14507 -0.14812
-0.17118 0.23308 0.19749
-0.17230 0.29346 -0.19749
0.15429 -0.03573 -0.16890
-0.19749 0.18227 -0.17101
-0.15168 0.15863 -0.19749
-0.18464 0.27271 0.12897
-0.00079 0.01975 -0.18454
0.14816 0.01975 -0.04088
-0.17133 0.01975 -0.06317
-0.15020 0.10819 -0.19749
-0.09854 0.01975 0.16432
-0.14812 0.24519 -0.17334
-0.15422 0.39103 0.13497
-0.11901 0.01975 -0.05982
0.16341 -0.14412 0.19749
0.16700 -0.01975 -0.16168
-0.18197 0.37146 0.03977
-0.10800 0.01975 -0.11254
-0.15422 0.29956 0.02937
0.17156 -0.12955 0.19749
-0.19749 -0.30419 0.19637
-0.07687 -0.01975 0.09427
-0.15594 0.14251 0.14812
-0.17773 -0.31338 -0.14812
0.16343 -0.09455 0.19749
0.19749 -0.29835 0.19320
-0.14812 0.02811 -0.16903
-0.14544 -0.01975 -0.17510
-0.19138 0.39620 0.03088
-0.14812 -0.37011 -0.17629
-0.14812 0.38336 0.16287
0.06179 0.01975 -0.14674
0.18631 -0.15900 -0.19749
-0.15987 0.27271 0.04603
-0.18973 0.36027 -0.19749
0.13766 0.01975 0.15720
-0.19749 0.01215 -0.05959
0.15876 -0.36039 -0.19749
-0.14812 0.39371 -0.16556
0.10908 -0.01975 -0.15910
0.10790 -0.01975 -0.14536
0.17077 -0.01975 0.09648
0.13423 0.01975 0.10783
-0.16436 -0.24496 0.19749
-0.12220 -0.01975 0.01160
-0.15756 -0.01975 -0.17460
-0.14812 -0.32574 -0.19154
0.16737 -0.26259 -0.15429
0.05629 -0.01975 -0.16699
0.18983 -0.28381 -0.19749
-0.19138 0.38175 0.11460
-0.14812 -0.07774 -0.18438
-0.14812 0.30159 -0.15445
0.03733 -0.01975 0.03289
0.17020 -0.14703 -0.19749
-0.15621 0.30988 0.09302
-0.15549 0.00469 0.19749
0.10365 0.01975 -0.15905
-0.15826 -0.14387 0.19749
-0.19749 0.16397 -0.17444
-0.15058 -0.01975 0.13686
-0.05563 0.01975 -0.12333
0.13369 -0.01975 -0.11891
-0.15079 0.00088 0.19749
-0.01818 -0.01975 0.12117
-0.15587 0.05147 -0.14812
0.09162 0.01975 0.10066
-0.16650 0.08560 -0.14812
-0.16819 0.27271 0.01600
-0.19749 -0.11652 0.15302
0.19749 -0.17819 -0.18268
-0.15688 -0.32908 -0.14812
0.19047 -0.19608 0.19749
0.02158 0.01975 0.11148
0.15429 -0.26838 -0.15739
-0.19749 0.17605 0.18801
-0.19749 0.07870 -0.15136
0.18948 -0.02542 0.19749
0.19749 -0.36363 -0.18700
0.03052 -0.01975 -0.12284
-0.13623 0.01975 -0.01682
-0.14812 0.12684 0.15372
-0.17995 -0.28587 0.14812
0.13623 0.01975 0.17796
-0.18839 -0.34537 -0.19749
0.05286 0.01975 -0.08048
0.19749 -0.20454 0.18290
0.08892 0.01975 -0.02181
0.14874 0.01975 -0.00600
-0.14157 -0.01623 0.19749
-0.14812 -0.16892 -0.19235
-0.07944 0.01975 0.11111
-0.16767 -0.25227 0.14812
-0.19749 0.00785 0.01558
-0.13950 -0.01975 -0.05623
0.17059 -0.03068 -0.19749
-0.19749 0.09528 0.17511
-0.08846 -0.01975 -0.17572
-0.19749 0.25166 -0.16925
-0.14812 0.24411 0.18218
0.13257 -0.01975 -0.00802
-0.18268 -0.01975 0.14744
0.18428 -0.27938 -0.19749
-0.00981 0.01975 0.12228
-0.18142 0.01975 0.12503
-0.14812 -0.04281 0.16255
0.18200 -0.01975 0.02218
0.12764 0.01975 0.05429
-0.09944 -0.01975 0.05380
-0.15872 0.39042 0.19749
-0.00481 0.01975 0.04587
0.07545 0.01975 0.01360
-0.14812 0.08598 -0.15338
-0.19138 0.39872 0.14033
-0.18921 0.32039 0.19749
-0.15826 0.30988 0.02950
0.14430 0.01975 0.12604
0.18814 0.01975 0.11974
-0.15851 0.01975 0.11869
0.16556 -0.41473 -0.17417
0.04801 0.01975 0.16980
0.16134 0.01975 0.13226
-0.14812 -0.10584 -0.15156
-0.13853 -0.01975 0.03791
0.03406 -0.01975 -0.15767
-0.02615 0.01975 0.15291
-0.17507 -0.32823 0.14812
-0.13384 0.01975 0.03814
-0.15219 0.38019 0.14812
-0.19320 0.41363 -0.14812
-0.09848 -0.01975 -0.17277
-0.06699 0.01975 0.12187
-0.19749 -0.22693 0.19456
-0.16397 -0.01975 0.13797
0.06903 -0.01975 -0.11124
0.05829 0.01975 0.12804
0.00218 0.01975 -0.09216
-0.15007 0.09421 0.14812
0.14129 -0.01975 0.18307
-0.19405 0.05845 0.19749
0.11321 0.01975 0.05362
-0.18013 -0.39663 -0.19749
-0.16088 0.02297 0.14812
-0.14812 0.08624 0.18637
0.09264 0.01975 0.03375
-0.10673 -0.01975 -0.12624
-0.19749 -0.35518 0.19013
-0.16428 0.40862 0.08305
-0.18710 0.19800 0.14812
-0.17806 0.40862 -0.11371
-0.17407 0.24125 -0.19749
-0.14812 -0.40173 0.18213
-0.17081 -0.40462 -0.19749
-0.12997 -0.01975 -0.19470
-0.19749 0.36683 -0.17052
-0.17595 0.26942 -0.14812
-0.19749 -0.01747 0.02242
-0.19749 -0.35813 -0.17789
0.19749 -0.28795 0.17417
-0.17699 -0.32050 0.14812
0.07368 -0.01975 -0.09908
-0.08769 -0.01975 0.04060
0.19749 -0.26327 0.17645
0.11045 0.00247 0.19749
-0.19749 -0.11551 -0.16529
-0.19138 0.40714 0.12816
0.05738 0.01975 -0.04401
-0.17921 0.40862 0.00758
-0.17103 0.36128 -0.19749
-0.12685 -0.01975 -0.09198
-0.14812 0.29965 -0.16233
-0.19749 0.15389 0.17283
-0.04692 -0.00439 0.19749
0.12783 -0.01975 0.08762
-0.18066 -0.13651 -0.19749
0.08686 0.01975 -0.17395
0.19749 -0.20380 -0.18399
0.14154 0.00011 -0.19749
-0.18937 0.37146 -0.14065
-0.03083 0.01975 0.08371
-0.14812 0.40237 -0.16592
-0.07357 0.01975 -0.05537
-0.17276 0.37146 0.00078
-0.05096 -0.01975 0.10131
-0.19749 -0.17406 0.16988
-0.19749 0.34033 0.18337
-0.14812 0.20166 0.18009
-0.15160 -0.01975 0.18035
-0.19749 -0.35311 -0.15539
0.19749 -0.27544 -0.19248
-0.15422 0.27535 0.13899
-0.09288 -0.01975 -0.03569
0.15575 -0.14568 -0.15429
-0.19138 0.29935 0.10891
-0.16070 0.30988 0.14096
-0.14812 -0.15406 -0.15068
-0.01353 -0.01975 0.08008
-0.19749 -0.27486 -0.16471
-0.19667 0.27391 -0.14812
-0.19749 -0.24311 0.19737
-0.13586 -0.01975 0.06176
-0.19749 -0.07979 -0.18139
-0.18277 0.01975 0.06654
-0.07700 0.01975 -0.00907
-0.05776 0.01975 -0.17962
0.19749 -0.25371 -0.17369
-0.19138 0.27603 -0.14540
-0.17410 0.37146 -0.14174
-0.15171 0.24551 -0.19749
-0.14828 0.09794 -0.14812
-0.16695 -0.01975 0.05220
-0.19138 0.27837 -0.11753
0.13613 0.01975 0.01289
-0.04021 0.00357 0.19749
0.12779 0.01975 0.17657
-0.14812 -0.09746 0.15009
-0.14812 0.40376 -0.19086
0.17741 -0.20861 0.15429
-0.14823 -0.05389 -0.14812
-0.15422 0.30764 0.13570
-0.15422 0.40308 -0.05766
-0.17150 -0.07745 0.19749
0.17410 -0.35334 0.15429
-0.00440 0.01975 0.05144
0.16735 -0.14400 0.15429
-0.19749 -0.26864 0.16430
-0.18496 0.01975 0.10501
-0.18508 0.40862 0.11870
-0.19749 -0.28637 -0.19231
0.11422 -0.01975 -0.05077
-0.16790 0.24854 -0.14812
0.15429 -0.10645 -0.17755
-0.14812 0.39953 0.16012
-0.16460 -0.07624 0.14812
-0.15359 -0.01975 0.12039
-0.19138 0.28498 -0.00738
-0.08334 -0.01975 -0.11244
-0.15628 0.30988 -0.05248
0.05778 -0.01975 0.16170
0.18717 -0.01975 0.15330
-0.16704 0.27271 -0.06683
-0.17014 0.40788 0.19749
0.19749 -0.06036 0.18552
-0.04102 -0.01975 0.04965
-0.08508 -0.01975 0.15689
-0.14812 0.07457 -0.15725
-0.14812 0.02678 0.17801
-0.14812 0.35642 -0.17316
0.18421 0.01975 -0.01001
0.16415 -0.21565 0.19749
0.19749 -0.00011 0.14716
0.17457 -0.41473 -0.15709
-0.19749 -0.31915 0.18943
-0.15973 -0.33915 0.14812
-0.03492 -0.01975 0.00283
-0.17236 -0.02579 0.19749
-0.13120 0.01975 0.00340
0.06245 0.01975 0.13559
-0.17305 -0.01975 -0.03461
0.19749 -0.27753 -0.15432
-0.14812 -0.27975 0.19004
-0.15500 -0.10921 0.14812
0.09147 -0.01975 0.02125
-0.13428 -0.01975 -0.16364
0.08193 0.01975 0.09703
0.09191 -0.01975 0.17684
-0.19423 -0.23675 -0.14812
-0.19749 -0.31390 -0.18256
-0.14812 0.18145 0.17640
0.17211 -0.33360 -0.15429
-0.19562 -0.06115 -0.19749
0.09986 -0.01975 -0.03257
0.00831 -0.01975 -0.13463
-0.19749 -0.23646 -0.17085
0.16094 -0.21582 -0.19749
-0.18762 -0.10940 -0.14812
-0.18681 0.41473 -0.16845
-0.14222 0.01975 0.04065
0.16203 -0.37334 -0.19749
0.18229 0.01975 -0.08231
-0.09280 0.00487 0.19749
-0.14812 -0.27567 0.17875
0.15365 0.01975 0.04881
0.17986 -0.09723 0.19749
0.16485 -0.19207 -0.15429
0.08718 -0.01975 0.01418
0.19749 -0.11133 0.17268
-0.11368 0.01048 0.19749
-0.03226 0.01975 0.18350
0.16595 -0.22396 -0.19749
0.04844 -0.01975 0.06877
0.19068 0.01975 -0.18342
-0.15422 0.40191 -0.10250
-0.11343 -0.01975 -0.03430
-0.19749 -0.07014 -0.18214
-0.19749 0.28684 0.15048
0.15901 0.01975 -0.17428
-0.08326 0.01975 -0.09550
-0.12636 0.01975 0.12156
-0.02161 -0.01975 -0.01080
-0.14812 -0.38367 -0.19472
-0.16188 0.27271 0.14187
-0.14812 -0.27738 0.15806
0.16186 0.01975 -0.18133
-0.05203 -0.01975 -0.09288
-0.17857 -0.29996 0.19749
-0.19749 0.13704 -0.16662
0.11750 -0.01975 0.08227
0.17573 -0.05426 -0.19749
-0.19223 0.41473 -0.16637
-0.15124 0.08132 -0.14812
-0.17983 0.40862 -0.06542
-0.02927 -0.01975 0.02243
-0.00506 -0.00522 -0.19749
-0.11392 -0.01975 -0.02550
0.00526 0.01975 0.15026
-0.03778 -0.01975 0.14997
-0.15141 -0.25477 0.14812
-0.06397 -0.01975 0.10912
-0.15422 0.39995 -0.04738
0.13609 0.01975 0.08015
-0.15422 0.28024 0.03155
-0.15316 -0.41473 0.19034
-0.13470 -0.01975 0.07030
-0.14812 0.40245 -0.17177
-0.03330 -0.01975 0.10546
0.18477 -0.32094 0.15429
0.09344 -0.01975 -0.18959
0.18249 -0.30381 0.19749
0.16064 -0.18519 -0.15429
0.12448 -0.01975 -0.12421
-0.14812 -0.02849 -0.16748
-0.16926 0.19876 0.19749
-0.19749 0.24561 0.19053
-0.15349 -0.18133 0.14812
0.19749 -0.11782 -0.17217
-0.04959 -0.01975 0.19437
-0.19749 0.37985 0.15557
-0.14837 0.01975 -0.12394
-0.00814 0.01975 0.14849
0.16942 -0.09828 0.15429
0.19749 -0.05772 0.19072
0.15698 -0.21455 0.15429
-0.14812 -0.35938 -0.19744
-0.09374 0.01975 -0.16697
0.19749 -0.12358 0.15678
-0.19749 0.25723 -0.18868
-0.14201 0.01975 0.08062
-0.17124 -0.14475 -0.19749
0.08678 -0.01975 0.16076
-0.05170 -0.01975 0.09483
-0.18019 0.40862 -0.02432
-0.16251 -0.32354 -0.14812
-0.19749 0.01759 -0.16179
-0.14812 0.11196 -0.15385
-0.17487 0.28723 -0.19749
-0.19749 0.21538 -0.15411
0.16651 -0.13413 0.19749
-0.07856 -0.01975 -0.11458
0.08272 -0.01975 -0.08679
-0.19749 -0.00075 0.12440
0.17435 -0.09839 -0.15429
0.06960 0.01975 0.02413
-0.14812 -0.12818 -0.18232
-0.18735 -0.20367 -0.14812
-0.05560 -0.01975 0.04418
-0.19138 0.27633 0.03231
-0.19749 -0.06062 -0.15813
0.04607 0.00450 0.19749
0.02952 0.01975 0.18321
-0.17077 -0.21813 -0.19749
-0.18245 -0.35183 -0.14812
-0.15397 -0.38122 0.14812
0.15815 -0.40518 -0.15429
-0.19749 0.15734 0.17835
-0.11397 0.01975 0.12491
0.00390 -0.01975 -0.08500
-0.11944 0.01975 -0.17660
-0.08824 0.01975 -0.16884
-0.15852 0.09828 0.19749
-0.19749 0.15943 -0.16426
-0.19749 -0.16265 -0.18116
-0.18832 0.19104 -0.19749
-0.15107 -0.14403 -0.14812
-0.05767 0.01975 0.09455
-0.19749 0.34390 0.15633
0.19569 -0.37989 0.15429
0.19269 -0.01975 0.03775
0.04651 -0.01975 0.05557
-0.19138 0.40059 0.01818
-0.19578 -0.27341 -0.19749
-0.14812 0.16231 -0.15644
0.15710 -0.32067 -0.15429
-0.06992 -0.01975 -0.12008
-0.18195 0.33349 0.19749
0.16992 -0.19968 -0.15429
-0.18747 0.37146 -0.03600
-0.15785 0.01975 -0.00735
-0.02986 0.01975 -0.18509
-0.15422 0.39758 -0.12263
0.07810 0.01975 -0.04524
0.18498 -0.26905 -0.19749
0.16709 -0.27222 -0.15429
-0.09477 0.01975 -0.09915
-0.16703 -0.37394 -0.19749
-0.07511 0.00198 0.19749
-0.16704 0.19414 -0.14812
-0.17855 0.01975 -0.13805
-0.14812 0.12755 0.17696
-0.14812 -0.33015 0.17185
0.18382 -0.34371 -0.19749
0.00440 -0.01975 0.01410
-0.19510 -0.18511 0.19749
-0.19749 -0.14154 0.16175
-0.17242 -0.14861 0.14812
0.17128 -0.18150 -0.15429
0.17374 0.01975 0.10813
-0.19138 0.27286 -0.13626
-0.14812 0.29302 -0.15302
-0.07144 -0.01975 0.13951
0.09973 0.01975 -0.10632
0.13078 -0.00423 0.19749
0.19749 -0.33885 -0.17500
-0.18568 -0.19890 -0.19749
-0.11634 0.01975 -0.14849
-0.01028 0.01975 0.06789
-0.14812 -0.34785 0.15217
-0.15422 0.30543 0.09055
-0.19749 0.11655 -0.15074
0.15429 -0.38699 -0.19687
-0.17168 0.37146 -0.08257
0.18249 -0.06237 0.19749
0.09458 0.01975 0.16030
0.19749 -0.16688 -0.19369
-0.19044 0.30658 -0.19749
-0.19138 0.29688 -0.01021
0.17988 -0.10740 -0.15429
-0.13516 0.01975 -0.09819
-0.15274 0.05233 0.14812
0.09400 -0.01975 -0.01793
-0.16178 -0.27095 0.14812
-0.16682 -0.39428 0.14812
-0.18487 0.01975 -0.02830
0.07732 -0.00158 -0.19749
-0.14013 0.01975 -0.10734
0.08557 -0.01975 -0.18298
-0.19749 0.00064 0.15622
0.19749 -0.36108 -0.17496
-0.17756 0.27271 0.04216
0.15429 -0.10036 0.16212
0.18391 -0.21226 0.19749
-0.14822 0.01975 0.12537
0.19749 0.00143 0.00353
-0.14812 0.06468 0.16232
0.19749 -0.05511 -0.16050
0.17904 -0.01975 -0.18861
0.01406 0.01975 -0.01353
0.16680 -0.12317 -0.15429
0.19749 -0.13108 0.17368
-0.02181 0.01975 0.10022
-0.10903 -0.01774 -0.19749
-0.15674 -0.01975 0.14729
-0.15422 0.29445 -0.12122
-0.19749 -0.29714 -0.16018
0.15429 -0.19420 0.18220
-0.15422 0.37697 -0.07075
0.16112 -0.32835 0.15429
0.19749 0.01587 0.16454
-0.15221 0.13503 0.19749
0.10016 0.01975 0.08725
0.15169 0.01702 0.19749
0.16765 -0.24071 -0.19749
-0.14812 -0.16237 -0.17879
-0.07060 -0.01975 0.09017
-0.15285 0.41201 -0.14812
0.18665 -0.01975 -0.04448
-0.16698 0.37146 -0.03902
-0.19749 -0.28788 -0.15243
-0.18459 -0.12298 0.19749
-0.15422 0.30501 0.11793
-0.04436 -0.01975 -0.13488
-0.15313 0.17771 0.14812
0.03227 -0.01975 0.01149
-0.15422 0.28506 0.04179
0.16644 -0.01440 0.19749
-0.14812 0.34782 -0.15937
-0.19138 0.29930 -0.08947
-0.19749 0.00366 -0.14651
-0.06204 0.01975 0.06165
-0.19749 0.35656 -0.18713
0.05995 -0.01975 -0.02554
-0.15426 -0.08743 -0.19749
0.15429 -0.33872 -0.18066
-0.17974 0.36402 0.14812
0.15755 -0.00978 0.19749
0.08986 0.01975 0.01885
-0.18557 0.09640 -0.19749
-0.16091 0.20445 -0.14812
-0.19749 0.26946 0.15284
-0.19245 -0.01975 -0.17259
0.17672 -0.09490 0.15429
0.17558 -0.34644 0.19749
-0.03974 0.01975 0.15653
-0.18924 -0.30814 0.19749
-0.11951 -0.01975 0.06290
-0.14812 -0.39950 0.18891
0.17107 0.01975 0.17852
-0.14812 -0.25503 -0.16499
-0.19749 -0.37090 -0.19734
0.08192 0.00509 0.19749
0.03352 -0.01975 -0.14050
-0.11249 -0.01975 -0.01117
0.19749 -0.09273 0.16932
0.19749 -0.09369 0.18976
-0.19138 0.30828 0.05653
-0.07286 0.01975 -0.01454
-0.14812 -0.12265 0.18613
0.15629 -0.01975 0.14353
0.08061 -0.01916 0.19749
-0.15532 0.18435 0.19749
-0.19749 -0.00962 0.10443
-0.17825 -0.13369 0.19749
-0.15808 0.22321 0.14812
0.09585 0.01975 0.15188
-0.16034 0.01975 0.08481
-0.12390 -0.01975 -0.11584
0.19749 -0.15654 0.18507
-0.16784 -0.08588 0.19749
-0.19749 0.06607 -0.17636
0.15849 -0.10630 0.19749
0.03548 -0.01975 0.15151
0.06418 0.01975 0.11775
-0.17036 0.02937 -0.19749
-0.14836 0.03514 -0.14812
0.00055 0.01975 0.04019
-0.19749 0.01413 0.03870
-0.00809 0.01975 0.16098
-0.19749 0.34136 0.16564
-0.15951 -0.07803 -0.14812
-0.18949 0.40081 0.19749
-0.17256 -0.20586 0.19749
-0.17502 -0.01975 -0.04487
0.18616 -0.06616 0.19749
-0.14812 0.22129 -0.16123
-0.13858 -0.01975 0.17891
-0.19401 0.33187 -0.19749
0.16396 -0.08845 0.15429
-0.14812 -0.36266 0.16633
-0.19138 0.28713 -0.14254
0.19749 -0.30667 -0.18929
-0.19749 -0.25837 -0.17039
-0.17628 0.40862 0.14557
0.19182 -0.22408 0.15429
-0.17859 0.07955 -0.19749
-0.18886 0.27271 -0.09965
-0.14812 -0.31806 0.16584
0.00485 -0.01975 -0.00816
0.15902 -0.01975 0.01038
-0.19139 -0.41473 -0.18724
-0.19749 0.41193 -0.19376
-0.14812 0.19151 0.15906
-0.14812 0.34342 -0.16585
-0.15030 -0.12612 -0.14812
-0.16542 -0.38325 -0.14812
0.19249 -0.19825 -0.15429
0.15429 -0.09758 -0.19357
-0.12359 0.01975 -0.09373
0.09415 -0.01975 -0.09656
-0.16645 -0.06018 -0.19749
-0.18421 0.27271 0.07778
-0.19138 0.38188 -0.01699
-0.19101 0.40241 -0.19749
-0.19749 0.15097 0.15190
0.10213 -0.01975 0.12576
-0.18712 -0.09898 -0.14812
-0.17949 -0.01975 0.06309
-0.18018 -0.23421 -0.14812
0.19301 -0.08233 -0.19749
0.18744 0.01975 0.14370
0.11779 -0.01975 0.19578
-0.17202 0.40248 0.19749
0.18134 -0.01975 -0.11081
-0.17978 0.11434 0.14812
-0.18688 -0.41473 0.15373
-0.04403 0.01975 -0.07494
-0.08243 -0.01975 0.04296
-0.18030 -0.29217 -0.19749
-0.08566 0.01975 0.07405
-0.00560 0.01975 0.17022
0.00675 0.00823 0.19749
-0.17669 -0.28955 0.19749
-0.16967 0.28879 -0.19749
0.07486 -0.01975 0.17933
0.19749 -0.26406 -0.17306
-0.17336 0.41473 0.17954
-0.14812 -0.24710 -0.16027
-0.05553 0.00704 -0.19749
0.09170 -0.00067 0.19749
-0.19138 0.28345 0.00950
-0.13105 0.01514 0.19749
-0.19749 0.16235 0.19196
0.19749 -0.00995 -0.17287
-0.19749 0.06887 -0.17134
0.14393 -0.01975 0.11387
-0.14812 0.14230 -0.17520
0.15049 -0.01975 0.05424
0.14032 0.01975 -0.07725
0.14020 0.01975 -0.17768
-0.15560 0.40862 0.04254
-0.19749 -0.34114 -0.17980
-0.14812 -0.07022 0.16620
0.15651 -0.05014 -0.19749
0.19749 0.01409 -0.09493
-0.01107 0.01975 0.10547
-0.02563 -0.01975 -0.05437
-0.08153 -0.01975 -0.07304
0.15429 -0.39800 0.16605
-0.14861 0.15479 0.19749
-0.19138 0.38224 0.10049
0.19623 0.01975 -0.03326
-0.04946 -0.01975 -0.11397
0.17850 -0.08998 0.15429
0.04587 0.01975 0.12303
-0.19749 0.29462 0.18895
0.11082 0.01975 -0.10334
0.19749 -0.31501 0.19162
-0.17722 -0.14305 0.14812
0.15435 0.01975 -0.11491
-0.19749 -0.25570 0.19637
-0.16260 0.27455 -0.19749
0.19749 -0.00947 -0.11847
0.19749 0.01646 -0.17517
0.19749 -0.25933 0.16215
-0.17477 0.27271 -0.12170
-0.18460 0.18505 0.19749
0.15429 -0.35632 0.15906
-0.05960 0.01975 0.12453
-0.16178 0.20932 0.19749
-0.16489 0.37146 -0.02452
-0.15866 0.19587 0.19749
-0.19749 -0.41359 0.17837
0.12385 0.01975 -0.15053
-0.14812 0.38023 -0.17199
-0.19477 0.20329 0.19749
0.15429 -0.34214 0.18305
-0.18856 -0.02598 -0.19749
-0.18027 -0.16186 -0.14812
-0.00880 0.01975 0.01313
-0.17201 -0.06073 0.19749
-0.01635 0.01975 -0.02234
0.16742 -0.19301 0.19749
-0.19749 0.31906 -0.18012
-0.19749 0.00259 -0.16830
0.15429 -0.07998 0.17349
0.19587 -0.09695 0.15429
-0.19749 0.16988 0.15833
-0.17588 0.30988 0.05855
0.08569 -0.01975 -0.03225
0.18244 -0.01975 -0.05047
0.19749 -0.23108 0.16160
0.12636 0.01975 0.13419
-0.19138 0.30019 0.01466
0.05067 0.01975 -0.13180
-0.06081 0.01975 -0.15078
-0.04290 0.01975 -0.01229
-0.18756 0.06691 0.14812
-0.16465 0.40862 -0.09080
-0.17617 0.40862 -0.07841
0.14650 -0.01975 -0.15270
-0.17360 0.30988 0.06967
-0.14812 -0.32876 -0.17821
-0.14812 -0.15026 -0.17925
-0.15522 0.37146 0.08634
0.07704 0.01975 0.12451
0.03117 0.01975 -0.06706
-0.15932 -0.01975 0.06695
-0.07747 0.01975 0.17525
0.19210 -0.41473 -0.15716
-0.15218 0.29190 -0.19749
-0.18933 -0.24759 0.19749
0.00263 -0.01975 -0.07216
-0.19749 0.08494 -0.16662
0.15871 0.01975 0.09404
-0.14812 -0.41382 -0.17267
0.07178 -0.01018 0.19749
0.18846 -0.37561 -0.15429
-0.14812 0.04520 0.16680
0.15386 0.01975 0.10531
0.15429 -0.07490 -0.17249
0.02840 -0.01975 0.00307
-0.16063 0.07051 -0.19749
-0.17274 0.37146 0.11236
0.18436 -0.04559 -0.15429
-0.07713 -0.01975 0.11234
-0.18121 0.11814 -0.19749
-0.19749 0.37835 0.17432
0.00986 0.01975 0.03532
0.17567 -0.41473 0.17356
0.14942 -0.01975 -0.16112
-0.15422 0.38127 -0.13878
-0.19138 0.40791 0.06390
-0.16355 0.27271 -0.01140
-0.10905 0.01975 0.05674
-0.01984 0.01975 -0.15018
-0.08431 -0.01975 0.01304
0.14648 0.01975 0.18821
-0.19749 -0.09664 -0.15213
-0.02176 0.00983 0.19749
-0.15422 0.40637 0.13625
-0.15422 0.40657 0.12004
-0.09842 -0.01898 -0.19749
-0.16695 0.06755 0.19749
-0.19749 0.22365 0.19569
-0.01442 -0.01975 -0.17034
-0.14812 0.15405 0.18399
0.16390 -0.21053 0.15429
0.14636 0.01278 0.19749
0.17980 -0.01975 -0.14950
-0.18164 0.30988 -0.08036
-0.19633 -0.01975 0.19672
-0.19138 0.30338 -0.01683
-0.18124 0.40862 0.02469
-0.07167 0.01906 -0.19749
-0.15092 -0.08941 0.14812
-0.19138 0.30985 -0.06698
0.14669 0.01975 -0.03001
0.19696 -0.20150 0.19749
-0.15422 0.38440 0.07520
0.16644 -0.05449 -0.19749
0.16362 -0.05331 0.19749
0.17072 -0.37616 -0.19749
-0.14812 0.19623 0.17891
0.19749 -0.32658 0.18157
0.18858 -0.32467 -0.19749
-0.19749 -0.20301 0.17498
0.19749 -0.17440 -0.17485
-0.19084 -0.01975 0.02810
-0.02676 0.01975 -0.03796
-0.09751 0.01975 0.19326
0.16341 -0.20444 0.15429
-0.19749 -0.01206 -0.01405
0.19749 -0.14476 -0.19085
-0.15422 0.27792 0.00740
0.15429 -0.09519 0.19546
-0.15398 0.20950 0.14812
-0.16257 0.30988 -0.02470
-0.09896 0.01975 0.00536
-0.14932 -0.01873 -0.19749
0.18502 -0.38647 -0.15429
-0.18589 -0.17669 0.19749
-0.14812 0.39425 0.19035
0.16290 -0.38480 0.19749
-0.14812 -0.17917 -0.18226
0.04897 0.01975 -0.10795
-0.14812 -0.05832 0.17566
0.19370 -0.01975 0.10855
0.17100 -0.01975 -0.15083
-0.16502 0.27271 0.00176
-0.15422 0.40515 0.05690
0.19749 -0.37434 0.15588
-0.16225 0.16451 0.14812
-0.14812 0.26287 0.18102
-0.16279 -0.18615 -0.19749
0.06107 -0.01975 0.14779
-0.14812 -0.30737 0.17644
-0.16823 -0.04950 -0.19749
0.18075 -0.01975 0.16896
-0.14576 0.01975 -0.16955
0.18506 -0.24931 0.19749
-0.19138 0.39307 -0.13631
-0.19237 -0.26686 -0.19749
-0.14812 -0.16193 -0.15686
0.16957 -0.41387 0.19749
-0.02725 -0.01975 0.14305
0.18118 -0.37739 -0.15429
0.03430 0.01975 -0.16715
-0.18260 -0.31552 -0.14812
0.01175 0.00315 -0.19749
0.17522 -0.41473 -0.18754
0.19749 0.01390 0.04506
-0.18387 0.17178 0.19749
-0.18698 0.21434 0.14812
-0.00794 0.01975 -0.11534
0.10850 -0.01975 -0.01785
-0.15764 -0.01975 -0.15173
-0.19441 -0.27049 0.19749
-0.02253 0.01975 -0.16193
-0.16694 -0.01975 -0.15900
-0.19749 0.40393 0.15753
-0.14812 -0.36802 0.19628
-0.15416 0.05604 -0.19749
-0.15422 0.38403 -0.06556
-0.18992 0.27271 0.08000
0.05665 -0.01975 -0.07314
-0.14812 0.39551 0.14852
0.15520 0.01975 0.02957
0.12581 0.01975 -0.04464
-0.14812 0.29320 0.19462
0.19749 -0.24472 0.18135
0.18814 -0.15650 -0.15429
-0.18024 -0.01975 0.10344
0.15429 -0.37729 -0.17746
-0.15422 0.38445 0.04472
0.18565 -0.34089 0.19749
-0.18747 0.40862 0.07394
-0.16041 0.27271 -0.10193
0.05374 -0.01975 0.11576
0.15981 0.01975 -0.15101
-0.16090 -0.05076 -0.19749
0.10755 -0.01975 0.19382
-0.19749 -0.32763 0.18171
-0.09877 -0.01975 0.02872
0.16892 -0.01975 0.16012
0.02049 -0.01975 -0.03241
-0.16452 -0.17078 0.19749
-0.19749 -0.00908 0.09448
-0.19138 0.40631 -0.13409
-0.14812 0.41460 0.15707
0.15429 -0.13431 -0.19658
-0.17290 0.24118 -0.14812
-0.19138 0.40307 0.04056
0.08077 -0.01975 0.04759
0.15700 -0.33146 -0.19749
-0.19463 -0.11539 -0.19749
-0.19138 0.38348 0.09209
-0.14812 0.20066 0.16014
-0.19749 0.15160 -0.19350
0.17457 -0.01975 -0.11702
-0.03142 -0.01975 0.18589
-0.19749 0.02965 0.15745
0.04062 0.01975 0.05572
-0.19138 0.40777 0.00841
0.06958 0.01975 0.00423
-0.19582 -0.28180 0.14812
-0.19536 0.15859 0.14812
0.19749 -0.01491 0.18392
0.06379 0.01975 -0.00891
0.19749 -0.01075 0.04321
-0.19749 -0.10412 -0.18913
-0.17104 0.01975 -0.10390
-0.19450 0.27876 0.14812
-0.18971 0.31252 -0.19749
-0.15742 0.41031 0.14812
0.17181 -0.39405 0.15429
-0.18243 0.01464 0.19749
0.15429 -0.10511 0.16679
-0.17181 0.27271 -0.11264
-0.19138 -0.40135 0.14812
0.00518 0.01975 -0.12391
0.02630 -0.00427 -0.19749
0.15805 0.01975 0.11221
-0.16196 0.37146 -0.00569
-0.16073 0.03386 -0.14812
-0.19749 -0.00465 -0.17784
-0.13407 0.01975 0.12126
-0.14812 -0.22131 0.18984
-0.19749 0.08425 -0.17795
-0.15782 0.01975 0.03198
-0.14812 -0.38350 0.16051
0.09628 0.01975 0.05622
-0.15149 -0.23002 0.19749
0.12677 0.01975 0.05990
-0.19138 0.39770 -0.07005
-0.15786 0.41473 0.15791
-0.17102 -0.34254 0.14812
-0.18138 0.37146 -0.13006
-0.12523 0.00520 -0.19749
-0.19434 -0.33457 0.19749
0.16731 -0.17027 0.15429
0.18084 0.01975 -0.06553
0.19749 -0.01025 -0.07926
-0.19749 0.36527 0.17422
-0.17319 0.12790 0.14812
-0.15982 -0.24494 -0.14812
-0.16740 0.27271 -0.02620
0.16907 -0.34525 0.19749
0.15429 -0.29439 -0.19286
-0.19749 0.21627 0.16328
0.18664 -0.28858 -0.19749
-0.15195 0.12150 -0.14812
-0.15950 -0.17857 0.19749
0.01239 0.01975 0.01625
-0.19531 0.03216 -0.19749
0.00710 -0.01975 -0.06866
-0.14408 0.01975 -0.03959
-0.15893 -0.02969 0.14812
0.14512 0.01975 -0.00209
-0.16753 -0.02294 -0.14812
-0.07502 -0.01975 0.18107
-0.08319 0.01975 0.06268
-0.19749 -0.16007 -0.17511
-0.18479 0.38124 0.19749
-0.18591 0.30988 -0.01221
0.07056 0.01975 0.09105
-0.18846 0.01975 0.02960
0.19424 -0.09920 -0.19749
0.16104 -0.01975 0.10427
0.15214 -0.01975 -0.01590
-0.14812 -0.26633 -0.19334
-0.07053 -0.00530 -0.19749
0.15429 -0.17617 0.19009
-0.14812 -0.02221 0.16961
-0.18686 0.03206 -0.19749
-0.19749 -0.32955 -0.19616
-0.13940 -0.01975 0.13610
0.18934 0.01975 -0.13895
0.15680 -0.11492 0.19749
-0.05567 -0.01975 -0.09879
-0.14812 -0.19589 0.17664
-0.14812 0.37803 0.15188
-0.19021 -0.28420 0.19749
-0.03021 -0.01975 -0.15077
-0.15422 0.29183 -0.00549
0.15429 -0.12801 0.18874
-0.09166 0.01975 0.03134
-0.05526 -0.01975 -0.03183
-0.19138 0.28866 0.11088
0.18774 -0.22455 0.19749
-0.01017 0.01975 -0.05430
0.09473 0.01975 -0.08505
0.09632 -0.01975 0.08235
-0.19196 0.32915 0.14812
-0.15950 0.33240 0.19749
-0.18598 -0.13602 0.19749
-0.19749 0.07585 -0.16206
-0.15252 0.34096 0.14812
0.17751 -0.26208 0.15429
0.07811 -0.01975 -0.03272
0.19749 -0.20058 0.16575
-0.18160 0.01975 -0.11718
0.15547 -0.04023 -0.19749
-0.17588 0.40862 0.10804
0.08699 0.01975 0.05480
0.06340 0.01975 -0.08512
-0.19749 -0.21344 -0.15760
0.15429 -0.39875 -0.16484
-0.19749 0.05338 0.18834
0.00200 -0.01975 0.05754
-0.17923 -0.01975 0.08459
-0.19664 -0.13922 -0.19749
-0.17409 0.01975 0.01395
0.10176 -0.01975 0.00999
-0.19737 -0.38817 -0.14812
0.17876 -0.04158 -0.19749
0.10899 0.01975 0.03227
0.17437 -0.38288 0.15429
0.02539 0.01975 -0.18977
-0.19749 0.17233 -0.19168
0.19749 -0.32610 0.17538
-0.19138 0.38217 -0.12602
-0.12147 0.01975 0.03537
-0.16481 -0.01975 -0.18781
-0.15422 0.29794 0.11444
0.16591 -0.41473 -0.16498
-0.16376 0.14629 0.14812
0.05635 0.01975 -0.16802
0.08869 0.01975 -0.16409
-0.19713 0.22688 -0.14812
-0.17497 0.00381 -0.19749
0.15429 -0.09061 0.19187
0.05690 0.00084 -0.19749
-0.19749 -0.01511 0.16762
-0.19749 0.12171 -0.16794
0.00038 -0.01975 -0.18259
