-0.13240 0.16790 -0.12870
-0.15316 0.34794 0.02131
-0.17125 0.03972 0.13163
0.10095 -0.05453 0.08547
0.05553 -0.05453 -0.12780
-0.14614 0.10895 -0.02982
-0.14342 0.30861 0.05870
0.06385 -0.17247 -0.09561
-0.13196 0.01711 0.03882
-0.17435 0.00698 0.12329
-0.13420 -0.38331 0.10744
-0.03767 0.32059 0.02980
0.02409 -0.35470 -0.13417
0.15181 -0.05764 -0.08657
-0.15888 0.21026 -0.08133
0.03163 -0.05453 -0.09735
-0.15838 -0.08624 0.14401
0.09174 -0.14847 0.09739
-0.14079 0.24042 -0.08127
0.06021 -0.24349 0.09739
0.02401 0.36050 0.04356
0.09325 -0.42322 -0.10994
0.06121 -0.42511 -0.09561
-0.13420 -0.24420 0.13497
0.04664 -0.23522 0.14401
-0.17516 0.18835 0.05034
-0.13956 0.10021 -0.10184
-0.14474 0.31198 0.01727
0.14779 -0.08912 -0.01409
-0.12890 0.10293 -0.01798
-0.06743 -0.08912 0.12381
-0.16231 -0.05453 -0.01181
0.09325 -0.13800 0.13084
-0.12980 -0.08912 -0.10875
0.09325 -0.35899 0.12363
0.16545 -0.08912 -0.01910
-0.15147 0.03341 0.03190
0.03300 -0.05453 0.01513
-0.15316 0.40486 -0.00121
-0.13420 -0.30828 -0.14244
-0.01610 -0.08912 0.03349
-0.17599 -0.38678 -0.12851
-0.14684 0.26844 -0.08289
0.02409 -0.27413 -0.14099
-0.13778 0.29491 0.09676
-0.12682 0.22818 -0.06579
0.07799 -0.16275 -0.09561
0.09325 -0.43529 -0.10267
-0.12688 0.15613 -0.01310
-0.17070 0.19665 -0.04719
-0.09274 0.32223 0.00666
0.05417 -0.42069 0.14401
-0.13420 -0.15458 0.13925
-0.12244 0.38086 0.03391
-0.13084 -0.00424 0.00828
-0.17599 -0.05658 -0.05094
-0.15316 0.35349 0.04982
-0.17599 -0.31090 0.11553
-0.14342 0.38987 0.01627
-0.17270 0.03412 0.10874
-0.17599 -0.15459 -0.10565
-0.17306 -0.01992 -0.06565
-0.17447 0.06968 0.11483
-0.14306 -0.41020 0.09890
-0.04382 -0.08116 -0.14401
-0.15093 -0.32444 -0.14401
0.04263 -0.44509 0.11871
0.09325 -0.41338 -0.09641
-0.13054 0.02237 -0.04533
-0.08889 -0.08912 -0.04868
-0.13420 -0.21651 -0.10108
-0.14293 -0.18879 0.14401
0.03824 -0.08912 0.06173
-0.14645 0.11961 -0.03566
-0.17490 -0.44509 0.10583
-0.00178 -0.05453 0.02134
-0.13090 0.06238 0.03974
-0.16121 -0.18218 -0.14401
-0.16931 0.13444 0.10310
-0.15316 0.34748 -0.05363
-0.17599 -0.35276 -0.13380
0.09325 -0.31783 0.10128
-0.16435 -0.29393 -0.09561
-0.17333 -0.04201 -0.00078
-0.13990 0.04770 -0.03760
-0.14521 -0.38316 0.09890
0.03805 -0.20910 0.12147
-0.03749 -0.05453 0.00748
-0.03927 0.37925 -0.03699
-0.12525 0.19416 0.06766
-0.14515 0.38751 0.09419
-0.16579 -0.05453 0.08012
-0.16340 -0.05453 0.12430
0.16832 -0.07237 0.04996
-0.14161 0.04881 0.14208
-0.13649 0.28098 0.09760
0.09325 -0.15356 0.14257
-0.14794 0.24530 -0.13743
-0.12826 0.17807 -0.06928
-0.13874 0.30144 0.14034
-0.13420 -0.17872 0.14280
-0.15316 0.30949 -0.05901
0.06968 -0.14030 0.09739
-0.16495 -0.31454 0.14401
-0.15278 0.24911 0.01758
0.10396 -0.08912 0.03032
0.03902 -0.08912 -0.06256
-0.17105 0.19071 -0.04800
-0.13420 -0.10614 0.12599
0.09325 -0.16498 -0.13361
0.06363 -0.05453 -0.10085
0.10753 -0.08912 -0.10399
-0.17599 -0.07687 0.11929
-0.13104 0.23685 -0.04469
-0.13180 0.15554 0.03895
0.02409 -0.17270 -0.12904
-0.08511 -0.08912 -0.07895
-0.13420 -0.10216 0.10981
0.06558 -0.28969 0.14401
-0.15316 0.30276 0.01325
0.04256 -0.25660 0.09739
-0.12583 0.12053 0.11183
-0.03802 -0.08912 0.07194
-0.16366 0.00170 -0.02579
-0.17362 0.18976 -0.00295
-0.12286 -0.07537 0.14401
0.14750 -0.05453 0.04804
-0.08913 0.31178 -0.01062
-0.17403 0.06211 -0.00609
-0.15540 0.05297 -0.08257
0.09325 -0.42613 0.12568
0.02717 -0.08912 -0.01481
0.10733 -0.05453 0.07721
-0.16647 -0.08912 -0.14017
-0.08240 -0.08912 -0.03467
0.04754 -0.05453 -0.02698
0.12131 -0.05453 0.05026
0.09325 -0.42807 -0.12423
-0.15206 0.40798 0.10327
-0.03950 -0.08912 -0.06390
-0.16375 0.00434 -0.10791
-0.12587 0.27235 -0.05928
-0.13184 0.31178 -0.03342
-0.17328 0.24512 -0.01199
-0.16329 0.22066 -0.10731
-0.13420 -0.36104 0.13646
-0.16178 0.30144 0.05290
-0.17599 -0.22093 -0.09740
-0.13928 0.04876 0.03415
-0.13574 0.16720 -0.10450
0.02869 0.36085 0.03842
0.09302 -0.32656 0.09739
-0.15106 0.03603 -0.13710
-0.13174 -0.05453 -0.05136
0.17561 -0.07469 -0.01025
-0.16887 0.08285 0.00841
-0.12818 -0.08912 -0.00836
-0.15316 0.33245 0.01656
-0.10272 -0.05453 -0.12265
-0.03908 0.36229 0.05102
-0.12722 -0.01236 0.07204
-0.12168 -0.08912 0.01428
-0.06039 0.36826 0.05004
-0.06515 -0.08912 0.01088
-0.14274 -0.44509 -0.11615
-0.01240 0.34776 -0.04028
-0.17118 0.09198 0.10553
-0.17181 -0.01297 -0.06867
-0.06190 -0.05453 0.05801
0.03618 -0.17117 -0.09561
0.01942 -0.08912 0.07807
-0.13527 0.30144 -0.10901
0.08467 -0.08912 -0.08082
-0.13468 0.10092 -0.07761
0.02409 -0.41736 -0.11389
-0.12851 -0.00308 -0.04863
-0.17274 -0.09960 -0.09561
0.11073 -0.08077 -0.13179
-0.15096 0.38662 -0.03804
0.14202 -0.05453 0.05294
-0.16901 0.17503 -0.02060
-0.13779 0.26980 -0.03851
0.09325 -0.41490 -0.11394
-0.06996 0.35057 0.01860
-0.14744 0.05100 -0.09973
0.07629 -0.33842 0.09739
-0.10700 -0.05453 0.05018
0.06058 -0.08912 0.00950
-0.14797 -0.39165 -0.14401
0.13219 -0.05942 0.11226
0.09325 -0.11917 -0.12170
-0.15811 -0.02661 -0.02868
-0.01872 0.37369 0.04711
-0.14810 0.16553 0.03193
-0.13656 0.17519 0.09756
-0.15316 0.34900 -0.09354
-0.12970 0.17209 -0.12132
0.07505 -0.23207 -0.09561
-0.12638 -0.01846 -0.00159
0.06168 -0.19140 -0.14401
0.03805 -0.30313 0.11671
-0.14192 -0.24356 -0.09561
-0.17599 -0.08237 0.00125
-0.13623 0.01576 -0.07879
-0.15316 0.33757 0.06564
0.04423 -0.13288 -0.14401
0.08042 -0.30140 -0.09561
-0.14342 0.37714 -0.04606
-0.13695 -0.04204 -0.03914
-0.15391 -0.05453 0.09834
-0.14342 0.32207 -0.10431
-0.16680 -0.20820 -0.09561
-0.14415 -0.02446 -0.03597
-0.14840 -0.29574 -0.14401
0.03105 -0.05453 0.12499
0.04302 -0.39026 -0.14401
0.07766 -0.16763 -0.14401
0.08622 -0.05453 -0.08689
0.15165 -0.08912 -0.08610
0.07804 -0.40019 -0.14401
0.02563 -0.05453 0.00269
-0.13117 0.25201 0.13501
-0.15316 0.30409 0.09960
-0.00470 0.37512 -0.01592
-0.17599 -0.11771 0.12900
-0.17176 0.01606 -0.06879
-0.17384 0.01090 -0.06008
0.09709 -0.08912 0.08931
-0.13880 -0.03580 -0.03805
-0.14100 0.05182 0.09542
-0.16217 -0.13484 -0.09561
0.05846 -0.08912 0.13262
-0.17462 -0.08912 -0.13576
-0.13420 -0.22806 0.12359
-0.13420 -0.42827 0.13615
-0.16744 0.25980 0.03851
-0.11754 0.32223 -0.01935
-0.07068 0.37704 0.04378
-0.12974 0.24506 -0.12162
-0.17599 -0.38126 -0.12221
-0.16865 -0.28135 -0.14401
-0.00953 0.34458 0.03677
-0.17599 -0.08380 0.14003
-0.15316 0.31127 0.10231
0.09464 -0.08912 -0.02431
-0.12538 0.10348 0.11459
-0.04490 -0.08912 0.03194
0.06384 -0.20446 0.14401
-0.08013 -0.05453 -0.09535
-0.16042 -0.05453 0.06335
0.11686 -0.05453 0.11516
-0.17177 -0.05453 0.11532
-0.13420 -0.40751 0.10769
-0.16705 0.00240 0.03821
-0.13420 -0.33149 0.12651
-0.13355 -0.05453 -0.09857
0.02438 -0.13542 -0.09561
-0.03767 0.31498 0.00178
0.09325 -0.39002 0.11089
-0.16703 -0.00064 0.10045
0.09325 -0.29370 -0.10422
-0.08584 -0.05949 0.14401
-0.12752 0.35829 -0.01145
-0.16153 0.05647 0.01491
-0.08386 0.34702 0.04247
-0.07869 -0.08912 0.02182
-0.11512 -0.05453 -0.07357
-0.13469 -0.19035 0.09890
-0.16746 0.24538 0.13647
0.05828 -0.24727 -0.09561
-0.16063 -0.05453 0.10296
-0.15818 -0.16009 -0.14401
-0.13255 0.26077 0.07820
0.09325 -0.18043 0.13229
0.11248 -0.05453 0.06291
-0.12795 0.03377 0.13053
-0.06421 -0.08912 0.06765
-0.13420 -0.20751 -0.14144
-0.13940 -0.36985 -0.09561
-0.14463 -0.16639 -0.09561
-0.06449 0.38091 0.03358
-0.15658 -0.08912 0.00342
-0.17203 -0.24597 0.14401
0.09727 -0.05453 -0.12458
-0.15982 -0.26900 -0.09561
-0.15872 0.02794 0.08318
-0.17003 -0.05453 0.04030
-0.16178 -0.00938 -0.03837
-0.11233 -0.08912 -0.08656
-0.14843 0.36505 0.14283
-0.17599 -0.07750 -0.00113
0.09341 -0.05453 -0.01026
-0.09175 -0.05453 -0.00487
0.05232 -0.05453 0.01742
-0.13928 0.36423 0.05083
-0.16476 -0.08912 0.07725
0.05989 -0.05453 0.07523
0.09850 -0.05983 0.14034
-0.15804 0.18805 0.14214
-0.12682 0.28007 -0.06579
-0.01393 -0.08912 -0.12283
0.00785 -0.07751 -0.14401
-0.13280 -0.02875 -0.04239
0.06250 -0.11286 -0.09561
-0.15818 -0.27337 -0.14401
-0.15240 0.38662 0.04346
-0.17440 -0.35170 0.09890
0.13204 -0.05453 0.00617
-0.17593 0.05761 0.06266
-0.15316 0.30168 0.11792
0.13678 -0.08912 -0.05938
-0.15316 0.35819 -0.00272
-0.15931 0.12488 -0.13372
-0.13603 0.31178 -0.01631
-0.16795 -0.04259 -0.07490
0.12186 -0.08912 0.06396
0.03805 -0.13088 0.11202
0.02409 -0.39717 -0.11576
0.14144 -0.07112 -0.10136
0.06479 -0.44509 0.10566
-0.00556 -0.05453 -0.01149
-0.12914 -0.05453 0.04161
-0.03354 -0.05453 0.12717
-0.15892 -0.32860 0.14401
-0.14561 -0.18382 0.09890
0.04294 -0.10359 -0.09561
-0.13734 0.02102 0.09695
0.05083 -0.15674 0.09739
-0.14241 -0.05453 0.08136
-0.11398 0.31344 -0.04536
-0.14986 -0.21026 0.09890
0.02409 -0.16263 -0.13223
-0.05229 0.31178 0.02714
0.11864 -0.08912 0.12482
-0.12955 0.15996 -0.11693
-0.17259 0.09194 0.00159
-0.07618 0.31178 -0.01138
-0.14551 -0.12900 0.14401
0.12582 -0.05453 -0.03963
0.03805 -0.14431 0.14131
0.02409 -0.44233 -0.12009
0.04546 -0.07020 0.14401
-0.17481 -0.38304 0.14401
0.07889 -0.34623 0.14401
-0.15316 0.33814 -0.02691
0.09325 -0.20550 0.13611
-0.14342 0.33018 -0.00422
-0.16424 -0.17983 0.09890
0.13464 -0.05453 -0.07220
0.07653 -0.05453 0.08698
-0.14342 0.30395 0.02567
0.02409 -0.39077 -0.13843
0.08767 -0.39389 -0.09561
-0.16304 0.13627 -0.07922
-0.14078 -0.08912 -0.00601
-0.10688 0.35944 -0.04749
-0.15316 0.37969 0.02741
0.06449 -0.08145 0.14401
0.07190 -0.20166 -0.09561
-0.13420 -0.40064 0.11976
-0.15295 0.35001 0.08448
-0.16082 0.12464 -0.02756
-0.12733 0.10262 0.00184
-0.15316 0.34355 -0.13341
-0.16684 0.15681 -0.12115
-0.07964 -0.05453 -0.06223
-0.17037 0.17538 0.04164
-0.06980 0.35633 0.01703
0.05407 -0.11116 -0.09561
0.05074 -0.07103 0.14401
-0.13989 0.37054 -0.01285
0.09325 -0.39768 0.10792
0.00124 0.35678 -0.01192
0.08007 -0.24904 -0.09561
0.09325 -0.24252 -0.11865
-0.17599 -0.25398 -0.10306
-0.17343 0.12165 -0.00153
-0.13108 -0.03268 0.13489
-0.14283 0.27253 -0.02915
-0.12758 0.22693 -0.01480
-0.13420 -0.29671 -0.13440
-0.14342 0.40053 -0.11895
-0.13649 -0.17914 0.09890
-0.17599 -0.26706 -0.14148
-0.17599 -0.11576 -0.12088
0.04616 -0.18219 0.14401
-0.10867 -0.05453 0.10579
-0.14960 0.04821 0.09361
0.17477 -0.05976 -0.01977
-0.13996 -0.05453 -0.10225
-0.17599 -0.19215 -0.10326
0.06425 -0.08912 -0.06064
0.09325 -0.41671 0.12707
0.03317 -0.30548 -0.14401
-0.17329 0.23425 -0.05422
0.08486 -0.44509 -0.10884
-0.17599 -0.07934 -0.04661
-0.14929 -0.02403 -0.03023
0.05834 -0.05453 -0.11381
-0.15215 -0.37745 -0.09561
-0.12628 -0.05201 0.12651
-0.12533 0.03081 0.11496
-0.13209 0.19795 -0.02226
0.07507 -0.28928 0.14401
0.06154 -0.22538 -0.09561
-0.15273 0.35418 0.01758
-0.15721 0.08546 0.14249
-0.13676 -0.33065 0.14401
0.03843 -0.24519 0.09739
-0.13420 -0.25175 -0.10809
-0.14554 0.12057 0.09414
-0.13983 0.19352 0.09591
-0.17599 -0.06593 -0.14094
-0.08436 -0.08912 0.04807
0.04114 -0.29719 0.14401
0.06046 -0.27637 0.14401
-0.09211 -0.05453 -0.12529
0.09047 -0.05453 -0.13364
-0.14342 0.37590 0.10648
0.05238 -0.08912 -0.12242
-0.14836 0.20541 0.03190
0.02993 -0.09642 -0.09561
-0.15249 -0.08912 -0.09828
0.00056 -0.05453 0.11936
0.04078 -0.35158 -0.14401
-0.15076 0.18550 0.08477
0.06305 -0.08912 0.14014
0.08510 -0.08912 0.14280
0.03066 -0.05453 -0.04818
-0.13663 -0.00505 -0.13328
-0.13420 -0.16421 0.13981
0.14032 -0.05885 0.10295
-0.12678 -0.05453 -0.04552
0.09539 -0.05453 -0.05587
-0.14884 0.19423 0.09371
-0.16687 -0.38611 0.09890
-0.17599 -0.06065 -0.13694
0.09325 -0.26039 0.13786
-0.13805 -0.05453 0.03849
-0.12929 -0.05453 -0.13377
-0.09894 0.35785 0.05044
-0.15263 0.27687 -0.10020
-0.17357 0.16127 -0.00258
0.03914 -0.08912 0.14121
-0.05500 -0.08912 -0.07377
-0.13517 -0.21097 -0.09561
-0.16107 -0.19975 -0.09561
-0.13420 -0.40147 0.10225
-0.17599 -0.42973 0.12297
0.05804 -0.21228 -0.14401
0.07849 -0.08912 0.11458
0.08071 -0.18863 -0.14401
-0.16864 0.25651 -0.07400
0.08311 -0.35388 -0.14401
-0.13143 0.02920 0.10189
0.17491 -0.07345 -0.01821
0.04404 -0.11936 -0.09561
-0.17599 -0.30820 0.10601
0.05206 -0.44509 0.11782
-0.15316 0.31376 0.02602
-0.14628 0.10618 0.03217
0.09163 -0.24676 0.09739
0.00173 -0.08912 -0.03735
0.02409 -0.12268 -0.11263
-0.17369 0.15783 0.12613
-0.13381 0.30144 0.11158
-0.17599 -0.37313 0.11681
-0.17615 -0.02880 0.06095
-0.13228 0.17652 -0.02251
0.06720 -0.06981 0.14401
-0.17145 0.18722 0.00435
0.06291 -0.12704 0.09739
-0.15828 -0.08912 -0.06030
-0.13522 0.28113 -0.10490
-0.17442 0.25511 0.11451
-0.17173 0.20738 -0.04964
-0.14155 -0.31926 -0.14401
0.04061 -0.08912 0.11506
-0.15926 0.18318 0.08295
0.02544 -0.08912 0.09826
0.08274 -0.41478 -0.09561
0.05475 -0.08912 0.02844
-0.14465 0.04045 -0.08260
-0.15191 -0.32415 -0.09561
0.04158 -0.20469 0.09739
-0.15654 -0.03274 0.03257
-0.14235 -0.23573 0.14401
0.12856 -0.05503 -0.11588
-0.17599 -0.36081 -0.11568
0.07067 -0.24830 -0.09561
-0.16391 -0.08912 -0.00613
-0.13295 0.20586 -0.10768
-0.12734 -0.02158 -0.06706
-0.16679 0.00980 0.01103
-0.12968 -0.03154 -0.04645
0.02684 -0.44509 -0.13903
-0.12995 0.13625 -0.11388
-0.14452 0.06941 -0.08258
-0.17590 0.15897 0.05369
-0.12467 0.18820 0.06626
-0.14816 -0.05674 -0.14401
-0.12660 0.11693 0.04566
-0.14903 -0.07053 -0.14401
-0.12981 0.04088 -0.07221
0.00033 0.37258 -0.04482
-0.12494 0.31178 -0.00167
-0.13420 -0.28055 -0.10066
-0.15196 0.14442 -0.13698
-0.08659 0.32223 -0.03729
-0.12828 0.16638 0.04317
0.03418 -0.25164 -0.14401
-0.17155 0.18782 -0.01646
-0.07302 0.37976 -0.02303
-0.13639 -0.31204 0.09890
-0.13057 0.32223 -0.02810
0.05114 -0.28107 -0.09561
-0.12343 -0.08912 0.04449
-0.15358 0.10191 0.03218
-0.12593 0.05098 -0.05879
-0.10223 -0.08912 -0.00432
0.04167 -0.38238 -0.14401
-0.13576 0.23275 -0.02549
-0.03384 -0.08912 -0.01579
-0.14809 0.30144 0.08703
0.09117 -0.41335 0.14401
-0.15804 0.09774 0.08346
-0.17599 -0.43035 -0.11336
-0.10434 -0.08912 0.05869
0.04538 -0.05453 0.04865
-0.10512 -0.07958 -0.14401
0.04744 -0.24825 0.14401
0.04547 -0.13298 -0.09561
-0.16681 -0.00423 -0.12144
-0.13177 0.01000 -0.02184
-0.17599 -0.13561 0.14385
0.05013 -0.44509 -0.11722
0.06957 -0.05453 0.02166
-0.17599 -0.31454 -0.12145
-0.16681 0.18283 -0.11565
0.09325 -0.42278 -0.11685
-0.17376 0.16870 -0.00831
-0.14368 -0.44509 0.11072
0.08659 -0.18734 0.09739
0.06265 -0.14783 0.14401
0.04264 -0.06154 0.14401
-0.14905 -0.21982 0.14401
-0.15135 0.19519 0.14349
-0.12491 0.13944 0.11815
-0.13420 -0.37140 0.13380
-0.12543 -0.01165 0.04849
-0.17273 0.11233 -0.01362
0.06105 -0.32859 0.14401
-0.00447 -0.08912 0.07762
-0.15245 0.06479 0.01762
0.06598 -0.27331 -0.09561
-0.13128 -0.02023 0.00884
-0.04745 0.31591 -0.04536
-0.14346 0.40996 -0.02418
-0.13420 -0.24486 0.12394
0.05461 -0.39637 -0.14401
0.14166 -0.07665 -0.10105
0.02103 0.35081 -0.04353
-0.12613 0.01115 -0.00889
-0.13686 0.01046 -0.13345
-0.15489 0.08307 -0.02966
-0.14873 -0.08912 0.00930
-0.13501 -0.30902 -0.09561
-0.13420 -0.41731 0.11116
-0.09679 -0.05453 0.00295
-0.05395 -0.05549 -0.14401
0.04162 -0.08565 -0.14401
-0.13658 0.30144 0.13243
-0.12589 -0.01407 -0.05940
-0.14259 0.04554 -0.02905
0.09325 -0.36897 -0.11664
-0.13420 -0.13742 -0.12562
-0.14863 -0.20844 0.14401
-0.10720 0.31178 -0.02322
-0.17553 0.30144 0.05223
0.17151 -0.08912 0.00134
-0.13977 0.07560 0.14131
0.05423 -0.20721 0.14401
0.07043 -0.32134 -0.09561
0.07955 -0.15137 -0.14401
-0.14342 0.33024 -0.08510
-0.12644 0.03917 -0.06362
0.03915 -0.26315 -0.14401
0.06466 -0.08912 -0.08041
-0.10822 0.32150 0.04442
-0.13420 -0.42764 0.11534
0.05424 -0.39758 0.09739
-0.16765 0.28282 -0.04322
-0.14342 0.30496 -0.05803
0.03805 -0.29308 0.09777
-0.14133 0.30144 0.10651
0.04505 -0.16924 0.09739
-0.14944 -0.02753 0.01789
0.01066 -0.08912 0.14197
-0.13420 -0.14894 -0.12750
0.04802 -0.05647 0.14401
-0.12687 0.06471 0.04501
-0.15524 -0.08912 -0.12597
-0.12516 0.09911 0.04914
-0.09187 0.31178 -0.02452
0.04910 -0.08779 0.14401
-0.16340 0.17892 -0.03956
-0.12610 0.06547 0.11117
-0.17599 -0.09535 -0.09944
-0.08883 -0.08912 -0.06988
0.07865 -0.36649 0.09739
-0.15316 0.36958 -0.09352
-0.15130 0.02267 0.08470
-0.13195 -0.05453 -0.14048
0.04732 -0.36601 0.14401
-0.14342 0.32135 -0.07673
-0.17352 -0.08912 0.13662
-0.14342 0.33509 0.05394
-0.15725 0.29185 0.01668
-0.17328 0.23613 -0.06431
-0.16054 0.27248 -0.03785
-0.09958 0.32223 -0.04015
0.09325 -0.29691 0.09860
-0.14166 -0.35754 -0.14401
0.07466 -0.05453 0.11080
-0.15316 0.39220 0.10582
-0.12376 0.00372 0.06171
-0.15316 0.32887 -0.08614
0.07823 -0.23041 -0.14401
-0.12067 -0.08912 -0.01041
0.05783 -0.32337 -0.14401
0.05861 -0.44509 0.10093
-0.16798 0.26439 0.00957
-0.09407 -0.08912 0.09751
0.08419 -0.36448 -0.14401
-0.17564 -0.20453 0.09890
0.06413 -0.30746 0.09739
-0.14793 0.33525 0.01769
-0.00215 -0.08912 -0.14288
0.02319 -0.08912 -0.09065
-0.16363 0.07817 -0.03973
-0.17599 -0.30113 0.10730
-0.01236 -0.05453 0.05399
-0.17011 -0.08862 0.14401
-0.15376 -0.16176 0.14401
-0.16133 0.02132 -0.10492
0.02409 -0.12441 -0.12247
0.04285 -0.08912 -0.03146
-0.16838 0.28965 0.13536
0.13832 -0.08912 -0.03029
-0.13420 -0.20177 -0.13567
0.09325 -0.21877 -0.12355
-0.16691 0.30036 -0.11642
0.02757 0.35863 -0.03063
-0.15480 -0.44208 -0.09561
-0.15533 0.13215 -0.03592
-0.14262 0.22454 -0.10057
-0.14140 0.18598 -0.10108
-0.14123 0.15885 0.01613
0.15837 -0.05453 0.05956
0.06724 -0.11534 -0.14401
-0.13420 -0.18389 -0.13320
-0.13093 -0.01850 0.13470
0.16106 -0.05723 -0.06846
0.09895 -0.05453 0.04907
0.08499 -0.16048 -0.14401
-0.16218 -0.22546 -0.09561
-0.16319 0.09811 -0.02615
-0.15102 0.29373 0.03184
-0.16243 0.13325 0.09692
-0.15733 0.24524 0.08376
-0.17599 -0.06626 -0.11875
-0.13003 0.16437 0.10372
-0.17322 0.02947 -0.06480
-0.15813 -0.08912 0.02915
0.00156 -0.05453 -0.06768
-0.17599 -0.08517 -0.10671
0.00620 -0.08912 0.03497
-0.15825 -0.05453 0.13165
-0.14930 -0.44509 -0.13588
0.09325 -0.11230 -0.10257
-0.15316 0.35395 -0.04891
-0.16716 0.28074 -0.11878
-0.17319 -0.21895 0.09890
0.09067 -0.33082 -0.09561
-0.12643 -0.02885 0.11040
0.05303 -0.08101 -0.14401
0.09325 -0.36140 -0.12405
-0.14400 -0.41992 -0.14401
0.03075 -0.08912 -0.13499
-0.16952 0.20302 0.10337
0.11338 -0.05453 0.04577
-0.12590 0.20464 -0.05953
-0.17599 -0.14472 -0.12088
0.09325 -0.29326 -0.12316
-0.14035 0.26038 -0.13558
-0.12391 -0.08912 0.05749
0.04827 -0.08912 -0.13118
-0.13146 0.07912 -0.11007
0.00454 -0.05453 0.07480
-0.12588 0.32223 -0.03214
-0.12643 0.20887 -0.00121
-0.14478 0.20707 0.09424
0.10012 -0.08912 0.06335
-0.12514 0.06559 0.06740
0.09325 -0.25394 0.13333
-0.17599 -0.13694 0.09953
-0.15676 0.28279 -0.08221
0.05613 -0.15673 -0.09561
0.02399 0.38024 0.02735
-0.14342 0.35138 -0.09152
0.07300 -0.12974 0.09739
-0.04913 -0.08912 0.07390
-0.01213 0.35068 0.04658
-0.16642 -0.40994 0.14401
0.09524 -0.08559 0.14262
-0.16951 -0.40163 0.14401
-0.06538 -0.05453 0.00226
-0.14342 0.37003 -0.12873
-0.13193 0.02891 -0.10901
-0.12624 0.05774 -0.06210
-0.02771 0.36902 -0.01222
0.04086 -0.11920 -0.14401
-0.13082 0.35187 0.04750
-0.13710 -0.41523 0.14401
-0.00852 -0.05453 0.09935
-0.16090 -0.39821 -0.14401
-0.13420 -0.09208 0.10526
0.16072 -0.07000 -0.06920
-0.12410 0.23314 0.06426
-0.17473 0.15003 0.12042
-0.17635 0.30017 0.05715
0.00092 -0.05453 -0.00089
-0.14342 0.35761 0.10999
-0.03798 -0.08912 0.12159
0.09325 -0.14136 -0.13911
-0.07433 -0.05971 -0.14401
0.06572 -0.10119 -0.09561
-0.15549 -0.13646 -0.14401
-0.10740 -0.05453 -0.05545
-0.15104 0.36484 -0.08314
-0.13311 -0.03315 0.01109
0.11700 -0.08122 0.12741
-0.14671 0.33833 0.09399
-0.16818 -0.04290 0.00931
-0.14572 0.08178 -0.13713
-0.12565 0.27782 0.11257
-0.13420 -0.35347 0.14123
-0.15948 0.11162 0.14155
-0.16118 0.23750 -0.03812
-0.13121 0.02812 0.13506
-0.08436 0.35426 0.04898
-0.17599 -0.36453 0.10648
-0.14137 -0.08912 -0.12825
-0.13623 0.09868 0.09781
-0.09117 -0.08912 -0.12286
-0.12937 0.06576 -0.11825
-0.13420 -0.36716 -0.13651
-0.17118 -0.12727 0.09890
0.03811 -0.07606 -0.14401
-0.15284 0.31888 -0.02993
0.05991 -0.05453 -0.06564
-0.14687 -0.08912 0.06895
-0.12679 0.08611 -0.05278
0.06951 -0.22945 0.09739
0.03805 -0.35152 0.14318
0.15042 -0.05453 0.00745
-0.16187 -0.17056 0.14401
0.03486 -0.44509 -0.13639
0.04827 -0.08912 0.04778
-0.00396 0.35387 0.01703
-0.14412 0.09199 0.01719
-0.13420 -0.17844 0.11310
0.06885 -0.17026 -0.14401
-0.17599 -0.06384 0.01680
-0.09178 -0.08912 0.01998
-0.15316 0.37550 -0.05927
-0.13642 0.02348 -0.07894
-0.10706 -0.05453 -0.13970
-0.17599 -0.06859 -0.03335
0.02409 -0.26988 -0.10268
-0.12978 0.11871 -0.12191
0.10512 -0.05453 -0.03186
0.04672 -0.14248 0.14401
-0.16501 -0.18607 0.14401
0.02409 -0.11564 -0.12994
-0.14342 0.32488 0.03362
-0.12979 0.15932 -0.01927
-0.04234 -0.08912 -0.04774
-0.15316 0.33810 -0.05783
-0.13929 -0.09866 -0.09561
0.01208 -0.05453 0.03208
-0.05179 -0.08912 0.05445
-0.10886 -0.05453 -0.06342
-0.17132 0.00519 0.07370
0.03192 -0.05453 0.03517
-0.15258 0.25876 0.08453
0.06692 -0.38585 0.09739
-0.04712 0.31178 0.02284
0.08233 -0.05453 0.09503
0.03069 -0.34796 -0.09561
0.09325 -0.42120 -0.13834
0.10162 -0.08912 0.05459
-0.17624 0.14774 0.06034
0.09325 -0.10416 -0.11662
-0.05776 -0.05453 -0.01606
0.11687 -0.08912 0.10364
-0.17599 -0.22029 -0.12509
0.02409 -0.34602 -0.12974
-0.15316 0.37584 -0.03908
-0.17341 0.29382 0.04611
0.08384 -0.41817 0.14401
-0.13459 -0.44509 0.10749
-0.11364 0.32223 -0.01069
-0.12525 0.10680 0.12164
-0.15571 -0.44509 0.13160
-0.14636 -0.07881 0.14401
-0.13420 -0.19879 -0.10218
0.02165 -0.05453 -0.01156
-0.06041 -0.08733 0.14401
-0.08785 -0.05453 0.09106
-0.06508 -0.05453 0.02076
-0.13353 0.02653 0.07896
-0.14342 0.42519 -0.01360
-0.16578 0.15122 -0.11180
-0.13420 -0.27256 0.10767
-0.15117 0.10419 0.01779
-0.13009 0.04163 0.04080
0.07899 -0.39929 0.14401
-0.16395 0.01590 -0.03998
0.06288 -0.08912 0.10921
0.13989 -0.08912 -0.00195
-0.17197 0.14829 0.13028
0.09325 -0.23124 0.12892
-0.04011 0.31178 -0.01318
-0.06553 0.31792 0.04442
-0.16997 -0.31827 0.14401
-0.13420 -0.19337 -0.12100
-0.17599 -0.07971 0.03059
0.03805 -0.32416 0.11334
-0.13619 -0.08912 0.13527
-0.13445 0.28619 0.03692
-0.09415 0.32223 0.03666
-0.16377 -0.03876 -0.03984
-0.08344 -0.08912 -0.06490
-0.14122 0.04299 -0.10115
-0.13420 -0.39581 -0.11433
0.09325 -0.38970 -0.11531
-0.17599 -0.15627 -0.09853
-0.07527 0.37534 -0.01609
-0.14342 0.31279 0.07105
-0.15316 0.34452 0.08206
-0.16079 0.27627 -0.08054
0.14080 -0.08912 0.02193
0.08633 -0.11230 0.14401
0.16990 -0.06553 0.04408
0.07801 -0.24067 0.14401
-0.13803 -0.05453 0.13821
-0.17599 -0.09373 -0.11814
-0.14121 -0.00514 -0.03705
0.07495 -0.28279 -0.09561
-0.17599 -0.27523 0.11797
0.02409 -0.13214 -0.12222
-0.15174 0.11819 0.09381
-0.12203 -0.08912 -0.08341
0.03805 -0.19181 0.12340
-0.14507 0.02015 0.03233
-0.12348 0.24607 0.05700
-0.15316 0.41118 0.00396
-0.13928 0.32223 0.00637
0.04428 -0.35351 0.09739
-0.16667 0.05958 -0.11457
-0.12553 0.26293 0.06833
0.02921 -0.05453 -0.13636
0.06889 -0.33324 -0.09561
-0.13087 0.23754 -0.07359
-0.12644 0.07969 -0.00115
-0.06541 -0.05453 0.10966
-0.16856 0.04985 -0.02119
-0.03182 -0.05453 -0.02968
-0.12991 0.19038 -0.11415
-0.12633 0.10763 -0.05572
-0.17346 -0.00404 0.12668
0.09287 -0.34542 -0.14401
0.07870 -0.44509 0.11055
0.04602 -0.44509 0.11455
-0.12625 -0.03985 -0.00981
-0.13649 -0.23522 0.14401
-0.13246 0.37676 -0.04099
-0.17511 0.14730 0.05021
-0.14785 -0.08912 0.02538
0.00385 -0.08912 -0.08935
0.03805 -0.17355 0.11681
-0.17599 -0.37393 0.14350
0.08978 -0.17026 0.14401
-0.14468 -0.08912 0.10848
0.09325 -0.27301 -0.10022
0.13270 -0.08912 -0.03478
-0.01354 -0.08264 -0.14401
0.03733 -0.08231 0.14401
-0.14342 0.40158 0.00892
0.08240 -0.08912 0.05903
-0.16235 -0.33822 -0.14401
-0.13762 0.21138 -0.03863
-0.15345 -0.08912 0.09547
-0.13420 -0.27016 0.11492
-0.14342 0.31454 0.04926
-0.15025 0.30407 0.14283
-0.17458 0.20345 0.12154
0.08111 -0.11616 -0.14401
-0.13420 -0.10524 -0.10174
-0.00610 -0.05453 -0.04386
-0.15590 0.28890 -0.10140
-0.08532 0.34547 -0.03614
0.10691 -0.05453 -0.12626
-0.14389 -0.36263 -0.14401
-0.15967 -0.09813 -0.14401
-0.15847 0.14441 -0.08150
0.08048 -0.05453 0.10349
-0.14296 0.06224 0.09461
0.04244 -0.35485 -0.09561
-0.17599 -0.36788 -0.13802
0.07242 -0.35099 -0.14401
-0.13895 -0.22303 -0.14401
-0.16955 -0.02496 0.07600
-0.13971 0.04860 -0.08083
-0.16258 0.06198 -0.02662
-0.07829 -0.05453 -0.11364
0.11541 -0.08763 -0.12853
0.03805 -0.21564 0.10324
-0.13420 -0.38138 0.11228
-0.14704 0.30144 -0.08817
0.09325 -0.37439 0.12332
0.09325 -0.34835 -0.12743
-0.09468 -0.08912 0.03698
-0.15345 0.27447 -0.13670
0.03515 -0.19268 -0.14401
-0.16321 -0.04711 0.08132
0.03854 -0.08912 -0.12199
0.09325 -0.09577 0.10365
0.09325 -0.41514 0.13251
-0.14821 0.12989 -0.03543
-0.16999 0.00602 0.04114
0.05131 -0.28789 -0.09561
-0.16372 0.29620 -0.07870
0.10739 -0.05453 -0.11613
0.11980 -0.05453 0.04065
-0.14156 -0.15092 0.09890
0.08419 -0.44509 -0.11989
-0.16717 0.15801 0.07828
-0.17599 -0.10155 0.11180
0.01596 -0.05727 0.14401
-0.14654 0.27846 -0.02987
0.02409 -0.09622 -0.14048
-0.17599 -0.07479 -0.02700
0.08703 -0.21461 0.14401
0.11503 -0.05453 -0.03640
-0.15029 0.09142 -0.03526
-0.16577 -0.02322 0.13777
0.03805 -0.28246 0.11805
-0.14462 -0.05453 0.13544
-0.03717 0.36791 -0.01176
-0.14342 0.33219 0.03948
-0.15502 -0.03253 -0.13605
0.02409 -0.12316 -0.13678
-0.17300 -0.04417 -0.01295
-0.14342 0.37832 0.05009
-0.02668 -0.08912 0.00846
-0.01626 -0.08912 0.13354
0.06403 -0.05453 -0.09439
-0.09510 0.32005 -0.04536
-0.13420 -0.33336 -0.14244
-0.05947 0.36465 -0.04762
0.04970 -0.38724 -0.14401
-0.02725 0.35737 -0.04712
-0.17599 -0.36591 -0.11102
-0.16544 0.00050 -0.04112
-0.13112 0.01252 -0.04458
0.04799 -0.32083 0.09739
0.02401 0.36943 0.02844
0.02409 -0.16543 -0.10350
-0.17236 -0.03587 0.10791
0.06149 -0.18995 0.14401
-0.12582 0.13545 -0.00651
0.12009 -0.08912 -0.12126
-0.13420 -0.14410 0.13793
0.09325 -0.26839 -0.11922
-0.15414 -0.08912 0.04615
-0.13906 0.18637 -0.13505
-0.16957 0.13760 -0.07279
-0.17168 0.15882 0.00378
0.07716 -0.39465 -0.09561
-0.17080 -0.25041 -0.14401
0.04390 -0.40021 -0.14401
-0.13281 0.28081 -0.07612
-0.17196 0.10452 -0.05020
0.09325 -0.31910 -0.12023
0.08683 -0.26970 -0.09561
-0.14342 0.34862 0.05410
-0.13825 0.05852 -0.08022
-0.12490 0.16393 0.11829
-0.13694 -0.29311 -0.14401
0.03805 -0.26074 0.12463
-0.14342 0.33626 -0.13466
-0.03083 -0.05453 -0.12346
-0.15316 0.30763 -0.10310
0.05804 -0.15549 0.09739
-0.17599 -0.27490 0.14189
0.04329 -0.05453 -0.11594
-0.12933 0.23874 -0.01866
-0.13992 0.02267 0.01558
0.05870 -0.05453 0.03938
-0.14342 0.30604 0.12470
-0.07676 -0.05453 0.12184
0.07654 -0.11399 -0.14401
0.03805 -0.18145 0.09971
0.10181 -0.05453 0.06738
-0.15316 0.39083 -0.10417
0.09096 -0.29007 0.09739
-0.15154 -0.08912 -0.10412
-0.03821 0.31178 -0.04180
-0.16085 -0.08912 0.05885
0.02307 -0.05453 -0.04038
0.04665 -0.18667 0.09739
0.02409 -0.35549 -0.11030
-0.13420 -0.33121 0.11029
-0.17599 -0.26843 -0.12674
-0.17599 -0.14975 -0.12951
-0.14342 0.38422 0.12183
0.08049 -0.05453 0.04699
-0.04348 0.34445 0.02936
-0.16889 -0.08912 0.03407
-0.13819 0.29553 0.08197
-0.13696 -0.22317 0.09890
-0.14342 0.33734 -0.04632
-0.15728 -0.05453 -0.10490
-0.07933 -0.08912 -0.13958
-0.03541 -0.05453 -0.03383
-0.04495 -0.08912 0.05639
0.02409 -0.36155 -0.12718
-0.15316 0.33888 0.09372
0.06884 -0.42810 -0.09561
-0.16081 -0.33298 0.09890
-0.07149 0.35965 -0.04752
-0.14079 -0.38487 0.09890
-0.12626 0.01799 0.04647
-0.13420 -0.28967 -0.13242
-0.13336 0.06441 -0.04190
-0.16374 -0.14497 0.14401
-0.09381 -0.07310 0.14401
-0.13420 -0.12908 -0.12601
-0.17481 0.18167 0.11745
-0.14239 0.03790 0.08371
-0.12345 -0.03437 0.05930
-0.17599 -0.10698 0.12062
0.02102 -0.05453 -0.01756
-0.17599 -0.39520 -0.13094
-0.15363 0.14198 0.14319
-0.13845 0.05635 0.08208
0.01774 -0.08912 0.05271
-0.15316 0.34728 0.03406
0.03805 -0.43259 0.10982
-0.10596 0.31178 0.02275
0.03805 -0.30729 0.14384
-0.17384 0.23332 -0.00776
0.09268 -0.33056 -0.14401
-0.17320 0.22150 0.04563
-0.13938 -0.01670 0.03411
-0.12659 0.00111 -0.01235
-0.17366 0.15755 -0.05700
-0.12561 -0.02859 0.12439
-0.16614 0.28972 -0.12442
0.11364 -0.08912 0.00874
-0.13420 -0.12835 -0.10112
-0.13420 -0.24167 -0.11605
0.03142 0.35702 0.03000
-0.16526 0.05359 -0.12655
-0.14342 0.32387 0.13263
0.05317 -0.11687 -0.09561
-0.17599 -0.37535 -0.12865
-0.14462 -0.01339 0.01726
-0.14936 -0.05767 0.14401
-0.15316 0.30901 -0.11480
0.04370 -0.22571 0.09739
0.09325 -0.13156 0.13701
-0.15405 0.25737 0.01741
-0.15754 0.16364 -0.02892
-0.03288 -0.08912 0.02297
0.00182 0.37642 0.02050
0.01523 -0.05453 -0.02325
-0.07723 -0.05453 -0.13098
-0.15984 0.18681 0.01561
-0.13966 0.37582 0.01971
-0.17599 -0.12414 -0.13975
0.02701 -0.05453 0.08949
-0.13420 -0.22321 -0.09866
0.02409 -0.34892 -0.10922
0.10662 -0.08912 0.09870
-0.12973 0.18598 -0.12157
-0.12740 0.26166 0.12920
-0.16295 -0.31050 -0.09561
0.05789 -0.05453 -0.02960
-0.01166 0.37788 -0.03953
-0.17599 -0.11914 -0.11083
-0.16214 -0.08912 0.12663
-0.15316 0.31486 -0.11013
0.02270 0.37484 0.04624
-0.13420 -0.38840 -0.11119
-0.16570 0.21906 0.03717
-0.14475 0.40624 -0.13435
-0.15795 0.13320 -0.10233
-0.02831 -0.05453 0.06298
-0.16982 0.15206 -0.01954
-0.11416 0.35374 -0.04561
-0.13420 -0.29082 0.12511
-0.13560 0.07981 0.03603
-0.15254 -0.44509 -0.12589
0.03805 -0.22158 0.11089
0.13384 -0.05453 -0.04725
-0.12643 0.15574 -0.05497
-0.12802 -0.03683 -0.04981
0.16699 -0.08912 0.03477
-0.14266 0.06027 -0.08205
-0.15398 -0.03766 -0.08276
-0.17599 -0.07986 0.05818
-0.13420 -0.35058 -0.13274
-0.15961 0.24524 -0.10360
-0.17315 -0.02697 -0.06532
-0.12868 0.14355 -0.01746
-0.05522 -0.05453 0.08845
-0.14497 -0.34348 0.09890
-0.04332 -0.05453 0.02354
0.09325 -0.20915 -0.11374
-0.17211 0.07689 0.10730
-0.09353 -0.07473 -0.14401
0.07705 -0.06434 -0.14401
0.09325 -0.17088 0.10879
-0.15899 0.02719 -0.13396
0.03668 0.36854 0.03341
-0.13831 -0.34884 -0.09561
-0.12420 0.28465 0.06505
0.11295 -0.05453 0.12016
0.04410 -0.05453 0.08507
-0.13420 -0.29293 -0.11042
-0.14846 0.40604 -0.10972
0.09166 -0.08912 -0.06115
0.03969 -0.08912 0.04848
0.04616 -0.05453 0.10359
-0.13917 -0.44509 0.11643
-0.15601 -0.14755 -0.09561
-0.13895 0.30144 0.12411
-0.17339 -0.32755 0.14401
-0.13302 -0.04939 0.07856
0.09163 -0.18826 0.09739
-0.15865 -0.01254 0.08321
-0.17595 0.18927 0.06251
0.05799 -0.08912 -0.10870
-0.15316 0.39096 -0.10910
-0.17008 -0.19693 -0.09561
0.02409 -0.14020 -0.10259
0.09855 -0.08912 0.10855
-0.17009 0.27176 0.00682
-0.14342 0.36592 -0.00361
-0.17647 0.17160 0.05802
-0.14394 0.40786 -0.10123
-0.14663 0.23975 0.08445
0.02057 0.35890 -0.04742
-0.14267 -0.08912 0.12783
-0.14778 -0.29806 0.09890
-0.13420 -0.30195 -0.09868
-0.03767 0.31492 -0.03594
-0.14247 -0.13877 -0.09561
0.02409 -0.23051 -0.10344
0.05224 -0.08912 -0.13392
-0.16154 -0.05453 -0.12188
-0.17322 0.08099 -0.01242
-0.10711 -0.08912 0.06302
0.03805 -0.33907 0.11301
0.02409 -0.44486 -0.11084
0.06615 -0.44509 0.14070
0.00373 -0.08912 -0.01423
-0.15125 0.17911 -0.08311
-0.14193 -0.03048 0.01641
0.09325 -0.18602 -0.13750
0.02401 0.35708 -0.02152
-0.13420 -0.10584 -0.12462
0.02409 -0.12761 -0.10910
0.05042 -0.10019 0.14401
0.10088 -0.08912 -0.09406
-0.13749 0.25434 0.03489
-0.12369 0.07193 0.05547
-0.14342 0.35419 -0.07285
-0.12997 -0.02720 0.00714
-0.15316 0.37690 0.11962
-0.17156 0.28347 0.04319
-0.15291 0.28648 -0.08290
-0.14350 0.09827 -0.02942
-0.15285 -0.42969 -0.14401
-0.15316 0.35864 -0.10607
-0.15334 0.21677 0.14323
-0.13420 -0.09487 -0.10858
0.09325 -0.17687 0.11412
0.04732 -0.10674 0.09739
-0.15909 -0.33624 0.14401
-0.17599 -0.27542 -0.13477
0.02638 -0.39591 -0.09561
0.04807 -0.33443 -0.14401
0.05204 -0.37390 0.14401
-0.12957 0.35235 -0.04470
0.02654 -0.31063 -0.14401
0.00530 0.36975 -0.04626
-0.14342 0.32362 -0.04995
-0.11394 -0.05453 0.13713
-0.11943 0.35103 -0.01509
-0.15025 0.38662 0.08558
-0.12592 0.14189 -0.00508
-0.17010 -0.04406 0.10413
-0.14342 0.33347 0.02672
0.08721 -0.23345 -0.09561
0.08131 -0.08912 0.00123
-0.15473 -0.25540 0.14401
-0.13175 0.28857 -0.07474
-0.14478 0.06233 -0.02964
0.09325 -0.37285 -0.12238
-0.12608 0.09495 -0.05765
0.09325 -0.10718 0.11320
-0.13420 -0.13275 0.12831
-0.14342 0.34358 -0.10829
0.09368 -0.08912 -0.06952
-0.13886 0.27376 0.14094
-0.16156 0.27913 0.08200
-0.05294 0.34819 0.02111
-0.15316 0.31869 0.10448
0.07167 -0.36341 0.09739
-0.16431 0.15175 0.01293
-0.16406 0.17323 0.13908
0.02409 -0.32123 -0.09583
-0.15316 0.33632 0.13740
0.02409 -0.22378 -0.13628
0.12740 -0.07330 0.11704
-0.03807 -0.08912 -0.02364
0.08538 -0.36103 -0.09561
-0.08585 -0.05453 -0.08770
0.08737 -0.38514 0.14401
-0.13022 0.06803 -0.11306
-0.16763 -0.24056 -0.14401
-0.05939 0.34784 0.04353
-0.15594 0.04805 -0.10141
-0.14406 0.36239 -0.02954
-0.10141 -0.08912 0.01953
-0.15478 0.04405 -0.03585
-0.14822 0.14059 -0.03009
0.17189 -0.05850 -0.03665
-0.13796 0.28180 0.03470
-0.17599 -0.36427 -0.12594
0.09325 -0.34930 -0.13664
-0.15240 0.14030 -0.10016
-0.12337 0.01044 0.05870
-0.04320 -0.05453 -0.03274
-0.17375 -0.02054 -0.00394
0.09325 -0.23389 0.10244
-0.07266 -0.08912 -0.07190
-0.15675 0.27187 -0.02925
-0.13420 -0.10148 0.10380
-0.12709 -0.05453 -0.02674
-0.14342 0.38537 -0.13595
-0.17599 -0.17985 0.12417
-0.15316 0.32019 -0.01462
-0.15298 0.39926 -0.13683
0.03805 -0.25154 0.11128
-0.08081 -0.08912 -0.04491
0.06637 -0.26854 0.09739
-0.12817 0.22298 -0.06905
-0.08057 0.31178 -0.04466
-0.15174 -0.05453 -0.07665
-0.16059 0.13948 0.08241
-0.13420 -0.22701 0.11546
0.08735 -0.19563 -0.09561
0.01891 -0.05453 -0.12235
-0.15828 -0.28303 0.09890
0.02409 -0.22243 -0.09913
-0.13420 -0.14311 -0.10529
0.04835 -0.34246 0.14401
-0.17599 -0.15041 0.11940
-0.12302 0.32223 -0.01048
0.08485 -0.43462 -0.14401
-0.09275 -0.08912 0.04230
-0.01417 -0.08912 -0.00818
-0.14342 0.38851 -0.00620
0.09325 -0.20165 0.11071
0.09325 -0.35174 0.10145
-0.17161 0.23456 0.07332
-0.13420 -0.31421 -0.13231
-0.13551 -0.05248 -0.02529
-0.14842 0.17956 0.01776
0.02606 -0.41403 -0.09561
-0.16878 -0.09439 -0.14401
-0.14441 0.40442 0.11921
0.07825 -0.37590 -0.14401
-0.13420 -0.18426 0.14366
-0.16777 0.04154 0.10109
0.07499 -0.30604 -0.14401
0.09325 -0.40019 0.11410
-0.15859 0.24967 0.14192
-0.13172 -0.01245 -0.02178
-0.14401 0.36578 -0.10018
-0.13109 0.23099 -0.12612
-0.01971 0.38081 0.03077
0.09325 -0.16115 -0.11137
-0.13420 -0.43077 -0.12282
-0.17599 -0.30787 -0.13123
0.02409 -0.33952 -0.13244
0.03805 -0.43328 0.13714
-0.17599 -0.24829 -0.14390
-0.04428 -0.08912 0.07241
-0.16589 -0.43477 0.14401
0.08520 -0.18133 -0.14401
0.11483 -0.05453 0.02777
0.07125 -0.08912 -0.13774
0.02992 -0.11584 -0.14401
-0.14712 0.44235 -0.00758
-0.16488 -0.04435 -0.04069
-0.13125 0.21385 0.10213
-0.05588 -0.08912 -0.08528
-0.13323 0.22014 0.01118
-0.14568 0.12671 0.08433
-0.17180 0.19218 0.07307
0.00309 -0.05453 0.10988
-0.16291 0.08399 -0.03918
0.03805 -0.32867 0.10909
0.16170 -0.08912 -0.06261
0.15924 -0.08912 0.05780
0.09325 -0.32122 0.12994
-0.17441 0.28370 0.06804
-0.09409 0.32223 0.04294
-0.00495 0.34613 -0.02106
0.03805 -0.21707 0.14049
-0.14669 0.07926 -0.09983
-0.14876 -0.02239 0.03184
-0.15746 -0.14731 0.14401
0.01465 -0.05453 -0.01843
0.04325 -0.15474 0.14401
0.08812 -0.39249 0.14401
-0.17330 0.18133 0.07073
-0.16853 0.00791 -0.07414
-0.15580 0.09087 0.01718
0.15178 -0.08587 0.08661
-0.13710 0.01303 0.01415
0.11819 -0.08912 -0.10139
-0.04373 -0.08912 0.10607
-0.17052 0.00053 0.10467
0.01298 -0.08912 -0.05991
0.00903 -0.08912 0.11932
-0.17571 -0.41448 -0.09561
-0.15140 0.18785 -0.03012
-0.17203 -0.22033 0.14401
-0.15924 0.11925 0.03361
0.02409 -0.42605 -0.12396
0.02715 -0.24542 -0.14401
-0.12509 0.31543 0.04442
0.07422 -0.43922 0.14401
-0.00023 -0.05453 -0.02730
-0.10413 -0.05453 -0.08740
-0.14565 0.11990 0.14312
-0.14880 0.16748 0.09371
-0.02720 -0.05453 -0.11797
0.09156 -0.08912 -0.09654
-0.14128 0.00311 -0.13596
-0.13537 -0.28773 -0.09561
-0.17599 -0.40670 -0.12385
-0.13535 0.16744 -0.07812
-0.12608 0.24739 -0.00386
0.02409 -0.37794 -0.11381
-0.14176 0.31178 0.00100
-0.15765 0.15492 -0.10212
-0.16239 -0.25570 0.09890
-0.14914 -0.08912 -0.07194
0.09080 -0.08912 0.03037
-0.17154 0.17329 0.07341
-0.15130 0.14134 0.01777
0.07685 -0.29455 0.14401
0.07156 -0.08912 -0.08762
-0.17507 -0.05453 -0.01703
0.02734 -0.08912 -0.09978
-0.13374 0.34629 -0.03812
-0.12726 -0.08912 0.10981
0.00137 -0.05453 -0.05504
-0.07711 -0.05453 0.00082
-0.15328 -0.39052 -0.09561
-0.12527 -0.05453 0.07715
-0.10284 -0.08516 0.14401
0.15718 -0.07142 0.07676
-0.15590 0.03791 -0.13569
-0.13036 -0.04210 0.13395
-0.17599 -0.07599 -0.12108
-0.14342 0.37230 0.07939
-0.15316 0.35990 0.11548
0.04336 -0.37866 -0.09561
0.03728 -0.17515 -0.14401
-0.00940 -0.05453 0.01737
-0.17599 -0.42463 0.10561
-0.12816 0.37828 0.02292
0.06735 -0.09381 -0.14401
0.02409 -0.16145 -0.10790
-0.15290 0.01610 -0.02992
-0.16708 0.02581 -0.02311
-0.17297 -0.08912 -0.12508
-0.04227 0.31178 0.00226
-0.14252 -0.18891 0.09890
-0.15316 0.41410 -0.01810
-0.15886 0.04689 -0.08134
0.03805 -0.26880 0.14309
-0.15391 -0.32004 0.09890
0.00392 -0.06829 0.14401
-0.15316 0.36507 0.09947
0.03805 -0.09637 0.09811
-0.15212 -0.38556 0.09890
-0.14845 -0.42933 -0.09561
-0.17048 0.16160 0.10462
-0.14144 -0.05453 -0.06504
-0.17599 -0.32340 -0.12366
0.03844 -0.05453 0.13797
-0.15772 -0.08912 -0.01659
0.03916 -0.08912 0.09789
-0.13529 -0.14813 -0.14401
-0.14391 -0.05453 -0.11441
-0.16655 0.23497 -0.11368
0.06136 -0.10355 -0.14401
-0.17060 -0.05453 0.01528
0.02722 -0.43414 -0.09561
-0.12802 0.01149 0.07307
-0.17595 0.07974 0.06247
-0.15191 0.36778 -0.03005
-0.17599 -0.20516 0.12907
-0.15316 0.33283 0.07787
0.02409 -0.44053 -0.13174
0.02570 0.36881 -0.03064
-0.15316 0.38280 -0.05862
-0.14342 0.32748 0.04633
-0.16320 0.10650 0.09751
-0.17599 -0.40648 -0.10789
-0.16022 -0.29037 -0.09561
-0.13949 0.00806 -0.03776
0.16224 -0.07192 0.06594
0.02373 0.34441 -0.02653
-0.17599 -0.07547 -0.13368
0.06245 -0.27152 0.14401
-0.09492 -0.08912 0.06609
-0.17599 -0.28334 -0.14251
0.09325 -0.09361 -0.13890
-0.17261 0.07009 0.07201
-0.16014 0.09658 0.03398
-0.16146 0.30144 -0.12874
-0.17439 -0.03562 0.11428
0.09325 -0.19121 0.13211
0.02529 -0.08912 0.10560
0.09784 -0.05453 -0.01396
0.15401 -0.08912 -0.05178
0.04253 -0.39543 -0.14401
-0.13184 0.13006 -0.12793
-0.17002 0.09249 0.07539
0.04741 -0.25583 -0.09561
0.09325 -0.13325 -0.13884
-0.12510 -0.01279 0.12053
-0.04081 -0.08912 0.04744
0.09525 -0.06746 0.14261
-0.12483 0.07765 0.04994
0.06216 -0.16668 0.09739
-0.09125 0.31280 0.04442
0.06448 -0.38442 -0.09561
-0.14414 0.20827 -0.08253
0.04457 -0.29240 0.14401
-0.12991 0.11939 0.07553
0.03984 -0.05453 0.12650
-0.01577 -0.05453 -0.09923
0.09325 -0.28641 -0.12889
-0.17544 -0.03746 0.06554
-0.05574 -0.08912 0.06270
0.03805 -0.38693 0.10658
-0.12613 0.06105 -0.00348
0.11150 -0.05453 -0.01158
-0.15085 -0.25523 0.09890
-0.17115 -0.03843 0.13175
-0.04749 0.31178 -0.03256
0.09325 -0.11890 -0.13799
-0.13376 0.17541 -0.10662
-0.13208 0.08038 0.00989
0.03001 -0.44509 -0.10309
-0.16266 0.02957 0.01419
-0.13198 -0.05453 0.10927
-0.14965 -0.00174 -0.09980
0.02710 -0.36829 -0.14401
0.05589 -0.42852 0.09739
-0.12397 0.00786 0.05330
-0.17214 0.21512 -0.05063
-0.13135 0.23161 0.13525
-0.16367 0.09140 0.13938
-0.10089 -0.05453 -0.06661
-0.11277 -0.08912 -0.00785
-0.14342 0.31608 -0.13006
0.08016 -0.05453 0.13138
-0.13420 -0.21300 -0.11161
0.09325 -0.09777 -0.10272
-0.12419 0.02278 0.05166
0.05913 -0.05453 0.08121
0.11842 -0.08912 -0.00142
-0.12419 0.25030 0.05160
-0.04736 -0.05453 -0.02555
-0.17599 -0.08041 0.07158
-0.13617 -0.01643 -0.03975
0.02409 -0.31555 -0.09982
-0.15950 -0.06875 0.14401
-0.17095 0.13936 0.13201
0.09290 -0.44419 -0.09561
0.09020 -0.39190 0.09739
-0.14940 -0.16985 -0.14401
-0.16212 -0.16998 -0.09561
0.05821 -0.05453 0.02081
0.06121 -0.05453 -0.12745
-0.16176 0.14150 0.03466
-0.12462 -0.08912 0.10158
-0.14867 0.09337 0.08472
-0.14348 0.24812 -0.08239
-0.15900 0.22842 0.14175
-0.17599 -0.33835 0.13610
-0.13091 0.20698 -0.12568
-0.15316 0.37793 0.07224
-0.17599 -0.13467 0.11539
-0.17058 -0.44509 -0.11066
-0.14965 -0.12536 -0.14401
-0.13780 0.22931 -0.08000
0.11383 -0.08912 0.08185
0.03451 -0.08912 0.07337
-0.15512 0.05419 0.08420
-0.09342 0.38099 0.03215
-0.05995 0.32223 -0.00403
0.04380 -0.29188 0.09739
0.02409 -0.22090 -0.12690
0.09325 -0.10097 -0.12579
-0.00672 -0.08912 -0.04570
0.09325 -0.27866 0.11444
-0.13693 -0.03293 0.09727
-0.17599 -0.43217 0.13392
0.13354 -0.06983 -0.11091
-0.16377 0.26389 -0.12915
-0.05640 -0.05453 0.14274
-0.16279 -0.04719 -0.13043
0.12803 -0.05453 0.04262
-0.15193 -0.00042 -0.08303
0.09325 -0.39046 -0.11995
-0.17599 -0.07867 -0.08010
-0.15614 0.02295 0.08406
-0.13420 -0.20286 0.10038
0.01563 -0.05453 -0.04132
0.02409 -0.12384 -0.10200
0.07157 -0.25968 0.09739
-0.07394 -0.06872 -0.14401
0.09325 -0.32741 0.13036
-0.12658 0.36706 0.01703
-0.16101 -0.37157 0.14401
-0.03335 -0.05453 -0.09417
-0.04139 0.36762 0.05030
-0.01508 -0.08912 -0.12934
0.04784 -0.05453 -0.05880
-0.14399 -0.36806 -0.09561
-0.16114 0.06790 0.09639
0.02401 0.37890 -0.03519
0.04277 -0.05453 -0.14032
-0.12796 -0.08912 0.08086
0.02409 -0.19689 -0.12517
-0.17599 -0.19009 0.11295
-0.16469 0.21085 -0.02500
-0.15267 -0.08912 0.08597
-0.16604 -0.01197 -0.02396
-0.14175 -0.00803 -0.08167
0.01961 -0.08912 0.09060
-0.15316 0.34530 0.00497
-0.17599 -0.37490 0.12179
0.09325 -0.23583 0.11672
-0.15316 0.37036 0.12107
-0.00572 -0.05453 0.02836
-0.14432 0.27706 -0.10014
0.08833 -0.12466 -0.14401
-0.17206 0.15155 0.10719
-0.14636 0.23066 0.14321
0.00405 0.35029 0.01882
0.16783 -0.08912 -0.02959
-0.03982 -0.07461 0.14401
0.14847 -0.08912 0.04537
0.08973 -0.08912 0.06419
-0.16502 0.22337 0.09891
0.07879 -0.39874 0.09739
-0.00500 -0.05491 0.14401
-0.13231 0.23432 0.01019
-0.00863 -0.05453 -0.10685
-0.05281 0.31178 -0.00354
-0.17599 -0.29103 -0.11433
-0.11529 -0.08912 -0.10722
-0.15443 -0.01512 -0.03580
-0.17041 -0.04913 0.04169
0.06125 -0.35237 0.09739
-0.14109 0.03227 -0.08140
0.13573 -0.08912 -0.08929
0.08002 -0.08912 0.01382
0.07426 -0.23993 -0.09561
-0.14732 -0.39050 -0.09561
0.05822 -0.08912 0.05356
-0.17145 -0.04371 0.13135
0.12006 -0.05453 -0.08236
-0.15316 0.34760 0.13676
0.03461 -0.13048 -0.14401
0.05577 -0.12304 0.09739
-0.11722 -0.08912 0.07751
0.05344 -0.32716 0.14401
-0.05495 0.36619 0.01703
0.13092 -0.08535 -0.11352
-0.12550 -0.04236 0.06826
-0.12676 0.00065 -0.06565
-0.02557 0.37923 0.02490
-0.07645 -0.08912 0.12785
-0.17359 0.21445 0.04657
-0.06820 0.34679 -0.01977
-0.17172 0.29669 0.10635
-0.04219 -0.05453 0.04890
0.03805 -0.16948 0.14044
-0.14268 0.14024 0.01672
0.03805 -0.30934 0.12868
-0.07197 -0.08912 -0.02206
-0.10419 0.36991 0.01703
-0.17599 -0.41447 0.14369
0.00593 -0.05453 -0.09533
0.08792 -0.27672 0.09739
-0.13420 -0.41290 -0.10017
-0.13420 -0.25230 0.13209
-0.15156 0.03111 0.01774
-0.14822 0.03687 0.08466
-0.12444 0.38028 -0.03451
0.03680 0.36254 0.03236
0.09325 -0.29364 -0.13051
-0.17599 -0.22020 -0.13644
-0.12824 0.01813 0.10606
-0.15155 0.08011 -0.03542
-0.14342 0.33713 0.11382
0.09325 -0.21059 0.12983
-0.17634 0.10833 0.05705
-0.12655 0.19375 -0.06445
-0.13709 0.31178 -0.03452
-0.12436 -0.00505 0.06550
0.03574 -0.08912 0.01729
-0.14342 -0.03563 0.09442
-0.16389 0.21990 -0.03993
0.04758 -0.21844 -0.09561
-0.17276 0.19303 -0.01353
0.17054 -0.08642 -0.04169
-0.09613 -0.05453 -0.05504
0.08425 -0.08912 0.00932
0.04950 -0.05453 -0.12236
-0.14894 0.39452 -0.09971
-0.16320 -0.11709 0.09890
0.06976 -0.41546 -0.14401
0.07903 -0.19517 -0.14401
0.03889 -0.06437 -0.14401
-0.13851 0.31178 -0.02200
0.06807 -0.13717 -0.09561
-0.14092 0.24659 0.01600
-0.11865 0.34425 0.03423
-0.14149 -0.04391 0.01623
-0.16931 -0.08912 -0.12920
0.02409 -0.24261 -0.10969
-0.10440 -0.05453 -0.04213
0.15400 -0.08912 -0.07030
-0.17362 -0.03446 -0.00295
-0.14234 -0.14284 0.14401
-0.14135 0.26660 -0.08151
0.14104 -0.05453 -0.02998
-0.17048 -0.00091 0.13262
-0.15414 -0.08912 -0.00143
-0.14342 0.34517 0.12609
-0.17599 -0.08536 -0.04306
-0.04260 -0.08912 0.11166
-0.17424 -0.08912 0.09986
-0.12564 0.34567 0.02531
0.05511 -0.08912 0.09227
-0.14342 0.36782 0.08861
-0.15604 0.02702 0.14287
-0.14501 -0.17934 -0.09561
-0.17371 0.15198 -0.06110
-0.14639 0.10700 -0.13722
-0.13145 -0.04203 0.03921
-0.13420 -0.24425 0.10040
-0.11640 -0.08912 0.03470
-0.15857 0.07778 -0.08146
-0.07583 -0.05453 -0.01618
-0.15677 -0.00511 0.01688
-0.02546 0.35528 0.01703
-0.12648 0.20322 -0.05456
0.03805 -0.18070 0.10738
-0.17048 0.00160 -0.04690
0.03672 -0.20919 -0.09561
-0.13391 0.30144 -0.07013
0.03513 -0.05453 -0.06216
-0.17377 -0.05091 -0.05785
-0.17599 -0.35367 -0.12600
-0.17599 -0.05553 -0.07108
-0.14136 0.16062 0.08329
-0.15226 -0.05453 0.05067
-0.05887 -0.08912 0.02013
-0.13576 0.05575 -0.02549
-0.15874 0.15701 0.01606
0.14472 -0.05453 0.00294
-0.17182 0.13578 -0.01582
0.03805 -0.22161 0.14209
-0.17599 -0.27938 0.10349
-0.17479 0.22204 0.11995
0.01586 -0.05453 -0.08879
-0.12578 0.37421 -0.04356
-0.08940 -0.08912 0.13312
-0.10177 -0.05453 -0.02564
-0.12685 -0.05453 -0.05859
0.03805 -0.40264 0.11496
-0.16562 -0.03534 0.01192
-0.02564 -0.05453 -0.01213
0.05575 -0.31717 -0.09561
0.02789 -0.05453 -0.01505
-0.13637 0.25729 0.01360
-0.17599 -0.18383 -0.09890
0.09175 -0.27652 0.14401
-0.16838 0.29517 0.07735
-0.17408 0.29941 0.12519
-0.11386 0.31178 0.01067
-0.12602 -0.00066 0.11138
-0.14342 0.34392 -0.02648
-0.17076 0.25938 0.00595
-0.03427 0.35073 -0.01532
-0.13882 0.32223 0.01391
-0.15284 -0.40951 -0.09561
-0.00970 0.37903 0.04068
-0.13069 0.28109 -0.02043
-0.14861 -0.05453 -0.10212
-0.13540 -0.05453 -0.10736
0.02409 -0.38414 -0.09985
0.09325 -0.36860 -0.10637
-0.13420 -0.26051 -0.12965
0.06942 -0.30500 -0.09561
-0.15542 -0.05453 -0.11398
-0.12612 0.38065 -0.02640
-0.14356 -0.08912 -0.11430
-0.16604 0.16674 -0.02396
-0.17599 -0.35529 -0.11694
0.05599 -0.08912 -0.14181
-0.03898 -0.05453 0.08355
0.06133 -0.05453 0.04498
-0.12876 0.01765 -0.07047
0.07057 -0.09946 0.14401
-0.16448 -0.38149 0.14401
-0.15316 0.33215 -0.07703
-0.15316 0.36983 -0.05453
-0.15011 0.15018 0.09359
0.09325 -0.24020 0.11154
-0.15254 0.34309 -0.10018
0.04655 -0.44509 -0.13006
0.08964 -0.13703 0.09739
-0.15316 0.31752 -0.12422
-0.12764 0.10415 0.07258
0.02409 -0.15922 -0.13723
0.03805 -0.20125 0.13830
-0.14729 0.19878 -0.02997
-0.16749 0.03296 -0.02258
-0.14012 -0.08912 -0.04258
-0.16179 -0.08912 -0.12421
-0.13680 0.12529 0.03518
-0.17599 -0.10039 0.10712
-0.07680 0.38080 -0.03125
-0.15119 0.31732 -0.08312
-0.14342 0.32644 -0.03449
-0.15679 0.23305 0.09458
-0.14243 0.30144 0.04076
-0.13628 0.23936 0.03551
0.09325 -0.34586 -0.13261
0.09813 -0.06505 -0.14060
-0.14964 0.03557 -0.03028
-0.17603 0.13996 0.05468
-0.17548 0.07402 0.05113
0.07659 -0.08592 -0.14401
0.02611 -0.23429 -0.14401
-0.14507 -0.23797 -0.09561
-0.17574 0.15254 0.06412
-0.13543 0.19332 -0.07818
-0.17599 -0.08896 0.03666
-0.17599 -0.10523 -0.11142
