0.24961 0.16457 -0.13578
0.24961 0.19305 -0.32935
0.24961 0.15734 -0.12979
0.24961 0.17048 -0.19321
0.24961 0.15835 -0.07824
0.24961 0.15291 0.10641
0.07720 0.15279 -0.37240
-0.14557 0.19174 -0.37240
0.16704 0.14806 -0.37240
-0.16083 0.19263 -0.37240
0.03356 0.15773 -0.37240
-0.17887 0.19158 -0.37240
-0.05613 0.15656 -0.37240
0.00215 0.15962 -0.37240
-0.16234 0.18136 -0.37240
-0.16723 0.14929 -0.37240
-0.20109 0.16161 -0.37240
-0.09679 0.16670 -0.37240
-0.18463 0.17476 -0.37240
-0.03588 0.17429 -0.37240
0.22140 0.14715 -0.33947
0.20655 0.14715 -0.36891
0.23541 0.14715 -0.35055
-0.21195 -0.10107 0.34482
-0.23620 -0.12158 0.34482
-0.21911 -0.02587 0.34482
-0.21125 0.01596 0.34482
-0.21319 -0.02773 0.34482
-0.22962 -0.19273 0.34482
-0.22972 -0.15253 0.34482
-0.22961 -0.11815 0.34482
-0.22792 -0.06685 0.34482
-0.24014 -0.17168 0.34482
-0.23456 0.14715 0.34693
-0.23566 0.14715 0.36029
0.19911 0.21045 0.18512
0.19911 0.21033 0.06807
-0.24012 0.14715 0.23573
-0.24628 0.14715 0.03280
-0.24063 0.14715 -0.02776
-0.23084 0.14715 0.20986
-0.23406 0.14715 0.05233
-0.23848 0.14715 0.09806
-0.24580 0.14715 0.00115
-0.22714 0.14715 0.17754
-0.23185 0.14715 0.22035
-0.22206 0.14715 0.28587
-0.24409 0.14715 -0.09007
-0.22081 0.14715 0.32877
-0.21744 0.14715 0.27019
-0.24355 0.14715 0.00943
-0.22795 0.14715 0.26974
-0.21430 0.14715 0.27772
-0.24859 0.14715 -0.21268
-0.22832 0.14715 0.21562
-0.24854 0.14715 0.08290
-0.23683 0.14715 0.32478
0.13125 0.14715 -0.32999
0.09946 0.14715 -0.32867
0.14721 0.14715 -0.34048
-0.06447 0.14715 -0.34708
0.07379 0.14715 -0.35339
-0.00745 0.14715 -0.34829
-0.10736 0.14715 -0.33697
-0.00014 0.14715 -0.32840
0.11558 0.14715 -0.31887
0.10153 0.14715 -0.33505
-0.09409 0.14715 -0.33430
-0.12360 0.14715 -0.34491
0.02454 0.14715 -0.35454
0.24961 0.15936 0.21073
0.24961 0.18130 -0.06383
0.24961 0.20477 -0.09514
0.24961 0.19953 -0.20670
0.24961 0.20062 0.00463
0.24961 0.17182 0.13206
0.24961 0.16692 0.18205
0.24961 0.17863 -0.00356
0.24961 0.17888 0.07584
0.24961 0.20268 0.26605
0.24961 0.17443 0.14665
0.24961 0.16438 0.16150
0.24961 0.19446 -0.05769
0.24961 0.15155 0.34546
0.24961 0.18123 0.24931
0.24961 0.16839 0.37537
0.24961 0.18926 -0.04011
0.24961 0.18748 0.22289
0.24961 0.17849 0.27848
0.24961 0.19789 0.09602
0.24961 0.18344 0.18857
0.24961 0.19840 -0.00817
0.24961 0.17758 0.29266
0.24961 0.15775 0.33513
0.24961 0.17991 0.08189
0.24961 0.20488 0.11004
0.24961 0.19952 -0.28767
0.24961 0.16455 0.33478
0.24961 0.19020 0.14794
-0.19768 -0.20383 -0.36919
0.19911 0.20867 -0.11141
0.19911 0.20985 -0.24235
0.19911 0.20753 -0.02782
0.21790 -0.18578 -0.30558
0.24297 -0.20814 -0.30558
0.20929 -0.13824 -0.30558
0.18360 -0.09900 -0.30558
0.18313 -0.11770 -0.30558
0.22684 -0.14855 -0.30558
0.22852 -0.13317 -0.30558
0.19733 -0.20174 -0.30558
0.18376 0.00021 -0.30558
0.20275 -0.15674 -0.30558
0.18657 -0.04556 -0.30558
0.22249 -0.13211 -0.30558
0.19687 0.04679 -0.30558
0.19870 -0.16547 -0.30558
0.18435 0.10361 -0.30558
0.20574 -0.02548 -0.30558
-0.22129 -0.03949 -0.34002
-0.20770 -0.17625 -0.34002
-0.24561 -0.10618 -0.34002
-0.21247 -0.18760 -0.34002
-0.24434 -0.16401 -0.34002
-0.20949 -0.11702 -0.34002
-0.19293 -0.17652 -0.34002
-0.22249 -0.08148 -0.34002
-0.24138 -0.08592 -0.34002
-0.22662 -0.14092 -0.34002
-0.23004 0.03414 -0.34002
-0.22691 -0.08501 -0.34002
-0.23064 0.02845 -0.34002
0.20092 -0.12341 0.34343
0.20092 -0.02985 0.35571
0.20092 0.00579 0.34197
0.20092 0.06047 0.34569
0.20092 0.07885 0.34283
0.20092 0.06801 0.35837
0.20092 0.10487 0.35805
0.09138 0.20601 -0.34675
-0.10409 0.20601 -0.33350
0.00022 0.20601 -0.34393
0.12244 0.20601 -0.32855
0.19870 0.20601 -0.34192
0.01737 0.20601 -0.33323
-0.13139 0.20601 -0.32804
-0.03177 0.20601 -0.34335
0.14597 0.20601 -0.34730
0.07537 0.20601 -0.32910
-0.02305 0.20601 -0.33142
-0.24873 0.20601 0.34665
-0.20983 0.20601 0.30387
-0.24669 0.20601 -0.11954
-0.19831 0.20601 0.25512
-0.22032 0.20601 0.29209
-0.23425 0.20601 0.21548
-0.23155 0.20601 -0.07465
-0.24210 0.20601 0.13850
-0.23955 0.20601 0.07636
-0.23963 0.20601 0.26908
-0.20739 0.20601 0.31818
-0.24182 0.20601 0.14583
-0.21490 0.20601 0.10396
-0.21735 0.20601 0.02123
-0.20928 0.20601 0.24070
-0.23501 0.20601 -0.18063
-0.24359 0.20601 -0.20050
-0.24774 0.20601 -0.16852
-0.21813 0.20601 0.05619
-0.24680 0.20601 0.31063
-0.22382 0.20601 0.10490
-0.23035 0.20601 -0.08270
-0.23402 0.20601 0.04706
-0.24230 0.20601 0.24334
-0.22835 0.20601 0.04072
-0.22103 0.20601 0.08167
0.04654 0.20601 0.35245
0.08112 0.20601 0.33097
0.16976 0.20601 0.37478
0.04639 0.20601 0.33492
0.08574 0.20601 0.36786
0.21278 0.20601 0.33483
0.01029 0.20601 0.34819
0.09388 0.20601 0.35079
0.06312 0.20601 0.36295
0.00823 0.20601 0.34142
-0.07239 0.20601 0.35936
-0.02864 0.20601 0.34019
-0.11926 0.20601 0.36229
0.09579 0.20601 0.36069
0.17878 0.20601 0.32702
0.13642 0.20601 0.31947
0.15002 0.20601 0.32224
-0.03729 0.20601 0.34348
0.18100 0.20601 0.35717
-0.02303 0.20601 0.36264
-0.14901 0.20601 0.37203
-0.07869 0.20601 0.37416
0.13691 0.20601 0.34491
0.06354 0.21057 -0.32703
-0.21726 0.13492 -0.37240
-0.23445 0.18715 -0.37240
-0.21469 0.09892 -0.37240
-0.23484 0.02189 -0.37240
-0.24512 0.03350 -0.37240
-0.24101 -0.13049 -0.37240
-0.22231 0.00588 -0.37240
-0.22342 0.08567 -0.37240
-0.20112 0.07830 -0.37240
-0.21022 0.06596 -0.37240
-0.22252 0.03158 -0.37240
-0.22227 -0.02439 -0.37240
-0.21270 0.00707 -0.37240
0.24036 -0.21255 -0.37627
0.22945 -0.21255 -0.32818
0.19900 -0.21255 -0.36307
0.22718 0.14715 -0.30794
0.18025 0.14715 -0.32630
0.19753 0.14715 -0.35245
0.17985 0.00861 -0.36530
0.17985 -0.13177 -0.36508
0.17985 -0.01382 -0.35175
0.17985 0.07362 -0.32666
0.17985 0.09508 -0.34756
0.17985 0.08139 -0.37340
0.17985 0.07478 -0.35060
0.17985 0.08190 -0.35931
0.17985 0.10645 -0.33149
0.17985 0.05055 -0.35804
0.17985 0.07516 -0.33242
0.17985 -0.12336 -0.37410
0.17985 0.11049 -0.34307
0.17985 0.06456 -0.36666
0.17985 0.09256 -0.36826
0.17985 -0.19540 -0.37727
0.10892 0.21064 -0.32703
-0.24459 0.16841 0.37752
0.23647 -0.05830 0.34046
0.24195 -0.02799 0.34046
0.23625 -0.03019 0.34046
0.23150 -0.17910 0.34046
0.22663 -0.05209 0.34046
0.22473 -0.13540 0.34046
0.23751 -0.13847 0.34046
0.22828 -0.06473 0.34046
0.24834 0.04216 0.34046
0.22234 -0.17185 0.34046
0.07242 0.14715 0.37391
0.13761 0.14715 0.37505
0.03875 0.14715 0.37384
-0.18524 0.14715 0.36507
-0.16991 0.14715 0.34811
-0.02163 0.14715 0.37740
-0.09105 0.14715 0.36719
-0.04189 0.14715 0.35801
0.20567 -0.05440 0.34046
0.22275 0.02975 0.34046
0.23366 0.08038 0.34046
0.22682 0.02005 0.34046
0.23080 0.09703 0.34046
0.21672 0.07566 0.34046
0.21985 0.11081 0.34046
0.20714 -0.08262 0.34046
0.20557 -0.02625 0.34046
0.20638 0.14715 -0.36311
0.23959 0.14715 -0.35700
0.18935 0.14715 -0.36991
-0.20965 0.20601 0.14077
-0.21282 0.20601 0.27292
-0.23470 0.20601 0.34059
-0.22996 0.20601 -0.03360
-0.23748 0.20601 0.02283
-0.22945 0.20601 0.02807
-0.23628 0.20601 0.05379
-0.20721 0.20601 0.19463
-0.22513 0.20601 0.09270
-0.23209 0.20601 0.08676
-0.22817 0.20601 -0.01716
-0.23130 0.20601 0.20475
-0.24842 0.20601 -0.29823
-0.22550 0.20601 0.19023
-0.22058 0.20601 0.11707
-0.24578 0.20601 -0.24059
-0.23952 0.20601 -0.22117
-0.23478 0.20601 -0.15507
-0.24535 0.20601 0.01105
0.23197 -0.18421 0.37584
0.24368 0.12320 -0.37752
0.18380 0.03546 -0.37752
0.21204 0.11442 -0.37752
0.21538 0.03269 -0.37752
0.21525 -0.02195 -0.37752
0.20122 0.07679 -0.37752
0.18886 -0.08141 -0.37752
0.19152 0.00618 -0.37752
0.18502 0.11236 -0.37752
0.22985 0.13872 -0.37752
0.19705 -0.09911 -0.37752
0.19970 -0.00901 -0.37752
-0.24961 -0.12274 -0.36567
-0.24961 -0.06852 -0.36125
-0.24961 0.15893 -0.35210
-0.24961 0.14838 -0.34216
-0.24961 0.03041 -0.35652
-0.24961 0.16993 -0.36151
-0.24961 0.03575 -0.35349
-0.24961 0.14353 -0.35437
0.23830 0.15827 -0.37240
0.23003 0.18175 -0.37240
0.22644 0.15308 -0.37240
0.24961 -0.14882 0.35257
0.24961 -0.07779 0.34800
0.24961 -0.13378 0.35475
0.24961 -0.17281 0.37514
0.24961 0.11059 0.34232
0.24961 -0.14822 0.34390
0.24961 -0.11819 0.35885
0.24961 -0.07737 -0.35192
0.24961 -0.14445 -0.37111
0.24961 -0.08440 -0.34565
0.24961 -0.19073 -0.34052
0.24961 -0.19635 -0.32439
0.24961 -0.06783 -0.35769
0.24961 -0.20405 -0.36130
0.24961 -0.21090 -0.30691
0.24961 0.08426 -0.36579
0.24961 -0.01739 -0.36408
0.24961 -0.16731 -0.34356
0.24961 -0.14390 -0.34210
0.24961 -0.20254 -0.34027
0.24961 0.07137 -0.36344
0.24961 0.01530 -0.36682
0.24961 0.04965 -0.37063
0.02325 0.14715 0.35397
0.05495 0.14715 0.35020
0.16671 0.14715 0.36172
-0.09049 0.14715 0.34662
0.12515 0.14715 0.34471
0.18915 0.14715 0.36950
0.19675 0.14715 0.36792
0.14104 0.14715 0.36162
-0.01972 0.14715 0.35018
-0.24961 0.00518 -0.35354
-0.24961 -0.05571 -0.36813
-0.24961 -0.11490 -0.36978
-0.24961 -0.04916 -0.36037
-0.24961 -0.00358 -0.37040
-0.24961 -0.13570 -0.37102
-0.24961 0.18389 -0.36859
-0.11185 0.14715 -0.14954
0.11507 0.14715 0.19609
0.19420 0.14715 0.28745
-0.21914 0.14715 -0.29726
0.13834 0.14715 0.19424
0.08021 0.14715 0.13025
-0.00126 0.14715 0.03192
0.17792 0.14715 0.28788
0.01701 0.14715 0.06066
0.09581 0.14715 0.16793
0.12727 0.14715 0.22577
0.09480 0.14715 0.14198
0.19681 0.14715 0.31480
0.11920 0.14715 0.18259
-0.16944 0.14715 -0.23051
0.19801 0.14715 0.28008
0.16345 0.14715 0.25992
-0.10630 0.14715 -0.14232
-0.19713 0.14715 -0.26624
0.06536 0.14715 0.12512
-0.21435 -0.05327 0.37752
-0.21451 0.00815 0.37752
-0.21116 0.03434 0.37752
-0.20668 -0.09427 0.37752
-0.21911 0.05654 0.37752
-0.23848 0.12687 0.37752
-0.20391 -0.12693 0.37752
-0.21820 -0.03726 0.37752
-0.22751 0.11541 0.37752
-0.20717 0.02077 0.37752
-0.19329 0.21131 0.03286
-0.19329 0.21108 -0.03207
-0.13252 0.21255 0.04709
-0.13903 0.21255 0.14283
-0.06892 0.21255 -0.04847
-0.16095 0.21255 0.12248
-0.18409 0.21255 0.14938
-0.12055 0.21255 -0.16989
-0.15350 0.21255 -0.27756
-0.12553 0.21255 0.14696
-0.01082 0.21255 -0.23853
-0.01027 0.21255 -0.26620
-0.12177 0.21255 0.02584
-0.03778 0.21255 -0.23126
0.06477 0.21255 -0.25315
-0.11026 0.21255 -0.27910
-0.05071 0.21255 -0.06186
-0.04797 0.21255 -0.18594
-0.16183 0.21255 0.08513
-0.04953 0.21255 -0.21992
0.15756 0.21255 -0.30995
-0.17136 0.21255 -0.07416
-0.11464 0.21255 0.00350
0.11663 0.21255 -0.29921
-0.15618 0.21255 -0.30024
-0.15069 0.21255 0.10608
-0.01813 0.21255 -0.20482
-0.00102 0.21255 -0.10260
-0.04838 0.21255 0.00123
-0.12490 0.21255 -0.20974
-0.09210 0.21255 0.11229
-0.01721 0.21255 -0.26824
-0.03998 0.21255 -0.26275
-0.14997 0.21255 0.13397
-0.13411 0.21255 -0.23806
-0.12118 0.21255 -0.20441
-0.15511 0.21255 0.12606
-0.16971 0.21255 0.09782
0.15125 0.21255 -0.25552
-0.12064 0.21255 -0.18133
-0.10192 0.21255 -0.10006
-0.03589 0.21255 0.04541
0.08851 0.21255 -0.19146
-0.02650 0.21255 -0.13352
0.06424 0.21255 -0.13603
-0.16242 0.21255 -0.22174
-0.09178 0.21255 0.09620
0.06667 0.21255 -0.20599
-0.11697 0.21255 0.16390
-0.15593 0.21255 0.20244
0.06079 0.21255 -0.11945
-0.09128 0.21255 -0.23066
-0.08401 0.21255 -0.11686
0.01700 0.21255 -0.26391
-0.09236 0.21255 0.08798
-0.16507 0.21255 0.21400
0.08105 0.21255 -0.18083
0.13288 0.21255 -0.30591
-0.10036 0.21255 0.09851
-0.04685 0.21255 -0.26026
-0.05586 0.21255 -0.19823
-0.07654 0.21255 -0.18425
-0.08471 0.21255 -0.13762
-0.00436 0.21255 -0.23099
-0.13300 0.21255 0.10044
-0.13155 0.21255 -0.23208
-0.12271 0.21255 0.18560
-0.09205 0.21255 -0.06334
0.13420 0.21255 -0.32349
-0.13784 0.21255 0.10791
-0.03564 0.21255 0.02500
-0.13875 0.21255 -0.06668
-0.16809 0.21255 -0.12026
-0.05799 0.21255 -0.21904
0.00018 0.21255 -0.17834
-0.14102 0.21255 -0.03853
-0.14968 0.21255 -0.08365
-0.08325 0.21255 0.00930
-0.08131 0.21255 -0.00044
-0.18380 0.21255 -0.22191
-0.08933 0.21255 -0.31370
-0.07387 0.21255 0.04205
-0.10106 0.21255 0.02923
-0.00679 0.21255 -0.05509
-0.03473 0.21255 -0.29531
-0.06851 0.21255 -0.24300
-0.10671 0.21255 -0.16483
0.14056 0.21255 -0.31088
-0.18672 0.21255 -0.12442
-0.11157 0.21255 -0.20622
-0.04969 0.21255 -0.30523
-0.18877 0.21255 0.16282
-0.13359 0.21255 -0.20407
-0.16176 0.21255 0.24317
-0.14317 0.21255 0.02779
0.08938 0.21255 -0.32403
0.09827 0.21255 -0.31130
-0.14999 0.21255 0.06419
-0.01167 0.21255 -0.30582
-0.17807 0.21255 -0.13017
-0.15596 0.21255 -0.22809
0.03377 0.21255 -0.07858
-0.09463 0.21255 -0.31254
0.03655 0.21255 -0.16597
-0.15974 0.21255 -0.20403
-0.06502 0.21255 -0.19086
-0.13166 0.21255 -0.06363
0.03456 0.21255 -0.25892
-0.09912 0.21255 0.06367
0.09450 0.21255 -0.19966
-0.11048 0.21255 -0.28852
0.00254 0.21255 -0.20535
0.03660 0.21255 -0.21084
-0.19165 0.21255 0.06096
-0.05726 0.21255 -0.28994
0.01166 0.21255 -0.28705
-0.10734 0.21255 -0.09537
-0.08283 0.21255 -0.10547
-0.06239 0.21255 -0.02196
-0.18965 0.21255 0.28368
-0.09367 0.21255 -0.09994
-0.02428 0.21255 -0.26246
0.00230 0.21255 -0.03429
-0.05425 0.21255 -0.10926
0.01983 0.21255 -0.19302
-0.05516 0.21255 0.01091
0.02016 0.21255 -0.14333
0.03326 0.21255 -0.10607
-0.00173 0.21255 -0.18428
-0.11320 0.21255 -0.12835
-0.13468 0.21255 -0.04217
-0.13688 0.21255 -0.27175
-0.13395 0.21255 0.14634
0.01378 0.21255 -0.18937
-0.17496 0.21255 0.16748
-0.17146 0.21255 0.19491
-0.07125 0.21255 -0.02883
-0.19258 0.21255 -0.14257
0.01657 0.21255 -0.12013
0.03972 0.21255 -0.28369
-0.00108 0.21255 -0.06637
-0.01053 0.21255 -0.28776
-0.08609 0.21255 0.06016
-0.02022 0.21255 -0.14673
-0.06359 0.21255 -0.21124
-0.14314 0.21255 -0.16119
-0.02992 0.21255 -0.28514
-0.02139 0.21255 -0.00611
0.09274 0.21255 -0.23421
-0.13993 0.21255 -0.11592
-0.08835 0.21255 0.12783
-0.07477 0.21255 -0.25897
0.08864 0.14715 0.13329
0.10321 0.14715 0.15149
0.17327 0.14715 0.27312
0.07267 0.14715 0.12643
-0.21608 0.14715 -0.28949
0.21522 0.14715 0.32217
0.08106 0.14715 0.15354
-0.07934 0.14715 -0.10315
-0.02681 0.14715 -0.02044
0.05691 0.14715 0.11341
0.06969 0.14715 0.13107
0.01640 0.14715 0.02563
0.14470 0.14715 0.21290
0.19826 0.14715 0.27328
0.12996 0.14715 0.20050
0.15613 0.14715 0.23899
0.18451 0.14715 0.26645
-0.23849 -0.20383 -0.35857
-0.24859 -0.20383 -0.34870
-0.24961 0.16152 -0.27103
-0.24961 0.19451 -0.25676
-0.24961 0.18292 -0.00562
-0.24961 0.19243 -0.01704
-0.24961 0.19646 0.09265
-0.24961 0.19983 0.00110
-0.24961 0.19136 0.02457
-0.24961 0.17891 -0.15197
-0.24961 0.20126 -0.23951
-0.24961 0.19084 0.16919
-0.24961 0.18544 -0.06221
-0.24961 0.17924 0.04357
-0.24961 0.19300 0.04220
-0.24961 0.16012 -0.25084
-0.24961 0.19637 -0.03652
-0.24961 0.18292 0.01125
-0.24961 0.18357 -0.09240
-0.24961 0.17165 -0.14346
-0.24961 0.15443 -0.31691
-0.24961 0.16260 -0.16136
-0.24961 0.20079 -0.04071
-0.24961 0.18060 -0.22050
-0.24961 0.18582 0.04038
-0.24961 0.20592 0.29427
-0.24961 0.19862 -0.03060
-0.24961 0.19441 0.15983
-0.24961 0.18986 0.11360
-0.24961 0.16735 -0.20063
-0.20383 0.10380 0.34847
-0.20383 -0.01971 0.34776
-0.20383 -0.15315 0.35023
-0.20383 -0.10350 0.36350
-0.20383 -0.03776 0.35458
-0.20383 -0.07375 0.34494
0.23939 0.14715 -0.29352
0.22841 0.14715 -0.05226
0.23073 0.14715 0.15549
0.21468 0.14715 -0.03420
0.23849 0.14715 0.05091
0.23526 0.14715 -0.28191
0.22299 0.14715 -0.06761
0.23147 0.14715 -0.00346
0.24225 0.14715 -0.13142
0.22484 0.14715 -0.28608
0.24084 0.14715 0.01434
0.20746 0.14715 -0.12940
0.20902 0.14715 -0.24380
0.24147 0.14715 -0.00612
0.23219 0.14715 -0.21577
0.24519 0.14715 -0.02268
0.24077 0.14715 0.12890
0.18755 0.14715 -0.24989
0.23185 0.14715 -0.14565
0.24087 0.14715 0.04356
0.22781 0.14715 0.05119
0.24777 0.14715 0.14753
0.24694 0.14715 0.04764
0.22427 0.14715 -0.26480
0.23949 0.14715 0.02412
0.20490 0.14715 -0.08036
0.22053 0.14715 -0.17620
-0.11100 0.20743 -0.32703
-0.17466 0.21029 -0.32703
0.24961 0.08093 -0.31620
0.24961 -0.01637 -0.32992
0.24961 -0.14030 -0.30614
0.24961 0.07207 -0.31992
0.24961 0.09524 -0.30958
0.24961 0.02577 -0.33297
0.24961 -0.01048 -0.30837
0.24961 0.03232 -0.31579
0.24961 0.11269 -0.36193
0.24961 -0.02644 -0.32709
0.24961 -0.06660 -0.30897
0.24961 0.03438 -0.32201
0.24961 0.07319 -0.32688
0.24961 0.11161 -0.31025
0.24961 -0.15844 -0.30745
-0.21771 -0.20383 -0.37021
0.22543 0.03767 -0.30558
0.21232 -0.00556 -0.30558
0.21397 0.07663 -0.30558
0.19947 0.05229 -0.30558
0.21765 0.06317 -0.30558
0.23723 -0.03321 -0.30558
0.23527 0.00490 -0.30558
0.21668 0.00435 -0.30558
0.21207 0.06266 -0.30558
0.18568 0.14468 -0.30558
0.24321 0.08889 -0.30558
0.21331 0.05551 -0.30558
0.20384 0.11513 -0.30558
0.23744 -0.14482 -0.30558
0.23795 0.08744 -0.30558
-0.20383 -0.02871 0.37700
-0.20383 0.09659 0.37196
-0.20383 -0.01638 0.37155
-0.20383 0.14214 0.37589
-0.20383 0.06282 0.36843
-0.20383 0.13917 0.35095
-0.24961 -0.17100 0.35785
-0.24961 -0.04471 0.37500
-0.24961 -0.04398 0.36747
-0.24961 -0.07793 0.37177
-0.24961 -0.10911 0.36325
-0.24961 -0.10284 0.35871
-0.24961 0.06636 0.37245
0.22942 -0.21255 -0.30711
0.23697 -0.21255 -0.31118
-0.24961 -0.10710 -0.34479
-0.24961 -0.01040 -0.34454
-0.24961 -0.17858 -0.34845
-0.24961 -0.20315 -0.35524
-0.24961 -0.16735 -0.35106
-0.24961 0.11242 -0.34038
-0.24961 -0.17555 -0.36758
-0.10325 0.16809 -0.37240
-0.13374 0.18920 -0.37240
-0.19270 0.17162 -0.37240
0.04021 0.16318 -0.37240
-0.18597 0.19197 -0.37240
-0.20049 0.19416 -0.37240
-0.12049 0.18224 -0.37240
-0.16762 0.15554 -0.37240
-0.03588 0.14723 -0.37240
-0.08525 0.17257 -0.37240
-0.19836 0.16780 -0.37240
-0.03031 0.15106 -0.37240
-0.24104 -0.18809 -0.37240
-0.19314 0.01814 -0.37240
-0.19915 -0.03146 -0.37240
-0.21358 -0.02086 -0.37240
-0.19670 -0.17142 -0.37240
-0.19018 0.02859 -0.37240
-0.21672 -0.11169 -0.37240
-0.20074 0.00538 -0.37240
-0.22804 -0.11884 -0.37240
-0.21041 0.01913 -0.37240
-0.19648 -0.07179 -0.37240
-0.19523 -0.01619 -0.37240
-0.16494 0.14715 -0.33602
-0.03192 0.14715 -0.32487
0.19977 -0.13136 -0.37752
0.21854 -0.05162 -0.37752
0.23700 -0.08278 -0.37752
0.23402 -0.20034 -0.37752
0.20677 -0.09082 -0.37752
0.21269 -0.05819 -0.37752
0.24399 -0.12940 -0.37752
0.22329 -0.12343 -0.37752
0.23113 -0.13926 -0.37752
0.22719 -0.14833 -0.37752
0.24959 -0.09511 -0.37752
0.23217 -0.05336 -0.37752
0.22242 -0.08594 -0.37752
0.24246 -0.03845 -0.37752
-0.24961 0.17436 0.36673
-0.24961 0.14728 0.37154
-0.23677 0.11655 0.37752
-0.20577 0.09680 0.37752
-0.22020 0.02707 0.37752
-0.22143 0.04137 0.37752
-0.22960 0.05260 0.37752
-0.23105 0.03207 0.37752
-0.23144 0.10577 0.37752
-0.23723 0.14483 0.37752
0.16679 0.14715 -0.35487
-0.04260 0.14715 -0.35139
0.11606 0.14715 -0.34536
-0.01873 0.14715 -0.35320
0.08030 0.14715 -0.32896
0.17198 0.14715 -0.30971
0.09505 0.14715 -0.35336
0.16132 0.14715 -0.35021
0.08944 0.14715 -0.34844
0.05033 0.14715 -0.33050
0.11535 0.14715 -0.31191
0.04076 0.14715 -0.35600
0.12071 0.14715 -0.32390
-0.12071 0.14715 -0.33391
0.10585 0.14715 -0.36361
0.16163 0.14715 -0.34334
-0.19329 0.20959 0.11030
-0.24961 -0.12889 -0.36056
-0.24961 -0.11851 -0.36227
-0.24961 -0.20153 -0.36277
-0.24961 -0.03033 -0.35466
-0.00617 0.20601 -0.35319
0.08065 0.20601 -0.35704
0.00755 0.20601 -0.35578
-0.11806 0.20601 -0.33746
-0.17570 0.20601 -0.34154
-0.17282 0.20601 -0.35787
-0.21794 0.20601 -0.36333
0.20889 0.20601 -0.37217
0.07566 0.20601 -0.36901
-0.14855 0.20601 -0.33745
-0.21258 0.20601 -0.34756
-0.12222 0.20601 -0.35116
-0.20200 0.20601 -0.36171
-0.19354 0.20601 -0.36756
-0.12805 0.20601 -0.36086
0.22801 -0.02204 0.34046
0.21439 -0.15653 0.34046
0.22123 -0.06701 0.34046
0.23848 0.05642 0.34046
0.21391 -0.11025 0.34046
0.24926 -0.17811 0.34046
0.20889 -0.16543 0.34046
0.23527 -0.17468 0.34046
0.18717 -0.09770 -0.37752
0.17992 0.00161 -0.37752
0.21807 0.00556 -0.37752
0.22751 0.11565 -0.37752
0.19438 0.12683 -0.37752
0.18691 0.01276 -0.37752
0.22051 0.08405 -0.37752
0.21062 0.06449 -0.37752
0.19700 0.13265 -0.37752
0.18897 0.10863 -0.37752
0.19004 -0.11336 -0.37752
0.19609 0.03618 -0.37752
0.16766 0.20601 -0.34866
0.20706 0.20601 -0.36304
0.20757 0.20601 -0.34174
0.07766 0.20601 -0.34468
0.21967 0.20601 -0.36477
-0.06221 0.20601 -0.33060
0.19070 0.20601 -0.35846
0.06070 0.20601 -0.34589
0.05315 0.20601 -0.32894
0.17208 0.20601 -0.34020
-0.20383 0.09392 0.35054
-0.20383 0.08254 0.35425
-0.20383 0.11726 0.37471
-0.20383 -0.11610 0.37361
0.24961 -0.00138 0.34844
0.24961 0.10364 0.34385
0.24961 -0.09896 0.36457
0.24961 -0.12978 0.34455
0.24961 -0.05549 0.35141
0.24961 -0.06267 0.36367
-0.17616 0.14715 -0.36877
-0.14772 0.14715 -0.34445
-0.00034 0.14715 -0.36019
-0.04308 0.14715 -0.36106
-0.05047 0.14715 -0.35694
-0.09226 0.14715 -0.36037
-0.13487 0.14715 -0.35131
0.24961 -0.05210 0.36315
0.24961 -0.06740 0.36667
0.24961 0.11902 0.34826
0.24961 0.02641 0.36224
0.24961 -0.01331 0.36577
0.24961 0.02783 0.37637
0.24961 0.11669 0.36823
0.24961 0.13889 0.36103
0.02149 0.20860 0.30080
-0.22417 -0.19511 0.34619
-0.24961 0.15374 -0.28253
-0.24961 0.18966 -0.10005
-0.24961 0.16975 -0.34373
-0.24961 0.19392 0.01679
-0.24961 0.19840 0.17206
-0.24961 0.17203 -0.27842
-0.24961 0.17106 -0.12130
-0.24961 0.17071 -0.26494
-0.24961 0.18591 -0.22134
-0.24961 0.19415 -0.08966
-0.24961 0.16802 -0.33261
-0.24961 0.20103 0.12076
-0.24961 0.17567 -0.24567
-0.24961 0.18477 -0.35654
-0.24961 0.19717 0.02521
-0.24961 0.18627 -0.20442
-0.24961 0.19937 -0.11046
-0.24961 0.20462 0.17732
-0.24961 0.20577 -0.15609
-0.24961 0.17401 -0.14847
-0.24961 0.18779 -0.11781
-0.24961 0.15385 -0.32352
-0.24961 0.17449 -0.04665
-0.24961 0.18872 -0.33256
-0.24961 0.16386 -0.14286
-0.22747 0.16563 0.37752
-0.05802 0.18320 0.37752
-0.17419 0.19680 0.37752
0.20144 0.20601 -0.09057
0.24552 0.20601 -0.34851
0.21022 0.20601 0.02436
0.21218 0.20601 -0.16814
0.20204 0.20601 -0.30957
0.22915 0.20601 -0.16701
0.23056 0.20601 -0.25690
0.21808 0.20601 -0.19500
0.20649 0.20601 -0.05191
0.21170 0.20601 -0.06047
0.21759 0.20601 -0.15714
0.22838 0.20601 -0.11228
0.23416 0.20601 -0.28913
0.22389 0.20601 -0.27608
0.23765 0.20601 -0.28383
0.20138 0.20601 -0.23531
0.20251 0.20601 0.14263
0.22110 0.20601 -0.13431
-0.15443 0.20601 -0.34428
0.05589 0.20601 -0.35751
-0.09006 0.20601 -0.35545
0.17262 0.20601 -0.36977
-0.09889 0.20601 -0.34168
-0.18909 0.20601 -0.34107
-0.23661 0.20601 -0.37052
0.18688 0.20601 -0.36994
-0.00009 0.20601 -0.36368
0.24220 -0.11560 0.37752
0.23133 0.06392 0.37752
0.24656 -0.08707 0.37752
0.24111 0.13551 0.37752
0.24949 -0.02008 0.37752
0.23170 0.01087 0.37752
0.23733 0.09890 0.37752
0.24407 -0.00377 0.37752
0.23617 -0.05918 0.37752
0.24961 0.17108 -0.33309
0.24961 0.17150 -0.35779
-0.23687 0.04290 -0.34002
-0.23405 -0.17605 -0.34002
-0.23961 -0.10852 -0.34002
-0.23417 -0.08936 -0.34002
-0.22686 -0.05900 -0.34002
-0.23790 -0.07121 -0.34002
-0.23151 -0.15011 -0.34002
-0.24394 -0.03482 -0.34002
-0.18978 -0.19958 -0.34002
-0.22646 -0.15670 -0.34002
-0.24337 -0.13121 -0.34002
-0.22937 -0.00863 -0.34002
-0.22633 -0.01410 -0.34002
-0.23084 0.00914 -0.34002
-0.19329 0.21145 0.18299
-0.19329 0.21047 -0.31227
-0.19329 0.21011 -0.29732
-0.20358 0.20601 0.01609
-0.22580 0.20601 -0.28294
-0.20378 0.20601 -0.32475
-0.22066 0.20601 -0.21958
-0.19600 0.20601 0.15347
-0.24530 0.20601 -0.33825
-0.19922 0.20601 -0.14643
-0.22052 0.20601 -0.11157
-0.23123 0.20601 -0.26171
-0.19356 0.20601 0.27382
-0.21577 0.20601 -0.23408
-0.21400 0.20601 -0.12908
-0.22382 0.20601 -0.32946
-0.21899 0.20601 -0.05611
-0.22033 0.20601 -0.02327
-0.20226 0.20601 -0.07375
-0.19768 0.20601 -0.12374
-0.20983 0.20601 -0.04713
-0.21215 0.20601 -0.00211
-0.21822 0.20601 -0.27294
-0.19675 0.20601 -0.32928
0.17985 0.00342 -0.31518
0.17985 -0.09405 -0.32223
0.17985 -0.15815 -0.35027
0.17985 0.09993 -0.31263
0.17985 0.07986 -0.30906
0.17985 -0.08235 -0.31567
0.17985 -0.15656 -0.32648
0.17985 -0.12516 -0.35763
0.17985 -0.11516 -0.33261
0.17985 -0.19790 -0.34288
0.17985 -0.10720 -0.30899
0.17985 0.01753 -0.32624
0.17985 -0.18128 -0.33768
0.17985 -0.14600 -0.30744
0.17985 0.00837 -0.32019
0.08879 0.14715 -0.22417
0.02994 0.14715 -0.25456
0.00288 0.14715 -0.23929
0.19799 0.14715 0.03203
0.11224 0.14715 -0.15942
0.19640 0.14715 -0.10008
0.17706 0.14715 -0.22122
-0.05532 0.14715 -0.11197
0.16438 0.14715 -0.20631
-0.00830 0.14715 -0.22312
-0.02166 0.14715 -0.09214
0.18562 0.14715 0.03899
0.13070 0.14715 -0.00957
0.11543 0.14715 -0.29960
0.17942 0.14715 0.00938
0.20172 0.14715 0.04522
0.00408 0.14715 -0.11943
0.20455 0.14715 0.01256
0.02607 0.14715 -0.03219
0.07485 0.14715 -0.10247
0.17650 0.14715 0.21455
0.17245 0.14715 0.06106
0.19592 0.14715 -0.13569
-0.13417 0.14715 -0.29957
0.07595 0.14715 -0.13908
0.15405 0.14715 0.04947
0.17021 0.14715 -0.09133
0.11235 0.14715 -0.28351
0.12037 0.14715 -0.21968
0.15542 0.14715 -0.08769
0.16659 0.14715 -0.08123
-0.00359 0.14715 -0.28280
0.19874 0.14715 0.18314
-0.00749 0.14715 -0.20981
-0.02327 0.14715 -0.06794
0.06276 0.14715 -0.15243
0.04403 0.14715 -0.08671
0.10206 0.14715 -0.05135
-0.03887 0.14715 -0.05338
0.21088 0.14715 0.03374
-0.09124 0.14715 -0.25100
0.00345 0.14715 -0.27622
0.09153 0.14715 -0.23377
0.15083 0.14715 -0.03977
0.22124 0.14715 0.10075
0.17000 0.14715 -0.02048
0.12783 0.14715 0.13256
-0.10089 0.14715 -0.16855
-0.03676 0.14715 -0.15131
-0.08052 0.14715 -0.18231
-0.02889 0.14715 -0.21957
0.09256 0.14715 -0.30856
0.13123 0.14715 0.11353
0.13054 0.14715 0.03514
0.11238 0.14715 -0.14608
-0.00018 0.14715 -0.22243
0.08045 0.14715 0.04356
0.13763 0.14715 0.00039
0.08054 0.14715 -0.09102
-0.03199 0.14715 -0.06623
-0.05871 0.14715 -0.32180
0.15557 0.14715 0.12865
-0.17811 0.14715 -0.30584
0.16388 0.14715 -0.04867
0.07972 0.14715 -0.18704
0.20823 0.14715 0.16948
-0.15021 0.14715 -0.33203
0.11209 0.14715 -0.28933
-0.12598 0.14715 -0.27705
-0.02795 0.14715 -0.16727
0.12773 0.14715 -0.00261
0.02827 0.14715 -0.11229
0.08107 0.14715 -0.11271
-0.15835 0.14715 -0.26970
0.18553 0.14715 0.22875
0.16891 0.14715 -0.13882
-0.04234 0.14715 -0.08424
0.13217 0.14715 0.09407
0.18868 0.14715 0.17897
0.09337 0.14715 0.11751
-0.10929 0.14715 -0.31236
-0.00285 0.14715 -0.25754
0.14826 0.14715 -0.00459
0.09191 0.14715 -0.17935
0.09548 0.14715 -0.06923
0.17306 0.14715 0.13858
0.08638 0.14715 -0.17321
-0.18823 0.14715 -0.33300
0.00959 0.14715 -0.09928
0.09263 0.14715 0.03508
-0.09898 0.14715 -0.27651
0.09140 0.14715 -0.10042
-0.00984 0.14715 -0.09692
-0.01737 0.14715 -0.08347
-0.06864 0.14715 -0.12731
-0.17143 0.14715 -0.25877
0.07583 0.14715 -0.05415
0.03864 0.14715 -0.12461
-0.04901 0.14715 -0.07410
-0.01981 0.14715 -0.26444
0.03103 0.14715 -0.14228
0.18929 0.14715 -0.19418
0.05727 0.14715 -0.11767
0.20291 0.14715 0.09982
0.00854 0.14715 -0.28784
0.17642 0.14715 0.13425
-0.02610 0.14715 -0.22801
-0.01786 0.14715 -0.12223
0.20774 0.14715 0.13759
-0.02832 0.14715 -0.28326
0.04764 0.14715 -0.07890
0.02327 0.14715 -0.06633
0.05128 0.14715 0.05347
-0.14497 0.14715 -0.20930
0.17126 0.14715 -0.22886
-0.00154 0.14715 -0.09603
0.17926 0.14715 -0.24918
-0.09364 0.14715 -0.31295
0.17086 0.14715 -0.28785
0.06186 0.14715 -0.04012
0.07628 0.14715 -0.16367
0.15400 0.14715 0.02427
-0.00931 0.14715 -0.31249
-0.00215 0.14715 -0.29367
-0.07445 0.14715 -0.11904
-0.01286 0.14715 -0.27157
0.16668 0.14715 0.17523
0.01484 0.14715 -0.22592
-0.01766 0.14715 -0.05733
0.06557 0.14715 -0.02660
0.21121 0.14715 0.28563
0.13397 0.14715 -0.26554
0.18189 0.14715 -0.20939
0.12191 0.14715 -0.25565
-0.02178 0.14715 -0.11517
0.21246 0.14715 0.10497
-0.10147 0.14715 -0.26369
0.14588 0.14715 -0.00956
0.10528 0.14715 0.11232
-0.22843 0.14715 -0.32742
0.04457 0.14715 0.00961
0.13596 0.14715 -0.15230
0.02305 0.14715 -0.14129
0.03088 0.14715 -0.11798
0.16597 0.14715 0.02141
-0.03061 0.14715 -0.23784
0.14557 0.14715 0.10622
-0.05753 0.14715 -0.26022
0.21407 0.14715 0.15638
0.06652 0.14715 -0.30042
0.05203 0.14715 -0.28034
0.05414 0.14715 -0.27060
-0.19512 0.14715 -0.32491
0.00584 0.14715 -0.07328
-0.05978 0.14715 -0.08773
0.18609 0.14715 -0.01151
0.00584 0.14715 -0.01244
0.18729 0.14715 -0.11065
0.10249 0.14715 0.10164
0.21800 0.14715 0.29434
0.06755 0.14715 -0.22300
0.13124 0.14715 -0.04530
-0.06238 0.14715 -0.25377
-0.19329 0.20915 0.04986
-0.19329 0.20809 -0.06501
-0.19329 0.20606 0.16643
-0.24961 -0.12568 0.36725
-0.24961 -0.13147 0.37578
-0.24961 -0.19081 0.36608
-0.24961 -0.04287 0.36104
-0.24961 0.00607 0.37551
-0.24961 -0.13677 0.35815
0.20505 -0.21255 -0.37458
0.24049 -0.21255 -0.33551
0.22055 -0.21255 -0.34018
0.12651 0.14715 0.29567
0.05308 0.14715 0.16554
-0.10557 0.14715 0.24774
-0.14992 0.14715 0.05554
-0.18915 0.14715 -0.21978
-0.04644 0.14715 -0.00740
-0.12647 0.14715 0.07100
-0.20645 0.14715 0.29792
0.15420 0.14715 0.30294
-0.22983 0.14715 -0.11147
-0.16236 0.14715 -0.09484
-0.20021 0.14715 -0.22190
-0.11625 0.14715 0.19920
-0.09207 0.14715 0.08278
-0.02452 0.14715 0.24696
-0.21608 0.14715 -0.21309
-0.21989 0.14715 -0.15804
0.14416 0.14715 0.27714
-0.16056 0.14715 -0.00890
-0.20210 0.14715 0.20208
-0.05151 0.14715 0.22378
-0.18696 0.14715 -0.20092
0.03540 0.14715 0.10106
-0.17556 0.14715 0.28099
0.04884 0.14715 0.31170
-0.18046 0.14715 -0.05527
-0.22713 0.14715 -0.29782
-0.16711 0.14715 0.30229
-0.04278 0.14715 0.02285
-0.08337 0.14715 -0.05930
-0.18556 0.14715 0.00343
-0.18890 0.14715 0.33342
-0.05235 0.14715 0.19145
-0.18558 0.14715 0.06689
-0.15559 0.14715 -0.04426
-0.19860 0.14715 0.32348
-0.03641 0.14715 0.31806
0.04904 0.14715 0.26842
0.01466 0.14715 0.14155
-0.09698 0.14715 0.22806
-0.10587 0.14715 -0.06773
-0.22425 0.14715 -0.12405
-0.18415 0.14715 -0.07868
-0.15766 0.14715 0.25088
-0.04173 0.14715 -0.01596
0.00119 0.14715 0.11854
0.08534 0.14715 0.27556
-0.02309 0.14715 0.20091
-0.21247 0.14715 -0.27513
-0.17713 0.14715 -0.10011
0.05543 0.14715 0.33093
-0.13245 0.14715 0.08693
-0.00662 0.14715 0.18526
-0.09505 0.14715 0.02388
-0.07212 0.14715 -0.00401
-0.01291 0.14715 0.01952
-0.21310 0.14715 0.11232
-0.11941 0.14715 0.21267
-0.13586 0.14715 0.02897
-0.11417 0.14715 0.23092
-0.07894 0.14715 -0.04639
-0.07348 0.14715 0.20932
-0.12609 0.14715 0.32272
-0.01703 0.14715 0.11341
-0.03972 0.14715 0.28604
-0.19373 0.14715 -0.16224
-0.10678 0.14715 0.06260
-0.13124 0.14715 -0.02127
0.00189 0.14715 0.31402
0.07721 0.14715 0.20659
-0.11152 0.14715 0.02668
0.02609 0.14715 0.33149
-0.12234 0.14715 0.07459
-0.20366 0.14715 0.15315
0.02424 0.14715 0.12541
-0.14791 0.14715 0.18269
-0.08163 0.14715 0.07655
-0.00115 0.14715 0.22813
0.07298 0.14715 0.27876
-0.11890 0.14715 -0.10129
-0.13953 0.14715 0.18158
-0.21872 0.14715 -0.14728
0.08878 0.14715 0.30604
0.06273 0.14715 0.16456
-0.05916 0.14715 -0.04942
-0.18760 0.14715 0.01638
-0.15213 0.14715 -0.06539
-0.17092 0.14715 -0.02767
-0.05378 0.14715 0.08056
-0.00363 0.14715 0.19887
0.06538 0.14715 0.20203
0.08929 0.14715 0.25038
-0.10734 0.14715 0.17313
0.00516 0.14715 0.25326
-0.08971 0.14715 0.22792
0.16101 0.14715 0.31734
0.07657 0.14715 0.32838
-0.08811 0.14715 0.02752
-0.16289 0.14715 -0.16489
-0.16850 0.14715 0.34103
-0.14463 0.14715 0.27948
0.13839 0.14715 0.30034
-0.14916 0.14715 0.08209
-0.03784 0.14715 0.27134
0.16035 0.14715 0.33427
-0.16689 0.14715 -0.12834
-0.08915 0.14715 0.11468
-0.19873 0.14715 0.31721
-0.09156 0.14715 0.25436
-0.24024 0.14715 -0.25237
-0.10944 0.14715 0.14742
-0.17673 0.14715 -0.20198
-0.19502 0.14715 -0.17011
0.06429 0.14715 0.29416
-0.13070 0.14715 -0.12323
-0.04494 0.14715 0.17586
0.10889 0.14715 0.23592
-0.00730 0.14715 0.11402
-0.00637 0.14715 0.20850
-0.01346 0.14715 0.29123
-0.15238 0.14715 0.04324
-0.07258 0.14715 0.15662
-0.01426 0.14715 0.30405
-0.17427 0.14715 -0.15685
-0.10971 0.14715 0.04523
-0.15212 0.14715 0.33147
0.01172 0.14715 0.07570
0.04371 0.14715 0.13587
0.07674 0.14715 0.28727
-0.03220 0.14715 0.26049
-0.08379 0.14715 0.31892
-0.24020 0.14715 -0.22482
-0.11711 0.14715 0.27182
0.15979 0.14715 0.30016
-0.20055 0.14715 -0.02086
-0.22370 0.14715 0.01078
-0.05166 0.14715 -0.03561
-0.16795 0.14715 0.19692
-0.00584 0.14715 0.16356
-0.05947 0.14715 0.34120
0.15658 0.14715 0.31405
-0.20410 0.14715 -0.05418
-0.19358 0.14715 0.01001
-0.18513 0.14715 0.32283
-0.02783 0.14715 0.02509
-0.15234 0.14715 0.25313
-0.15737 0.14715 0.03386
-0.06676 0.14715 -0.03854
0.05077 0.14715 0.17154
-0.10113 0.14715 0.03507
-0.05698 0.14715 0.20546
-0.17004 0.14715 0.22117
-0.17929 0.14715 -0.03517
-0.08896 0.14715 0.05806
-0.16631 0.14715 -0.17264
-0.15194 0.14715 0.12540
-0.19161 0.14715 0.07654
-0.00459 0.14715 0.28537
-0.10116 0.14715 0.05681
0.18030 0.14715 0.31771
-0.20009 0.14715 -0.03946
-0.18255 0.14715 0.08637
-0.23173 0.14715 -0.20986
0.02724 0.14715 0.30677
0.16068 0.19377 -0.37240
0.17919 0.15858 -0.37240
0.17657 0.19153 -0.37240
0.08170 0.16188 -0.37240
0.00954 0.19980 -0.37240
-0.16524 0.19867 -0.37240
0.17489 0.19901 -0.37240
0.13824 0.15605 -0.37240
0.09411 0.17452 -0.37240
0.13349 0.18562 -0.37240
-0.17547 0.19875 -0.37240
0.03451 0.19351 -0.37240
-0.05332 0.19933 -0.37240
0.15973 0.20032 -0.37240
0.11706 0.19080 -0.37240
0.17207 0.16247 -0.37240
0.24961 0.13921 0.37333
0.24961 0.02431 0.35723
0.24961 -0.06078 0.37029
0.24961 -0.12207 0.37166
0.24961 0.12467 0.35628
0.24961 0.06915 0.36058
0.24961 0.05245 0.35750
0.24961 0.16069 0.18619
0.17985 -0.01858 -0.36645
0.17985 0.03745 -0.34685
0.17985 0.08188 -0.33665
0.17985 0.01981 -0.37431
0.17985 -0.02644 -0.36857
0.17985 0.08970 -0.34376
0.17985 -0.02659 -0.36239
0.17985 -0.00217 -0.34995
0.17985 -0.20299 -0.37693
0.17985 0.04568 -0.36619
0.17985 0.11549 -0.35402
0.17985 -0.05487 -0.35198
0.17985 -0.04763 -0.34769
0.17985 -0.11229 -0.35752
0.22663 -0.12691 -0.30558
0.18443 0.00641 -0.30558
0.21418 -0.10551 -0.30558
0.23219 -0.16948 -0.30558
0.19997 -0.05513 -0.30558
0.21167 -0.02398 -0.30558
0.19358 -0.14386 -0.30558
0.19036 0.04634 -0.30558
0.20834 -0.11522 -0.30558
0.18952 0.03067 -0.30558
0.21038 -0.15097 -0.30558
0.18399 0.05558 -0.30558
0.19276 0.07794 -0.30558
0.20030 -0.17957 -0.30558
0.20444 -0.12564 -0.30558
0.22281 -0.01636 0.37752
0.20656 -0.13822 0.37752
0.22108 -0.15178 0.37752
0.20933 -0.09480 0.37752
0.21092 -0.11600 0.37752
0.24377 -0.15195 0.37752
0.22545 -0.07908 0.37752
0.23828 -0.14948 0.37752
0.24415 -0.17897 0.37752
0.21818 -0.06843 0.37752
0.24961 0.19388 0.06590
0.24961 0.19746 -0.24847
0.24961 0.20397 -0.26638
0.24961 0.17272 0.30375
0.24961 0.18289 0.25986
0.24961 0.19386 0.02520
0.24961 0.18699 0.13950
0.24961 0.19581 -0.02103
0.24961 0.17799 0.18596
0.24961 0.17733 0.34696
0.24961 0.16906 0.26528
0.24961 0.20569 0.21822
0.24961 0.18645 0.29315
0.24961 0.19672 0.15780
0.24961 0.17652 0.04359
0.24961 0.18936 0.15674
0.24961 0.19467 0.05278
0.24961 0.20306 0.28296
0.24961 0.20072 -0.04250
0.24961 0.20157 -0.15487
0.24961 0.20016 0.18316
0.24961 0.20504 0.37523
0.13868 0.20614 -0.32703
0.20641 -0.18421 0.37039
-0.24300 0.15519 -0.37240
-0.23182 0.00581 -0.37240
-0.23368 0.05239 -0.37240
-0.24934 0.17750 -0.37240
-0.22094 0.06919 -0.37240
-0.24242 0.01204 -0.37240
-0.23517 -0.10784 -0.37240
-0.24778 -0.01117 -0.37240
-0.23203 0.17144 -0.37240
-0.23519 0.15329 -0.37240
-0.24025 0.03686 -0.37240
-0.22901 0.03961 -0.37240
-0.21597 0.02161 -0.37240
-0.24117 -0.13864 -0.37240
-0.18810 -0.16798 -0.37020
-0.18810 -0.11216 -0.35345
-0.18810 0.01390 -0.36562
-0.18810 0.04245 -0.36894
-0.18810 0.07333 -0.36979
-0.18810 -0.15199 -0.36303
0.20477 0.20601 0.17822
0.21429 0.20601 -0.31573
0.22720 0.20601 -0.12172
0.21636 0.20601 -0.32871
0.21231 0.20601 -0.21589
0.22509 0.20601 -0.08867
0.21734 0.20601 -0.07365
0.20851 0.20601 0.05636
0.22006 0.20601 -0.20355
0.20214 0.20601 -0.08200
0.21756 0.20601 0.00602
0.20058 0.20601 -0.04246
0.23296 0.20601 -0.33883
0.21797 0.20601 0.04618
0.20407 0.20601 0.14981
0.21703 0.20601 -0.12560
0.24961 -0.20367 -0.30950
0.24961 -0.02395 -0.34465
0.24961 -0.08874 -0.35165
0.24961 -0.13763 -0.32867
0.24961 -0.05858 -0.37503
0.24961 -0.18389 -0.37746
0.24961 0.08679 -0.37641
0.24961 -0.14915 -0.34629
0.24961 -0.15942 -0.32685
0.24961 -0.15626 -0.34830
0.24961 -0.17211 -0.35406
0.24961 -0.10834 -0.33958
0.24961 -0.05767 -0.34880
0.24961 -0.07014 -0.36411
0.24961 -0.20246 -0.37047
0.01174 0.14715 -0.36810
-0.18163 0.14715 -0.35692
-0.03375 0.14715 -0.36023
-0.11117 0.14715 -0.35101
0.06902 0.14715 -0.36375
0.15648 0.14715 -0.37063
-0.02216 0.14715 -0.35996
-0.05275 0.14715 -0.36331
0.24434 -0.18421 0.34387
-0.22983 -0.19511 0.35181
-0.20383 -0.00877 0.35807
-0.20383 -0.13142 0.34887
-0.20383 -0.17141 0.36211
-0.20383 -0.06782 0.36031
-0.20383 -0.13702 0.36945
-0.20383 -0.03033 0.34492
0.20365 -0.21255 -0.30936
0.18938 -0.21255 -0.33300
0.20194 -0.21255 -0.33528
-0.24961 0.15649 -0.21047
-0.24961 0.16067 0.13921
-0.24961 0.16491 -0.06306
-0.24961 0.15801 -0.01795
-0.24961 0.16646 0.06913
-0.24961 0.17325 0.13001
-0.24961 0.16234 -0.03018
-0.24961 0.14826 -0.01307
-0.24961 0.18232 0.33884
-0.24961 0.15938 -0.14912
-0.24961 0.15191 -0.24817
-0.24961 0.16060 -0.04842
-0.24961 0.17381 0.20599
-0.24961 0.15105 0.02813
-0.24961 0.17692 0.21985
-0.24961 0.15152 -0.08290
-0.24961 0.15004 0.06650
-0.24961 0.16157 0.25286
-0.24961 0.14996 0.20846
-0.24961 0.15449 0.15382
-0.24961 0.15099 -0.22530
-0.24961 0.17161 0.01278
-0.24961 0.16333 0.08079
-0.24961 0.18291 0.35435
0.19712 0.19331 0.37752
0.14378 0.18683 0.37752
-0.16085 0.19729 0.37752
0.18108 0.18512 0.37752
0.05664 0.18389 0.37752
-0.02841 0.20438 0.37752
0.20937 0.17579 0.37752
0.19364 0.20516 0.37752
0.22510 0.17260 0.37752
0.12082 0.18985 0.37752
0.08854 0.17014 0.37752
-0.03432 0.18681 0.37752
0.03106 0.17800 0.37752
0.15655 0.17725 0.37752
0.06485 0.17408 0.37752
0.04566 0.19359 0.37752
0.15562 0.20122 0.37752
-0.00689 0.18688 0.37752
0.19911 0.20813 0.01867
0.19911 0.21129 -0.28683
0.20092 -0.17749 0.36509
0.20092 -0.06474 0.36679
0.20092 -0.03124 0.36284
0.20092 -0.07917 0.35438
0.20092 -0.01336 0.37168
0.20092 -0.11203 0.34861
0.20092 0.11356 0.37578
0.24176 0.20601 0.19102
0.23479 0.20601 0.25985
0.24525 0.20601 0.25813
0.20627 0.20601 0.29824
0.23223 0.20601 0.26808
0.21940 0.20601 0.29250
0.24821 0.20601 0.05352
0.22986 0.20601 0.03925
0.24826 0.20601 0.03862
0.22824 0.20601 0.05294
0.24302 0.20601 0.07411
0.24856 0.20601 0.31671
0.22063 0.20601 0.32527
0.24936 0.20601 -0.08775
0.24811 0.20601 -0.04931
0.22725 0.20601 0.07172
0.22660 0.20601 0.18505
0.23189 0.20601 0.08032
0.24073 0.20601 0.34827
0.21638 0.20601 0.07208
0.23592 0.20601 0.18338
0.24892 0.20601 0.22985
0.23771 0.20601 0.02760
0.22962 0.20601 -0.02552
-0.24961 0.09278 0.34538
-0.24961 -0.09009 0.34623
-0.24961 0.13195 0.36281
-0.24961 -0.10980 0.34667
-0.24961 0.11035 0.35439
-0.24961 -0.03803 0.34573
-0.24961 0.07152 0.36154
0.24961 -0.13646 -0.31666
0.24961 -0.06624 -0.32222
0.24961 0.11698 -0.33496
0.24961 -0.07943 -0.31280
0.24961 0.00743 -0.33227
0.24961 -0.01137 -0.32414
0.24961 0.10228 -0.34383
0.24961 -0.08452 -0.32235
0.24961 0.12125 -0.32422
0.24961 -0.01619 -0.34311
0.24961 0.14032 -0.34765
0.24961 -0.00209 -0.31517
0.24961 0.09259 -0.33180
0.24961 -0.01099 -0.31424
0.24961 -0.03532 -0.31998
0.24961 0.06333 -0.34004
0.07285 0.15212 0.37752
-0.05023 0.15275 0.37752
-0.06976 0.16484 0.37752
-0.03992 0.16173 0.37752
-0.16657 0.15793 0.37752
-0.12693 0.15543 0.37752
0.15194 0.15097 0.37752
-0.00463 0.16135 0.37752
0.00485 0.15225 0.37752
-0.13847 0.15088 0.37752
-0.10806 0.16639 0.37752
-0.09205 0.15440 0.37752
-0.18810 0.02767 -0.36204
-0.18810 -0.19750 -0.36962
-0.18810 -0.14768 -0.36649
-0.18810 -0.16774 -0.35494
-0.18810 -0.02087 -0.36766
-0.18810 -0.03228 -0.35749
-0.18810 -0.06818 -0.35945
0.20762 0.01988 -0.30558
0.23553 -0.12827 -0.30558
0.24784 -0.03076 -0.30558
0.22461 0.12560 -0.30558
0.23610 0.11521 -0.30558
0.24508 0.00875 -0.30558
0.24566 -0.07635 -0.30558
0.22786 0.09545 -0.30558
0.24806 -0.14761 -0.30558
0.19287 0.14527 -0.30558
0.22312 0.00969 -0.30558
0.20128 0.14024 -0.30558
0.21920 -0.01760 -0.30558
0.23286 -0.07842 -0.30558
0.20094 0.12936 -0.30558
0.19971 0.14715 0.35151
-0.13275 0.14715 0.34593
-0.08185 0.14715 0.35113
0.08243 0.14715 0.35339
0.14392 0.14715 0.35326
0.14677 0.14715 0.37087
0.01376 0.14715 0.34626
0.20092 -0.09673 0.37534
0.20092 -0.01716 0.37594
0.20092 -0.05793 0.35528
0.20092 -0.05584 0.36450
0.20092 0.10433 0.37635
0.20092 -0.03940 0.37401
0.20092 -0.16186 0.36265
0.20092 -0.07772 0.37040
0.10119 0.21255 -0.28522
-0.00419 0.21255 -0.16685
0.00858 0.21255 -0.10083
-0.14235 0.21255 0.19246
0.11694 0.21255 -0.27950
0.10233 0.21255 -0.17744
-0.09855 0.21255 0.08826
-0.11521 0.21255 -0.29228
0.09126 0.21255 -0.16451
0.11067 0.21255 -0.19167
-0.08608 0.21255 -0.06657
-0.09992 0.21255 0.08093
-0.16014 0.21255 -0.27673
-0.06270 0.21255 -0.12799
-0.15016 0.21255 -0.00451
-0.01996 0.21255 -0.18923
0.10597 0.21255 -0.25617
0.05305 0.21255 -0.24431
-0.16463 0.21255 0.05425
0.14881 0.21255 -0.30229
0.12813 0.21255 -0.26953
-0.13871 0.21255 0.17273
0.07725 0.21255 -0.16756
-0.01196 0.21255 -0.03075
-0.12940 0.21255 0.17344
0.15757 0.21255 -0.27029
0.06526 0.21255 -0.24237
0.02959 0.21255 -0.09748
-0.08338 0.21255 -0.09649
-0.00944 0.21255 -0.21785
0.02398 0.21255 -0.21783
-0.10860 0.21255 -0.00602
-0.02454 0.21255 -0.11434
-0.16137 0.21255 -0.31672
-0.10453 0.21255 -0.02698
-0.12327 0.21255 0.07197
0.08364 0.21255 -0.22156
-0.18371 0.21255 0.01953
-0.10162 0.21255 0.04082
-0.12384 0.21255 0.08903
0.06036 0.21255 -0.19820
0.12912 0.21255 -0.28845
-0.14308 0.21255 -0.31372
0.18420 0.21255 -0.31565
0.08183 0.21255 -0.14240
0.14100 0.21255 -0.27275
-0.02684 0.21255 -0.08540
0.06576 0.21255 -0.29240
-0.06681 0.21255 -0.30928
-0.14807 0.21255 -0.21073
-0.17028 0.21255 -0.28782
-0.05127 0.21255 -0.27794
0.12191 0.21255 -0.26356
0.05294 0.21255 -0.13220
-0.09513 0.21255 -0.28189
-0.05370 0.21255 -0.26924
-0.13091 0.21255 -0.30867
0.07743 0.21255 -0.26226
-0.04153 0.21255 -0.11985
0.01494 0.21255 -0.31519
-0.09006 0.21255 -0.17396
-0.15577 0.21255 -0.16956
0.02164 0.21255 -0.27858
-0.17533 0.21255 0.13348
-0.10110 0.21255 -0.11459
-0.17545 0.21255 -0.25117
-0.05504 0.21255 -0.22587
-0.16821 0.21255 -0.16239
-0.01279 0.21255 -0.17698
-0.18063 0.21255 -0.23236
-0.05656 0.21255 -0.31937
0.06655 0.21255 -0.21321
-0.00817 0.21255 -0.31272
-0.05435 0.21255 -0.16114
0.04004 0.21255 -0.10868
0.00845 0.21255 -0.23437
-0.10071 0.21255 -0.06880
-0.07170 0.21255 -0.08877
-0.18724 0.21255 -0.10739
-0.05476 0.21255 -0.07569
-0.18490 0.21255 -0.30858
0.09194 0.21255 -0.22554
-0.07377 0.21255 -0.27571
0.02848 0.21255 -0.11775
-0.11875 0.21255 0.17582
0.13135 0.21255 -0.22260
0.03230 0.21255 -0.14599
0.01783 0.21255 -0.08086
0.03000 0.21255 -0.22686
-0.00606 0.21255 -0.12036
-0.17836 0.21255 0.08386
0.02526 0.21255 -0.23287
-0.06174 0.21255 -0.26626
-0.11661 0.21255 0.08471
-0.17213 0.21255 0.07669
-0.03429 0.21255 0.03581
-0.13765 0.21255 -0.32368
-0.09841 0.21255 -0.29134
-0.03401 0.21255 -0.03139
-0.03595 0.21255 -0.10889
-0.07757 0.21255 -0.02078
-0.17206 0.21255 -0.18890
-0.12261 0.21255 -0.04140
-0.16779 0.21255 -0.01674
-0.07487 0.21255 -0.21809
-0.12580 0.21255 -0.01732
-0.11221 0.21255 -0.10708
0.03858 0.21255 -0.18156
0.00901 0.21255 -0.17877
-0.02851 0.21255 -0.18439
-0.14319 0.21255 0.06527
-0.16641 0.21255 -0.30281
-0.11095 0.21255 -0.06054
-0.15431 0.21255 -0.31361
-0.14954 0.21255 -0.30916
-0.16163 0.21255 0.20672
-0.16406 0.21255 -0.20995
0.03546 0.21255 -0.24125
0.04721 0.21255 -0.18010
-0.12094 0.21255 -0.07838
0.14047 0.21255 -0.30007
-0.04189 0.21255 -0.14182
-0.08092 0.21255 -0.29302
-0.05840 0.21255 -0.31175
-0.16788 0.21255 0.11225
-0.02032 0.21255 -0.18357
-0.16507 0.21255 0.16141
-0.05918 0.21255 -0.14128
0.04711 0.21255 -0.29395
-0.02779 0.21255 -0.12521
0.06501 0.21255 -0.18298
0.24363 0.05437 -0.37752
0.24216 0.07039 -0.37752
0.23964 0.03996 -0.37752
0.20311 -0.15640 -0.37752
0.24764 -0.01368 -0.37752
0.20815 -0.10096 -0.37752
0.21957 -0.16234 -0.37752
0.21205 -0.19789 -0.37752
0.23967 0.06219 -0.37752
0.24284 -0.01090 -0.37752
0.24721 0.02139 -0.37752
0.22744 0.14715 0.36874
-0.01593 0.14715 -0.32148
0.19911 0.21199 -0.17053
0.19911 0.21076 0.15413
0.19911 0.21239 0.23370
0.16809 0.20601 0.31064
0.10265 0.20601 0.33330
-0.10702 0.20601 0.35686
0.09769 0.20601 0.32292
0.20632 0.20601 0.32649
0.01562 0.20601 0.34893
0.09168 0.20601 0.36712
0.17019 0.20601 0.33458
0.06441 0.20601 0.35734
0.16301 0.20601 0.31550
0.20058 0.20601 0.37423
-0.00632 0.20601 0.33596
0.22643 0.20601 0.36740
0.10172 0.20601 0.35190
0.03011 0.20601 0.34055
-0.04586 0.20601 0.35273
0.12150 0.20601 0.36633
0.00838 0.20601 0.36706
0.13185 0.20601 0.37159
0.22345 0.20601 0.35213
0.23304 0.20601 0.37706
0.17532 0.21003 0.30080
-0.10798 0.21253 0.30080
-0.24575 -0.19511 0.37109
0.22529 -0.18421 0.34531
-0.11627 0.19274 -0.37240
-0.08947 0.20559 -0.37240
0.12599 0.19646 -0.37240
0.21887 0.19516 -0.37240
0.18820 0.18662 -0.37240
0.07115 0.19680 -0.37240
0.08707 0.17018 -0.37240
-0.20536 0.20353 -0.37240
0.05395 0.18985 -0.37240
-0.11527 0.20062 -0.37240
0.19866 0.18621 -0.37240
0.12327 0.16185 -0.37240
0.05866 0.17852 -0.37240
-0.16412 0.14715 0.35055
0.00355 0.14715 0.37407
-0.15026 0.14715 0.37193
0.18643 0.14715 0.37659
-0.14471 0.14715 0.35465
0.16134 0.14715 0.37738
-0.14054 0.14715 0.36505
0.06620 0.14715 0.36664
0.09804 0.21255 0.21956
0.18889 0.21255 0.24054
0.13135 0.21255 -0.20517
-0.04747 0.21255 0.24005
0.16469 0.21255 -0.16416
0.16722 0.21255 0.19120
0.04826 0.21255 0.06293
0.04429 0.21255 0.22290
-0.02563 0.21255 0.19423
0.05766 0.21255 0.04396
0.18733 0.21255 -0.07358
-0.05425 0.21255 0.23417
0.15406 0.21255 0.10374
0.17236 0.21255 0.12138
-0.03340 0.21255 0.29063
0.04552 0.21255 0.24982
0.05264 0.21255 0.08792
-0.02156 0.21255 0.16290
0.10151 0.21255 0.28924
0.02094 0.21255 -0.00174
-0.10062 0.21255 0.19126
0.13378 0.21255 -0.01525
0.08892 0.21255 -0.09470
-0.06091 0.21255 0.25400
0.19132 0.21255 -0.05752
-0.11210 0.21255 0.18761
0.17244 0.21255 0.26756
0.18144 0.21255 0.19198
0.11848 0.21255 0.00065
0.06532 0.21255 -0.03210
0.16107 0.21255 -0.05141
-0.03304 0.21255 0.22667
0.19587 0.21255 -0.13176
-0.05990 0.21255 0.22854
-0.10679 0.21255 0.21331
0.10604 0.21255 0.07160
0.08490 0.21255 0.24533
0.10411 0.21255 -0.01793
0.07968 0.21255 -0.08234
0.06225 0.21255 0.12957
0.17623 0.21255 -0.17101
0.10937 0.21255 0.05945
0.01200 0.21255 -0.01748
-0.00296 0.21255 0.18565
0.04782 0.21255 0.00234
0.12706 0.21255 0.06577
0.11137 0.21255 0.17286
0.10986 0.21255 -0.04079
0.03071 0.21255 0.04601
-0.09741 0.21255 0.23007
0.16625 0.21255 -0.26938
0.01420 0.21255 0.12596
-0.03052 0.21255 0.18658
0.08543 0.21255 0.26464
0.08548 0.21255 -0.06033
0.14676 0.21255 -0.13212
0.16191 0.21255 -0.12675
-0.06085 0.21255 0.27978
-0.09000 0.21255 0.17896
-0.07345 0.21255 0.29720
0.04042 0.21255 0.29222
0.08767 0.21255 0.26999
0.05655 0.21255 0.00105
0.10904 0.21255 -0.12386
0.10153 0.21255 -0.05364
0.16987 0.21255 -0.18644
0.03389 0.21255 0.04058
-0.00126 0.21255 0.21176
0.17342 0.21255 0.04197
0.17891 0.21255 0.00897
0.10676 0.21255 -0.09248
0.17409 0.21255 0.17522
0.14456 0.21255 0.14408
0.05702 0.21255 -0.04391
0.06959 0.21255 -0.06683
0.00935 0.21255 0.22769
0.04040 0.21255 0.20423
0.07717 0.21255 0.27874
0.19684 0.21255 -0.23047
-0.04582 0.21255 0.16331
0.12857 0.21255 0.20874
0.09519 0.21255 -0.01098
0.04142 0.21255 0.25363
-0.01917 0.21255 0.03191
0.15446 0.21255 0.14680
0.06011 0.21255 0.17235
0.11446 0.21255 0.18202
0.12648 0.21255 0.02078
0.02997 0.21255 0.10923
0.13925 0.21255 0.28015
0.17961 0.21255 -0.26968
0.17044 0.21255 0.13817
0.03265 0.21255 0.01053
0.03242 0.21255 0.11524
0.14025 0.21255 0.26886
0.09151 0.21255 -0.11434
0.17885 0.21255 -0.21308
0.11582 0.21255 -0.02599
0.18266 0.21255 -0.06503
0.18939 0.21255 -0.19120
-0.01677 0.21255 0.18608
0.09943 0.21255 0.23376
0.00519 0.21255 0.05948
0.07161 0.21255 0.09413
0.11424 0.21255 -0.18684
0.16472 0.21255 -0.05907
0.16563 0.21255 -0.13944
-0.11120 0.21255 0.16957
-0.09101 0.21255 0.16000
-0.02247 0.21255 0.22356
0.14907 0.21255 -0.00286
-0.10582 0.21255 0.19352
-0.01877 0.21255 0.09895
0.05253 0.21255 0.01608
0.11931 0.21255 -0.06228
0.05815 0.21255 -0.01463
-0.07037 0.21255 0.26681
0.19449 0.21255 -0.24765
-0.07264 0.21255 0.11362
0.19295 0.21255 -0.14808
0.17196 0.21255 0.14778
-0.03033 0.21255 0.20798
0.04756 0.21255 0.02936
0.12819 0.21255 -0.04514
0.17854 0.21255 0.15265
0.05122 0.21255 0.25802
-0.00238 0.21255 0.11725
0.18934 0.21255 0.17755
0.00726 0.21255 0.05390
0.05824 0.21255 0.10689
0.18214 0.21255 0.12292
0.18030 0.21255 -0.25103
0.13036 0.21255 0.26614
0.02381 0.21255 0.18137
0.15521 0.21255 0.22544
0.09625 0.21255 0.06458
0.19570 0.21255 0.05526
0.12194 0.21255 0.00997
-0.04590 0.21255 0.11420
