0.23085 0.19671 0.22127
0.13414 0.19671 -0.23138
-0.09487 0.19671 0.20932
0.01356 0.18360 -0.17306
-0.17478 -0.19671 -0.05093
-0.04444 -0.03513 0.09016
-0.12403 0.18360 -0.02899
-0.09204 0.19671 -0.27963
-0.17406 -0.17955 -0.06585
0.31217 0.18360 -0.02342
-0.07685 -0.18490 0.17332
-0.11931 -0.18360 0.08910
-0.10162 -0.18360 0.09264
-0.05897 0.17164 0.15949
-0.02204 0.19671 -0.22790
0.07237 0.19671 0.10674
0.03799 -0.18360 -0.01753
-0.17077 0.19671 0.05632
-0.19573 0.18360 -0.20757
-0.18134 0.19211 -0.27063
0.08659 0.18360 -0.25957
-0.17210 -0.18360 -0.07683
-0.27514 0.18360 -0.16824
0.02127 0.19671 0.00823
-0.13226 0.18360 -0.26180
-0.12477 -0.18360 -0.05316
-0.11991 -0.18360 0.00258
0.00874 -0.18360 -0.13693
0.08596 -0.18360 -0.03769
0.13795 0.19671 0.27734
-0.01669 0.18360 -0.12083
0.12630 0.19671 0.21859
0.05340 0.19671 0.27461
0.13705 0.18360 0.11011
0.09275 0.18360 0.30786
-0.10200 0.19671 -0.17088
0.22686 0.19671 0.02179
-0.16775 -0.18360 -0.02566
0.20306 0.19671 0.13089
-0.11148 0.18677 0.30664
0.11679 0.18360 -0.14218
0.21144 0.18360 0.14182
0.22238 0.19671 -0.22439
-0.11689 -0.19671 -0.08390
-0.22084 0.19671 0.10834
-0.14938 -0.19671 0.03811
-0.00673 0.19671 -0.07973
-0.02498 0.19671 -0.02161
-0.15257 -0.18360 0.11167
0.14761 0.19671 -0.09587
-0.07270 0.19671 -0.03668
0.22286 0.19671 -0.05854
0.09227 0.18360 0.27675
-0.00846 0.19671 0.08960
-0.00342 0.18360 -0.18994
-0.17903 0.19671 -0.03088
-0.10606 0.19671 0.14345
-0.24936 0.18360 -0.18653
-0.05508 0.18360 0.11377
0.21707 0.18360 0.16699
0.18952 0.18360 0.06377
0.11861 0.19671 0.13443
0.05189 -0.12896 -0.13294
0.09954 -0.07428 0.03413
0.06277 0.14217 -0.13441
-0.00259 0.19671 -0.09521
0.17772 0.19671 -0.01720
-0.28902 0.19671 -0.08834
-0.12090 0.19454 0.29051
-0.09212 0.18360 0.17481
0.17013 0.18360 0.04201
0.00726 0.18360 -0.29332
0.03740 0.07829 -0.10741
-0.04038 0.19671 -0.02346
0.01970 0.18360 0.11885
0.18194 0.18360 -0.22313
-0.11231 0.11407 -0.04582
-0.31070 0.18360 0.05663
-0.07734 0.18360 -0.09213
-0.07830 0.18360 -0.02960
0.22474 0.18360 -0.12078
0.03576 -0.18360 0.09713
0.21018 0.19671 0.10897
-0.11915 -0.18360 0.14695
0.28709 0.18360 -0.03985
0.05084 0.07635 -0.10560
-0.23633 0.18360 -0.01417
0.29705 0.19671 -0.02032
-0.04752 0.19671 -0.12917
0.09034 0.19671 0.21879
-0.20327 0.18360 0.22404
-0.21653 0.18360 -0.07614
-0.00748 0.19671 -0.26148
0.22875 0.19671 0.18452
0.12339 0.18360 0.01191
0.04594 -0.19671 -0.15968
-0.03642 -0.19671 0.13199
-0.07208 0.19671 -0.19678
0.23791 0.19671 -0.12446
0.09751 0.18360 -0.04392
0.16752 0.19671 0.16006
-0.10583 0.19671 0.23518
-0.20596 0.18360 -0.03755
-0.06945 0.19671 0.14247
-0.13214 -0.18478 -0.13448
0.10014 0.05311 0.03438
0.06620 0.19671 0.12290
-0.02122 0.19671 0.29837
0.11005 -0.18360 -0.10590
-0.11103 -0.10970 -0.04257
0.15263 0.18360 -0.02324
0.04664 -0.18360 -0.17151
0.27627 0.18360 -0.08602
0.28128 0.19671 -0.11302
0.25639 0.18360 0.20306
-0.17256 0.19671 0.19636
0.26087 0.19671 0.10437
0.12119 0.19671 0.00853
0.27566 0.18360 0.12566
0.02104 -0.18360 -0.13359
0.06012 0.19671 0.03107
0.02275 -0.19671 -0.17047
-0.22268 0.18360 0.19351
0.23502 0.18360 0.20905
-0.27121 0.19671 0.02064
0.10633 0.18360 0.08871
0.16568 -0.19671 0.05515
-0.11460 0.19671 -0.20447
0.04046 0.18360 -0.10723
-0.06098 0.19671 -0.31928
0.11014 -0.09999 0.03852
0.16033 0.18360 -0.01633
0.09534 0.18360 0.19663
0.10269 0.19671 -0.23512
0.06642 -0.19671 0.00490
0.08061 -0.18360 0.11034
0.17377 0.19671 0.01519
-0.17416 -0.18360 0.02616
0.17173 0.18360 0.02084
-0.13850 0.18360 -0.17303
-0.10347 0.18360 0.01803
0.11199 0.19671 0.26189
0.16252 0.18360 0.24991
-0.05741 -0.19671 0.09711
0.20636 0.18360 0.25108
-0.02734 0.18360 -0.00091
-0.02715 0.18360 -0.15369
-0.15102 -0.17017 -0.06211
0.15108 -0.18360 -0.03889
-0.01503 0.19671 -0.15837
0.10044 0.18360 -0.09472
-0.05142 0.18360 0.18707
-0.15423 -0.18360 0.05059
0.29946 0.19671 -0.04302
0.03974 0.03003 -0.08526
-0.13607 -0.18360 -0.09737
0.22893 0.18704 -0.23075
0.27735 0.19671 -0.04918
0.11230 -0.18360 0.04289
0.04803 -0.19671 -0.11919
0.13015 0.18360 0.02818
-0.31429 0.19050 0.08293
-0.24584 0.18360 -0.18299
0.10562 0.19671 -0.19871
-0.30770 0.19671 -0.09182
-0.11229 -0.18360 0.03257
0.13723 0.19671 0.20236
0.02309 0.19671 0.14852
-0.01995 -0.18360 0.10050
0.08815 0.18360 -0.16863
-0.13084 -0.12376 -0.04942
-0.19323 0.18360 0.13123
-0.00609 -0.19671 0.08775
-0.18210 0.18360 -0.03141
-0.04632 -0.19671 0.08478
0.26364 0.19628 -0.16744
0.29667 0.19671 0.01614
0.04842 -0.18360 -0.07176
0.03695 0.19671 0.12921
0.10929 0.19671 -0.20524
0.07098 0.18360 0.05316
-0.06918 -0.19671 -0.00277
0.03541 0.19671 0.05143
0.29670 0.19671 -0.06947
-0.14200 0.18360 0.08527
0.02046 0.18360 -0.06196
-0.23156 0.19671 0.22042
-0.08809 -0.19671 0.01873
-0.15039 0.18360 0.12262
0.08396 -0.19671 -0.11971
0.16845 0.19671 0.13296
-0.08996 0.19671 -0.28398
0.11550 0.18360 -0.07802
-0.08791 0.18360 -0.12599
-0.05807 0.18360 0.07342
-0.07961 -0.19671 -0.09934
0.13072 -0.18360 -0.12879
-0.19032 0.18360 0.10861
-0.29810 0.18360 -0.09448
0.15918 0.19671 0.22790
-0.09500 -0.19671 -0.13470
0.23425 0.19671 -0.19406
0.04768 0.11892 -0.12865
0.09612 0.18360 -0.13992
0.08666 -0.18360 0.00218
-0.20322 0.18360 0.11310
-0.26629 0.18360 0.01501
-0.23493 0.19671 0.14112
0.23357 0.18360 0.01370
-0.02378 0.19671 0.28998
-0.11343 0.11897 -0.05408
0.13010 -0.14404 0.05311
0.03880 0.19671 0.05671
0.10446 0.19671 0.28365
-0.09822 -0.18360 0.00913
-0.18059 -0.19671 0.04097
0.14840 0.19671 -0.05806
-0.09138 0.02189 -0.03075
-0.17824 -0.19671 0.02025
0.28335 0.19671 -0.06924
0.18839 0.18360 -0.07838
-0.27162 0.18360 -0.04752
0.10155 0.19671 0.05704
-0.03902 0.19671 -0.16392
0.22852 0.18360 0.08284
0.07078 0.19671 0.28887
-0.17201 0.19671 -0.15322
-0.11140 0.18360 0.23457
0.16831 0.17842 0.07672
-0.11080 -0.19671 0.10245
0.02064 0.18360 0.31686
-0.08193 0.18360 -0.27906
0.31660 0.19671 0.04110
-0.07247 0.18360 -0.18798
0.07163 -0.19671 -0.03722
-0.08428 -0.02498 -0.04114
-0.01341 0.18360 0.04586
-0.02618 0.19671 -0.11877
0.08973 0.18360 0.20531
0.01479 -0.19671 -0.04786
-0.09531 0.18360 -0.30167
-0.10521 0.19671 0.19127
-0.06788 0.19671 0.18160
0.14600 0.19671 0.28713
0.16366 0.18360 -0.13929
0.22098 0.19671 -0.07562
-0.11938 0.19671 -0.10008
-0.08888 -0.18360 0.12491
-0.03299 -0.19671 0.16452
0.09805 0.19671 -0.09135
0.16987 0.19671 -0.26736
0.09547 0.19671 -0.19134
-0.01745 -0.19671 -0.03739
0.02558 0.19671 -0.29971
0.13466 0.18360 0.17552
-0.05629 -0.15938 0.15304
-0.04975 0.19671 -0.25467
-0.13862 0.19671 -0.12094
-0.05392 0.19671 -0.17892
0.07598 -0.19671 -0.11313
-0.23986 0.19671 -0.11454
-0.07105 0.17588 0.15439
-0.08563 -0.18360 -0.06988
0.26753 0.18360 0.07898
-0.00542 0.18360 0.17730
0.04139 -0.19671 -0.08941
0.13808 -0.19671 0.07189
-0.14770 0.18360 0.03848
-0.07693 0.18360 0.14348
-0.05063 -0.19671 -0.04520
0.04120 0.18360 -0.11329
-0.31105 0.19386 -0.09503
-0.06253 0.18360 -0.20736
-0.25127 0.19671 0.11656
-0.03522 0.18360 0.25816
0.12686 -0.18796 0.13975
0.17098 -0.19671 -0.00977
-0.12681 0.19671 -0.14299
0.17060 0.18360 0.26218
-0.09457 0.19671 -0.08199
0.05143 0.19393 0.30927
0.08818 0.19671 -0.28345
-0.09311 0.18561 0.29810
-0.01396 -0.19671 0.18340
0.30194 0.19671 -0.03606
0.24173 0.18360 -0.02037
-0.04403 0.04737 0.08916
-0.06033 0.18360 0.15991
0.06214 -0.18360 -0.16465
0.11288 -0.19671 -0.11933
-0.04141 -0.09441 0.10361
0.07105 -0.17130 -0.15441
-0.13200 0.18360 -0.00685
-0.24175 0.18360 0.07545
0.05996 -0.18360 -0.07463
0.15148 0.19671 0.17063
0.03992 0.18360 0.23367
0.30995 0.19671 -0.05813
0.12844 0.19671 -0.15280
-0.04368 -0.19671 -0.16621
-0.32504 0.19031 -0.00546
-0.00816 -0.18360 -0.08761
0.15491 0.18360 -0.12742
-0.03221 0.18360 0.31748
-0.09269 0.19671 0.15424
-0.15893 -0.18360 0.04081
-0.07819 0.19671 0.15849
-0.05773 0.19671 0.29790
0.12461 -0.19671 -0.09941
0.00657 -0.18360 0.09036
-0.02858 -0.18360 -0.14334
-0.12851 0.18360 0.23800
-0.30770 0.19671 0.07732
-0.05024 -0.18360 0.17021
-0.14640 0.18360 -0.28423
0.02756 -0.18360 -0.04123
-0.14666 -0.18360 -0.11954
0.03145 -0.19671 -0.16271
-0.09396 -0.18360 -0.04619
-0.12984 -0.19671 0.07153
-0.10113 -0.02741 -0.03519
-0.11200 0.19671 0.08484
-0.09181 -0.18360 -0.01121
-0.17490 0.18360 0.06270
0.16433 -0.18360 0.06248
0.03962 0.18360 -0.28294
-0.22401 0.19671 -0.11453
-0.04758 0.13107 0.12180
0.16222 0.18360 0.17073
0.21390 0.18360 0.07259
0.06099 0.19671 0.24036
0.02290 0.19671 0.11232
-0.10122 -0.19671 -0.09966
-0.10698 0.18360 -0.00648
-0.15807 0.19671 -0.09249
0.03347 0.18360 0.13307
0.01080 -0.19671 -0.06102
0.18770 0.19671 -0.23695
0.04209 0.19671 0.26281
-0.17665 0.19671 -0.08183
-0.06585 0.18360 0.12234
0.18879 0.19671 0.11227
0.21091 0.19671 0.10173
-0.10070 0.05534 -0.04881
-0.28861 0.19671 -0.13842
-0.25012 0.19671 0.08250
-0.03378 -0.18360 -0.09660
0.01889 -0.19671 -0.02639
-0.03373 -0.00716 0.09855
-0.12563 0.19671 0.14110
-0.16285 0.19671 0.13122
0.18714 0.19671 -0.11164
-0.27997 0.18360 0.07855
-0.17636 0.19671 0.08069
0.06432 0.18360 0.30065
-0.10623 0.18360 0.26082
0.06950 -0.18360 0.15319
-0.15665 0.18360 0.08604
0.00242 0.19671 -0.24329
-0.06047 0.19671 -0.10820
-0.03185 -0.18360 0.07294
0.04942 0.18360 0.07003
0.03587 -0.04075 -0.10287
-0.04705 0.18360 -0.27337
0.29882 0.19671 -0.09006
-0.16243 0.19671 0.25510
-0.21713 0.19671 -0.21468
0.16410 0.18360 0.22209
-0.26018 0.18360 -0.08385
0.20530 0.18360 0.24208
-0.05275 -0.18360 0.12309
0.09087 0.18360 0.11350
-0.07450 -0.18360 -0.01416
-0.11924 -0.19671 -0.06525
0.13485 0.19671 0.15990
-0.18685 0.19671 -0.24338
-0.02479 0.18498 0.32504
0.07687 -0.18360 0.02088
0.06952 -0.18360 -0.15372
-0.05713 0.18360 -0.07931
-0.27048 0.18360 -0.05361
0.17927 -0.18360 0.02501
-0.11968 0.19671 0.04029
0.00625 0.19671 -0.17642
0.18199 0.18360 -0.20152
-0.05883 0.19224 0.32075
-0.09170 0.01096 -0.04508
-0.03871 -0.06919 0.10858
0.16266 -0.19317 -0.09531
-0.12766 0.18826 0.30162
-0.09544 -0.19069 0.16259
-0.27093 0.19671 -0.10676
0.01478 0.18360 -0.21799
-0.30252 0.18360 -0.09239
-0.07878 0.19671 -0.23165
0.14516 0.18360 0.11316
-0.11523 0.19671 -0.27087
0.04026 -0.18360 -0.15905
0.11224 0.18360 0.23130
0.24280 0.18360 0.13595
-0.07211 0.19671 -0.06562
-0.20129 0.18360 -0.15643
-0.12665 0.19671 0.10775
-0.11367 0.18360 0.00715
-0.14017 0.19671 0.10515
0.10348 0.18360 0.17103
-0.04509 0.19671 -0.00870
0.02210 -0.18360 0.04794
-0.00555 -0.18360 0.15385
-0.09509 0.18360 0.16303
-0.03576 0.18360 0.17423
-0.05304 -0.19671 -0.16018
-0.28685 0.18360 -0.00762
-0.14704 -0.18360 -0.11081
0.07601 0.18360 0.19596
0.04537 0.18360 -0.21711
0.04929 -0.18360 0.00884
-0.32024 0.19671 0.06008
0.21290 0.19671 0.02321
-0.15485 -0.18360 0.08686
-0.10787 0.18360 0.30344
0.04874 0.18360 0.26518
-0.21746 0.18360 -0.14308
0.17831 -0.18856 0.06294
0.23421 0.18360 0.04622
0.01393 0.18360 -0.31184
-0.15339 -0.18360 0.00910
0.00471 0.19671 0.07789
0.30413 0.19304 -0.12085
-0.03469 -0.19671 -0.02686
0.11337 0.18360 -0.27025
0.02309 -0.18360 -0.01882
0.14097 0.18360 -0.00592
0.25447 0.18360 -0.15801
0.23459 0.18360 -0.16834
0.08873 0.19671 -0.17224
-0.07765 0.18360 0.09089
0.03681 0.18360 -0.31940
0.11146 0.19671 -0.16986
-0.01442 0.19671 0.06321
-0.05204 0.18360 -0.11563
0.22512 0.19671 -0.09127
0.16332 0.18360 0.18700
0.17756 0.19671 0.02960
0.10210 -0.18360 0.15061
-0.01465 -0.18360 -0.00432
-0.28383 0.19671 0.02893
0.16619 0.19671 0.01499
-0.13952 0.19671 -0.23293
-0.05961 -0.12970 0.12677
0.15750 -0.19643 0.10424
0.01684 0.19671 -0.18029
0.21489 0.19671 -0.05514
-0.11265 0.19671 0.22965
-0.09946 -0.01259 -0.03642
0.16684 0.18360 -0.04674
0.06942 0.19671 -0.24120
0.04983 0.18360 0.03051
-0.31849 0.18360 0.04777
-0.03077 -0.18360 -0.16089
0.09589 -0.18360 -0.11884
-0.25060 0.18360 0.14825
0.03478 -0.19671 0.07848
0.01267 -0.19671 0.02014
-0.20350 0.19671 0.13766
-0.14558 0.18360 -0.12647
0.15681 0.18360 0.02275
-0.25436 0.19508 0.18352
0.02758 0.19671 -0.12603
0.19736 0.19671 0.17969
-0.21128 0.19671 -0.15241
-0.23865 0.18360 -0.04004
-0.09838 0.19671 0.02585
0.14792 0.19671 -0.08019
0.14868 0.16789 0.06868
-0.06212 0.15107 0.14638
-0.12108 -0.19671 -0.09776
0.03486 -0.19671 -0.09971
0.26804 0.18360 0.11200
0.23607 0.19647 -0.20522
-0.07745 -0.19671 0.08618
0.24178 0.19671 -0.18541
0.13837 -0.18360 -0.10696
0.23818 0.19671 0.04960
0.02252 -0.18360 -0.00803
0.18342 0.18360 -0.08451
0.16137 0.19671 0.12695
-0.07576 -0.18360 0.13457
-0.11914 0.18360 -0.23461
0.02019 0.19671 -0.29996
0.06982 0.16517 -0.15649
0.00829 -0.18360 -0.01722
0.15549 -0.18574 0.10774
-0.25536 0.19671 -0.09714
0.11424 -0.09586 0.05146
-0.23723 0.19671 -0.01130
-0.12070 -0.18360 -0.08710
-0.07613 0.19671 -0.05486
-0.06039 -0.19671 -0.16805
0.28891 0.19255 -0.14967
0.15957 0.18360 -0.22201
-0.20403 0.19266 -0.23726
0.17496 -0.18703 0.07401
0.10809 0.18360 -0.14636
-0.08136 0.18360 -0.12359
0.21122 0.19671 0.09160
0.17568 0.19671 0.20854
0.15971 0.18360 0.13852
-0.15520 0.19671 0.26727
-0.03091 -0.19671 0.17878
-0.19144 0.18360 -0.12777
-0.07742 0.19671 0.21676
-0.30235 0.19671 0.02121
0.12588 0.19671 0.02748
-0.14777 0.19671 -0.06548
-0.20631 0.18867 0.25337
0.26774 0.19671 0.12043
0.29188 0.19671 0.01408
-0.00544 0.19671 0.03240
-0.17653 0.19671 -0.25410
-0.04466 0.18360 0.00086
0.08586 0.18360 0.24613
-0.08680 -0.18360 -0.11878
-0.01411 0.18360 0.23314
0.18082 -0.19671 -0.03440
-0.15390 0.18360 0.15854
0.08903 0.19671 -0.04533
-0.13136 -0.14415 -0.05029
0.03103 0.01447 -0.08764
-0.20318 0.18360 -0.00996
-0.30778 0.19671 0.04306
0.29388 0.18360 -0.10931
-0.17713 -0.18360 -0.04704
-0.00921 -0.19639 -0.18852
-0.10342 0.19671 -0.07821
0.08035 0.18360 0.13263
-0.01757 0.18360 -0.09385
0.02935 -0.19671 -0.07426
0.03527 0.18360 0.19266
0.07594 0.18360 0.11124
0.06585 0.15635 -0.14185
0.19411 0.18360 -0.06202
0.14053 -0.19671 -0.12146
-0.09476 -0.18360 0.01636
0.08145 -0.18360 0.16649
0.31683 0.18360 0.01857
0.16969 -0.19671 0.02079
0.20454 0.18360 0.09641
-0.13067 0.19671 -0.14708
0.26288 0.19412 0.16876
-0.25536 0.19333 -0.18179
-0.07049 0.19671 0.17069
0.14713 -0.18360 0.07146
-0.06731 0.19671 0.13586
0.10420 -0.18360 -0.15134
0.16336 0.18360 -0.20461
-0.00938 0.18360 -0.18881
0.16076 -0.18360 -0.07686
-0.18273 0.18360 0.07873
-0.12561 -0.18360 -0.09569
0.03776 0.18360 0.10099
-0.23946 0.19671 0.02132
0.08843 0.18360 -0.29895
-0.03043 0.18360 0.09064
0.07613 -0.19671 -0.03469
-0.17278 -0.19671 0.01869
-0.23341 0.19671 -0.03681
0.32504 0.18493 0.00971
0.21895 0.19671 0.10494
-0.28785 0.19120 -0.15152
0.24505 0.19671 -0.13762
-0.07010 0.19671 0.12319
-0.15831 0.18360 0.23469
-0.16084 0.19671 -0.21588
-0.20202 0.19671 -0.11671
0.07311 -0.17423 -0.15936
-0.08297 0.00465 -0.04045
-0.26210 0.19108 0.19612
0.25647 0.19671 -0.06272
-0.08621 -0.19671 -0.15444
0.09588 0.19671 -0.12654
0.14406 0.19671 0.13814
-0.19925 0.19671 0.12552
-0.06973 -0.19671 -0.06230
-0.08136 0.18360 -0.06331
-0.10860 0.19671 -0.04756
0.00355 0.19671 0.22660
0.18878 0.18360 0.12417
-0.17752 0.19671 0.02111
0.03228 -0.19671 0.15831
0.00993 0.18360 0.11619
0.26489 0.19671 -0.17542
-0.26381 0.18360 0.06488
-0.16882 0.19671 0.20898
-0.20144 0.18360 0.19992
-0.01181 -0.18360 -0.15017
-0.09383 0.19671 0.17910
0.27176 0.19671 0.11730
-0.10713 0.18360 0.16479
-0.10105 0.18360 0.03447
0.05912 -0.18360 -0.05932
-0.02127 0.19671 -0.00222
-0.03538 0.18360 0.15736
-0.26384 0.19671 -0.09418
0.20605 0.18360 -0.16190
0.01843 0.19671 0.02800
0.31204 0.18583 0.01468
0.14081 -0.18360 -0.11343
-0.21937 0.19099 0.24030
0.18545 -0.18360 -0.01588
0.04244 0.18360 -0.07352
0.07696 -0.19671 0.12571
-0.06358 -0.18360 -0.02242
-0.07483 -0.19671 -0.07635
-0.16335 -0.19671 0.04597
-0.04940 0.18360 -0.18987
-0.23623 0.19671 0.00781
0.25783 0.19671 0.15640
-0.03813 0.18360 -0.02983
-0.08704 0.00521 -0.03074
-0.03660 -0.18360 0.11847
-0.21249 0.19488 0.22881
0.24054 0.18360 -0.04751
-0.13647 0.19671 0.02460
-0.17592 0.18360 0.16179
0.11690 0.18360 -0.22954
0.28848 0.19671 0.06928
0.22110 0.19671 -0.18972
-0.07453 0.19671 -0.17604
0.17790 0.18360 -0.07244
-0.14536 0.19671 0.21853
0.06813 0.18360 -0.25535
0.19067 0.18360 -0.03825
-0.09984 0.18672 -0.30976
0.04897 0.18360 0.31533
-0.14933 0.19671 -0.21610
0.12069 0.18360 0.21141
0.00696 0.18360 0.15876
0.19603 0.19671 0.05777
0.00588 -0.18360 0.05166
-0.07336 -0.19671 -0.11087
0.07286 -0.19671 -0.15768
0.03048 -0.03956 -0.09062
-0.30289 0.18360 -0.11338
0.01311 0.19671 -0.27158
0.05267 -0.19671 0.16134
-0.28079 0.19671 -0.04851
0.28913 0.18360 0.05942
0.09605 -0.08046 0.04585
-0.01152 0.19671 -0.30233
-0.21443 0.19671 -0.22924
0.20178 0.19671 -0.20819
0.08365 0.19671 0.20103
-0.09094 -0.18360 0.06910
0.24811 0.18360 -0.17970
-0.22878 0.18360 0.02374
-0.03620 -0.19671 -0.05649
0.13544 -0.18360 -0.04425
0.02718 0.19671 -0.01502
-0.01549 -0.19671 0.08924
-0.13488 0.19671 -0.25324
0.10086 -0.05145 0.04690
-0.30107 0.18360 -0.10439
-0.04405 -0.10790 0.12349
-0.11173 -0.18360 0.13123
0.27063 0.19671 0.15953
0.07545 -0.18360 -0.07865
-0.07313 0.19671 -0.08656
0.04994 -0.10295 -0.11811
-0.18578 0.18360 -0.20737
0.20011 0.18360 0.02369
-0.31204 0.18815 -0.03278
-0.02598 0.19671 0.02109
-0.28817 0.18360 0.10037
-0.15748 -0.19671 -0.05521
0.24901 0.19406 0.19228
-0.03676 0.19671 -0.27356
-0.11827 0.19671 -0.05882
0.05076 0.14313 -0.13032
0.06993 0.18360 0.14685
-0.03721 0.18360 0.02277
0.10043 0.19671 0.00007
0.14870 0.19277 0.28948
0.10314 0.18360 0.27408
-0.18448 0.19671 0.00589
-0.12843 0.19671 -0.08136
-0.10938 -0.19671 -0.10744
-0.08587 0.19671 -0.22797
-0.08290 0.18360 -0.26212
-0.13627 -0.18360 -0.06039
0.10612 0.05694 0.03686
0.18802 0.19671 0.18275
0.22030 0.18360 -0.15467
0.12447 -0.18360 -0.05334
-0.04156 0.19671 0.19963
0.12427 -0.18360 0.02353
0.00341 0.18360 -0.05047
0.01045 -0.18360 0.14794
-0.28631 0.19671 -0.09739
-0.06910 -0.18360 0.14705
-0.12819 0.19671 -0.26578
-0.03095 -0.18360 -0.04371
-0.15699 0.18360 -0.21406
0.19291 0.18360 0.07833
-0.11369 -0.19671 0.12793
-0.23856 0.18360 0.12623
0.01551 0.19671 -0.01958
0.22770 0.18360 -0.13352
0.20619 0.18360 -0.15290
0.09696 0.18360 0.00570
-0.06120 -0.17610 0.16488
0.07618 -0.19671 -0.09122
-0.21891 0.18360 0.11745
-0.14698 -0.18360 0.00227
-0.15773 -0.19671 -0.07239
-0.04714 0.18360 -0.05967
0.23102 0.18360 0.14924
0.27536 0.19671 -0.13645
0.06472 0.16578 -0.15928
0.18229 0.19671 -0.12474
-0.09945 0.07915 -0.04829
-0.14477 -0.19671 -0.07985
-0.12214 -0.19671 0.11633
0.15716 -0.19671 -0.08044
-0.04128 -0.19671 -0.12160
-0.01822 0.19671 0.27602
0.11170 0.19671 0.05788
0.06573 -0.18360 0.06448
0.11166 0.19220 -0.30659
-0.24980 0.19261 0.20988
0.14510 0.18360 -0.28812
0.17591 0.19671 0.06156
0.14604 -0.18360 0.10617
0.23376 0.18360 -0.00783
0.10533 -0.19671 0.08070
0.04984 0.18360 0.21643
0.01208 -0.18360 -0.15597
0.13905 0.19671 -0.18405
0.05213 -0.18360 0.03392
0.05484 0.19416 -0.30835
0.16151 0.19250 -0.28208
0.03383 0.01824 -0.09881
0.17589 0.19671 -0.00873
-0.05524 -0.19671 -0.02871
0.17027 0.18360 0.13877
0.21475 0.18360 -0.09815
-0.07330 -0.18360 0.10656
-0.17452 0.19671 0.24435
-0.04681 0.19671 0.29686
0.17855 0.19142 -0.27224
0.09074 -0.02231 0.04468
-0.21054 0.19528 0.24914
0.28750 0.18360 -0.14929
0.09300 -0.19671 -0.11466
-0.14986 -0.18360 0.05797
0.28326 0.18360 0.12845
0.00217 0.19671 -0.15347
-0.09406 0.18360 0.06278
0.09884 -0.02237 0.03385
-0.26132 0.19671 0.14742
0.18135 0.19671 -0.03006
0.27291 0.19671 0.00401
-0.14175 -0.18360 0.02749
-0.01404 -0.19044 0.18852
-0.14638 0.15193 -0.06383
-0.13006 -0.19671 -0.01677
0.04741 0.18360 0.21185
0.31518 0.19671 -0.05111
-0.05051 0.08212 0.10480
0.32504 0.18748 -0.02646
-0.14200 0.18360 0.16506
-0.08390 0.01656 -0.04047
0.17982 0.18360 -0.25898
-0.29722 0.19671 0.13517
0.20170 0.18360 0.22741
-0.13643 -0.19671 -0.01654
-0.08377 0.19671 0.05319
0.17072 0.19671 -0.10526
-0.06920 0.18360 0.21079
0.32358 0.19671 0.02997
-0.17081 0.19671 0.10139
0.20585 0.19671 0.04453
-0.13274 0.18360 0.29363
0.14970 0.18360 0.07593
-0.29768 0.19671 0.12704
-0.18927 0.19671 0.12915
0.15243 -0.15603 0.05740
0.07898 0.19671 0.08498
0.01333 0.19671 0.09584
-0.12876 -0.18360 0.00870
0.01513 0.19671 0.27167
0.06870 -0.19671 -0.06147
-0.06347 -0.19671 0.05912
-0.21766 0.19671 0.05604
0.08015 0.19671 0.06162
-0.03524 0.18360 -0.15449
0.23598 0.18572 -0.22370
0.09051 -0.18360 0.14097
0.14277 0.18360 -0.11719
-0.07376 0.18699 -0.31674
-0.26246 0.18360 0.18594
-0.04450 0.19671 0.24968
-0.21793 0.19671 0.12124
0.29668 0.19671 0.07782
0.12219 -0.19671 0.13339
0.14081 0.19671 -0.03275
-0.23745 0.18360 -0.17414
0.11651 0.18360 0.26902
-0.06210 0.18360 0.09405
-0.07484 0.18362 0.30300
0.09782 -0.18360 0.10274
-0.13917 0.19671 -0.13176
-0.05009 0.18360 0.25730
0.21830 0.18360 -0.11596
-0.19271 0.19671 0.21476
0.01713 0.19671 -0.23037
-0.15621 0.19671 0.20807
-0.12401 0.18360 -0.27486
0.21665 0.18360 -0.17223
-0.28514 0.19385 -0.15621
0.04541 0.19671 0.29233
0.25593 0.19671 -0.18026
0.09186 -0.02344 0.03095
-0.09084 0.19671 -0.27200
-0.04941 -0.19671 -0.05306
0.11625 0.19671 0.28654
-0.18852 -0.19622 0.00577
-0.27101 0.18360 0.15094
0.07857 0.18360 -0.20562
-0.09220 0.19671 0.22485
-0.03617 0.19671 0.29856
-0.21762 0.19671 -0.10895
0.17660 -0.18360 0.06280
0.07527 -0.18360 -0.04202
0.01372 -0.19671 0.08954
-0.09805 -0.18360 0.11640
-0.03199 0.18360 -0.07440
0.30577 0.18360 0.08024
0.20472 0.18360 0.21316
0.04727 -0.06652 -0.09700
0.06980 -0.19671 -0.00413
-0.13292 0.18360 -0.24478
0.30718 0.19196 -0.10945
-0.17951 0.18360 -0.04294
0.01012 -0.18360 -0.05933
0.05785 0.19047 0.32101
0.10013 0.09049 0.04594
0.16712 0.18360 0.20915
0.04268 0.18360 -0.00775
-0.08146 0.19671 0.29672
-0.02818 -0.18360 -0.18089
-0.12156 0.19671 -0.17838
0.02751 -0.18360 -0.10395
-0.22320 0.19671 -0.20858
0.10639 0.06396 0.04077
0.16380 0.19671 -0.24548
0.01860 -0.18360 0.05998
-0.02475 -0.18360 -0.14951
-0.13919 -0.14463 -0.05056
0.10743 0.19671 -0.15752
-0.10189 -0.18360 -0.03652
0.08281 -0.18360 0.12663
-0.03610 0.07303 0.09704
0.09672 0.19601 -0.29713
-0.17166 0.19671 0.03924
0.18710 0.19671 0.08435
-0.04047 0.01257 0.09778
0.26799 0.18360 0.12528
-0.04292 0.02423 0.08649
-0.03297 -0.19671 -0.06830
0.08589 0.19671 -0.31114
0.08724 0.18360 0.11673
0.22850 0.18360 -0.05814
0.00346 0.19671 -0.11864
-0.11764 -0.19671 0.06059
0.03453 -0.05668 -0.09304
-0.25408 0.19295 -0.20560
-0.28267 0.19671 -0.15987
0.11160 -0.19671 0.04383
-0.22626 0.19671 -0.10213
-0.12017 -0.19671 -0.00057
-0.12331 -0.18360 -0.11062
0.03996 -0.07800 -0.09748
0.26644 0.18360 0.00339
-0.00405 0.19671 0.08499
-0.23826 0.18360 -0.07561
-0.02156 -0.19671 -0.14994
0.02362 -0.19671 -0.05912
-0.10320 0.18360 -0.15184
0.04706 0.18360 0.00436
0.24859 0.19671 0.14582
0.17771 0.18360 0.01295
0.05356 0.18360 0.04718
0.14997 -0.19671 -0.05388
0.05651 0.19671 -0.24099
0.22187 0.18360 -0.23124
-0.17753 0.18360 0.12689
-0.04076 0.19671 0.15070
0.15534 -0.16928 0.05725
-0.28801 0.19671 -0.10394
0.02807 -0.19671 0.03824
-0.25236 0.18360 -0.20481
0.24820 0.18360 0.03013
0.11998 0.19671 -0.16972
-0.01401 0.19671 0.14083
0.12446 0.18360 0.23665
-0.12669 -0.19671 0.07742
0.29273 0.18360 -0.05773
0.11564 0.19671 -0.06248
-0.02567 0.19671 -0.14884
-0.14640 0.18360 -0.14894
0.02277 0.18360 0.17159
-0.16262 -0.19671 0.00254
0.21124 0.19671 -0.11165
-0.15982 -0.19671 -0.03419
-0.04699 -0.19671 0.12931
-0.03384 0.19671 0.31554
0.07337 0.17452 -0.16000
-0.12710 -0.19671 -0.03578
-0.23505 0.19671 0.08302
0.03407 0.19671 0.29694
0.02658 -0.19671 0.04384
-0.17603 0.19671 -0.23378
-0.04143 0.02637 0.09847
0.14844 0.18360 0.10521
-0.25683 0.19671 0.00671
0.01676 0.19671 0.18946
-0.12953 -0.19671 -0.06119
-0.12486 -0.18360 0.12223
-0.12180 0.18360 0.01370
0.08223 0.18360 -0.19795
-0.15342 0.19671 -0.23981
0.06778 -0.17194 -0.16483
-0.11844 -0.18910 -0.14817
-0.14260 -0.19671 0.07917
-0.21590 0.19671 -0.06144
-0.00298 0.18360 -0.25536
0.08765 -0.19671 -0.00862
-0.18129 0.18360 0.04448
-0.24520 0.19671 0.21031
-0.04511 -0.13339 0.12604
-0.00197 0.19671 -0.00447
-0.08777 0.19671 0.21907
0.12915 0.18360 -0.08297
0.22364 0.19671 0.18700
-0.16465 0.19671 -0.07825
0.04963 -0.18360 0.11323
0.07891 0.19671 0.01701
0.08283 0.19671 0.22684
0.00104 -0.18360 -0.08187
-0.04065 -0.19671 -0.18175
-0.04432 -0.08925 0.11448
-0.10152 0.18360 -0.26420
0.12242 -0.19671 0.00281
-0.00925 -0.18360 -0.17436
-0.02666 0.18360 -0.14173
-0.13857 -0.19671 -0.10997
-0.00054 0.18360 0.27540
0.10263 -0.19671 -0.10961
0.04839 0.05655 -0.09969
-0.06418 0.18360 0.30804
-0.20321 0.18360 -0.05041
0.03159 -0.18360 0.06552
0.31108 0.18360 0.08158
0.31204 0.19393 -0.03203
-0.09359 0.19671 -0.01689
0.07381 -0.19671 -0.16840
0.19922 0.18360 0.01115
-0.10463 0.19671 -0.22652
-0.09257 -0.19671 0.09252
0.06397 0.18360 -0.21800
0.14378 -0.18360 -0.04865
0.08937 0.18360 -0.05684
0.07360 0.19671 -0.01548
0.18426 -0.19671 0.03556
0.05913 -0.18360 0.15382
-0.20016 0.19671 -0.22773
0.01348 -0.18360 -0.12113
-0.27570 0.18571 -0.17257
0.04233 0.19671 -0.10622
-0.12707 0.12223 -0.05629
-0.20678 0.18360 0.09121
0.02632 0.18360 -0.18655
-0.14362 0.19671 -0.22905
0.01458 -0.19671 -0.00130
0.18719 0.19671 0.03286
-0.01883 0.19671 -0.18373
-0.10811 0.18360 0.11419
-0.10452 0.07402 -0.03619
-0.15127 0.18360 0.03417
0.04928 0.19671 -0.30535
-0.12301 -0.19671 -0.02820
0.27457 0.18360 0.01235
0.01239 0.19671 -0.11173
0.18643 0.18360 0.24858
-0.12983 0.19671 0.25578
-0.27321 0.18360 0.10048
0.14138 -0.18360 0.05247
-0.17587 0.19671 -0.20121
-0.02493 0.18360 -0.21843
0.14644 0.19671 0.01208
0.22945 0.18360 -0.09473
-0.27987 0.18360 0.03785
0.23440 0.19671 -0.14511
0.14377 0.18360 0.29098
0.20423 0.19671 0.15457
0.08685 0.19671 -0.00547
-0.01552 -0.19671 0.00936
-0.00282 0.18360 -0.22272
-0.00700 0.19671 -0.28857
-0.21981 0.19671 0.11555
-0.19145 0.18360 -0.02876
-0.03515 0.19671 -0.04466
-0.17204 0.19671 0.16439
-0.12202 0.18360 -0.10294
0.05791 0.12433 -0.12267
-0.15995 -0.18360 -0.05751
0.02709 0.19671 -0.01002
0.06171 0.18360 -0.10933
-0.20757 0.18360 -0.18197
0.00712 -0.18360 -0.11903
0.18713 0.18765 0.25228
0.03291 0.18360 -0.14822
0.27166 0.19671 -0.07617
0.11480 0.19671 -0.03839
0.09378 -0.18360 0.07392
0.04560 0.19671 -0.15933
0.08023 -0.18360 -0.10887
0.06967 -0.18360 0.12587
-0.12688 0.18360 -0.26562
-0.05380 0.19671 -0.13590
0.04556 0.19671 -0.24719
-0.17935 0.19671 -0.22673
-0.19487 0.19523 0.24643
-0.10892 -0.19671 -0.08703
0.24643 0.19671 -0.20055
-0.10094 0.18360 0.08843
-0.07715 0.19671 -0.09556
0.01873 0.18360 -0.17232
0.31977 0.19671 -0.05396
-0.14561 0.18360 0.06755
-0.01006 -0.18360 0.07798
-0.05976 0.18360 -0.23403
0.13937 0.19671 0.10475
0.17213 0.18360 0.26793
0.29154 0.19488 -0.11760
0.31669 0.18360 -0.06001
-0.05122 -0.19671 0.11734
0.23415 0.19671 0.10668
0.06583 -0.15566 -0.14863
0.03824 -0.01511 -0.09890
0.11690 0.18360 -0.10171
0.02410 0.18360 -0.27051
-0.00151 0.18360 0.11001
-0.01034 -0.19671 -0.03484
0.15748 0.18360 -0.14386
0.20666 0.18360 0.00881
-0.02964 0.18360 0.08148
-0.15494 0.19671 -0.00681
0.02626 0.18555 -0.32504
-0.07124 0.18360 0.11341
0.04473 -0.19671 0.06479
0.07394 0.18360 0.22997
-0.00431 0.18360 0.20245
-0.10126 0.19671 -0.19513
-0.18744 0.19671 0.05537
-0.04331 0.07535 0.10920
0.06339 -0.18360 -0.13957
-0.23736 0.19671 -0.12403
-0.09970 0.02149 -0.03420
0.12544 0.18360 0.08651
-0.00523 0.19671 0.11318
0.00341 0.19671 0.22141
-0.24954 0.18360 0.20168
0.07746 0.18360 0.21070
0.01876 -0.19671 0.02395
0.12159 0.18360 -0.25174
0.14451 -0.18360 0.12159
0.03462 0.19671 0.20868
0.24788 0.19671 -0.05907
-0.08023 -0.19671 -0.14568
-0.25770 0.19375 0.17773
-0.16052 0.19671 -0.12761
-0.14433 0.16023 -0.06688
-0.25598 0.18360 -0.02536
0.08628 0.18360 -0.00708
-0.06318 -0.18360 -0.13580
-0.22996 0.18360 0.12202
0.17199 0.18360 0.00897
0.04184 0.18360 0.17933
0.12879 0.19671 0.19332
-0.11722 -0.19671 0.13947
-0.13121 0.19671 0.12104
0.13708 0.19671 -0.24884
0.09964 0.19671 -0.13259
-0.03749 -0.19671 -0.16367
-0.25099 0.19671 -0.02222
0.27141 0.18770 -0.15399
0.01304 0.19671 -0.28804
0.04966 -0.19671 -0.07548
-0.14693 -0.18360 0.05372
0.02702 0.19671 -0.00110
-0.00439 -0.18360 -0.17103
-0.15216 -0.18360 0.07188
0.23613 0.19671 0.12733
0.17390 0.18360 -0.11101
0.11623 0.19671 -0.00222
-0.20017 0.18360 0.25117
0.07899 0.19671 0.03012
-0.07461 0.17875 0.16955
0.03486 0.19671 0.01273
-0.11490 0.18360 0.08852
-0.06322 -0.19671 -0.14492
-0.08755 -0.04656 -0.04336
0.28419 0.18360 -0.00897
-0.13165 0.18360 -0.16271
0.04559 -0.13359 -0.12721
-0.07467 -0.19671 0.03506
-0.07049 0.19671 0.04952
0.03865 0.19671 -0.13528
-0.00240 0.19671 0.25645
0.23439 0.18360 0.20075
0.14815 0.18360 -0.27093
0.03337 -0.18360 0.16273
0.13277 0.18360 -0.05585
0.04595 0.19671 -0.07196
0.17115 -0.18360 0.06400
-0.05418 0.18360 0.17569
0.09334 -0.19671 0.01953
0.06168 0.18360 0.30526
0.15511 0.19671 0.14339
0.08081 -0.18360 0.07820
-0.26840 0.18360 0.14275
0.07885 0.19671 0.31518
-0.11413 -0.19671 -0.04559
0.24037 0.19671 0.09588
0.10869 0.10306 0.03855
0.10247 0.18360 -0.25801
0.12128 -0.19671 -0.04434
-0.19487 0.18360 0.06052
0.31137 0.18424 0.09381
-0.26238 0.19671 -0.03151
-0.19938 0.18360 0.04472
0.03021 0.02698 -0.09008
-0.03677 0.06771 0.10591
-0.13949 0.18360 -0.14536
0.06922 0.19671 -0.26571
-0.24226 0.18360 -0.05065
-0.07765 0.18360 0.05733
-0.03453 -0.07685 0.09926
0.25677 0.19671 0.10776
-0.13094 0.12835 -0.04714
0.13448 -0.14520 0.04860
0.20254 0.18360 -0.14502
0.10298 0.18360 0.14228
0.06987 0.19671 -0.12724
0.05699 0.19671 0.19120
0.29930 0.18360 -0.02894
-0.06865 0.19671 -0.13842
-0.03805 0.01756 0.09917
-0.02935 -0.19671 -0.18355
0.03195 0.19671 0.22295
-0.04732 0.19671 0.32333
-0.32184 0.19671 -0.03416
0.04988 0.19170 0.32315
-0.09520 0.18360 -0.28542
-0.18762 0.19671 0.10544
-0.17705 0.19671 0.22442
-0.13859 -0.18360 -0.07266
-0.06232 -0.19671 -0.02129
-0.19580 0.19671 -0.06098
-0.11893 -0.12379 -0.04393
0.08999 -0.03000 0.03018
-0.05508 -0.18360 0.07226
0.06656 -0.19671 -0.12882
-0.07365 0.18360 0.11778
-0.15262 -0.18934 -0.11271
-0.06796 -0.18360 0.03143
0.25416 0.18810 0.18387
0.15660 0.19671 -0.22126
0.31204 0.19203 0.03784
-0.26433 0.18360 -0.03591
-0.25179 0.18360 -0.19894
-0.06129 0.17305 0.16510
0.03778 0.18360 -0.08550
-0.09440 -0.19671 0.14693
0.06540 0.18360 -0.03301
-0.07445 -0.18360 0.15650
-0.08020 0.19671 0.09535
0.14631 0.18360 0.23603
-0.26114 0.18477 0.19777
-0.15972 0.19671 -0.04957
-0.06555 0.18360 -0.15911
0.25533 0.18360 -0.17278
-0.14544 0.18360 0.11922
-0.03610 0.18360 -0.22113
0.21198 0.18360 0.02047
-0.06616 -0.17081 0.15005
0.28390 0.19671 -0.00651
0.24191 0.18360 0.08491
0.15220 0.19622 0.27244
0.03601 -0.03451 -0.08716
-0.29680 0.18360 -0.06210
-0.18560 0.18360 0.18732
0.23653 0.18360 0.03009
0.26813 0.19671 0.06184
-0.02370 -0.18360 0.18236
-0.16049 -0.18360 -0.09885
-0.12531 0.18360 0.14306
-0.18082 0.18360 0.23123
-0.09619 0.18360 0.17177
-0.05250 -0.18360 -0.08355
0.04130 0.18360 0.13700
-0.32504 0.18623 -0.00997
-0.07099 0.18360 0.09676
0.12796 0.19671 0.28781
-0.05908 0.19671 -0.19835
0.01244 -0.19671 -0.02768
-0.08236 0.18360 -0.18230
0.06736 -0.18360 0.00183
-0.15931 0.18360 0.01154
-0.06490 0.18360 -0.26409
0.04640 0.04471 -0.09945
-0.00516 0.18360 0.28286
0.13721 0.19414 0.29611
0.25524 0.18360 0.13732
0.10511 0.19671 0.18095
-0.06027 0.13466 0.12836
0.07853 -0.19671 0.16425
0.15438 -0.19671 -0.00753
-0.08186 0.19671 0.26809
-0.17746 -0.19671 -0.03775
0.05347 0.18360 -0.27774
-0.15340 0.18523 -0.28676
-0.23852 0.19671 -0.09873
0.05525 0.13087 -0.11850
-0.05030 0.19671 0.16780
0.01291 0.18360 0.29487
0.04650 -0.19671 0.04122
0.18852 -0.19360 0.00892
0.01111 0.18360 0.07230
0.04733 0.18360 -0.24164
-0.30359 0.18360 0.05655
0.04576 -0.18360 0.10929
0.13762 0.18360 -0.17500
-0.03144 0.01269 0.09305
0.13211 0.14469 0.06182
0.20785 0.19671 -0.02086
-0.22004 0.19671 -0.15985
0.09913 0.18360 -0.28746
-0.14898 -0.19671 0.05209
-0.02979 -0.19671 0.08113
0.16623 0.18360 -0.23556
0.01220 0.19671 -0.18114
0.05918 -0.19671 0.13695
0.10455 0.19671 -0.07111
-0.16770 -0.19325 0.08659
-0.11948 0.19671 -0.25683
0.11310 -0.18360 -0.09072
0.01979 0.19671 0.27335
0.03728 -0.19671 0.17770
-0.16367 0.19671 -0.04504
-0.15878 -0.18360 -0.00176
-0.13063 -0.19671 -0.10465
-0.19480 0.19671 0.09996
0.06871 -0.18360 -0.17286
-0.12359 -0.19671 0.02519
-0.22256 0.19671 0.18072
-0.26109 0.18567 0.17187
-0.05161 -0.19671 0.10857
-0.01933 0.18360 -0.05086
0.04999 -0.19671 0.06570
-0.27233 0.18360 0.12827
-0.12211 0.19671 0.20256
0.30112 0.18360 0.02313
-0.07400 0.19671 0.08768
0.03900 -0.19671 -0.12532
-0.09916 0.19671 0.15975
0.00136 -0.18880 -0.18852
0.14122 0.18360 0.28568
0.26323 0.18360 -0.01916
0.04126 -0.05761 -0.09047
0.18463 0.18360 -0.13348
0.09188 -0.19671 -0.12401
0.01029 0.18360 0.20627
0.07816 0.18360 -0.24709
-0.09245 -0.18360 -0.06779
0.05854 0.18360 0.14162
0.17361 0.18360 -0.25903
-0.11623 0.18360 0.23428
0.00906 0.19671 0.12921
0.11653 -0.18360 0.05554
0.05009 0.19671 -0.28786
0.08897 0.19671 -0.05796
0.11791 0.18360 -0.27637
0.21936 0.18360 0.03740
0.09285 -0.18360 -0.04144
0.04841 0.18360 0.19220
0.11554 0.18360 0.06019
0.25434 0.18360 0.08788
0.02687 -0.19671 0.15081
-0.18050 0.19671 0.04121
0.05730 -0.18360 -0.09526
0.10713 0.19671 0.10289
-0.09266 0.18360 0.14689
0.11829 0.19671 0.24416
-0.31204 0.19238 0.00635
-0.11787 0.19671 0.07758
-0.21107 0.19671 0.16521
0.13187 -0.18360 -0.10037
0.04730 0.19671 -0.02266
0.00596 0.18360 0.23463
0.13445 0.19671 0.08138
-0.08655 -0.19671 -0.16165
0.11111 0.08149 0.04477
-0.17491 0.19671 -0.07127
0.11603 0.10704 0.05516
0.13670 -0.19671 0.09118
0.11781 0.19671 -0.23875
-0.00546 0.19671 -0.16731
0.14867 0.16740 0.06041
0.31069 0.18431 -0.09635
0.24761 0.19671 -0.15990
-0.20960 0.18360 -0.14228
0.08627 -0.00130 0.03185
-0.16914 0.19671 -0.17784
0.31485 0.18360 0.06165
0.31187 0.19671 -0.02803
0.13302 0.19671 -0.14571
0.14250 0.18360 0.06845
0.09879 -0.05255 0.03382
0.15735 -0.19671 -0.02408
-0.09370 0.19671 0.11044
0.24809 0.19671 0.03706
0.32307 0.19671 -0.03718
0.13441 0.19671 0.00977
-0.12312 0.19671 0.02507
-0.08283 0.18360 0.07410
0.08762 0.19671 -0.18232
0.07683 0.18360 -0.11131
-0.21817 0.18360 -0.12996
0.24207 0.19671 -0.07174
0.08889 -0.18360 0.07893
0.08746 0.18360 0.10054
-0.05807 -0.18360 0.12251
-0.00432 -0.19671 0.09936
0.26153 0.18360 0.05464
0.11301 0.10612 0.03971
-0.19462 0.18360 0.24879
0.09477 0.18360 -0.14455
0.13414 -0.18495 -0.13248
-0.11867 0.19671 0.11203
-0.10089 0.18360 -0.14419
-0.07568 0.19671 -0.04633
0.16152 0.18360 0.06131
-0.09856 0.19671 0.29975
0.01308 0.18360 -0.17987
0.08577 0.18360 -0.07212
0.01301 0.18360 -0.08085
0.03626 0.18360 -0.11535
0.12801 0.18360 -0.00905
-0.15132 0.19671 0.10894
-0.17353 0.19671 -0.18985
0.04848 0.08088 -0.09992
-0.04288 0.19671 -0.24031
0.10752 0.19671 0.09295
0.16291 0.18360 -0.21522
0.07689 0.19671 0.16671
-0.15763 0.19671 -0.15323
0.15735 0.18360 0.09886
-0.09866 0.18360 -0.08742
0.22207 0.19671 -0.13028
-0.28186 0.19469 0.16189
0.01112 -0.18360 -0.18815
-0.30793 0.19671 -0.00720
0.09966 0.18360 -0.03096
0.25699 0.18360 0.16950
-0.15159 0.18360 -0.18825
-0.05213 0.18360 -0.07037
-0.04730 0.07755 0.09705
-0.08373 -0.18360 0.14866
-0.07505 0.18360 -0.04936
-0.11999 0.18360 -0.00213
-0.10392 -0.18360 -0.04360
-0.16754 0.18360 0.06653
-0.13163 0.18360 -0.29599
0.09187 -0.19671 -0.02538
0.13403 0.18360 0.02033
0.16875 0.18360 0.13073
0.04216 0.09179 -0.10223
0.01787 0.18360 -0.18713
0.03588 -0.19671 0.11358
0.02698 -0.19671 -0.16583
0.18718 0.18360 0.11871
-0.07928 0.19671 0.05682
0.07025 -0.18360 -0.07072
0.24146 0.19671 -0.05660
-0.00174 0.18360 -0.06814
0.12455 0.18360 -0.12587
0.13487 0.18360 0.13379
-0.22989 0.19671 0.15517
0.18554 -0.19671 -0.02151
0.13114 0.19671 0.03560
0.12529 -0.13910 0.05486
0.03701 0.19671 -0.21463
-0.02420 -0.18360 0.15642
-0.27792 0.18360 0.15768
-0.08473 0.19671 0.15991
0.11859 0.19671 0.02199
-0.23803 0.18360 -0.18482
-0.10046 -0.18795 0.15969
0.27017 0.18360 0.06254
0.10643 0.18360 -0.26978
-0.23251 0.18733 0.20879
-0.09392 0.19671 -0.08763
-0.26152 0.18360 0.05411
0.16396 0.19671 -0.26498
0.09783 -0.19671 -0.02138
-0.07930 0.18360 0.21913
-0.01779 0.19671 0.15804
0.04111 0.06426 -0.10632
-0.08750 -0.01027 -0.03058
0.13765 -0.18360 0.03044
-0.14067 0.18360 -0.09238
-0.01850 -0.19671 0.04642
0.01207 -0.18360 0.16614
-0.20060 0.18360 -0.11061
0.01227 0.19671 0.13586
-0.08633 0.03746 -0.04286
-0.09977 -0.18360 0.10884
0.30297 0.18360 -0.10130
0.08602 -0.19671 -0.09186
-0.12706 -0.18360 -0.12863
-0.16125 0.19671 -0.19544
-0.07305 -0.18360 0.13925
-0.29974 0.19671 -0.03720
-0.11456 0.19671 0.03872
-0.05095 0.18360 -0.02437
0.18959 0.19671 0.25761
-0.02117 0.18360 -0.17098
-0.06322 0.19671 -0.12933
-0.00191 -0.18360 0.17397
-0.02306 0.19671 -0.07345
-0.08545 -0.19671 0.11534
-0.11753 0.19671 -0.21438
0.09737 0.18360 0.16642
-0.10687 0.18360 0.03726
-0.04699 -0.19671 0.15019
-0.10706 0.19671 0.01540
0.24997 0.18360 0.01182
-0.09676 0.19671 0.12868
-0.05368 0.18360 -0.21647
0.01657 -0.19671 -0.18575
-0.15294 0.19671 0.20418
-0.14339 -0.14441 -0.05603
-0.00231 -0.18360 -0.09560
0.12119 0.18360 -0.14932
-0.14556 0.18360 -0.14048
-0.16587 -0.18360 -0.04746
0.17918 0.19671 -0.21583
0.12240 0.19671 0.27204
0.15915 0.19671 0.19574
-0.06199 -0.19671 0.10729
-0.01126 -0.18360 -0.03077
-0.10485 0.18360 -0.18756
-0.05203 0.10694 0.10848
0.06065 0.19671 -0.10060
-0.30960 0.19221 0.05020
-0.08762 -0.18360 0.05981
-0.04025 0.19671 0.25636
-0.07775 0.18360 0.27541
0.15937 0.19671 -0.02556
-0.12216 0.18360 -0.02082
-0.18846 0.19671 0.08569
0.10647 -0.18360 -0.02520
0.23639 0.19008 -0.20491
0.18134 -0.18743 0.05164
0.01831 -0.18360 0.18440
-0.22284 0.18360 -0.04836
0.10338 -0.19671 0.05432
0.03871 0.19671 0.10205
0.00691 -0.18360 -0.09452
0.00027 0.18360 0.12749
-0.08898 0.18360 -0.26058
0.02224 0.18360 -0.26587
0.15621 0.18360 -0.14907
0.08316 0.18360 0.02827
-0.00772 0.18360 0.11297
-0.08028 0.19671 -0.31125
0.19789 0.19671 0.11883
-0.10199 -0.19671 -0.05702
-0.20832 0.19671 -0.08221
0.29075 0.19671 0.05455
-0.22950 0.18360 0.15221
-0.14210 0.19671 -0.13801
0.20975 0.19671 0.20525
0.11079 0.19671 -0.10640
-0.27429 0.18360 0.08782
0.17045 0.18360 0.04862
-0.23631 0.19671 -0.08200
-0.16587 0.19671 -0.12580
0.09833 -0.19671 0.11424
-0.24745 0.18360 -0.06712
-0.15399 0.18360 0.16762
-0.11400 -0.19671 0.02994
-0.08613 0.19671 0.11235
-0.06070 -0.19671 0.01561
0.00492 0.19671 0.01142
-0.07457 -0.18097 0.16288
-0.17909 0.19671 -0.05508
0.25178 0.18360 -0.10111
0.18699 0.19671 0.19911
-0.17871 0.18360 0.20423
0.14119 0.18360 -0.28435
0.01220 -0.18360 0.09945
-0.01722 0.18360 0.02473
-0.05214 0.18360 -0.06469
0.18116 -0.18360 -0.00026
-0.04135 -0.18360 -0.14303
-0.06432 0.18360 0.21888
0.03083 -0.18360 -0.09168
0.10184 0.19671 -0.17463
0.13503 -0.19671 -0.02636
-0.01723 0.19671 -0.30632
0.02286 0.18360 0.21227
-0.07745 0.18360 0.04784
0.17872 -0.19671 -0.04692
-0.09471 0.18360 -0.09694
0.10520 -0.19671 0.14769
0.15644 0.19671 -0.06792
0.17464 0.18360 -0.21283
-0.21974 0.19075 -0.22155
0.10703 -0.18360 -0.08395
-0.31771 0.19671 -0.01389
0.32048 0.19252 -0.05983
-0.09624 0.19671 -0.11032
-0.03805 0.19671 0.24161
-0.10012 -0.18360 -0.15817
0.12715 0.18360 0.16664
-0.25058 0.18360 0.18626
0.01383 -0.19671 -0.18032
-0.11164 -0.18360 0.04828
0.08039 -0.19671 -0.08339
-0.14690 0.19671 -0.00819
0.18720 0.18910 0.26725
-0.31731 0.18613 -0.07166
-0.24929 0.19671 -0.12802
0.24705 0.18360 0.08094
0.10590 0.18360 -0.09690
0.20287 0.19671 -0.20347
-0.18852 0.18360 0.03017
0.23564 0.19671 -0.02996
0.12890 0.19671 -0.25699
-0.17640 0.18360 -0.00930
0.11357 -0.18665 0.15212
-0.13010 0.18360 -0.20864
0.17511 -0.19671 -0.01680
-0.05829 0.16620 0.15786
-0.16257 0.18360 0.27563
-0.08952 -0.18360 0.13368
0.02340 0.18360 0.18768
0.07264 -0.19671 0.17394
-0.14414 0.16102 -0.05428
-0.03215 -0.19671 -0.05925
0.04510 0.18360 0.08068
-0.05863 0.18360 -0.13259
0.05074 0.19671 -0.21916
-0.02092 -0.19671 0.09189
0.14200 -0.18360 0.06202
0.19520 0.18360 -0.09640
0.07871 -0.19029 0.17225
0.15609 0.18360 -0.03525
-0.03301 0.19671 -0.26831
0.01274 0.19671 0.32301
0.07414 -0.18360 -0.17246
0.01416 -0.18360 0.08872
0.01210 0.19671 0.16566
-0.27246 0.18360 0.02863
-0.11406 -0.18360 -0.14971
0.25108 0.19671 -0.19160
-0.21301 0.18360 -0.05841
-0.03426 0.19671 0.29055
0.10055 -0.01718 0.03467
0.08076 -0.19671 0.16953
-0.03497 0.18360 0.08607
-0.22967 0.18360 0.07820
-0.14264 0.19671 0.28636
0.12101 0.19671 0.08569
-0.10361 -0.18360 -0.08708
0.02147 0.18360 0.10820
0.25097 0.19299 -0.20871
-0.28916 0.18360 0.09421
-0.06125 0.18360 0.02579
-0.04393 0.18360 0.20102
-0.00669 -0.18360 -0.04437
-0.03782 -0.18360 -0.05123
-0.04803 -0.19671 0.07471
0.13531 0.13901 0.04895
0.11919 0.19671 -0.13004
-0.08045 0.19671 0.25436
-0.10083 0.19671 0.00588
-0.00381 0.19671 -0.15608
-0.16101 0.18360 0.03769
-0.17893 0.19671 0.00751
0.24744 0.18360 -0.15237
0.20075 0.19671 -0.03076
-0.05925 -0.13676 0.12591
0.01201 0.18360 -0.20521
0.02719 0.19671 -0.04832
-0.16567 0.19671 0.08970
-0.30371 0.18363 0.07218
0.13034 -0.13953 0.04689
-0.00304 0.18360 0.05878
0.14628 0.19671 -0.15318
0.02382 0.18360 0.02008
0.16678 0.19671 0.24558
-0.24333 0.18360 0.11271
-0.07008 -0.18360 0.16479
-0.05329 -0.11100 0.11151
-0.23115 0.19671 0.16645
0.15322 0.19671 -0.10529
0.10198 0.19671 0.04144
-0.00746 0.19671 -0.01819
-0.18620 0.18360 0.24910
-0.14966 -0.18360 -0.02642
0.10134 0.18360 -0.12965
-0.19671 0.18360 0.11692
0.11394 0.18360 -0.18058
-0.13971 0.18360 -0.11167
-0.02947 0.18360 -0.23203
0.09287 0.18360 0.10279
-0.02064 0.18360 -0.30720
-0.12556 0.18360 -0.17746
0.17984 0.19671 -0.11221
-0.20000 0.19671 -0.24948
-0.02156 -0.19671 0.09912
-0.19794 0.19671 -0.07343
-0.16582 0.19671 -0.18254
-0.28329 0.18360 -0.04359
0.09859 -0.18360 0.08816
0.01861 0.19671 0.27792
-0.00786 -0.18360 -0.05125
0.03555 0.19671 -0.03383
-0.14666 0.19671 0.27758
-0.01253 0.19671 0.13211
0.05826 0.18360 -0.30064
-0.07700 -0.19671 0.16411
-0.08342 0.18360 0.19028
-0.18409 0.19671 -0.00962
-0.09614 0.18360 -0.00095
-0.03912 0.19671 0.19044
-0.19858 0.18360 -0.22093
-0.27975 0.19313 0.13953
0.12153 0.19671 -0.00440
0.08966 0.18360 0.29249
-0.13989 0.18360 -0.12850
-0.11685 -0.19671 0.08932
-0.13603 0.19671 0.20893
-0.05233 0.08748 0.10920
0.03428 0.18360 0.03313
-0.03203 0.19671 0.21591
0.06410 0.18360 0.11590
0.04896 0.18360 0.30357
0.09526 0.19671 -0.15654
0.00749 0.18739 -0.32504
-0.12023 0.18360 0.15013
0.02370 0.18360 -0.25589
-0.05378 0.19671 -0.31676
0.27308 0.19671 -0.12217
0.20026 0.19671 -0.09177
0.06318 0.18360 -0.11724
0.14670 -0.18360 0.01930
0.05585 0.19671 0.01399
-0.04545 0.18360 0.05045
0.12083 0.19671 0.25733
-0.02338 0.19671 0.03271
0.04550 0.19671 0.24211
0.11741 0.19671 0.23405
-0.15455 0.18360 -0.05758
-0.19532 0.18360 -0.14201
-0.17555 0.18360 -0.21150
0.17430 -0.19671 0.00049
0.13407 0.19671 -0.17452
0.28881 0.19671 0.14768
0.04529 0.19671 0.25495
0.09037 0.03064 0.03034
0.15700 0.18360 0.09311
0.06010 0.18360 -0.31365
0.05772 0.19671 -0.29070
0.00530 0.19671 0.13834
0.04433 -0.05338 -0.08989
0.05034 0.18360 0.24760
-0.09770 0.18360 0.02403
0.27785 0.19499 0.16883
-0.10686 0.18360 -0.11798
-0.29686 0.18930 0.09774
0.22530 0.18360 0.14838
0.16106 0.19671 0.15609
-0.05196 0.09843 0.11508
0.13003 0.18360 0.03550
-0.24355 0.19671 -0.04532
-0.19179 0.19671 -0.09702
-0.10468 -0.19671 0.11290
-0.11968 0.19671 0.00304
0.20414 0.19671 0.20270
0.10985 0.19671 -0.00127
-0.18095 0.18360 -0.26004
0.05073 0.19671 -0.00966
-0.18383 0.19262 0.26919
0.23416 0.19671 -0.08178
-0.03238 -0.19671 0.14051
-0.23114 0.18360 -0.03797
-0.09610 0.18360 0.07531
-0.15554 -0.17772 -0.07152
0.11524 0.19671 -0.18404
-0.02782 0.19671 -0.06484
-0.13458 0.18360 0.12794
-0.05679 0.19671 -0.01883
0.27495 0.19671 -0.05846
0.05506 -0.19671 0.09536
-0.21371 0.19671 -0.22447
-0.31257 0.19671 0.01536
0.07858 -0.19671 -0.12827
-0.30956 0.18360 0.03072
-0.03438 0.18360 0.27394
-0.05250 0.18360 -0.01616
0.00981 0.18360 -0.13875
-0.09388 -0.18360 0.00203
0.05590 0.18360 -0.24202
-0.05570 0.16310 0.14585
0.29487 0.18360 -0.06984
-0.06486 -0.19671 0.16862
-0.08311 0.18360 -0.13892
0.01989 0.19671 -0.31752
0.17122 0.19671 -0.14815
-0.21400 0.19671 -0.02214
0.07070 -0.18360 -0.12362
0.01614 -0.19671 -0.06165
-0.23983 0.19671 -0.05190
-0.04134 -0.18360 -0.09496
0.05845 0.18360 0.10158
0.05982 0.18360 0.07072
0.09878 0.18360 -0.08580
0.07178 0.19559 -0.31728
0.14931 -0.19671 0.08908
0.26245 0.18360 0.01150
-0.31996 0.18360 0.00805
-0.03190 -0.18360 -0.05582
0.21078 0.18360 0.06539
-0.04086 -0.18360 -0.06871
-0.16552 0.19671 -0.16080
0.24377 0.18360 -0.09087
-0.03815 -0.19671 -0.02167
0.21184 0.18360 0.22067
0.07452 0.19671 -0.03954
-0.06154 0.19671 0.26760
0.09863 -0.19671 -0.04169
0.02158 -0.18360 0.11506
0.21967 0.18360 -0.22503
0.14230 -0.16144 0.05983
-0.10821 -0.19671 0.03263
-0.07737 0.18360 0.22445
-0.15435 -0.19641 -0.10971
-0.05414 0.19671 0.25159
-0.14594 0.16750 -0.06755
-0.07946 -0.18360 0.05060
0.27044 0.18360 -0.16581
-0.07260 -0.18360 -0.17190
0.19500 0.18360 0.12431
-0.17731 0.19671 0.06106
0.19014 0.18360 0.18937
-0.10387 0.19671 -0.25342
-0.23509 0.19671 0.09175
-0.18297 0.18360 -0.26654
0.05295 0.18360 0.01481
0.14777 -0.18568 -0.11885
0.12942 0.18360 -0.25864
0.09638 0.05818 0.04702
-0.05357 0.18360 -0.28243
0.31185 0.19176 0.09202
0.19140 0.19053 -0.24981
-0.13127 0.13606 -0.06147
0.08677 0.19671 -0.26121
-0.16536 -0.19671 0.07656
0.02197 -0.19671 0.06567
0.06864 -0.18360 0.16867
0.09303 0.02360 0.03144
-0.25446 0.19671 0.12547
-0.13313 0.18360 0.20338
0.32504 0.19060 0.00224
-0.07981 0.19671 -0.02080
0.01669 0.19671 -0.27663
0.04540 -0.03596 -0.09247
-0.24384 0.19005 -0.19745
-0.00432 -0.18360 -0.05526
-0.01321 0.19671 0.03124
0.26101 0.19671 -0.07885
-0.02130 0.18360 -0.17913
0.07578 -0.19671 0.01139
-0.00698 0.19671 0.23560
-0.07835 0.19671 -0.23915
-0.25778 0.19120 -0.17759
0.15500 -0.18360 0.07889
0.20357 0.19671 -0.09746
-0.03090 0.19671 0.29542
0.22109 0.18360 0.11520
-0.08776 -0.18360 -0.05346
0.06841 0.19671 -0.22206
0.08195 -0.18360 -0.16914
-0.13855 0.18360 -0.00335
-0.05644 -0.19671 0.02371
0.20237 0.19671 0.10416
-0.20194 0.18360 -0.12021
-0.30061 0.19671 0.00806
-0.13817 0.19671 -0.05727
-0.19755 0.19671 0.06724
-0.29348 0.19643 -0.11037
-0.01595 0.18360 -0.21001
-0.09269 0.19671 -0.05632
0.12738 0.18360 -0.24089
0.06042 0.17214 -0.16301
-0.23436 0.19671 -0.08661
0.10412 0.19671 -0.21890
0.01878 0.18360 0.26595
0.08776 0.02357 0.04345
-0.11720 0.18360 0.26023
0.12852 0.18360 -0.16277
-0.05138 0.18360 -0.26849
-0.00601 0.19671 0.27762
0.19447 0.18360 0.01384
-0.29259 0.19671 0.02808
0.01212 0.19671 0.06677
-0.01677 0.19671 -0.06502
-0.29435 0.18360 -0.03371
-0.09356 -0.03001 -0.03166
0.03353 0.19671 -0.31334
-0.08554 0.18360 0.04070
-0.25044 0.19671 0.02128
0.15050 0.18360 -0.19035
0.18657 0.19671 0.02244
0.03022 0.18360 -0.18302
0.14937 -0.18360 -0.07736
0.21374 0.19671 -0.13112
-0.25211 0.19671 0.09548
-0.02098 0.19671 -0.10463
0.00267 0.18360 0.24174
-0.00467 0.18360 -0.02996
-0.13337 0.19671 -0.25906
0.11564 0.18360 -0.01431
-0.10372 0.18360 0.10952
-0.22447 0.18360 -0.15348
-0.05877 -0.19671 -0.12830
-0.06051 0.19671 -0.06853
0.09483 0.01775 0.04638
-0.20148 0.18360 -0.22632
0.02780 0.18360 0.28756
-0.23736 0.19290 -0.20394
0.30368 0.19671 -0.04667
0.11995 -0.18360 0.03655
0.00299 0.18360 -0.03978
0.07857 0.18423 -0.30200
0.08764 0.18360 -0.03722
0.10312 0.18360 -0.07983
0.17333 0.18360 -0.15936
-0.16600 0.19671 -0.16771
0.03917 -0.18360 -0.04933
-0.05447 0.18360 0.21667
-0.06016 -0.18360 -0.06621
0.02750 -0.19671 -0.18028
-0.13152 0.18377 -0.28438
0.13184 0.19671 -0.28837
0.10198 -0.08459 0.04934
0.08469 -0.18360 0.13400
-0.03175 -0.18360 -0.14748
0.09405 -0.18360 0.13730
-0.12397 0.18360 -0.15026
-0.15011 0.18360 0.01065
0.02948 -0.18360 -0.12292
0.26848 0.18360 -0.03954
0.09363 0.19671 -0.23775
-0.04616 0.06413 0.09431
0.12065 0.19671 0.16123
0.16973 0.19671 0.22067
0.00656 0.19671 -0.20516
-0.18852 -0.18834 0.01063
0.25578 0.18360 -0.03803
0.12052 0.19671 0.05807
-0.02810 0.19671 0.10826
0.12253 0.18360 -0.06203
-0.06895 -0.18360 0.17471
-0.27207 0.18360 -0.08393
-0.03651 0.19671 0.12458
0.09715 0.18360 0.05649
-0.17045 0.17855 -0.07189
-0.03361 0.18753 -0.31204
0.03166 0.18360 0.30647
-0.09834 0.19671 0.18337
0.16471 0.19616 0.26522
-0.02698 0.18360 -0.18472
