0.09105 0.08155 -0.34113
0.09101 -0.10764 -0.34288
0.09129 0.10289 -0.33091
0.09050 -0.18286 -0.36513
0.09085 -0.04878 -0.35013
0.09115 0.03110 -0.33703
-0.02424 0.28662 -0.35890
-0.00357 0.28662 -0.35805
0.10015 0.28662 -0.37362
-0.07751 0.28662 -0.36984
0.03340 0.28662 -0.36704
-0.06436 0.28662 -0.37229
-0.00324 0.28662 -0.36516
0.08593 -0.14017 -0.37420
0.08202 -0.14991 -0.37420
0.07987 -0.07501 -0.37420
0.08762 -0.28014 -0.37420
0.08146 0.01014 -0.37420
0.07759 -0.09913 -0.37420
0.07668 -0.27069 -0.37420
0.08134 0.28189 -0.21297
0.08134 0.27404 -0.05481
0.08134 0.27145 0.10646
0.08134 0.26862 0.28726
0.08134 0.27489 0.29865
0.08134 0.28091 0.25749
0.08134 0.26798 0.20634
0.08134 0.27074 0.19376
0.08134 0.26189 0.18329
0.08134 0.25414 0.29779
0.08134 0.27225 0.07076
0.08134 0.27671 0.21490
0.08134 0.26764 0.17322
0.08134 0.25001 0.27151
0.08134 0.26174 0.02473
0.08134 0.26779 -0.02919
0.08134 0.28359 0.00313
0.08134 0.25444 0.24045
0.08134 0.26957 0.32057
0.08134 0.27980 -0.15930
0.08134 0.28467 -0.01202
0.08134 0.27824 0.31351
0.08134 0.27680 0.32039
0.08134 0.28325 0.17042
0.08134 0.26841 0.16684
0.08134 0.28636 -0.08338
0.09102 -0.10875 0.36120
0.09127 -0.15184 0.37188
0.09088 -0.10930 0.35502
0.09079 -0.29367 0.35095
0.09122 0.03634 0.36973
0.09120 -0.10090 0.36911
0.09075 -0.15445 0.34912
0.09056 -0.29517 0.34087
0.09104 -0.24401 0.36206
0.09089 -0.00223 0.35542
0.09116 -0.04784 0.36718
0.09096 0.06494 0.35840
0.09061 -0.21347 0.34315
0.09108 -0.05710 0.36345
0.09074 -0.13517 0.34879
0.09102 0.02634 0.36103
0.09090 -0.15118 0.35559
0.09076 -0.12066 0.34953
0.09100 -0.21840 0.36007
0.09105 -0.29677 0.36231
0.09089 -0.24275 0.35540
0.04915 0.29725 -0.38216
-0.00395 0.30184 -0.38216
0.10722 0.29033 0.09764
0.10858 0.29169 0.35515
0.10715 0.29027 0.14323
0.10545 0.28857 -0.06768
0.10676 0.28988 0.31250
0.10527 0.28839 -0.03320
-0.08454 0.29230 -0.37988
0.03707 0.28788 -0.37546
-0.00216 0.28662 0.36912
-0.01691 0.28662 0.37153
0.11146 0.29689 -0.37873
0.11146 0.29701 -0.23978
0.11146 0.29680 -0.20800
0.11146 0.30083 -0.03168
0.11146 0.30108 -0.15002
-0.09197 0.10339 -0.33717
-0.09207 -0.02753 -0.34131
-0.09225 -0.18596 -0.34922
-0.09201 -0.16447 -0.33876
-0.09193 -0.19157 -0.33539
-0.09185 0.18894 -0.33171
-0.09206 -0.24941 -0.34106
-0.09199 0.06967 -0.33791
-0.09194 0.09060 -0.33561
-0.09214 0.07276 -0.34441
-0.09196 -0.01168 -0.33667
-0.09185 0.26545 -0.33196
-0.09249 -0.14452 -0.35970
-0.09193 0.11842 -0.33522
-0.09237 -0.11365 -0.35459
-0.09259 -0.20705 -0.36402
-0.09199 -0.27036 -0.33790
-0.09188 -0.00085 -0.33305
-0.09228 -0.10976 -0.35060
-0.09237 -0.20646 -0.35440
0.04063 0.22388 -0.34313
0.00434 0.25354 -0.34313
-0.04170 0.28027 -0.34313
-0.00401 0.26414 -0.34313
0.06886 0.23617 -0.34313
0.00933 0.23252 -0.34313
0.06831 0.26376 -0.34313
0.05866 0.26856 -0.34313
0.01751 0.27019 -0.34313
0.00423 0.27289 -0.34313
0.00702 0.28532 -0.34313
-0.01281 0.24913 -0.34313
0.05491 0.25349 -0.34313
0.09034 0.13976 -0.37218
0.09105 0.25700 -0.34136
0.09123 0.28013 -0.33339
0.09037 0.22093 -0.37100
0.09039 -0.06150 -0.37019
0.09048 0.01467 -0.36598
0.09064 0.24812 -0.35919
0.09050 0.03685 -0.36516
0.09051 0.26795 -0.36465
0.09111 0.28244 -0.33881
0.09062 0.14229 -0.36020
0.09084 0.20963 -0.35029
0.09031 0.10341 -0.37379
0.09048 -0.06587 -0.36636
0.09042 0.13273 -0.36887
0.09040 -0.15328 -0.36986
0.09053 -0.08841 -0.36398
0.09064 0.05071 -0.35912
0.09111 0.22864 -0.33864
0.09062 0.12977 -0.35990
0.09048 0.24723 -0.36639
0.07635 0.25785 -0.34050
-0.06985 0.19108 -0.33774
-0.04565 0.19108 -0.34201
-0.09886 0.18954 -0.33067
-0.10005 0.26617 -0.33067
-0.09836 0.04266 -0.33067
-0.09695 0.23067 -0.33067
-0.10287 -0.15202 -0.33067
-0.09922 0.25199 -0.33067
-0.10639 -0.12231 -0.33067
-0.10386 0.03900 -0.33067
-0.10196 0.22645 -0.37420
-0.10199 0.15356 -0.37420
-0.09284 0.21546 -0.37420
-0.10018 0.02843 -0.37420
-0.09807 0.19096 -0.37420
-0.09340 -0.26264 -0.37420
-0.09220 -0.12924 0.35636
-0.09225 -0.06208 0.35457
-0.09204 0.04894 0.36373
-0.09262 -0.22605 0.33835
-0.09229 -0.17073 0.35242
-0.09183 -0.03597 0.37256
-0.09188 0.20034 0.37043
-0.09190 0.23595 0.36988
-0.09253 -0.13560 0.34216
-0.09191 -0.04879 0.36943
-0.09214 -0.18776 0.35921
-0.09236 -0.04531 0.34972
-0.09220 -0.20384 0.35644
-0.09233 -0.26499 0.35099
-0.09232 -0.02287 0.35115
-0.09214 -0.15700 0.35902
-0.09191 0.18582 0.36935
-0.09191 -0.25969 0.36922
-0.09257 -0.16724 0.34049
-0.09183 0.09845 0.37292
-0.09195 0.14935 0.36755
-0.10700 -0.25211 0.35057
-0.10725 -0.23747 0.33960
-0.10732 -0.28664 0.33634
-0.10705 -0.20813 0.34819
-0.10747 0.21513 0.33002
-0.10734 -0.27532 0.33558
-0.10676 -0.15371 0.36123
-0.10744 -0.10029 0.33147
-0.10740 0.22262 0.33296
-0.10680 -0.14264 0.35902
-0.10748 -0.16392 0.32964
-0.10744 -0.19612 0.33137
-0.10718 -0.04182 0.34272
-0.10676 -0.27718 0.36086
-0.10733 -0.18552 0.33589
-0.10719 -0.05816 0.34234
-0.10721 0.09696 0.34132
-0.10731 -0.29982 0.33696
-0.10677 -0.23963 0.36047
-0.10724 -0.00244 0.33999
-0.10743 -0.29190 0.33185
-0.09831 0.29830 -0.38216
-0.07810 0.29668 -0.38216
-0.09183 0.21170 0.37213
-0.09183 0.23025 -0.33370
-0.09828 -0.30254 -0.34171
-0.09253 0.00124 0.34226
-0.09258 0.09665 0.33988
-0.09274 0.23570 0.33290
-0.09261 0.28078 0.33864
-0.09257 0.08221 0.34030
-0.09273 -0.01672 0.33344
-0.09225 0.08151 0.35439
-0.09275 -0.22952 0.33239
-0.09211 0.27143 0.36031
-0.09261 -0.12643 0.33863
-0.09249 -0.06123 0.34381
-0.09196 0.24247 0.36710
-0.09225 0.04007 0.35415
-0.09272 0.15976 0.33361
-0.09200 0.27530 0.36540
-0.09253 0.05796 0.34201
-0.09206 0.21971 0.36270
-0.09274 0.00395 0.33283
-0.09231 0.20925 0.35157
-0.09206 0.16103 0.36267
-0.09241 0.09724 0.34745
-0.09231 0.27623 0.35195
-0.00662 0.26069 -0.33067
-0.08271 0.26633 -0.33067
-0.07495 0.27711 -0.33067
0.01114 0.27934 -0.33067
-0.01710 0.25150 -0.33067
-0.01379 0.25917 -0.33067
-0.05365 0.26439 -0.33067
-0.05878 0.23974 -0.33067
-0.07706 0.27132 -0.33067
0.05844 0.28378 -0.33067
-0.08904 0.21711 -0.33067
-0.04216 0.23578 -0.33067
-0.04758 0.26881 -0.33067
-0.09203 -0.10606 -0.33969
-0.09207 0.07913 -0.34159
-0.09210 -0.12047 -0.34277
-0.09194 -0.25844 -0.33576
-0.09230 -0.22091 -0.35122
-0.09223 -0.29490 -0.34829
-0.09183 0.09950 -0.33069
-0.09188 -0.07570 -0.33317
-0.09236 -0.13405 -0.35422
-0.09220 -0.24250 -0.34691
-0.09202 -0.22757 -0.33916
-0.09192 -0.02931 -0.33486
-0.09195 0.20420 -0.33634
-0.09187 -0.17093 -0.33279
-0.09252 -0.16003 -0.36098
0.07578 0.20185 0.33587
0.07598 0.14433 0.34429
0.07662 -0.05861 0.37240
0.07630 0.05327 0.35872
0.07663 0.09081 0.37284
0.07655 -0.14935 0.36955
0.07638 -0.07378 0.36219
0.07649 0.28393 0.36667
0.07622 0.20752 0.35495
0.07653 -0.08804 0.36864
0.07621 -0.05170 0.35458
0.07594 0.26476 0.34291
0.07634 0.13469 0.36033
0.07625 0.22234 0.35634
0.07635 0.20706 0.36065
0.07614 0.15963 0.35140
0.07652 0.26863 0.36804
0.07576 0.25596 0.33494
0.07592 0.16150 0.34186
0.07612 0.12526 0.35062
0.07625 -0.01272 0.35640
0.07662 0.27376 0.37257
-0.10712 0.12522 0.34521
-0.10726 0.27080 0.33902
-0.10671 0.25116 0.36300
-0.10692 0.09361 0.35389
-0.10682 0.00776 0.35819
-0.10666 -0.01628 0.36531
-0.10696 0.03825 0.35220
-0.10689 0.10515 0.35524
-0.10680 0.02954 0.35902
-0.10713 0.10733 0.34478
-0.10679 -0.12410 0.35980
-0.10736 0.27930 0.33476
-0.10668 -0.16208 0.36466
-0.10726 0.17992 0.33935
-0.10681 -0.03023 0.35881
-0.10713 0.11814 0.34476
-0.10651 -0.24059 0.37208
-0.10659 -0.17071 0.36847
-0.10671 -0.13094 0.36338
-0.10723 0.20774 0.34056
-0.10451 0.19645 -0.37420
-0.09359 -0.00406 -0.37420
-0.09818 0.14546 -0.37420
-0.10083 0.28576 -0.37420
-0.09754 -0.05411 -0.37420
-0.09660 0.05201 -0.37420
-0.10691 0.28515 -0.34940
-0.10689 0.21418 -0.34843
-0.10665 -0.13516 -0.33761
-0.10680 0.13667 -0.34442
-0.10713 0.13221 -0.35889
-0.10670 0.10427 -0.34007
-0.10659 0.03705 -0.33538
-0.10723 0.22301 -0.36300
-0.10649 -0.30020 -0.33072
-0.10651 -0.17705 -0.33179
-0.10707 0.14027 -0.35624
-0.10679 0.12104 -0.34385
-0.10662 -0.14728 -0.33643
-0.10658 -0.00533 -0.33477
-0.10730 0.27377 -0.36629
-0.10702 0.23409 -0.35387
-0.10704 0.03494 -0.35501
0.05605 0.19108 0.36908
0.03280 0.19108 0.36415
0.06248 0.19108 -0.33121
-0.04685 0.19108 -0.33350
-0.09680 0.25474 0.02136
-0.09680 0.24430 0.01091
-0.09680 0.24516 0.12020
-0.09680 0.24573 -0.02916
-0.09680 0.25120 -0.22664
-0.09680 0.24591 -0.27888
-0.09680 0.25541 -0.28332
-0.09680 0.24159 -0.02404
-0.09680 0.24746 -0.32240
-0.09680 0.26436 -0.18794
-0.09680 0.24901 0.05612
-0.09680 0.25382 -0.15090
-0.09680 0.25280 -0.01058
-0.09680 0.23545 -0.03428
-0.09680 0.25535 -0.20118
-0.09680 0.23534 0.02836
-0.09680 0.23714 -0.14958
-0.09680 0.25091 -0.05022
-0.09680 0.27102 -0.19657
-0.09680 0.26119 -0.20960
-0.09680 0.26573 -0.12083
-0.09680 0.25365 -0.30043
-0.09680 0.23883 -0.28045
-0.09680 0.26543 -0.09130
-0.09680 0.24526 -0.13428
-0.09680 0.25678 -0.02691
-0.09680 0.24175 0.19723
0.07668 -0.26356 0.32941
0.07913 -0.09122 0.32941
0.08456 -0.20286 0.32941
0.07920 0.01035 0.32941
0.08169 -0.16054 0.32941
0.08566 -0.16791 0.32941
0.08509 -0.24401 0.32941
-0.09183 0.25067 0.36154
0.01786 0.20816 0.36048
-0.08605 0.28269 0.36048
-0.05864 0.20081 0.36048
0.04834 0.19929 0.36048
-0.05159 0.19520 0.36048
0.04370 0.20262 0.36048
-0.02605 0.20876 0.36048
-0.06915 0.26829 0.36048
0.00048 0.23034 0.36048
0.05700 0.19381 0.36048
0.01623 0.21753 0.36048
-0.03834 0.19138 0.36048
-0.01340 0.21259 0.36048
-0.01460 0.30254 -0.21721
0.10105 0.30254 -0.31755
-0.07040 0.30254 -0.27390
-0.01515 0.30254 -0.21161
0.01363 0.30254 -0.33777
0.06934 0.30254 0.18112
0.06020 0.30254 -0.17511
-0.07853 0.30254 -0.30408
0.07314 0.30254 -0.20636
0.08923 0.30254 -0.31660
-0.04464 0.30254 -0.32389
0.06720 0.30254 -0.17888
-0.06224 0.30254 -0.32248
0.07346 0.30254 0.05411
-0.02812 0.30254 -0.22892
0.03022 0.30254 -0.32414
0.01009 0.30254 -0.03142
-0.03427 0.30254 -0.35299
0.09004 0.30254 -0.23183
-0.07077 0.30254 -0.36940
-0.00015 0.30254 -0.11716
-0.02494 0.30254 -0.13838
0.05413 0.30254 -0.01542
0.07132 0.30254 -0.17519
-0.00389 0.30254 -0.32294
0.07929 0.30254 0.10928
0.11142 0.30254 0.12353
0.06313 0.30254 0.13517
-0.04575 0.30254 -0.24230
0.10940 0.30254 -0.34033
0.06930 0.30254 -0.34579
0.05460 0.30254 0.04364
-0.02312 0.30254 -0.25875
-0.05105 0.30254 -0.35299
0.04576 0.30254 -0.25847
-0.04898 0.30254 -0.22240
0.10877 0.30254 0.29917
0.07909 0.30254 -0.08823
0.05622 0.30254 -0.03786
0.07280 0.30254 -0.19218
0.00633 0.30254 -0.08381
-0.05129 0.30254 -0.18036
0.05042 0.30254 0.16299
0.11006 0.30254 -0.20462
0.01706 0.30254 -0.30729
0.07273 0.30254 -0.13561
0.02340 0.30254 -0.07807
-0.00074 0.30254 -0.10395
0.01543 0.30254 0.03609
0.11028 0.30254 -0.36954
0.10573 0.30254 0.16426
-0.04064 0.30254 -0.25619
0.03256 0.30254 -0.34482
0.10769 0.30254 0.23505
0.03825 0.30254 0.06873
0.02058 0.30254 -0.28462
0.05052 0.30254 -0.23704
0.09521 0.30254 0.13277
0.08585 0.30254 -0.04707
-0.07736 0.30254 -0.28418
0.06362 0.30254 0.10226
0.05314 0.30254 0.14224
-0.06775 0.30254 -0.38148
-0.08808 0.30254 -0.34451
-0.03127 0.30254 -0.36319
0.04643 0.30254 -0.37429
0.07445 0.30254 -0.31764
0.04673 0.30254 0.13836
0.04271 0.30254 -0.06652
-0.03342 0.30254 -0.14279
0.09372 0.30254 0.18766
-0.00513 0.30254 -0.24875
-0.03620 0.30254 -0.33090
0.11100 0.30254 0.18654
0.09139 0.30254 -0.38177
0.07449 0.30254 0.25077
-0.01915 0.30254 -0.37599
-0.07790 0.30254 -0.27021
0.09728 0.30254 0.04729
-0.03563 0.30254 -0.34170
0.06559 0.30254 0.01358
0.04942 0.30254 -0.24913
0.02355 0.30254 -0.02317
0.10588 0.30254 -0.15798
-0.06895 0.30254 -0.35688
-0.02913 0.30254 -0.28465
0.07475 0.30254 0.17126
0.02684 0.30254 0.01085
-0.04747 0.30254 -0.18704
0.04095 0.30254 -0.30501
-0.02234 0.30254 -0.12989
-0.03918 0.30254 -0.15811
0.08669 0.30254 -0.11974
0.08725 0.30254 0.28271
0.10589 0.30254 -0.11351
0.09706 0.30254 0.11192
0.05813 0.30254 -0.20437
-0.00955 0.30254 -0.11222
-0.05880 0.30254 -0.21918
0.02176 0.30254 -0.00287
0.00289 0.30254 -0.37303
0.07885 0.30254 0.19580
0.09860 0.30254 0.25484
0.04846 0.30254 -0.07557
0.09980 0.30254 -0.27005
0.07555 0.30254 0.08403
0.03283 0.30254 -0.04538
0.07638 0.30254 0.06541
0.03544 0.30254 -0.11704
0.10261 0.30254 0.03019
-0.06736 0.30254 -0.25012
0.01333 0.30254 -0.06978
0.02053 0.30254 0.03401
0.02138 0.30254 -0.17016
0.05049 0.30254 -0.21857
-0.00489 0.30254 -0.18726
0.08586 0.30254 -0.00809
0.02924 0.30254 0.08175
0.01698 0.30254 -0.13497
0.00051 0.30254 -0.14258
-0.01478 0.30254 -0.09195
0.08874 0.30254 -0.34113
0.08968 0.30254 -0.01743
0.06006 0.30254 0.01082
-0.00392 0.30254 -0.07398
0.00068 0.30254 -0.25484
0.00033 0.30254 -0.26619
-0.01564 0.30254 -0.13399
0.03904 0.30254 -0.20687
-0.02507 0.30254 -0.35445
0.07294 0.30254 -0.29732
-0.01330 0.30254 -0.33653
0.04217 0.30254 0.03911
0.09634 0.30254 -0.13475
-0.03670 0.30254 -0.27146
0.03452 0.30254 0.04640
0.09315 0.30254 0.29839
0.06690 0.30254 -0.27930
-0.00973 0.30254 -0.05409
0.04515 0.30254 -0.16418
0.09075 0.30254 -0.28753
-0.07292 0.30254 -0.34118
0.08856 0.28662 0.02744
0.08395 0.28662 -0.25310
0.08451 0.28662 -0.23255
0.08595 0.28662 -0.31794
0.08600 0.28662 -0.10675
0.08181 0.28662 -0.13556
0.08164 0.28662 0.11640
0.08344 0.28662 -0.11278
0.08175 0.28662 0.10364
0.10555 0.28867 -0.11955
0.10836 0.29148 0.31999
0.10862 0.29174 0.29053
0.10376 0.28687 0.13620
0.10516 0.28828 -0.04121
0.10399 0.28711 -0.20581
0.10488 0.28800 -0.17128
-0.10550 0.26114 0.37294
-0.10258 0.24483 0.37294
-0.10604 -0.23258 0.37294
-0.10199 -0.09411 0.37294
-0.10385 0.25404 0.37294
-0.10616 -0.19760 0.37294
-0.10438 0.10439 0.37294
-0.07234 0.29938 -0.38216
0.08052 -0.24671 0.37294
0.08848 -0.18816 0.37294
0.08043 -0.27519 0.37294
0.08849 -0.25897 0.37294
0.08609 -0.29280 0.37294
-0.10499 -0.22694 0.32941
-0.10677 -0.06638 0.32941
-0.10435 0.11238 0.32941
-0.10672 0.18768 0.32941
-0.10450 0.03072 0.32941
-0.10556 -0.11338 0.32941
-0.10442 -0.08005 0.32941
0.07635 0.21941 0.37052
0.08134 0.27497 -0.24678
0.08134 0.24922 -0.00331
0.08134 0.24702 -0.21703
0.08134 0.27274 -0.16878
0.08134 0.24624 0.17452
0.08134 0.26393 -0.06241
0.08134 0.25960 -0.28706
0.08134 0.27955 -0.30058
0.08134 0.24077 -0.11615
0.08134 0.25247 0.02869
0.08134 0.27251 -0.21757
0.08134 0.23503 0.25580
0.08134 0.25237 -0.17334
0.08134 0.25684 -0.20226
0.08134 0.26618 -0.12088
0.08134 0.25230 -0.10286
0.08134 0.24271 -0.04506
0.08134 0.26647 -0.26511
0.08134 0.23913 0.17606
0.08134 0.25278 0.07147
0.08134 0.26164 -0.27492
0.08134 0.26285 -0.03486
0.08134 0.24545 0.04515
0.08134 0.27739 -0.28465
0.08134 0.24119 0.10013
0.08134 0.23697 -0.03689
0.08134 0.24387 0.15835
0.08134 0.24283 -0.19858
-0.09041 0.27619 -0.29778
-0.09286 0.26002 -0.13354
-0.09041 0.27620 0.11179
-0.09077 0.27383 -0.30546
-0.08923 0.28402 -0.29478
-0.09089 0.27306 -0.04771
-0.09333 0.25684 -0.15561
-0.08931 0.28352 -0.00482
-0.09270 0.26105 -0.14629
-0.09059 0.27505 -0.25838
-0.08980 0.28029 -0.20382
-0.08980 0.28024 0.12045
-0.09422 0.25099 -0.31585
-0.09421 0.25104 -0.20916
-0.09075 0.27398 -0.31682
-0.09038 0.27642 0.01618
-0.09101 0.27227 -0.17483
-0.09175 0.26736 -0.30598
-0.09419 0.25117 -0.26595
-0.09156 0.26860 -0.00612
-0.08912 0.28475 -0.17248
-0.08945 0.28260 0.22095
-0.08941 0.28283 0.02009
-0.08928 0.28368 0.27517
-0.08908 0.28502 0.11075
-0.03032 0.28662 -0.36474
-0.01700 0.28662 -0.36833
0.01574 0.28662 -0.37001
-0.07169 0.28662 -0.36110
-0.05233 0.28662 -0.36745
-0.04706 0.28662 -0.35079
-0.05905 0.28662 -0.35076
-0.01564 0.27996 0.37294
-0.07552 0.25803 0.37294
-0.03794 0.26192 0.37294
-0.07011 0.26816 0.37294
0.02735 0.25996 0.37294
-0.00167 0.24336 0.37294
-0.01428 0.25991 0.37294
-0.05729 0.27130 0.37294
0.04589 0.27144 0.37294
-0.00471 0.26031 0.37294
0.00094 0.25388 0.37294
-0.00951 0.30073 0.38216
-0.09550 0.29856 0.38216
0.09046 0.10997 -0.36720
0.09032 -0.21618 -0.37323
0.09051 0.07408 -0.36467
0.09056 0.16999 -0.36254
0.09102 0.20872 -0.34241
0.09085 0.10100 -0.35000
0.09117 0.23348 -0.33597
0.09070 0.27235 -0.35653
0.09056 0.07984 -0.36248
0.09084 0.23763 -0.35061
0.09033 -0.16704 -0.37289
0.09043 -0.03033 -0.36837
0.09087 0.14947 -0.34912
0.09060 -0.03171 -0.36108
0.09065 0.26308 -0.35881
0.09091 0.09113 -0.34718
0.09067 0.15002 -0.35771
0.09107 0.27077 -0.34060
0.09058 0.28225 -0.36165
0.08522 -0.30254 -0.34825
-0.09211 0.28662 -0.27348
-0.10149 0.28662 -0.16415
-0.09305 0.28662 -0.28508
-0.10347 0.28662 -0.13978
-0.10129 0.28662 -0.22420
-0.09708 0.28662 -0.12644
-0.10010 0.28662 -0.25964
-0.09709 0.28662 0.00930
-0.07148 0.30254 -0.21513
-0.07075 0.30254 -0.19989
0.01732 0.30254 0.06138
0.04485 0.30254 0.22496
-0.03270 0.30254 0.27686
-0.04981 0.30254 -0.15214
-0.07384 0.30254 -0.13701
-0.00673 0.30254 0.35240
-0.04325 0.30254 0.22591
0.08971 0.30254 0.34684
-0.01553 0.30254 0.23351
0.01197 0.30254 0.36410
-0.01800 0.30254 0.25841
-0.00814 0.30254 0.07535
-0.04213 0.30254 0.17817
0.00105 0.30254 0.37599
-0.10109 0.30254 -0.22965
-0.04739 0.30254 0.08436
0.01171 0.30254 0.09433
0.01339 0.30254 0.08456
-0.06279 0.30254 -0.09277
-0.08268 0.30254 -0.05039
-0.07034 0.30254 0.11077
0.06816 0.30254 0.33854
-0.04640 0.30254 0.06353
0.03587 0.30254 0.19275
-0.01582 0.30254 -0.00696
-0.07763 0.30254 0.11879
0.06106 0.30254 0.26066
-0.10609 0.30254 0.28801
-0.06732 0.30254 0.02813
-0.07574 0.30254 -0.07593
-0.03736 0.30254 0.37361
-0.08945 0.30254 0.09716
-0.04220 0.30254 -0.00271
-0.10051 0.30254 0.08747
-0.10742 0.30254 0.06987
-0.03845 0.30254 -0.05224
-0.06656 0.30254 0.10242
-0.07914 0.30254 0.07707
-0.05153 0.30254 -0.11688
-0.10455 0.30254 -0.17803
-0.06933 0.30254 -0.08487
-0.09194 0.30254 -0.09217
-0.03656 0.30254 0.19703
-0.10803 0.30254 0.13361
-0.06359 0.30254 -0.21296
-0.06885 0.30254 0.00954
-0.02411 0.30254 0.08414
-0.08070 0.30254 0.01182
0.02606 0.30254 0.18368
-0.00552 0.30254 0.21638
-0.07482 0.30254 -0.19411
-0.08383 0.30254 -0.03671
-0.04706 0.30254 0.38137
-0.01553 0.30254 0.36731
0.07464 0.30254 0.28831
-0.03084 0.30254 0.09473
0.02251 0.30254 0.29106
-0.04188 0.30254 0.24727
0.03725 0.30254 0.37306
-0.07567 0.30254 0.23268
-0.11122 0.30254 0.24070
-0.09974 0.30254 0.03689
-0.09395 0.30254 0.34065
-0.07088 0.30254 -0.05672
-0.04894 0.30254 0.28355
0.00200 0.30254 0.27357
0.03694 0.30254 0.21356
-0.09954 0.30254 0.24720
-0.01074 0.30254 0.18535
-0.04057 0.30254 -0.06987
-0.06925 0.30254 0.17556
0.09244 0.30254 0.34067
-0.09188 0.30254 0.19995
-0.08278 0.30254 0.11597
-0.04515 0.30254 -0.02272
-0.09825 0.30254 0.23674
-0.07601 0.30254 0.30227
0.06702 0.30254 0.24024
-0.08829 0.30254 0.27725
0.00668 0.30254 0.07960
-0.06888 0.30254 -0.04474
-0.10602 0.30254 0.26302
-0.01107 0.30254 0.15991
-0.08342 0.30254 -0.12934
-0.02608 0.30254 0.36240
-0.05991 0.30254 0.01393
-0.08808 0.30254 -0.06380
0.02325 0.30254 0.34158
-0.09820 0.30254 0.15583
-0.06637 0.30254 0.35682
-0.08988 0.30254 0.33016
-0.10864 0.30254 0.15808
-0.10758 0.30254 -0.12554
-0.03787 0.30254 0.36023
-0.00058 0.30254 0.12921
-0.10225 0.30254 0.00360
-0.07218 0.30254 -0.12928
-0.05047 0.30254 0.31680
-0.10056 0.30254 0.04624
-0.01356 0.30254 0.00058
-0.10166 0.30254 -0.19740
-0.04261 0.30254 0.07693
-0.01529 0.30254 0.32902
-0.07473 0.30254 -0.02763
-0.09500 0.30254 -0.11099
-0.02910 0.30254 0.16938
0.04759 0.30254 0.27186
-0.05094 0.30254 0.30290
-0.02053 0.30254 -0.04132
-0.03256 0.30254 -0.10916
-0.08841 0.30254 0.05899
0.00042 0.30254 0.07508
-0.07646 0.30254 0.05423
-0.11100 0.30254 -0.06093
-0.08983 0.28662 -0.01688
-0.09000 0.28662 -0.08223
-0.09355 0.28662 -0.06710
0.08134 0.27624 0.02056
0.08134 0.26923 0.29538
0.08134 0.28067 0.09049
0.08134 0.27026 0.01397
0.08134 0.26588 0.25474
0.08134 0.27041 -0.04087
0.08134 0.27169 -0.10726
0.08134 0.26104 0.24821
0.08134 0.28529 -0.12970
0.08134 0.25786 0.29044
0.08134 0.28108 0.24645
0.08134 0.28523 0.13965
0.08134 0.24793 0.31800
0.08134 0.28548 0.01689
0.08134 0.25958 0.01232
0.08134 0.27625 0.18870
0.08134 0.27214 0.24169
0.08134 0.28057 -0.01603
0.08134 0.23779 0.28834
0.08134 0.27970 0.29357
0.08134 0.24766 0.26486
0.08134 0.27838 -0.18413
0.08134 0.28613 0.32603
0.10782 0.29136 -0.37894
0.09519 0.28783 -0.37541
0.04438 0.19108 0.36129
-0.02863 0.19108 0.36379
-0.10464 0.28775 0.33185
-0.10855 0.29167 0.13408
-0.10355 0.28666 0.18286
-0.10425 0.28737 -0.19959
-0.10460 0.28771 -0.06605
-0.10723 0.29035 0.36245
0.06084 0.28898 -0.37656
0.04182 0.29238 -0.37996
0.08134 0.25385 0.05577
0.08134 0.25546 0.00464
0.08134 0.27934 -0.27375
0.08134 0.25811 -0.11542
0.08134 0.25884 -0.14551
0.08134 0.25077 -0.16357
0.08134 0.25544 -0.05533
0.08134 0.23713 -0.10734
0.08134 0.26566 -0.20521
0.08134 0.25740 -0.00600
0.08134 0.25474 -0.31425
0.08134 0.24203 -0.27592
0.08134 0.24670 -0.28698
0.08134 0.23665 -0.02387
0.08134 0.23940 -0.24731
0.08134 0.25964 -0.01889
0.08134 0.24140 -0.21919
0.08134 0.27348 -0.32877
0.08134 0.23693 -0.25929
0.08134 0.24498 -0.03862
0.08134 0.26234 -0.29356
0.08134 0.25074 0.03854
-0.06953 0.19967 -0.33067
0.04799 0.19322 -0.33067
0.05740 0.26627 -0.33067
0.05428 0.21615 -0.33067
0.03679 0.20592 -0.33067
0.03661 0.23675 -0.33067
-0.01954 0.20161 -0.33067
0.03590 0.21540 -0.33067
0.04004 0.26239 -0.33067
0.04149 0.22155 -0.33067
0.03039 0.25695 -0.33067
-0.02797 0.19899 -0.33067
-0.00880 0.21127 -0.33067
0.02297 0.23483 -0.33067
0.08785 0.20410 -0.37420
0.09028 -0.09930 -0.37420
0.08410 0.25473 -0.37420
0.08456 0.26167 -0.37420
0.08841 0.09225 -0.37420
0.08487 -0.07245 -0.37420
0.09048 0.23680 0.33746
0.09100 0.14801 0.36016
0.09086 0.13742 0.35407
0.09036 -0.21497 0.33214
0.09045 -0.01710 0.33597
0.09066 0.14412 0.34527
0.09097 0.13432 0.35884
0.09082 0.28625 0.35219
0.09103 0.21477 0.36150
0.09033 0.08976 0.33093
0.09061 0.05945 0.34326
0.09092 0.26260 0.35667
0.09074 0.01790 0.34863
0.09038 0.10442 0.33304
0.09092 0.07880 0.35683
0.09086 0.19007 0.35423
0.09094 0.12636 0.35764
0.09091 0.09551 0.35613
0.09050 0.06564 0.33844
0.09107 0.16961 0.36333
0.10996 0.29307 -0.19151
0.10917 0.29229 -0.16223
0.10613 0.28924 -0.34586
0.10943 0.29254 -0.20503
0.10919 0.29231 -0.12353
0.11009 0.29320 -0.10914
-0.09680 0.23648 0.20639
-0.09680 0.24783 -0.24908
-0.09680 0.26825 -0.31572
-0.09680 0.26525 -0.29064
-0.09680 0.25402 -0.08369
-0.09680 0.24806 -0.19817
-0.09680 0.24685 -0.10967
-0.09680 0.23553 0.18248
-0.09680 0.24048 -0.08982
-0.09680 0.25719 -0.19499
-0.09680 0.23745 -0.08179
-0.09680 0.24484 -0.05234
-0.09680 0.23844 -0.32409
-0.09680 0.25436 -0.22204
-0.09680 0.23757 -0.13537
-0.09680 0.25450 -0.13046
-0.09680 0.25205 -0.11856
-0.09680 0.24238 -0.07025
-0.09680 0.27551 -0.29526
-0.09680 0.23422 -0.17347
-0.09680 0.23744 0.17615
-0.09680 0.25479 -0.06523
-0.09680 0.24127 -0.30264
-0.09680 0.23752 -0.16338
-0.09680 0.26361 -0.21543
-0.09680 0.27363 -0.28724
-0.09680 0.27985 -0.26299
-0.09680 0.26345 -0.22339
-0.08934 0.28328 0.10158
-0.09142 0.26953 -0.25578
-0.09094 0.27273 -0.29079
-0.08942 0.28280 0.13656
-0.09058 0.27506 -0.14314
-0.09234 0.26344 -0.25371
-0.09254 0.26213 -0.01536
-0.09273 0.26083 -0.31889
-0.09129 0.27037 -0.16788
-0.08898 0.28569 -0.26729
-0.09145 0.26932 -0.28619
-0.08943 0.28269 -0.03131
-0.09585 0.24016 -0.29515
-0.09221 0.26431 -0.03963
-0.09626 0.23747 -0.30932
-0.09048 0.27575 0.16253
-0.09376 0.25399 -0.31093
-0.09132 0.27016 -0.19480
-0.08924 0.28398 -0.25048
-0.09447 0.24932 -0.19149
-0.09002 0.27880 -0.11421
-0.08995 0.27926 -0.12567
-0.09479 0.24722 -0.21822
-0.08915 0.28457 -0.24062
-0.09144 0.26938 -0.03694
-0.09437 0.24995 -0.16997
-0.09200 0.26566 -0.05295
-0.09183 0.22181 -0.33971
-0.10745 -0.05369 0.33074
-0.10717 -0.17222 0.34290
-0.10702 -0.19508 0.34975
-0.10694 -0.07627 0.35309
-0.10702 -0.03488 0.34968
-0.10723 0.05475 0.34061
-0.10737 -0.12176 0.33455
-0.10733 0.01140 0.33585
-0.10684 -0.24632 0.35742
-0.10738 0.09170 0.33389
-0.10696 -0.21787 0.35213
-0.10730 0.00313 0.33745
-0.10735 -0.26339 0.33508
-0.10712 -0.07232 0.34546
-0.10737 0.12673 0.33417
-0.10711 -0.26982 0.34552
-0.10727 0.07405 0.33848
-0.10710 -0.08536 0.34605
-0.10665 -0.28625 0.36595
-0.10705 -0.11331 0.34833
-0.10693 -0.16403 0.35354
-0.10150 -0.30254 0.33281
-0.10711 0.17007 0.34570
-0.10686 -0.05127 0.35662
-0.10703 0.04692 0.34925
-0.10679 0.28463 0.35956
-0.10687 0.04738 0.35614
-0.10730 0.25200 0.33752
-0.10680 0.05682 0.35916
-0.10666 -0.00706 0.36529
-0.10651 -0.06829 0.37191
-0.10670 0.24037 0.36377
-0.10704 0.28447 0.34862
-0.10690 0.06341 0.35486
-0.10650 0.03098 0.37255
-0.10653 0.05990 0.37115
-0.10675 0.09782 0.36148
-0.10668 -0.03976 0.36432
-0.10693 0.19912 0.35345
0.08029 0.12529 0.37294
0.08000 0.15346 0.37294
0.07922 -0.12790 0.37294
0.08080 0.03987 0.37294
0.08132 -0.06450 0.37294
0.08023 0.05408 0.37294
0.08907 0.24318 0.37294
0.07981 0.22791 0.37294
0.06982 0.28662 -0.34010
0.07146 0.19108 0.36978
0.07195 0.28286 0.37294
0.02333 0.22293 0.37294
0.04972 0.20591 0.37294
-0.00026 0.22100 0.37294
-0.07827 0.19828 0.37294
0.05108 0.23004 0.37294
-0.00690 0.20971 0.37294
0.06319 0.20846 0.37294
-0.07274 0.19655 0.37294
0.07565 0.24234 0.37294
0.06461 0.26641 0.37294
0.03613 0.26179 0.37294
0.06890 0.23658 0.37294
0.07635 0.25017 -0.33469
0.07810 -0.13768 -0.33067
0.08412 0.17661 -0.33067
0.08266 0.26352 -0.33067
0.08211 0.08128 -0.33067
0.11092 0.29403 0.04054
0.10712 0.29024 -0.33127
0.11119 0.29430 0.13719
0.11063 0.29374 0.02651
0.11122 0.29434 -0.33719
0.05003 0.19108 0.36237
-0.04864 0.19108 0.36554
-0.09306 0.25864 0.02849
-0.09258 0.26184 0.07841
-0.09431 0.25036 -0.10007
-0.09672 0.23443 0.21497
-0.09523 0.24427 -0.07800
-0.09092 0.27281 0.21577
-0.09256 0.26199 0.17359
-0.09612 0.23837 -0.18162
-0.09233 0.26349 0.22957
-0.09544 0.24292 0.14983
-0.09666 0.23484 0.12906
-0.09115 0.27128 0.32066
-0.09388 0.25325 0.17539
-0.09435 0.25013 -0.07215
-0.09308 0.25851 0.30122
-0.09600 0.23917 -0.21920
-0.09632 0.23703 -0.07165
-0.09618 0.23796 0.19005
-0.09414 0.25150 0.22908
-0.09644 0.23625 0.03839
-0.09394 0.25286 0.29624
-0.09068 0.27440 0.23816
-0.09221 0.26430 0.21802
-0.09219 0.26441 0.24204
-0.09509 0.24524 0.14383
-0.09057 0.27518 0.19013
-0.09511 0.24510 0.22006
-0.09989 -0.18208 0.37294
-0.09322 -0.08907 0.37294
-0.09348 -0.17489 0.37294
-0.09913 -0.20135 0.37294
-0.09522 -0.27125 0.37294
-0.10539 -0.29224 0.37294
-0.09559 0.04242 0.37294
-0.10756 0.29067 -0.31344
-0.10953 0.29265 -0.06769
-0.11094 0.29406 -0.18314
-0.11050 0.29362 -0.13275
-0.10778 0.29090 -0.28865
-0.10734 0.29046 -0.21827
-0.11079 0.29391 -0.36374
0.10860 0.30254 0.34093
-0.00472 0.30254 -0.31057
0.09835 0.30254 -0.16207
0.09867 0.30254 -0.18585
0.01318 0.30254 -0.06425
0.06257 0.30254 -0.19398
0.10829 0.30254 -0.37927
0.07764 0.30254 0.04959
0.07964 0.30254 -0.05674
0.03983 0.30254 -0.33016
0.11014 0.30254 -0.31055
0.07742 0.30254 -0.22458
0.02438 0.30254 -0.20433
-0.00904 0.30254 -0.27216
0.00344 0.30254 -0.12837
-0.01057 0.30254 -0.22089
0.06020 0.30254 -0.36862
-0.03245 0.30254 -0.30112
-0.08958 0.30254 -0.36938
-0.01193 0.30254 -0.25100
0.03034 0.30254 0.06671
-0.00255 0.30254 -0.36242
0.11135 0.30254 -0.28253
0.07411 0.30254 0.13302
0.05711 0.30254 0.16715
0.07655 0.30254 -0.36050
0.08990 0.30254 0.07699
0.05464 0.30254 -0.17716
-0.02635 0.30254 -0.29881
-0.00499 0.30254 -0.19861
0.10041 0.30254 -0.19270
0.00638 0.30254 -0.34135
0.01623 0.30254 -0.10956
0.06246 0.30254 -0.30951
-0.02602 0.30254 -0.15454
0.08450 0.30254 -0.30587
0.08614 0.30254 0.22400
0.09522 0.30254 -0.10725
0.07032 0.30254 0.04738
0.06067 0.30254 0.01947
0.00472 0.30254 -0.20691
0.09575 0.30254 -0.33629
0.04808 0.30254 0.07169
0.08570 0.30254 0.14424
0.08273 0.30254 -0.06168
0.02192 0.30254 -0.18991
0.07200 0.30254 0.06036
-0.06077 0.30254 -0.27536
0.08904 0.30254 -0.21889
0.06604 0.30254 0.19774
0.08075 0.30254 -0.18210
0.06935 0.30254 0.15746
0.04448 0.30254 -0.20445
0.02933 0.30254 -0.21776
0.01762 0.30254 -0.19700
0.01127 0.30254 -0.17515
0.05115 0.30254 -0.21055
-0.02568 0.30254 -0.18422
0.10661 0.30254 -0.29291
0.06433 0.30254 0.11377
0.10600 0.30254 0.25524
0.05308 0.30254 0.17733
0.00494 0.30254 -0.28266
0.09216 0.30254 -0.32660
0.03842 0.30254 -0.08249
0.00376 0.30254 -0.27163
-0.03887 0.30254 -0.30593
-0.05821 0.30254 -0.29435
-0.00557 0.30254 -0.15894
0.00189 0.30254 -0.29764
0.04979 0.30254 -0.10701
0.04232 0.30254 -0.10807
0.08438 0.30254 0.20347
0.01151 0.30254 -0.12034
0.05022 0.30254 -0.29377
0.09590 0.30254 -0.32094
0.10290 0.30254 -0.25997
-0.06880 0.30254 -0.31166
-0.04732 0.30254 -0.23175
0.04171 0.30254 0.01785
0.05247 0.30254 0.15699
0.03496 0.30254 -0.29853
0.04406 0.30254 -0.24366
0.06108 0.30254 -0.34166
0.06539 0.30254 -0.23067
-0.02298 0.30254 -0.19125
-0.03237 0.30254 -0.18023
0.02593 0.30254 -0.30937
0.01089 0.30254 -0.22983
0.04594 0.30254 -0.09326
0.06218 0.30254 -0.14016
0.07036 0.30254 -0.22093
0.02586 0.30254 -0.34599
-0.02237 0.30254 -0.16970
0.10485 0.30254 0.04710
0.02686 0.30254 -0.02801
0.03919 0.30254 -0.00256
0.03382 0.30254 -0.06911
0.08329 0.30254 -0.12738
-0.04664 0.30254 -0.28878
-0.06065 0.30254 -0.22536
-0.01045 0.30254 -0.08230
0.05448 0.30254 -0.34506
0.02029 0.30254 -0.03443
-0.03304 0.30254 -0.25964
0.02115 0.30254 -0.11893
-0.10175 0.30254 -0.36659
0.08387 0.30254 -0.24637
0.01693 0.30254 -0.14491
0.07996 0.30254 0.18094
0.02113 0.30254 -0.37570
0.10806 0.30254 0.08036
-0.08611 0.30254 -0.33556
0.08664 0.30254 -0.36854
0.08536 0.30254 -0.16168
0.06646 0.30254 -0.03643
0.10199 0.30254 -0.02760
0.09920 0.30254 0.11742
-0.10210 0.09417 0.37294
-0.09649 0.18424 0.37294
-0.09793 0.07889 0.37294
-0.10116 0.13961 0.37294
-0.10122 -0.08465 0.37294
-0.10526 0.16857 0.37294
0.08958 0.28662 0.21546
0.09737 0.28662 -0.26011
-0.07014 0.28662 0.36217
0.09237 0.28662 0.30440
-0.00879 0.28662 0.20578
0.00730 0.28662 0.28325
0.04070 0.28662 -0.06630
0.00935 0.28662 0.03865
0.07937 0.28662 -0.10463
0.01803 0.28662 0.24743
-0.00147 0.28662 0.15143
0.08370 0.28662 -0.18463
0.02753 0.28662 0.19109
0.04735 0.28662 0.08608
0.08658 0.28662 -0.12308
0.02948 0.28662 0.04043
0.10009 0.28662 -0.01966
-0.03104 0.28662 0.30960
-0.02593 0.28662 0.17033
-0.01908 0.28662 0.28208
0.07181 0.28662 0.36649
0.04588 0.28662 0.23606
0.07891 0.28662 0.28853
0.06093 0.28662 0.10378
-0.01805 0.28662 0.10537
-0.02427 0.28662 0.26797
0.07161 0.28662 0.00872
-0.03439 0.28662 0.37270
0.04432 0.28662 0.12109
-0.06502 0.28662 0.26488
-0.04186 0.28662 0.35125
0.07600 0.28662 0.10858
0.08050 0.28662 0.06744
-0.07053 0.28662 0.29708
-0.04231 0.28662 0.17502
0.08261 0.28662 -0.22388
-0.06933 0.28662 0.33657
0.08474 0.28662 0.29932
0.08975 0.28662 -0.29250
0.06251 0.28662 0.34252
0.00294 0.28662 0.00096
-0.08395 0.28662 0.34077
-0.08978 0.28662 0.37325
-0.01734 0.28662 0.08255
-0.01589 0.28662 0.29002
0.01558 0.28662 0.03131
0.00027 0.28662 0.31531
-0.01254 0.28662 0.09275
0.07317 0.28662 0.28325
-0.07264 0.28662 0.32532
-0.07825 0.28662 0.28790
-0.07251 0.28662 0.31051
-0.06388 0.28662 0.29344
-0.04432 0.28662 0.35860
-0.02365 0.28662 0.23046
0.03056 0.28662 0.09649
0.09162 0.28662 -0.12877
0.04232 0.28662 -0.02731
0.03529 0.28662 0.13367
0.04183 0.28662 -0.08116
0.01807 0.28662 -0.04610
0.10314 0.28662 0.12077
0.00579 0.28662 0.37006
0.09754 0.28662 0.13261
0.06809 0.28662 0.11925
0.06490 0.28662 -0.01963
0.01364 0.28662 -0.01331
0.07265 0.28662 0.24934
0.05893 0.28662 -0.09296
0.03879 0.28662 0.26432
0.05305 0.28662 -0.13726
0.02072 0.28662 0.07512
-0.06293 0.28662 0.28659
0.09486 0.28662 -0.02829
0.06581 0.28662 -0.15775
0.03729 0.28662 0.05413
-0.03846 0.28662 0.21560
-0.05533 0.28662 0.24053
0.01347 0.28662 0.27816
0.04627 0.28662 -0.10817
-0.00058 0.28662 0.05476
0.09428 0.28662 0.10282
0.03417 0.28662 0.21575
-0.03133 0.28662 0.32089
0.09600 0.28662 0.01137
0.04571 0.28662 -0.10209
0.02369 0.28662 -0.04641
0.05315 0.28662 0.25033
0.01426 0.28662 0.20793
0.02859 0.28662 -0.01950
0.07614 0.28662 -0.27415
0.07937 0.28662 0.13027
0.02855 0.28662 0.21982
0.07159 0.28662 0.26567
0.06018 0.28662 0.12137
0.07152 0.28662 -0.06338
0.01469 0.28662 0.13772
0.02173 0.28662 0.17084
0.08110 0.28662 -0.09721
0.03728 0.28662 0.20237
0.04644 0.28662 0.02737
-0.02021 0.28662 0.29758
-0.01951 0.28662 0.31203
0.04300 0.28662 0.14197
0.04635 0.28662 0.25079
0.09112 -0.17997 0.36533
0.09100 0.07159 0.36021
0.09086 -0.28122 0.35417
0.09114 -0.27527 0.36617
0.09064 -0.25067 0.34432
0.09117 0.02668 0.36766
0.09112 -0.04088 0.36532
0.09041 -0.29238 0.33436
0.09093 -0.21169 0.35689
0.09083 -0.08883 0.35291
0.09113 0.00892 0.36602
0.09118 -0.20482 0.36821
0.09099 -0.08587 0.35957
0.09120 -0.12485 0.36888
0.09126 0.09278 0.37138
0.09073 -0.10281 0.34821
-0.06861 0.25538 -0.34313
-0.07062 0.22021 -0.34313
-0.03982 0.20403 -0.34313
0.00417 0.21130 -0.34313
-0.00441 0.20074 -0.34313
-0.03241 0.23407 -0.34313
-0.05237 0.19249 -0.34313
-0.08909 0.24510 -0.34313
-0.05984 0.21153 -0.34313
0.02532 0.20008 -0.34313
-0.02971 0.19974 -0.34313
-0.07823 0.22277 -0.34313
-0.09267 -0.14639 -0.36743
-0.09253 0.18873 -0.36137
-0.09242 -0.05469 -0.35679
-0.09205 0.23757 -0.34035
-0.09211 0.15143 -0.34307
-0.09212 0.13867 -0.34346
-0.09278 0.01545 -0.37236
-0.09267 -0.03848 -0.36774
-0.09224 0.14960 -0.34868
-0.09269 -0.06344 -0.36844
-0.09245 0.10675 -0.35808
-0.09231 0.02538 -0.35184
-0.09210 0.19870 -0.34276
-0.09260 -0.03050 -0.36447
-0.09254 -0.04794 -0.36201
-0.09237 0.06460 -0.35446
-0.09235 0.21740 -0.35341
-0.09226 0.18765 -0.34978
-0.09282 -0.13357 -0.37412
-0.09281 -0.02962 -0.37394
0.08174 0.23654 0.07284
0.08262 0.24235 -0.02583
0.08330 0.24684 0.23216
0.08450 0.25478 0.04834
0.08292 0.24431 -0.10592
0.08193 0.23776 0.13230
0.08281 0.24360 0.28577
0.08590 0.26409 0.27096
0.08485 0.25711 0.32724
0.08208 0.23877 0.10749
0.08442 0.25427 -0.06210
0.08283 0.24377 -0.15221
0.08451 0.25488 0.20467
0.08565 0.26244 0.17994
0.08300 0.24486 0.12150
0.08176 0.23667 0.11311
0.08646 0.26781 0.23017
0.08222 0.23972 0.08765
0.08834 0.28026 0.28649
0.08459 0.25537 0.10241
0.11146 0.29768 -0.32074
0.11146 0.29820 -0.25649
0.11146 0.30015 0.10597
0.11146 0.29986 -0.36498
-0.11146 0.29934 -0.29807
-0.11146 0.30145 -0.32589
-0.11146 0.29655 -0.26421
-0.11146 0.30231 0.32349
-0.02901 0.19108 -0.33438
0.05559 0.19108 -0.34025
-0.09223 0.13267 0.35535
-0.09256 0.10895 0.34085
-0.09228 0.09366 0.35320
-0.09244 0.25030 0.34592
-0.09203 0.16992 0.36392
-0.09274 -0.18026 0.33312
-0.09249 -0.00930 0.34405
-0.09239 0.03343 0.34841
-0.09266 0.20621 0.33630
-0.09278 -0.17077 0.33139
-0.09243 0.14071 0.34660
-0.09247 0.16862 0.34494
-0.09262 0.01505 0.33800
-0.09270 -0.01074 0.33458
-0.09213 0.26593 0.35952
-0.09238 -0.00282 0.34884
-0.09238 0.10508 0.34872
-0.09280 0.05671 0.33026
0.11146 0.29546 0.05194
0.11146 0.29896 0.20648
0.11146 0.30093 0.36658
0.11146 0.29824 0.09040
0.11146 0.29978 0.17768
0.08252 -0.30254 0.37186
-0.09183 0.24747 -0.33269
0.06495 0.29341 0.38099
0.05860 0.29301 0.38058
-0.09625 0.28662 0.29391
-0.09498 0.28662 0.07796
-0.09469 0.28662 0.11611
0.08805 0.23739 0.32941
0.09020 0.04190 0.32941
0.07713 0.28146 0.32941
0.08026 0.20445 0.32941
0.08889 0.15885 0.32941
0.07763 0.21300 0.32941
0.08049 0.12073 0.32941
0.08893 -0.04648 0.32941
0.08569 -0.11458 0.32941
0.08343 0.26790 0.32941
0.02201 0.24177 -0.34313
-0.01552 0.28531 -0.34313
-0.00727 0.27843 -0.34313
-0.08111 0.28282 -0.34313
0.05535 0.21153 -0.34313
-0.06607 0.28292 -0.34313
0.04216 0.26485 -0.34313
0.03150 0.23873 -0.34313
0.03706 0.27361 -0.34313
0.00409 0.26678 -0.34313
-0.01908 0.26157 -0.34313
-0.00608 0.24672 -0.34313
0.08995 0.03508 -0.33067
0.08480 0.01332 -0.33067
0.08623 0.02954 -0.33067
0.08198 -0.13185 -0.33067
0.08635 -0.00936 -0.33067
0.08160 -0.12141 -0.33067
0.08673 -0.07876 -0.33067
0.08532 -0.02112 -0.33067
-0.01724 0.30067 0.38216
-0.10232 0.28662 0.22398
-0.09211 0.28662 -0.30920
-0.10095 0.28662 -0.19101
-0.09994 0.28662 -0.17145
-0.09473 0.28662 -0.16612
-0.09429 0.28662 -0.31542
-0.09816 0.28662 -0.32205
-0.09731 0.28662 -0.07454
-0.09887 -0.14150 0.32941
-0.10239 0.08001 0.32941
-0.10191 -0.19975 0.32941
-0.10712 0.17585 0.32941
-0.10390 0.05017 0.32941
0.07716 -0.30254 0.34493
0.07019 0.29232 0.37990
0.00308 0.28948 0.37706
-0.02807 0.29126 0.37884
0.02684 0.29351 0.38109
0.08603 -0.22790 -0.33067
0.08876 0.07000 -0.33067
0.08538 -0.21268 -0.33067
0.08758 -0.03955 -0.33067
0.08554 -0.11403 -0.33067
0.08392 -0.20244 -0.33067
-0.09575 -0.05184 -0.33067
-0.10031 -0.25727 -0.33067
-0.09210 0.07202 -0.33067
-0.09250 -0.10626 -0.33067
-0.10142 -0.24539 -0.33067
-0.09597 -0.12457 -0.33067
-0.08891 0.26685 -0.34313
0.01445 0.22550 -0.34313
-0.01019 0.22482 -0.34313
-0.05730 0.19704 -0.34313
0.05070 0.19380 -0.34313
-0.08911 0.21859 -0.34313
-0.04682 0.20919 -0.34313
-0.00698 0.20860 -0.34313
-0.02128 0.23805 -0.34313
-0.10288 -0.22830 -0.37420
-0.09804 -0.09903 -0.37420
-0.10525 -0.03908 -0.37420
-0.10613 -0.00861 -0.37420
-0.10683 0.24689 -0.37420
-0.10140 -0.08466 -0.37420
0.07608 -0.18896 -0.35491
0.07578 0.16352 -0.36801
0.07575 -0.11650 -0.36927
0.07575 -0.04132 -0.36904
0.07601 -0.03955 -0.35781
0.07600 -0.27751 -0.35836
0.07564 0.28134 -0.37394
0.07596 -0.21065 -0.35996
0.07585 -0.14501 -0.36490
0.07637 -0.28649 -0.34226
0.07612 -0.28546 -0.35292
0.07565 -0.13192 -0.37358
0.07579 -0.23388 -0.36731
0.07646 -0.24389 -0.33806
0.07635 -0.27022 -0.34283
0.07588 0.06714 -0.36354
0.07635 0.28220 -0.33325
0.01614 0.28662 0.37185
0.02405 0.28662 0.37253
-0.09188 0.25591 -0.33298
-0.09278 -0.16943 -0.37220
-0.09279 -0.02232 -0.37293
-0.09272 0.22762 -0.36964
-0.09259 -0.02159 -0.36430
-0.09263 0.04027 -0.36601
-0.09200 0.28132 -0.33842
-0.09255 0.05175 -0.36242
-0.09240 -0.01255 -0.35596
-0.09269 0.17339 -0.36855
-0.09270 0.13882 -0.36906
-0.09263 0.27028 -0.36565
-0.09275 0.12283 -0.37126
-0.09262 0.25023 -0.36540
-0.09191 0.27214 -0.33437
-0.09276 -0.10338 -0.37160
-0.09211 0.18523 -0.34306
-0.09261 -0.08925 -0.36490
-0.09250 0.08477 -0.36001
0.04645 0.28662 0.36830
-0.00406 0.19172 0.37294
0.06553 0.25970 0.37294
0.00824 0.24562 0.37294
0.06767 0.24305 0.37294
-0.02094 0.22420 0.37294
-0.03443 0.20203 0.37294
-0.01513 0.21635 0.37294
-0.00988 0.23484 0.37294
0.00123 0.23347 -0.33067
0.06544 0.21788 -0.33067
0.07287 0.19829 -0.33067
0.02582 0.21183 -0.33067
-0.01588 0.19695 -0.33067
0.03156 0.21013 -0.33067
-0.02095 0.23021 -0.33067
0.06314 0.24051 -0.33067
-0.01607 0.20941 -0.33067
0.05274 0.25139 -0.33067
-0.03478 0.21196 -0.33067
-0.04290 0.20630 -0.33067
0.07577 -0.10503 -0.37420
0.07821 0.02041 -0.37420
0.07878 0.00307 -0.37420
0.08298 -0.12209 -0.37420
0.07589 -0.21515 -0.37420
0.07611 -0.18301 -0.37420
0.08488 -0.24718 -0.37420
0.08847 0.28110 0.14368
0.08296 0.24457 -0.22923
0.08691 0.27076 -0.31535
0.08795 0.27767 -0.24146
0.08862 0.28210 -0.29636
0.08402 0.25162 -0.14940
0.08386 0.25055 -0.14069
0.08659 0.26867 -0.32539
0.08446 0.25453 -0.25117
0.08411 0.25225 -0.23717
0.08803 0.27817 -0.08494
0.08491 0.25755 -0.19701
0.08899 0.28457 0.19929
0.08838 0.28051 -0.00669
0.08508 0.25866 -0.21926
0.08863 0.28216 0.02259
0.08729 0.27331 -0.30410
0.08414 0.25243 -0.20867
0.08872 0.28278 0.16097
0.08542 0.26090 -0.03949
0.08822 0.27942 -0.20892
0.11146 0.29801 -0.02436
0.11146 0.29854 0.19596
0.11146 0.29729 0.34399
0.11146 0.29689 0.33374
-0.09680 0.26470 -0.04498
-0.09680 0.27905 0.01538
-0.09680 0.25666 0.22978
-0.09680 0.24162 0.23766
-0.09680 0.28124 0.16201
-0.09680 0.26969 -0.05452
-0.09680 0.24646 0.30281
-0.09680 0.27436 0.18660
-0.09680 0.27666 0.31481
-0.09680 0.25915 0.15066
-0.09680 0.27025 0.11641
-0.09680 0.28377 -0.21012
-0.09680 0.27764 0.22301
-0.09680 0.26349 0.18622
-0.09680 0.27170 -0.02271
-0.09680 0.26690 -0.07258
-0.09680 0.27031 -0.06116
-0.09680 0.28206 0.08803
-0.09680 0.25690 0.32581
-0.09680 0.28003 0.27379
-0.08940 0.28662 -0.32952
-0.09207 0.28662 -0.10872
-0.09020 0.28662 0.03762
0.09014 0.28722 0.37480
0.10573 0.28958 0.37715
-0.08577 0.28662 -0.30008
0.03113 0.28662 -0.16664
-0.08779 0.28662 -0.04330
-0.02375 0.28662 -0.28722
-0.04147 0.28662 -0.20159
-0.02382 0.28662 -0.15261
0.02200 0.28662 -0.33071
-0.07178 0.28662 0.16214
0.00584 0.28662 -0.32095
-0.00331 0.28662 -0.29708
-0.05818 0.28662 -0.30994
-0.03478 0.28662 0.06355
-0.05118 0.28662 0.02724
-0.09337 0.28662 0.32261
0.01955 0.28662 -0.30985
-0.02157 0.28662 -0.03426
0.02505 0.28662 -0.14381
0.01923 0.28662 -0.19764
-0.05404 0.28662 -0.06605
-0.08983 0.28662 0.07159
0.06531 0.28662 -0.24090
-0.03653 0.28662 0.02353
-0.02649 0.28662 -0.01340
-0.08007 0.28662 0.15108
0.00259 0.28662 -0.20353
-0.00917 0.28662 -0.21490
-0.08527 0.28662 0.09412
0.06291 0.28662 -0.25596
0.01256 0.28662 -0.30659
-0.06340 0.28662 0.14558
-0.03615 0.28662 -0.10415
-0.04412 0.28662 0.14407
-0.07428 0.28662 -0.28114
-0.02846 0.28662 -0.17252
-0.04940 0.28662 -0.09915
-0.03845 0.28662 -0.04822
-0.09403 0.28662 0.25226
-0.06386 0.28662 -0.25294
-0.09485 0.28662 0.02158
0.02352 0.28662 -0.34768
-0.01373 0.28662 -0.02426
-0.06167 0.28662 -0.00903
0.00909 0.28662 -0.19055
-0.03089 0.28662 -0.12184
-0.07492 0.28662 -0.13510
-0.05052 0.28662 0.16266
-0.04319 0.28662 -0.26940
-0.06315 0.28662 -0.29572
0.05156 0.28662 -0.27026
-0.00830 0.28662 -0.12974
-0.05894 0.28662 -0.33678
-0.05036 0.28662 -0.16121
-0.01358 0.28662 -0.28666
0.03100 0.28662 -0.21536
-0.02581 0.28662 0.01303
-0.06039 0.28662 0.01193
0.03350 0.28662 -0.25047
-0.06383 0.28662 0.01745
-0.06226 0.28662 -0.24636
0.06692 0.28662 -0.31146
-0.01742 0.28662 -0.14920
0.04122 0.28662 -0.20209
0.06950 0.28662 -0.27768
0.00735 0.28662 -0.03871
0.02623 0.28662 -0.18638
-0.00601 0.28662 -0.25833
0.01454 0.28662 -0.27254
0.02331 0.28662 -0.11030
-0.09240 0.28662 0.13015
-0.03746 0.28662 -0.24824
-0.00330 0.28662 -0.25030
-0.01588 0.28662 -0.11908
0.00625 0.28662 -0.18299
-0.05608 0.28662 -0.07999
-0.05247 0.28662 -0.33622
-0.05507 0.28662 0.19692
-0.03347 0.28662 -0.07587
-0.06729 0.28662 0.09613
0.07278 0.28662 -0.33379
-0.00881 0.28662 -0.09257
0.01921 0.28662 -0.23994
-0.07649 0.28662 0.25131
0.04355 0.28662 -0.19339
0.06050 0.28662 -0.31823
-0.00061 0.28662 -0.11621
-0.07141 0.28662 -0.04179
-0.09610 0.28662 0.04857
-0.01590 0.28662 -0.00274
-0.09357 0.28662 0.23824
-0.07929 0.28662 -0.27384
-0.00223 0.28662 -0.34306
-0.08113 0.28662 0.22215
-0.03002 0.28662 -0.15298
-0.04557 0.28662 -0.11322
0.01682 0.28662 -0.17340
0.00163 0.28662 -0.01010
-0.07561 0.28662 -0.11725
-0.00866 0.28662 -0.16499
-0.04011 0.28662 -0.22790
-0.10706 -0.08994 -0.35571
-0.10724 -0.18329 -0.36357
-0.10727 -0.27909 -0.36493
-0.10672 -0.19656 -0.34102
-0.10701 -0.23631 -0.35371
-0.10724 -0.22127 -0.36370
-0.10716 -0.27131 -0.36020
-0.10678 -0.16142 -0.34365
-0.10705 -0.00125 -0.35544
-0.10740 -0.19475 -0.37059
-0.10715 0.02072 -0.35985
-0.10670 -0.30204 -0.33981
-0.10737 -0.28742 -0.36928
-0.10720 -0.06513 -0.36187
-0.10732 -0.07788 -0.36717
-0.10744 -0.03344 -0.37249
-0.10738 -0.15881 -0.36982
-0.10727 0.03785 -0.36494
-0.10682 -0.12464 -0.34537
-0.10714 -0.17950 -0.35906
-0.10073 0.27937 -0.33067
-0.09537 0.18396 -0.33067
-0.10546 -0.09791 -0.33067
-0.10243 -0.09160 -0.33067
-0.10425 -0.14552 -0.33067
-0.10318 -0.00815 -0.33067
-0.05564 0.28662 0.18527
-0.07494 0.28662 0.21473
-0.00907 0.28662 0.00749
-0.00257 0.28662 -0.31853
-0.08320 0.28662 -0.17680
-0.10006 0.28662 0.21033
-0.08111 0.28662 -0.25874
-0.03698 0.28662 0.10826
-0.04220 0.28662 -0.03407
-0.07125 0.28662 -0.02628
-0.00337 0.28662 -0.33347
-0.02536 0.28662 -0.24008
0.02614 0.28662 -0.30890
0.01047 0.28662 -0.22174
0.05597 0.28662 -0.25799
-0.06982 0.28662 0.04793
-0.08509 0.28662 0.29662
-0.05825 0.28662 -0.07266
-0.05301 0.28662 0.14882
-0.06721 0.28662 0.06152
-0.06539 0.28662 -0.20670
0.02237 0.28662 -0.26697
-0.05379 0.28662 0.04983
-0.07301 0.28662 0.15671
0.07736 0.28662 -0.28568
-0.07859 0.28662 0.16657
0.03979 0.28662 -0.24157
0.06422 0.28662 -0.29122
-0.04870 0.28662 0.13423
0.05859 0.28662 -0.21286
-0.05974 0.28662 0.20884
-0.07574 0.28662 0.03857
-0.06170 0.28662 0.04502
-0.03061 0.28662 -0.24461
-0.06869 0.28662 0.08118
-0.07429 0.28662 -0.15219
-0.06128 0.28662 -0.14591
-0.05307 0.28662 0.10944
-0.01996 0.28662 0.02004
-0.00469 0.28662 -0.20312
-0.04318 0.28662 -0.21361
0.00251 0.28662 -0.09153
-0.04169 0.28662 0.13333
-0.08667 0.28662 0.18174
-0.03434 0.28662 -0.08498
0.01518 0.28662 -0.07322
-0.00791 0.28662 -0.04700
-0.03141 0.28662 0.04361
-0.01885 0.28662 -0.30792
-0.06681 0.28662 0.18897
-0.04574 0.28662 -0.22571
-0.03156 0.28662 -0.25844
-0.02983 0.28662 -0.18706
-0.00191 0.28662 -0.04110
-0.09408 0.28662 0.26553
-0.09178 0.28662 0.14574
-0.06198 0.28662 -0.21108
0.01990 0.28662 -0.12699
-0.06073 0.28662 0.18942
-0.06003 0.28662 0.10519
-0.05777 0.28662 -0.00254
-0.07833 0.28662 0.06494
-0.01470 0.28662 -0.21171
-0.06716 0.28662 -0.28650
0.03204 0.28662 -0.30303
-0.04802 0.28662 0.01558
0.00199 0.28662 -0.16558
0.03306 0.28662 -0.13552
-0.05060 0.28662 0.03287
-0.03898 0.28662 -0.28581
-0.09161 0.28662 -0.10221
-0.01400 0.28662 -0.24399
-0.05716 0.28662 -0.13091
-0.08103 0.28662 -0.13763
-0.05091 0.28662 0.09933
0.01732 0.28662 -0.29860
-0.03554 0.28662 0.09097
-0.02553 0.28662 0.05190
-0.06499 0.28662 0.20434
0.00658 0.28662 -0.23220
-0.04273 0.28662 -0.15972
0.03397 0.28662 -0.23934
-0.04331 0.28662 -0.31653
0.03754 0.28662 -0.16559
-0.03418 0.28662 -0.00682
0.08485 0.28662 -0.32487
-0.03550 0.28662 -0.33948
-0.05764 0.28662 -0.26560
0.08573 0.28662 -0.34524
-0.07366 0.28662 0.08495
-0.00722 0.28662 -0.27617
-0.06695 0.28662 -0.18741
-0.00445 0.27394 -0.33067
-0.08472 0.27403 -0.33067
0.03445 0.26601 -0.33067
-0.04253 0.22149 -0.33067
-0.06797 0.27331 -0.33067
0.04583 0.27639 -0.33067
0.02429 0.27665 -0.33067
-0.05586 0.21913 -0.33067
-0.03554 0.26259 -0.33067
-0.07860 0.21879 -0.33067
0.08851 0.28662 -0.18946
-0.09183 0.25427 -0.34114
0.06823 0.29859 -0.38216
-0.10544 0.28856 -0.37505
-0.10654 0.28966 -0.09004
-0.10943 0.29255 -0.16834
-0.10739 0.29051 -0.26314
-0.10577 0.28889 -0.15063
-0.11065 0.29376 -0.25053
-0.10964 0.29276 0.16681
-0.10833 0.29145 0.02465
-0.09211 0.12753 0.37294
-0.09430 -0.15740 0.37294
-0.10250 -0.24709 0.37294
-0.10510 -0.26759 0.37294
-0.09837 -0.12116 0.37294
-0.10150 -0.14170 0.37294
-0.09189 -0.02320 0.37294
0.09105 0.13826 -0.34131
0.09076 -0.23520 -0.35392
0.09104 -0.27670 -0.34176
0.09125 -0.04431 -0.33273
0.09071 -0.11513 -0.35610
0.09111 0.10869 -0.33843
0.09079 -0.08212 -0.35243
0.09111 -0.22165 -0.33880
0.09076 -0.03331 -0.35383
0.09083 -0.09857 -0.35076
0.09123 -0.08090 -0.33327
0.09120 0.21756 -0.33461
0.09106 -0.09122 -0.34069
0.09071 -0.22077 -0.35602
0.09091 -0.12720 -0.34735
0.09096 -0.29812 -0.34513
0.09085 0.00351 -0.34982
0.09115 -0.07620 -0.33667
0.05475 0.28531 0.36048
-0.01620 0.26949 0.36048
0.03848 0.22559 0.36048
0.07078 0.25444 0.36048
-0.04763 0.27231 0.36048
0.06838 0.28144 0.36048
0.07242 0.21923 0.36048
0.00732 0.28289 0.36048
-0.02433 0.25566 0.36048
0.02514 0.28225 0.36048
-0.05417 0.27392 0.36048
-0.00058 0.28425 0.36048
0.07606 0.24942 0.34795
0.07658 0.01602 0.37085
0.07645 -0.12721 0.36485
0.07599 0.20314 0.34488
0.07582 0.28595 0.33729
0.07637 -0.06031 0.36174
0.07638 0.19711 0.36219
0.07650 -0.01288 0.36726
0.07606 0.18706 0.34811
0.07622 0.27944 0.35505
0.07655 0.10705 0.36942
0.07658 0.24866 0.37053
0.07653 0.00799 0.36873
0.07594 0.16974 0.34285
0.07626 0.08204 0.35669
0.07630 0.00293 0.35862
0.07642 -0.04470 0.36378
0.07656 -0.25033 0.36967
0.07599 0.24239 0.34494
0.09053 0.22579 0.33975
0.09036 -0.10566 0.33217
0.09067 -0.07291 0.34588
0.09088 0.22516 0.35474
0.09061 -0.04897 0.34318
0.09086 0.21770 0.35403
0.09057 -0.03974 0.34137
0.09035 0.13417 0.33172
0.09073 -0.04166 0.34820
0.09041 0.27034 0.33428
0.09068 0.04401 0.34624
0.09109 0.20886 0.36426
0.09037 -0.16431 0.33259
0.09067 0.17716 0.34587
0.09058 0.14833 0.34170
0.09110 0.24416 0.36472
0.09039 0.11187 0.33335
0.09053 0.00764 0.33942
0.08657 0.28662 0.20797
0.08408 0.28662 0.18001
-0.09891 -0.22395 -0.33067
-0.10005 -0.20940 -0.33067
-0.09207 0.19808 -0.33067
-0.09283 -0.04099 -0.33067
-0.09317 -0.00612 -0.33067
-0.09792 -0.19860 -0.33067
-0.02441 0.29509 0.38216
0.10528 0.30113 0.38216
0.07580 -0.11202 0.33648
0.07629 -0.19623 0.35817
0.07627 -0.11021 0.35740
0.07573 -0.04416 0.33369
0.07602 -0.20349 0.34620
0.07633 -0.29129 0.35982
0.07604 -0.14360 0.34731
0.07620 -0.15838 0.35416
0.07608 -0.08753 0.34878
