0.03886 0.19345 0.30065
-0.04629 0.19345 0.34947
-0.10103 0.19345 -0.03061
-0.17683 0.19345 -0.19120
-0.15232 0.19345 -0.21269
-0.10953 0.19345 -0.00344
-0.17604 0.19345 0.02875
-0.08357 0.19345 0.18019
-0.11471 0.19345 0.39761
-0.09618 0.19345 -0.02042
-0.06552 0.19345 -0.13764
0.04670 0.19345 0.31481
-0.04426 0.19345 0.17895
-0.00831 0.19345 0.26182
-0.04473 0.19345 0.14643
0.02807 0.19345 0.11119
-0.17934 0.19345 0.33545
-0.01710 0.19345 0.15869
-0.13593 0.19345 0.19398
-0.14583 0.19345 -0.07308
-0.17743 0.19345 -0.21298
-0.14575 0.19345 -0.14275
-0.17225 0.19345 -0.01213
-0.04764 0.19345 -0.01510
-0.08537 0.19345 0.15352
0.02283 0.19345 0.34996
-0.08423 0.19345 0.12286
-0.01606 0.19345 0.02490
-0.11630 0.19345 0.33735
0.16128 0.19345 0.40724
-0.18103 0.19345 -0.20524
-0.16103 0.19345 0.29907
-0.11480 0.19345 0.20788
-0.19033 0.19345 -0.27619
0.14588 0.17862 -0.38146
0.14912 0.02933 -0.38146
0.14870 0.01657 -0.38146
-0.15134 0.00272 0.20654
-0.15288 0.00272 0.18592
-0.15464 0.00272 -0.06479
-0.16250 0.00272 0.05566
-0.15538 0.00272 -0.00460
-0.14963 0.00272 0.31830
-0.14799 0.00272 0.13612
-0.15517 0.00272 0.02469
-0.15239 0.00272 0.03565
-0.14353 0.02953 0.35421
-0.14692 0.01534 0.35421
0.19008 0.21075 -0.28071
0.19008 0.20691 0.20619
0.19008 0.19525 0.18709
0.19008 0.19558 0.01770
0.19008 0.19778 0.35292
0.19008 0.19860 -0.23251
0.19008 0.19584 -0.20367
0.19008 0.21400 0.36934
0.19008 0.19363 -0.02078
0.14376 0.09576 -0.36651
0.14376 0.11675 -0.37738
0.14376 0.06749 -0.36822
0.14376 0.05927 -0.37250
0.14376 0.14685 -0.36027
-0.03095 -0.20163 0.37997
-0.01796 -0.20163 0.38066
0.12556 -0.20163 0.36957
-0.03406 -0.20163 0.36393
0.00612 -0.20163 0.35525
0.02602 -0.19001 -0.36810
0.02602 -0.01300 -0.37309
0.02602 -0.16121 -0.37670
0.02602 -0.09824 -0.36318
0.02602 -0.09073 -0.37527
0.14376 -0.06427 -0.37707
0.14376 -0.13597 -0.38066
0.14376 -0.12821 -0.37680
0.14376 0.17414 -0.37963
0.14376 0.14698 -0.38106
-0.08167 -0.21337 -0.38146
-0.05173 -0.20356 -0.38146
0.15635 -0.09533 0.35421
0.15336 -0.04586 0.35421
0.15537 -0.17934 0.35421
-0.13190 0.19345 0.36834
-0.11117 0.19345 0.36097
-0.02699 -0.21147 0.35421
0.07155 -0.20771 0.35421
-0.02680 -0.16877 -0.38146
0.00020 -0.19593 -0.38146
-0.03137 -0.07797 -0.38146
0.00016 0.01405 -0.38146
-0.01700 -0.15352 -0.38146
-0.00507 -0.09737 -0.38146
0.00856 -0.03219 -0.38146
-0.06290 -0.10088 -0.38146
-0.01379 0.04758 -0.38146
0.01478 -0.02509 -0.38146
-0.02900 -0.12507 -0.38146
-0.08941 -0.18492 -0.38146
-0.01612 -0.03614 -0.38146
-0.02932 -0.15931 -0.38146
-0.04710 -0.19825 -0.38146
-0.05534 -0.10234 -0.38146
0.02517 -0.03478 -0.38146
-0.02255 -0.15624 -0.38146
0.02541 0.09980 -0.38146
0.00385 -0.18801 -0.38146
-0.06627 -0.11944 -0.38146
0.00963 -0.17485 -0.38146
0.01286 -0.03748 -0.38146
0.01370 0.11221 -0.38146
-0.14317 0.19345 -0.36727
-0.07845 0.19345 -0.37542
-0.00061 0.10065 -0.38146
0.02258 0.00209 -0.38146
0.01749 0.01574 -0.38146
0.02578 -0.17371 -0.38146
-0.00980 0.01522 -0.38146
0.02418 -0.19706 -0.38146
-0.02878 -0.06314 -0.38146
0.00684 -0.15935 -0.38146
0.01045 0.05664 -0.38146
0.00746 -0.08717 -0.38146
-0.00479 -0.07575 -0.38146
0.00253 -0.07425 -0.38146
0.02080 -0.05454 -0.38146
0.02164 0.00807 -0.38146
-0.03819 -0.17192 -0.38146
0.01017 -0.05234 -0.38146
0.01669 -0.06345 -0.38146
-0.04119 -0.12843 -0.38146
-0.02111 -0.18868 -0.38146
0.00871 0.12003 -0.38146
-0.02836 -0.19612 -0.38146
-0.00584 -0.00004 -0.38146
0.14603 0.13197 -0.35421
0.15218 -0.05599 -0.35421
0.15534 0.16319 -0.35421
0.01436 -0.20163 -0.37388
0.19008 0.20433 -0.39811
-0.05204 -0.01731 0.35421
-0.03450 0.04133 0.35421
-0.13969 0.18267 0.35421
-0.03563 0.01352 0.35421
-0.03094 0.07331 0.35421
-0.04107 0.19231 0.35421
-0.09613 0.13135 0.35421
-0.06983 0.13265 0.35421
-0.09233 -0.03398 0.35421
-0.06615 0.12343 0.35421
-0.07580 0.13716 0.35421
-0.08281 -0.09798 0.35421
-0.07472 -0.04114 0.35421
-0.04193 -0.01432 0.35421
-0.12277 0.01415 0.35421
-0.13572 0.14519 0.35421
-0.12193 -0.00830 0.35421
-0.10493 0.13467 0.35421
-0.09432 0.02199 0.35421
-0.14433 0.09418 0.35421
-0.08976 0.09222 0.35421
-0.06722 -0.08685 0.35421
-0.05584 -0.04203 0.35421
-0.03658 0.09764 0.35421
-0.05022 0.11164 0.35421
-0.11478 -0.07129 0.35421
-0.05631 -0.00845 0.35421
-0.12524 -0.02875 0.35421
-0.08347 -0.06917 0.35421
-0.02377 0.18477 0.35421
-0.14030 0.10903 0.35421
0.02086 0.17832 0.35421
-0.09256 0.15054 0.35421
-0.03520 0.06575 0.35421
-0.12068 0.00222 0.35421
-0.04079 0.11611 0.35421
0.00910 -0.20163 -0.35687
0.15738 -0.16614 0.37774
0.15738 -0.13807 0.35659
0.15738 -0.17677 0.37377
0.15738 -0.18922 0.36640
0.15738 -0.15958 0.36681
0.15738 -0.13531 0.36482
-0.09932 -0.20677 0.36696
-0.15127 0.13347 0.35421
-0.15351 0.12453 0.35421
0.14935 -0.14122 -0.38146
0.15578 0.02190 -0.38146
0.15365 -0.10056 -0.38146
-0.13816 -0.18887 -0.38146
-0.12752 -0.06976 -0.38146
-0.13425 -0.02466 -0.38146
-0.13167 -0.09730 -0.38146
-0.16011 0.07801 -0.38146
-0.16288 -0.06758 -0.38146
-0.14778 -0.16317 -0.38146
-0.14310 -0.16657 -0.38146
-0.14663 -0.18564 -0.38146
-0.15558 0.06036 -0.38146
-0.10717 -0.19006 -0.38146
-0.15195 -0.05030 -0.38146
-0.15179 0.11666 -0.38146
-0.11549 -0.19406 -0.38146
-0.14632 -0.00001 -0.38146
-0.16413 0.13415 0.25083
-0.16413 0.07280 -0.07241
-0.16413 0.09268 0.28931
-0.16413 0.00639 0.05996
-0.16413 0.09501 0.20717
-0.16413 0.11045 0.21715
-0.16413 0.03636 0.26577
-0.16413 0.01350 0.34705
-0.16413 0.12444 0.13444
-0.16413 0.10233 0.21116
-0.16413 0.02509 0.13409
-0.16413 0.13997 0.29474
-0.16413 0.02960 -0.08230
-0.16413 0.02680 -0.25622
-0.16413 0.00832 0.30352
-0.16413 0.03813 0.33297
-0.16413 0.05816 0.26181
-0.16413 0.08413 0.32171
-0.16413 0.03598 0.00881
-0.16413 0.08087 -0.01597
-0.16413 0.13784 0.17349
-0.16413 0.00537 0.19930
-0.16413 0.02498 -0.10059
-0.16413 0.07338 0.28102
-0.16413 0.06438 0.31079
-0.16413 0.06338 0.25767
-0.16413 0.11827 0.17466
-0.16413 0.15615 0.30950
-0.16413 0.16499 0.28024
-0.16413 0.08495 0.12212
-0.16413 0.11332 0.34940
-0.16413 0.07126 0.12845
-0.16413 0.01999 -0.21159
-0.16413 0.02535 -0.23404
-0.16413 0.00524 0.18203
-0.16413 0.07701 0.13169
-0.16413 0.03718 0.12488
-0.16413 0.09229 0.10011
-0.16413 0.02793 -0.01051
-0.16413 0.05216 0.10684
-0.16413 0.12359 0.24233
-0.16413 0.04458 0.19151
-0.16413 0.13184 0.21301
-0.16413 0.02944 0.25347
-0.16413 0.09667 0.02364
-0.16413 0.12238 0.16524
-0.16413 0.00926 0.31894
-0.16413 0.02939 0.31799
-0.16413 0.03682 -0.22410
-0.16413 0.08235 0.18299
-0.16413 0.01139 -0.29551
-0.16413 0.14215 0.18113
-0.16413 0.07000 -0.06238
-0.16413 0.03028 -0.07042
-0.16413 0.03880 0.13912
-0.16413 0.03695 -0.04095
-0.16413 0.06299 -0.04614
-0.16413 0.17266 0.30371
-0.16413 0.01996 -0.17685
-0.16413 0.03597 0.13421
-0.16413 0.04529 0.05338
-0.16413 0.08852 0.15697
-0.16413 0.08024 0.34724
-0.16413 0.16473 0.26602
-0.16413 0.01787 -0.20265
-0.16413 -0.21218 -0.37532
-0.16413 0.01210 -0.36507
-0.16413 0.03164 -0.36037
-0.16413 -0.04924 -0.36469
-0.16413 -0.15612 -0.36306
-0.16413 -0.09591 -0.36106
-0.19138 0.21398 0.28611
-0.19138 0.20375 -0.23412
-0.19138 0.21403 0.14576
-0.19138 0.20514 -0.13104
-0.19138 0.19781 -0.25516
-0.19138 0.21276 -0.18291
-0.19138 0.20927 -0.40034
-0.19138 0.21360 -0.00112
-0.19138 0.21265 0.04152
0.14376 -0.15802 -0.35556
0.14376 -0.10028 -0.36216
0.14376 -0.00852 -0.35753
0.14376 -0.13702 -0.37093
0.14376 -0.13600 -0.35804
0.14376 0.04065 -0.36434
-0.14572 0.19345 0.28597
-0.15596 0.19345 0.25123
-0.14238 0.19345 0.25876
-0.14893 0.19345 -0.00545
-0.15145 0.19345 0.26415
-0.13900 0.19345 0.06424
-0.15182 0.19345 0.34798
-0.19138 0.19462 0.27254
-0.19138 0.19833 0.35088
-0.19138 0.19866 -0.08042
-0.19138 0.19941 0.25562
-0.19138 0.19499 0.37238
-0.19138 0.19731 0.19160
-0.19138 0.19472 0.38211
0.15198 0.14450 0.35421
0.14492 0.05729 0.35421
0.14542 -0.03608 0.35421
0.14376 -0.08191 0.35536
0.14376 -0.09455 0.35916
0.14376 0.09971 0.37442
0.14376 -0.02068 0.36011
0.14376 -0.10220 0.35461
-0.16413 0.15306 0.35735
-0.16413 0.05147 0.35985
-0.16413 0.16488 0.35760
-0.16413 0.17624 0.35806
-0.16413 0.17856 0.36885
-0.16413 -0.02384 0.35726
-0.06244 0.21131 0.40870
-0.07195 0.20894 0.40870
0.12631 0.19916 0.40870
0.14242 0.21171 0.40870
0.14376 0.15357 0.36241
0.14376 0.15982 0.35966
0.14376 -0.12612 0.35632
0.14376 0.12391 0.36644
0.14376 0.13562 0.37482
-0.02374 -0.11581 0.38146
-0.11174 0.00471 0.38146
-0.07830 -0.04733 0.38146
-0.12161 0.00522 0.38146
-0.03447 -0.11308 0.38146
-0.02995 -0.15253 0.38146
-0.07562 -0.01784 0.38146
-0.15103 0.12105 0.38146
-0.08047 -0.11703 0.38146
-0.04118 -0.09169 0.38146
-0.04852 -0.09764 0.38146
-0.09492 -0.14503 0.38146
-0.04829 -0.15568 0.38146
-0.12019 0.02484 0.38146
-0.00801 -0.19437 0.38146
-0.06990 -0.08158 0.38146
-0.03683 -0.19574 0.38146
-0.11980 0.03259 0.38146
-0.11350 0.06509 0.38146
-0.08779 -0.10261 0.38146
-0.08213 -0.14034 0.38146
-0.11805 0.07363 0.38146
-0.10200 0.05608 0.38146
-0.15458 0.00272 -0.05125
-0.16253 0.00272 -0.23001
-0.15733 0.00272 0.04400
-0.14321 0.00272 0.30150
-0.16192 0.00272 0.32093
-0.15936 0.00272 -0.09802
-0.15763 0.00272 0.06694
-0.14993 0.00272 0.30286
-0.15695 0.00272 -0.07752
-0.14783 0.00272 0.29614
-0.14418 0.19345 0.06343
-0.14279 0.19345 0.32338
-0.14726 0.19345 -0.07857
-0.14004 0.19345 0.33698
-0.14733 0.19345 0.12637
-0.13824 0.19345 0.22792
-0.15355 0.19345 0.23969
-0.13891 0.19345 -0.07739
-0.11228 0.19345 -0.36545
-0.15034 0.19345 -0.37232
-0.17428 0.21525 0.10433
0.00026 0.21525 -0.16700
-0.16076 0.21525 -0.39141
-0.15409 0.21525 -0.25039
-0.06861 0.21525 -0.34225
-0.18759 0.21525 -0.03890
0.15579 0.21525 -0.36720
0.05694 0.21525 -0.15519
-0.12351 0.21525 0.16760
-0.09208 0.21525 0.06970
-0.03446 0.21525 -0.18788
0.09152 0.21525 -0.24881
-0.05630 0.21525 -0.34705
-0.05742 0.21525 -0.31766
0.01193 0.21525 -0.32508
-0.04254 0.21525 -0.35372
-0.02385 0.21525 -0.34055
-0.08179 0.21525 -0.35716
0.00954 0.21525 -0.15573
-0.16143 0.21525 -0.36976
-0.17820 0.21525 0.28970
-0.08478 0.21525 -0.37690
-0.05332 0.21525 -0.03878
-0.16648 0.21525 -0.03358
-0.10935 0.21525 0.19431
0.04406 0.21525 -0.13150
-0.18358 0.21525 -0.07109
-0.11708 0.21525 0.17633
0.04424 0.21525 -0.19245
-0.15771 0.21525 -0.30215
-0.05068 0.21525 -0.34749
-0.18082 0.21525 -0.01044
-0.12493 0.21525 -0.00160
-0.03041 0.21525 -0.18079
0.03139 0.21525 -0.13394
-0.18363 0.21525 0.17422
-0.09194 0.21525 -0.13853
0.04039 0.21525 -0.26875
-0.02274 0.21525 -0.18824
0.03262 0.21525 -0.28936
-0.02656 0.21525 0.03739
-0.07923 0.21525 -0.13012
-0.12197 0.21525 -0.16980
-0.14429 0.21525 0.08676
-0.09894 0.21525 -0.01976
0.01660 0.21525 -0.09478
-0.02062 0.21525 -0.40479
0.08879 0.21525 -0.39403
-0.00647 0.21525 -0.36452
-0.16952 0.21525 -0.09908
-0.12299 0.21525 0.17744
-0.00543 0.21525 -0.26349
-0.08888 0.21525 -0.12507
0.17922 0.21525 -0.40066
0.00004 0.21525 -0.13520
0.04390 0.21525 -0.14566
-0.08029 0.21525 -0.29514
-0.06761 0.21525 -0.26753
-0.06284 0.21525 -0.34792
0.02724 0.21525 -0.14446
-0.00762 0.21525 -0.31015
-0.16890 0.21525 0.18720
-0.02502 0.21525 -0.00551
-0.14904 0.21525 0.06052
-0.12923 0.21525 0.02749
-0.15736 0.21525 0.31522
-0.10106 0.21525 -0.36236
0.09296 0.21525 -0.32143
0.06453 0.21525 -0.38595
-0.08094 0.21525 -0.17883
0.00472 0.21525 -0.37132
0.04772 0.21525 -0.30289
-0.17742 0.21525 0.16011
-0.10538 0.21525 0.10645
-0.14108 0.21525 -0.04836
0.08593 0.21525 -0.20799
-0.09847 0.21525 -0.04138
-0.14477 0.21525 -0.07489
0.00498 0.21525 -0.01569
-0.15756 0.21525 -0.15378
-0.00878 0.21525 -0.15556
-0.08001 0.21525 -0.36907
0.00954 0.21525 -0.11082
0.04206 0.21525 -0.37198
0.14388 0.21525 -0.32211
0.02566 0.21525 -0.28704
0.13191 0.21525 -0.31281
-0.15226 0.21525 -0.04544
-0.00817 0.21525 -0.29159
-0.12957 0.21525 -0.17641
0.04451 0.21525 -0.23379
-0.18596 0.21525 -0.04907
-0.01075 0.21525 -0.04789
0.00535 0.21525 -0.14695
-0.07324 0.21525 -0.29898
-0.14359 0.21525 0.12471
-0.10500 0.21525 -0.05001
-0.09148 0.21525 -0.24371
-0.06260 0.21525 -0.08885
-0.13895 0.21525 0.12236
-0.17488 0.21525 0.23504
-0.15105 0.21525 -0.26011
0.09082 0.21525 -0.30532
-0.04489 0.21525 -0.17772
-0.13344 0.21525 0.01434
-0.13734 0.21525 0.04539
-0.17889 0.21525 0.24854
-0.01543 0.21525 -0.02106
-0.16544 0.21525 0.19881
0.02491 0.21525 -0.31074
0.05636 0.21525 -0.28783
-0.14869 0.21525 0.04738
-0.05846 0.21525 0.02713
-0.06122 0.21525 -0.23553
0.17162 0.21525 -0.39567
0.05228 0.21525 -0.31074
0.03325 0.21525 -0.39055
0.03967 0.21525 -0.28620
-0.05972 0.21525 -0.04887
-0.14411 0.21525 -0.23950
-0.12294 0.21525 -0.21110
0.00018 0.21525 -0.23232
-0.12440 0.21525 -0.08313
-0.02957 0.21525 -0.02898
0.17119 0.21525 -0.40391
-0.11305 0.21525 -0.00951
0.05504 0.21525 -0.32037
0.15109 0.21525 -0.40815
0.07608 0.21525 -0.21456
-0.06747 0.21525 0.13564
-0.12709 0.21525 0.10528
0.00373 0.21525 -0.27442
-0.12248 0.21525 -0.34790
-0.12844 0.21525 0.23571
0.02625 0.21525 -0.31814
-0.09358 0.21525 0.11966
-0.04583 0.21525 -0.38287
-0.02749 0.21525 0.00121
-0.16629 0.21525 -0.19919
-0.09865 0.21525 0.00888
0.00540 0.21525 -0.30359
-0.12969 0.21525 0.10014
0.00773 0.21525 -0.31510
-0.17387 0.21525 0.35175
-0.07932 0.21525 -0.34484
0.01444 0.21525 -0.35484
-0.08824 0.21525 0.00085
-0.13689 0.21525 0.16445
-0.01271 0.21525 -0.17145
0.06173 0.21525 -0.40032
0.06253 0.21525 -0.36512
0.14376 -0.14542 0.36200
0.14376 0.08447 0.37454
0.14376 -0.14636 0.37790
0.14376 0.04386 0.37310
0.14376 0.00510 0.37002
0.14376 0.07621 0.37386
0.15738 0.06491 -0.38019
0.15738 -0.06054 -0.36612
0.15738 -0.02111 -0.37224
0.15738 -0.13108 -0.36224
0.15738 -0.21337 -0.37523
0.15738 -0.19671 -0.37384
0.02602 -0.00350 -0.36006
0.02602 0.07602 -0.36209
0.02602 0.01024 -0.36059
0.02602 0.02717 -0.35739
0.02602 0.01548 -0.36658
-0.16057 0.19345 -0.20190
-0.16158 0.19345 0.00208
-0.15901 0.19345 0.13687
-0.15897 0.19345 0.15852
-0.15214 0.19345 0.03289
-0.15292 0.19345 -0.18473
-0.16263 0.19345 -0.30111
0.14904 -0.13048 -0.38146
0.15051 -0.01118 -0.38146
0.15399 -0.03511 -0.38146
0.19008 0.20867 -0.10025
0.19008 0.20521 -0.33563
0.19008 0.20058 -0.26204
0.19008 0.20857 0.02641
-0.09997 -0.18556 0.38146
0.14119 -0.21241 0.38146
0.19008 0.20973 0.17388
-0.07511 -0.20419 -0.38146
0.02602 0.19217 0.37224
0.02602 0.14494 0.37604
0.02602 0.07311 0.36602
0.02602 -0.04296 0.37707
0.02602 0.18151 0.36166
0.02602 0.02141 0.36970
-0.08341 -0.20163 0.36497
0.14873 0.19345 -0.35763
0.12692 -0.20829 -0.35421
-0.09932 -0.20800 0.35607
0.15247 0.09747 -0.38146
0.14627 0.18449 -0.38146
-0.13689 0.18519 -0.32149
-0.13689 0.15564 0.29557
-0.13689 0.14538 0.25853
-0.13689 0.12389 0.31698
-0.13689 0.17553 -0.16162
-0.13689 0.14776 -0.09721
-0.13689 0.08237 0.19387
-0.13689 0.08302 0.22270
-0.13689 0.06356 0.21565
-0.13689 0.14315 -0.00103
-0.13689 0.15448 0.33783
-0.13689 0.12912 -0.00359
-0.13689 0.18260 0.19361
-0.13689 0.16429 -0.10875
-0.13689 0.04763 0.27358
-0.13689 0.15155 0.08713
-0.13689 0.14493 -0.10589
-0.13689 0.11350 0.31204
-0.13689 0.12643 0.04401
-0.13689 0.06730 0.35313
-0.13689 0.10943 0.03251
-0.13689 0.16426 -0.13535
-0.13689 0.12088 0.17490
-0.13689 0.05210 0.22470
-0.13689 0.12412 -0.04283
-0.13689 0.10345 0.15050
-0.13689 0.12322 0.08063
-0.13689 0.03144 0.27034
-0.13689 0.17147 -0.09085
-0.13689 0.09682 0.14506
-0.13689 0.15243 0.03313
-0.13689 0.16951 0.26294
-0.13689 0.13092 0.23790
-0.13689 0.06836 0.26053
-0.13689 0.15819 0.17749
-0.13689 0.16357 -0.00603
-0.13689 0.11548 0.12315
-0.13689 0.15231 -0.17855
-0.13689 0.17786 0.15183
-0.13689 0.15144 -0.06907
-0.13689 0.17567 -0.05461
-0.13689 0.10714 0.00664
-0.13689 0.17475 -0.26171
-0.13689 0.18398 0.16590
-0.13689 0.18100 -0.05544
-0.13689 0.10961 0.14747
-0.13689 0.15352 0.12594
-0.13689 0.18860 -0.12882
-0.13689 0.16794 0.00487
-0.13689 0.10424 0.08325
-0.13689 0.10574 0.27487
-0.13689 0.07857 0.28978
-0.13689 0.14869 0.23478
-0.13689 0.18879 0.09965
-0.13689 0.15353 0.31416
-0.13689 0.06097 0.15219
-0.13689 0.18318 -0.26751
-0.13689 0.15748 0.21510
-0.13689 0.18654 -0.23635
-0.13689 0.04014 0.35410
-0.13689 0.16094 -0.01981
-0.13689 0.13754 -0.14421
-0.13689 0.16613 -0.22703
-0.13689 0.17747 0.22815
-0.02654 -0.20163 -0.36753
0.04530 -0.20163 -0.37914
-0.04147 -0.20163 -0.37236
0.09808 -0.20413 0.35421
-0.12242 -0.20374 -0.35421
-0.12998 -0.14942 -0.35421
-0.15373 -0.20139 -0.35421
-0.14895 -0.09324 -0.35421
-0.15748 0.13234 -0.35421
-0.16289 -0.09911 -0.35421
-0.14513 -0.01341 -0.35421
-0.14296 -0.16750 -0.35421
-0.13992 -0.15884 -0.35421
-0.10391 -0.17277 -0.35421
-0.16059 -0.18073 -0.35421
-0.13050 -0.05443 -0.35421
-0.15799 -0.14842 -0.35421
-0.13689 0.13754 -0.30956
-0.13689 0.04212 -0.05654
-0.13689 0.09654 -0.32697
-0.13689 0.05452 -0.23639
-0.13689 0.09015 -0.21002
-0.13689 0.14510 -0.27473
-0.13689 0.11891 -0.30378
-0.13689 0.09479 -0.18564
-0.13689 0.12177 -0.09690
-0.13689 0.02782 0.23602
-0.13689 0.09322 -0.28766
-0.13689 0.05525 -0.17252
-0.13689 0.00354 -0.13163
-0.13689 0.01945 -0.13717
-0.13689 0.10347 -0.32746
-0.13689 0.03526 -0.12777
-0.13689 0.02860 -0.09574
-0.13689 0.10539 -0.25024
-0.13689 0.01868 -0.14788
-0.13689 0.12092 -0.19165
-0.13689 0.08050 0.01550
-0.13689 0.04395 0.20034
-0.13689 0.01870 -0.33038
-0.13689 0.11969 -0.18364
-0.13689 0.05710 -0.23091
-0.13689 0.01103 0.13261
-0.13689 0.16810 -0.27447
-0.13689 0.15320 -0.31343
-0.13689 0.01795 -0.20058
-0.13689 0.01109 -0.29168
-0.13689 0.12173 -0.33315
-0.13689 0.01845 0.27589
-0.13689 0.03401 0.02535
-0.13689 0.10947 -0.06058
-0.13689 0.07309 0.08208
-0.13689 0.04575 -0.27045
-0.13689 0.12581 -0.27911
-0.13689 0.02923 -0.17721
-0.13689 0.02861 -0.30899
-0.13689 0.08223 -0.21632
-0.13689 0.13223 -0.30060
-0.13689 0.15438 -0.27402
-0.13689 0.10851 -0.23992
-0.13689 0.03583 0.21604
-0.13689 0.02261 -0.26619
-0.13689 0.00762 0.00942
-0.13689 0.01342 0.03419
-0.13689 0.13731 -0.24972
-0.13689 0.06402 -0.23151
-0.13689 0.17482 -0.30850
-0.13689 0.03355 0.00432
-0.13689 0.03655 0.11076
-0.13689 0.02381 0.11869
-0.13689 0.03566 -0.11047
-0.13689 0.02390 -0.32653
-0.13689 0.02567 -0.21732
-0.13689 0.04406 -0.18389
-0.13689 0.10392 -0.04116
-0.13689 0.10948 -0.10010
-0.13689 0.09531 -0.25005
-0.13689 0.04771 -0.26021
-0.13689 0.04293 0.06978
-0.13689 0.08656 -0.19449
-0.09602 -0.20434 -0.36612
-0.06125 -0.21426 0.35421
-0.09932 -0.21295 -0.37400
-0.08181 -0.15150 -0.38146
-0.01792 0.19246 -0.38146
-0.03781 0.13958 -0.38146
-0.09073 -0.14271 -0.38146
-0.09757 0.12749 -0.38146
-0.06091 -0.04759 -0.38146
-0.11240 0.08471 -0.38146
-0.09665 0.11812 -0.38146
-0.14205 0.13988 -0.38146
-0.10097 0.07011 -0.38146
-0.04829 0.15871 -0.38146
-0.12435 0.18758 -0.38146
-0.09753 0.06202 -0.38146
-0.08245 0.16183 -0.38146
-0.13184 0.17639 -0.38146
-0.03866 0.06211 -0.38146
-0.05815 -0.02685 -0.38146
-0.08143 0.11478 -0.38146
-0.10873 -0.07254 -0.38146
-0.07605 0.09997 -0.38146
-0.09394 0.11323 -0.38146
-0.06814 0.05866 -0.38146
-0.10828 0.06035 -0.38146
-0.08200 -0.14575 -0.38146
-0.12833 -0.00338 -0.38146
-0.03210 0.08210 -0.38146
-0.05364 -0.00993 -0.38146
-0.08981 0.10087 -0.38146
-0.12833 0.13677 -0.38146
-0.02565 0.06986 -0.38146
-0.13490 0.15694 -0.38146
-0.07736 0.08388 -0.38146
-0.02218 0.13836 -0.38146
-0.08317 -0.09199 -0.38146
-0.15258 0.16948 -0.38146
-0.00380 0.18281 -0.38146
-0.06444 0.02407 -0.38146
-0.15001 -0.01221 0.38146
-0.15178 -0.14979 0.38146
-0.12741 -0.07054 0.38146
-0.14518 -0.03253 0.38146
-0.11951 -0.21328 0.38146
-0.14197 -0.06845 0.38146
-0.11397 -0.20677 0.38146
-0.16381 -0.03428 0.38146
-0.14152 -0.15816 0.38146
-0.14896 -0.13876 0.38146
-0.13062 -0.12075 0.38146
-0.14029 -0.07412 0.38146
-0.15587 -0.05354 0.38146
-0.15414 -0.17082 0.38146
-0.16310 -0.21525 0.37760
-0.16413 0.03518 0.37782
-0.16413 -0.10725 0.36956
-0.16413 0.06674 0.38061
-0.16413 -0.00241 0.37762
-0.16413 -0.16667 0.36486
-0.16413 0.11438 0.38063
-0.01704 -0.21525 0.35946
0.00571 -0.21525 0.36068
0.09662 -0.21525 0.36206
0.14035 -0.21525 0.36739
-0.16413 -0.12094 -0.36159
-0.16413 -0.18815 -0.36878
-0.16413 -0.06180 -0.35694
-0.16413 -0.06856 -0.36344
-0.15528 0.04457 0.35421
-0.13958 0.00685 0.35421
0.02537 -0.21165 -0.38146
0.14792 -0.21165 -0.38146
-0.15618 0.19345 0.05030
-0.15118 0.19345 -0.14430
-0.15528 0.19345 -0.28705
-0.15603 0.19345 0.07767
-0.15546 0.19345 -0.10365
-0.16139 0.19345 0.01149
-0.15341 0.19345 -0.19945
-0.15379 0.19345 -0.04102
-0.15998 0.19345 -0.07171
-0.03958 -0.10513 -0.35421
-0.02686 -0.20052 -0.35421
-0.07074 -0.08931 -0.35421
-0.06435 -0.09801 -0.35421
-0.05465 -0.18297 -0.35421
-0.09970 -0.07120 -0.35421
-0.10542 -0.10092 -0.35421
-0.14070 0.12817 -0.35421
0.00562 -0.19705 -0.35421
-0.05746 -0.14387 -0.35421
-0.07090 -0.08037 -0.35421
-0.12045 0.04158 -0.35421
-0.01475 -0.16798 -0.35421
-0.08615 -0.07303 -0.35421
-0.09747 -0.16939 -0.35421
-0.12798 0.00076 -0.35421
-0.13761 0.06788 -0.35421
-0.09101 -0.11782 -0.35421
-0.11276 -0.05624 -0.35421
-0.05883 -0.05394 -0.35421
-0.11868 0.01767 -0.35421
-0.09893 0.03477 -0.35421
-0.13830 -0.21447 -0.38146
-0.13886 0.00272 -0.23311
-0.15289 0.00272 -0.14589
-0.14637 0.00272 -0.15260
-0.14401 0.00272 0.04658
-0.14408 0.00272 -0.02861
-0.14775 0.00272 -0.31017
0.15738 -0.20400 -0.37336
0.15738 -0.08398 -0.36940
0.15738 -0.00613 -0.37146
0.15738 0.08666 -0.37707
-0.13778 0.00848 -0.35421
-0.14782 -0.15009 -0.35421
-0.13467 -0.01488 -0.35421
-0.15632 -0.03061 -0.35421
-0.15928 0.04015 -0.35421
-0.14643 -0.10271 -0.35421
-0.15664 0.02076 -0.35421
-0.13142 -0.02001 -0.35421
-0.14450 -0.08560 -0.35421
-0.15297 0.01022 -0.35421
-0.15604 -0.11604 -0.35421
0.03235 -0.21345 0.38146
0.06986 -0.21525 -0.35705
-0.00350 -0.21525 -0.36276
-0.01013 -0.21525 -0.36381
-0.04136 -0.21525 -0.36180
-0.12574 -0.18228 0.38146
-0.15526 -0.19965 0.38146
-0.14193 -0.13611 0.38146
-0.10068 -0.20828 0.38146
-0.15796 0.13701 0.38146
-0.12614 -0.17135 0.38146
-0.14504 0.06873 0.38146
-0.14622 -0.11912 0.38146
-0.13883 -0.14504 0.38146
-0.15976 -0.18771 0.38146
-0.16098 0.05199 0.38146
-0.15892 -0.11038 0.38146
-0.12499 -0.21525 -0.35576
-0.16413 0.18790 -0.34868
-0.16413 0.17681 0.24426
-0.16413 0.18023 -0.27507
-0.16413 0.18403 0.25798
-0.16413 0.06162 -0.18864
-0.16413 0.08227 -0.28323
-0.16413 0.17572 0.02391
-0.16413 0.10558 -0.05968
-0.16413 0.16936 0.16679
-0.16413 0.17955 0.08436
-0.16413 0.19036 0.20848
-0.16413 0.03784 -0.33408
-0.16413 0.10778 -0.09343
-0.16413 0.15572 -0.09763
-0.16413 0.09596 -0.04743
-0.16413 0.01578 -0.31334
-0.16413 0.17974 0.07906
-0.16413 0.07163 -0.23051
-0.16413 0.03224 -0.30103
-0.16413 0.04577 -0.27619
-0.16413 0.09255 -0.34647
-0.16413 0.18876 0.18428
-0.16413 0.11799 -0.29786
-0.16413 0.09610 -0.01283
-0.16413 0.03769 -0.31150
-0.16413 0.13750 -0.25213
-0.16413 0.11531 -0.32465
-0.16413 0.07293 -0.29830
-0.16413 0.14374 -0.18455
-0.16413 0.18573 0.12169
-0.16413 0.16599 -0.03234
-0.16413 0.15316 -0.26177
-0.16413 0.10706 -0.27204
-0.16413 0.13197 -0.33076
-0.16413 0.13118 -0.32442
-0.16413 0.18546 0.27922
-0.16413 0.18080 -0.06423
-0.16413 0.13393 -0.28178
-0.16413 0.14525 -0.27159
-0.16413 0.11894 -0.17946
-0.16413 0.12431 0.04395
-0.16413 0.04994 -0.22293
-0.16413 0.13009 0.03300
-0.16413 0.17815 0.13973
-0.16413 0.14552 0.11826
-0.16413 0.11454 -0.34124
-0.16413 0.13734 -0.15844
-0.16413 0.13676 -0.30941
-0.16413 0.10814 -0.13898
-0.16413 0.06217 -0.20691
-0.16413 0.18611 -0.27563
-0.16413 0.14082 -0.24015
-0.16413 0.05160 -0.17968
-0.16413 0.03431 -0.24721
-0.16413 0.08060 -0.26675
-0.16413 0.08160 -0.15880
-0.16413 0.10019 0.00039
-0.16413 0.04803 -0.27022
-0.16413 0.19284 -0.19796
-0.16413 0.17927 -0.09171
-0.16413 0.18753 -0.05516
-0.16413 0.12022 -0.15388
-0.16413 0.05268 -0.25256
-0.16413 0.15055 -0.05105
-0.16413 0.13295 -0.06427
-0.16413 0.16263 0.11781
-0.16413 0.14511 -0.17001
-0.16413 0.13883 -0.27912
0.15036 -0.07177 0.38146
0.15004 -0.01723 0.38146
0.14975 -0.19861 0.38146
-0.07951 0.19345 0.37569
-0.04719 0.19345 0.36928
0.01151 0.19345 0.36353
-0.16413 0.08849 -0.36629
-0.16413 -0.03755 -0.37045
-0.16413 0.06261 -0.37633
-0.16413 0.08682 -0.37634
-0.16413 0.18198 -0.37173
0.19008 0.19385 0.20155
-0.13689 0.16822 -0.19595
-0.13689 0.11685 -0.01170
-0.13689 0.12973 -0.09042
-0.13689 0.19292 -0.31579
-0.13689 0.09243 0.23229
-0.13689 0.10802 0.16260
-0.13689 0.13414 0.13277
-0.13689 0.12662 -0.06437
-0.13689 0.13278 0.20251
-0.13689 0.15916 -0.04720
-0.13689 0.09599 0.24629
-0.13689 0.12797 -0.09792
-0.13689 0.13378 -0.00649
-0.13689 0.15206 0.28317
-0.13689 0.16771 0.10982
-0.13689 0.16823 -0.22095
-0.13689 0.18933 -0.04854
-0.13689 0.15243 0.17838
-0.13689 0.18254 0.02504
-0.13689 0.09494 0.12579
-0.13689 0.11858 0.14044
-0.13689 0.02855 0.32133
-0.13689 0.14162 -0.04444
-0.13689 0.04652 0.20643
-0.13689 0.08858 0.12096
-0.13689 0.17047 0.34234
-0.13689 0.14391 0.23805
-0.13689 0.15661 -0.19508
-0.13689 0.13840 0.08919
-0.13689 0.10462 -0.01962
-0.13689 0.12187 0.05167
-0.13689 0.07994 0.32817
-0.13689 0.10232 0.09377
-0.13689 0.18688 -0.18195
-0.13689 0.18045 -0.13906
-0.13689 0.08624 0.10778
-0.13689 0.09910 0.05943
-0.13689 0.03125 0.26115
-0.13689 0.03405 0.30222
-0.13689 0.09453 0.32702
-0.13689 0.07624 0.09993
-0.13689 0.12954 0.33042
-0.13689 0.17301 -0.02501
-0.13689 0.16923 0.01306
-0.13689 0.02873 0.30826
-0.13689 0.11654 0.18413
-0.13689 0.08000 0.30441
-0.13689 0.13903 -0.08870
-0.13689 0.06523 0.21046
-0.13689 0.08902 0.14397
-0.13689 0.15602 0.32199
-0.13689 0.14037 0.29961
-0.13689 0.17026 0.27795
-0.13689 0.11040 0.33452
-0.13689 0.14393 0.20904
-0.13689 0.19194 -0.28626
-0.13689 0.07812 0.31626
-0.13689 0.19279 -0.09738
-0.13689 0.16945 0.03042
-0.13689 0.11066 0.18715
-0.13689 0.16003 0.15628
-0.13689 0.02554 0.27386
-0.13689 0.13019 0.26866
-0.13689 0.19303 0.11579
-0.02516 0.19345 -0.36817
-0.07020 0.19345 -0.35603
-0.05439 0.19345 -0.36030
0.01786 -0.20163 0.36940
-0.01688 -0.20163 0.35583
-0.13689 0.04333 -0.23111
-0.13689 0.08090 -0.08737
-0.13689 0.12067 -0.19986
-0.13689 0.03872 0.19520
-0.13689 0.12669 -0.20775
-0.13689 0.01746 -0.18614
-0.13689 0.13974 -0.29087
-0.13689 0.06322 -0.05044
-0.13689 0.03925 -0.20102
-0.13689 0.05633 -0.13368
-0.13689 0.02594 0.16243
-0.13689 0.06988 -0.07799
-0.13689 0.02579 -0.13793
-0.13689 0.02397 0.01750
-0.13689 0.05977 -0.25046
-0.13689 0.02408 -0.19103
-0.13689 0.08036 -0.00753
-0.13689 0.07390 -0.24239
-0.13689 0.10151 -0.30134
-0.13689 0.09820 -0.01351
-0.13689 0.12402 -0.24447
-0.13689 0.06097 -0.08535
-0.13689 0.02953 0.10096
-0.13689 0.06351 0.10600
-0.13689 0.14455 -0.32708
-0.13689 0.02699 0.12598
-0.13689 0.12476 -0.13436
-0.13689 0.05519 0.09333
-0.13689 0.10611 -0.13999
-0.13689 0.00534 0.23413
-0.13689 0.12459 -0.18705
-0.13689 0.08152 -0.12057
-0.13689 0.11645 -0.14121
-0.13689 0.00956 0.07466
-0.13689 0.04189 -0.25151
-0.13689 0.13262 -0.20300
-0.13689 0.00467 0.06292
-0.13689 0.08000 0.00042
-0.13689 0.04873 0.09858
-0.13689 0.09830 -0.07392
-0.13689 0.06802 0.09656
-0.13689 0.06324 0.00634
-0.13689 0.04647 -0.21555
-0.13689 0.12144 -0.25705
-0.13689 0.04971 -0.15175
-0.13689 0.00469 0.07104
-0.13689 0.03201 -0.34770
-0.13689 0.15969 -0.31607
-0.13689 0.11892 -0.34646
-0.13689 0.00928 -0.26915
-0.13689 0.10397 -0.11856
-0.13689 0.03260 -0.10427
-0.13689 0.06014 -0.33700
-0.13689 0.09105 -0.07418
-0.13689 0.11467 -0.19656
-0.13689 0.08585 -0.04005
-0.13689 0.12522 -0.32217
-0.13689 0.03290 0.13064
-0.01879 0.17600 -0.38146
-0.15919 0.16707 -0.38146
-0.03907 0.10778 -0.38146
-0.10740 0.02849 -0.38146
-0.10041 -0.13452 -0.38146
-0.08223 0.10189 -0.38146
-0.12574 0.07781 -0.38146
-0.03771 0.09997 -0.38146
-0.10717 -0.04189 -0.38146
-0.08945 -0.07042 -0.38146
-0.03255 0.12674 -0.38146
-0.06448 0.19169 -0.38146
0.00497 0.15302 -0.38146
-0.02045 0.09102 -0.38146
-0.09525 0.17552 -0.38146
-0.09126 -0.17690 -0.38146
-0.05238 0.13261 -0.38146
-0.04858 0.12216 -0.38146
-0.13062 0.05305 -0.38146
-0.08834 -0.05521 -0.38146
-0.09069 -0.09403 -0.38146
-0.09427 0.16328 -0.38146
-0.06015 0.10720 -0.38146
-0.06980 0.08259 -0.38146
-0.12297 0.17356 -0.38146
-0.02829 0.07708 -0.38146
-0.06385 0.06558 -0.38146
-0.08709 0.01522 -0.38146
-0.03650 0.09352 -0.38146
-0.06745 0.10407 -0.38146
-0.05814 -0.02110 -0.38146
-0.07896 0.12455 -0.38146
-0.10425 0.03274 -0.38146
-0.09019 0.01101 -0.38146
-0.09871 -0.20334 -0.35421
-0.08022 -0.21362 -0.35421
-0.06293 -0.20163 -0.36828
-0.12453 0.21525 -0.38769
-0.16925 0.21525 0.27055
-0.13061 0.21525 -0.15980
-0.13154 0.21525 -0.11662
-0.17348 0.21525 -0.40134
-0.08299 0.21525 0.03575
-0.05610 0.21525 -0.00300
-0.17736 0.21525 -0.07622
-0.11003 0.21525 -0.02517
-0.15908 0.21525 -0.05157
-0.19103 0.21525 -0.38470
-0.05872 0.21525 -0.30422
0.13502 0.21525 -0.34169
0.08161 0.21525 -0.32194
-0.09354 0.21525 0.16644
0.02453 0.21525 -0.35732
-0.11414 0.21525 0.21179
0.05729 0.21525 -0.29321
-0.14110 0.21525 0.18689
-0.04638 0.21525 -0.36972
-0.08496 0.21525 -0.17415
-0.08253 0.21525 -0.21410
-0.18180 0.21525 0.15397
-0.12247 0.21525 -0.18578
-0.13760 0.21525 0.09141
-0.06569 0.21525 -0.09577
-0.03401 0.21525 -0.29036
-0.18247 0.21525 -0.19167
0.14834 0.21525 -0.36583
-0.16901 0.21525 -0.37274
-0.01680 0.21525 -0.17849
-0.17981 0.21525 -0.15357
-0.02801 0.21525 -0.11129
-0.14983 0.21525 -0.07782
-0.13565 0.21525 -0.26105
0.05582 0.21525 -0.16580
-0.15654 0.21525 0.10345
-0.09088 0.21525 -0.19102
-0.08414 0.21525 0.17300
-0.06305 0.21525 -0.30016
-0.12205 0.21525 -0.34185
-0.05715 0.21525 0.08659
-0.17567 0.21525 -0.05388
-0.09356 0.21525 -0.17613
-0.13764 0.21525 -0.17453
0.05477 0.21525 -0.33593
-0.16351 0.21525 -0.00573
-0.14305 0.21525 0.30191
-0.17312 0.21525 0.09436
-0.17073 0.21525 -0.12014
-0.07492 0.21525 -0.21562
-0.18883 0.21525 -0.08439
0.01461 0.21525 -0.30370
-0.11840 0.21525 0.11693
0.01458 0.21525 -0.29309
-0.10788 0.21525 -0.40146
0.00796 0.21525 -0.05800
-0.01981 0.21525 -0.01294
-0.13707 0.21525 0.10734
-0.12965 0.21525 -0.22882
-0.18890 0.21525 0.06455
-0.09460 0.21525 0.19533
-0.14457 0.21525 -0.21414
-0.09027 0.21525 -0.33309
-0.03651 0.21525 -0.31698
-0.18280 0.21525 0.27305
-0.04192 0.21525 -0.07999
-0.12149 0.21525 -0.06726
-0.17791 0.21525 -0.37369
0.05095 0.21525 -0.23912
-0.17319 0.21525 -0.35593
-0.12006 0.21525 0.04195
-0.16320 0.21525 0.34815
-0.16620 0.21525 0.06573
-0.07726 0.21525 -0.24408
-0.09353 0.21525 -0.38832
-0.01040 0.21525 -0.26755
0.09619 0.21525 -0.40043
-0.14421 0.21525 0.18166
0.03637 0.21525 -0.11121
-0.07746 0.21525 -0.00986
-0.08794 0.21525 0.15632
-0.08749 0.21525 0.07415
0.06366 0.21525 -0.25037
-0.18588 0.21525 0.07253
0.10940 0.21525 -0.26772
-0.05266 0.21525 -0.02666
-0.19015 0.21525 0.29569
0.00270 0.21525 -0.06260
0.04899 0.21525 -0.17498
0.01129 0.21525 -0.08463
-0.12773 0.21525 -0.40129
-0.17696 0.21525 -0.01635
-0.06253 0.21525 0.01650
-0.15145 0.21525 0.10823
-0.00787 0.21525 -0.23126
-0.15399 0.21525 0.24127
0.05746 0.21525 -0.14873
-0.09116 0.21525 -0.35577
0.16408 0.21525 -0.37887
0.13617 0.21525 -0.40177
-0.10580 0.21525 -0.33672
-0.04355 0.21525 -0.22950
0.05861 0.21525 -0.24472
-0.06637 0.21525 -0.10984
0.03093 0.21525 -0.26770
0.02408 0.21525 -0.18743
-0.13316 0.21525 -0.34454
0.04890 0.21525 -0.22678
-0.13623 0.21525 0.21879
0.12330 0.21525 -0.38609
-0.18695 0.21525 -0.34885
0.06478 0.21525 -0.35961
-0.05727 0.21525 -0.08800
-0.01780 0.21525 -0.34159
-0.13176 0.21525 -0.24613
0.07452 0.21525 -0.32493
-0.09160 0.21525 -0.20262
-0.04238 0.21525 -0.24248
-0.15820 0.21525 0.18414
-0.15062 0.21525 -0.05449
-0.17456 0.21525 0.00463
-0.15484 0.21525 0.32568
-0.17378 0.21525 -0.24172
0.09328 0.21525 -0.28364
-0.11609 0.21525 0.02355
-0.16322 0.21525 -0.21283
-0.16529 0.21525 0.15356
-0.01843 0.21525 -0.02718
-0.17186 0.21525 0.11585
-0.03380 0.21525 -0.36820
-0.08626 0.21525 -0.02388
-0.13846 0.21525 -0.15453
0.06423 0.21525 -0.22711
0.08263 0.21525 -0.31150
-0.05017 0.21525 0.01204
-0.09013 0.21525 -0.23092
-0.17368 0.21525 -0.25278
-0.08821 0.21525 -0.32535
-0.13258 -0.21525 0.36632
-0.13968 -0.20239 -0.38146
-0.15873 0.00659 -0.38146
-0.14407 -0.01472 -0.38146
-0.13571 -0.01327 -0.38146
-0.16025 -0.21236 -0.38146
-0.10763 -0.13592 -0.38146
-0.13559 -0.14389 -0.38146
-0.16286 -0.17141 -0.38146
-0.14031 -0.09211 -0.38146
-0.15378 -0.15156 -0.38146
-0.14302 -0.13631 -0.38146
-0.12523 -0.18457 -0.38146
-0.15232 -0.02215 -0.38146
-0.07974 -0.20163 -0.35606
0.00335 -0.20163 -0.36508
0.05199 -0.20163 -0.35801
-0.01883 -0.20163 -0.35642
0.02602 0.18071 -0.36456
0.02602 0.11567 -0.36884
0.02602 0.06409 -0.36543
0.02602 0.07709 -0.35584
0.02602 0.14535 -0.37230
-0.01743 0.19345 0.36080
0.01001 0.19345 0.37799
-0.04189 0.15704 0.38146
-0.00032 0.19089 0.38146
-0.06929 0.05323 0.38146
-0.06220 0.19165 0.38146
-0.00402 -0.02314 0.38146
-0.01767 0.08565 0.38146
-0.12813 0.17362 0.38146
-0.05776 -0.00237 0.38146
-0.04251 0.08571 0.38146
-0.10942 0.16683 0.38146
-0.11465 0.18469 0.38146
0.02496 0.16592 0.38146
-0.01138 -0.03401 0.38146
-0.08190 0.05635 0.38146
-0.02679 0.17069 0.38146
-0.01275 0.00041 0.38146
-0.10837 0.11274 0.38146
-0.06283 0.03227 0.38146
0.02234 -0.16585 0.38146
0.02496 0.13009 0.38146
-0.03879 -0.02661 0.38146
-0.00840 0.09998 0.38146
-0.02446 0.06993 0.38146
-0.00064 0.16525 0.38146
-0.10346 0.09821 0.38146
-0.09078 0.17345 0.38146
-0.05363 -0.01520 0.38146
-0.03987 0.12216 0.38146
-0.00287 0.14944 0.38146
-0.00847 0.14329 0.38146
-0.09734 0.15941 0.38146
-0.05071 0.17942 0.38146
-0.03372 -0.04030 0.38146
-0.07245 0.18896 0.38146
-0.00216 -0.00131 0.38146
-0.05170 0.01420 0.38146
0.02116 -0.15121 0.38146
0.04395 0.19345 -0.09468
0.12242 0.19345 0.21083
0.02940 0.19345 -0.18194
0.16014 0.19345 0.17862
0.00436 0.19345 0.00772
0.13904 0.19345 0.14060
0.08311 0.19345 -0.04657
-0.03129 0.19345 -0.24860
0.18150 0.19345 0.24354
-0.07717 0.19345 -0.25179
0.08783 0.19345 -0.35500
-0.01315 0.19345 -0.15288
-0.07062 0.19345 -0.15811
-0.07864 0.19345 -0.28324
0.14230 0.19345 0.11742
0.10211 0.19345 0.02839
0.02936 0.19345 -0.32414
0.10794 0.19345 -0.09919
-0.04609 0.19345 -0.26975
0.13588 0.19345 0.01223
0.04859 0.19345 0.06994
-0.02965 0.19345 -0.07085
0.08622 0.19345 0.15656
0.12541 0.19345 0.08862
0.16310 0.19345 -0.09678
-0.07532 0.19345 -0.35036
0.14706 0.19345 0.00195
-0.05109 0.19345 -0.19769
-0.06470 0.19345 -0.17370
0.12982 0.19345 -0.03343
-0.12243 0.19345 -0.27832
-0.02628 0.19345 -0.10811
-0.08054 0.19345 -0.30178
-0.08497 0.19345 -0.19651
0.05658 0.19345 -0.24834
0.01665 0.19345 0.00383
0.13760 0.19345 0.09645
-0.04841 0.19345 -0.31791
0.05756 0.19345 0.09957
0.16449 0.19345 0.34128
-0.16785 0.19345 -0.40857
-0.15443 0.19345 -0.36194
-0.01361 0.19345 -0.30037
0.14836 0.19345 -0.37547
0.12148 0.19345 -0.12976
0.13776 0.19345 0.08336
0.07442 0.19345 0.07791
0.06081 0.19345 -0.34538
-0.03316 0.19345 -0.11028
0.17384 0.19345 0.17886
0.05188 0.19345 -0.22823
-0.01078 0.19345 -0.06174
-0.18510 0.19345 -0.39613
0.05986 0.19345 -0.19579
0.16060 0.19345 0.24752
0.07216 0.19345 0.14667
-0.08875 0.19345 -0.38268
-0.10542 0.19345 -0.28881
-0.07364 0.19345 -0.20360
0.13181 0.19345 0.28358
0.16922 0.19345 0.31955
0.16243 0.19345 0.16658
-0.01035 0.19345 -0.13346
0.14849 0.19345 0.10383
0.08920 0.19345 0.17114
0.17838 0.19345 -0.19062
0.00295 0.19345 -0.29340
0.16173 0.19345 -0.08099
-0.06543 0.19345 -0.30123
0.18054 0.19345 -0.12419
0.18255 0.19345 -0.04766
0.16935 0.19345 -0.06785
-0.00501 0.19345 -0.03819
-0.13895 0.19345 -0.40510
-0.00705 0.19345 -0.07620
0.11378 0.19345 -0.23110
0.06428 0.19345 -0.05128
-0.07437 0.19345 -0.25699
-0.00344 0.19345 -0.24569
0.14056 0.19345 -0.25810
0.04378 0.19345 -0.29396
-0.01513 0.19345 -0.05450
0.09897 0.19345 -0.28229
0.11357 0.19345 -0.35402
0.13714 0.19345 0.05318
-0.03050 0.19345 -0.30318
0.08897 0.19345 -0.37226
0.15239 0.19345 0.17086
0.16705 0.19345 -0.21550
0.17530 0.19345 -0.05009
0.00261 0.19345 -0.40397
0.02852 0.19345 0.00239
0.17686 0.19345 -0.02070
0.11667 0.19345 0.06100
0.05162 0.19345 0.01758
-0.06779 0.19345 -0.29418
-0.04589 0.19345 -0.30848
-0.04429 0.19345 -0.36548
0.14043 0.19345 0.27848
0.03440 0.19345 -0.26879
0.07533 0.19345 -0.17123
0.16622 0.19345 0.14566
-0.08579 0.19345 -0.36440
-0.05704 0.19345 -0.29113
0.01591 0.19345 -0.02219
0.05689 0.19345 -0.40742
-0.02730 0.19345 -0.34375
0.10661 0.19345 -0.08376
0.09125 0.19345 -0.30466
0.00911 0.19345 0.01004
-0.04651 0.19345 -0.22741
-0.06173 0.19345 -0.20027
0.08887 0.19345 -0.24203
-0.01077 0.19345 -0.18611
-0.06372 0.19345 -0.27188
-0.05893 0.19345 -0.28108
0.13825 0.19345 0.21812
0.17386 0.19345 -0.02541
0.12347 0.19345 -0.24994
-0.11401 0.19345 -0.32174
-0.01659 0.19345 -0.31341
-0.13234 0.19345 -0.29267
-0.03259 0.19345 -0.09323
0.04869 0.19345 0.03965
0.07348 0.19345 0.08356
0.08543 0.19345 0.04353
0.05574 0.19345 -0.09458
-0.00314 0.19345 -0.15598
0.15417 0.19345 0.14524
0.12595 0.19345 -0.05063
0.11011 0.19345 -0.02437
0.07380 0.19345 -0.30450
0.10935 0.19345 -0.09348
0.13111 0.19345 0.24905
0.06449 0.19345 -0.01523
0.11116 0.19345 0.14283
0.13603 0.19345 -0.27107
-0.01218 0.19345 -0.22791
0.01218 0.19345 -0.34932
-0.02149 0.19345 -0.08458
0.15700 0.19345 0.02418
0.18694 0.19345 0.29134
0.16318 0.19345 0.04100
-0.04975 0.19345 -0.33595
0.12357 0.19345 -0.10191
-0.14985 0.08790 0.35421
-0.13409 -0.19113 0.35421
-0.13171 -0.14864 0.35421
-0.15603 -0.08904 0.35421
-0.13648 -0.20247 0.35421
-0.13753 -0.14526 0.35421
-0.14286 -0.00139 0.35421
-0.12072 -0.07895 0.35421
-0.13555 -0.12464 0.35421
-0.14280 0.03847 0.35421
-0.13324 -0.02870 0.35421
-0.14240 0.03783 -0.35421
-0.15618 0.03504 -0.35421
-0.14996 0.03525 -0.35421
-0.09087 0.19345 0.35573
-0.16145 0.19345 0.37773
-0.19138 0.19835 -0.35758
-0.19138 0.20328 -0.18712
-0.19138 0.21134 0.17596
-0.19138 0.21453 -0.21462
-0.19138 0.21382 0.35261
-0.19138 0.21304 -0.16239
-0.19138 0.20281 -0.21605
-0.19138 0.20373 -0.33930
0.14376 -0.06014 0.37758
0.14376 0.06637 0.37560
0.14376 -0.12517 0.37713
0.14376 -0.04357 0.37001
0.14376 0.02989 0.37905
-0.12652 -0.21424 0.35421
-0.03410 -0.21525 0.36968
-0.08528 -0.21525 0.35956
-0.09602 -0.21492 0.36723
0.19008 0.21444 -0.01953
-0.16413 0.18664 0.36895
-0.16413 0.17203 0.37406
-0.16413 0.14012 0.37635
-0.16413 0.11072 0.37293
-0.16413 0.16362 0.36389
0.15738 0.03782 -0.36729
0.15738 -0.03831 -0.35743
0.15738 -0.03993 -0.36362
0.15738 0.01621 -0.35934
0.14768 0.19345 -0.38095
-0.00626 -0.14886 0.38146
-0.07036 -0.15647 0.38146
-0.06354 -0.11123 0.38146
-0.03421 -0.09972 0.38146
-0.13904 0.07176 0.38146
-0.09784 -0.16175 0.38146
-0.09538 -0.19785 0.38146
-0.08502 0.01874 0.38146
-0.04057 -0.07355 0.38146
-0.06835 -0.17626 0.38146
-0.13246 0.11045 0.38146
-0.05098 -0.17043 0.38146
-0.09593 -0.06538 0.38146
-0.02704 -0.18992 0.38146
-0.06865 -0.06159 0.38146
-0.03054 -0.17250 0.38146
-0.06760 -0.01803 0.38146
-0.12850 0.11454 0.38146
-0.11474 -0.00330 0.38146
-0.09288 -0.02921 0.38146
-0.07692 0.01177 0.38146
-0.04672 -0.06211 0.38146
-0.11970 -0.01296 0.38146
-0.11469 0.09021 0.38146
0.02602 -0.16449 0.36566
0.02602 -0.12705 0.37046
0.02602 0.14697 0.35675
0.02602 -0.10887 0.36516
0.02602 -0.07526 0.36314
0.06440 -0.20163 0.37921
-0.04999 -0.20163 0.37845
0.13468 -0.20163 0.37595
0.13045 -0.20163 0.38131
0.08068 -0.20163 0.35495
0.02665 -0.20163 0.35848
0.10863 -0.20163 0.35474
-0.16277 0.18605 -0.35421
-0.16255 0.09143 -0.35421
-0.15836 0.16211 -0.35421
0.09793 0.19767 -0.40870
0.09805 0.20923 -0.40870
0.13925 0.20329 -0.40870
-0.16413 0.09119 -0.37195
-0.16413 0.12060 -0.37947
-0.16413 -0.00273 -0.37870
-0.16413 0.04689 -0.36991
-0.16413 0.12317 -0.36388
-0.02708 -0.20163 0.36763
-0.09844 -0.20163 0.37907
-0.06022 -0.20163 0.36406
0.19008 0.20253 -0.30047
0.19008 0.21059 -0.08660
0.19008 0.21185 0.22477
0.19008 0.21038 -0.21742
-0.09322 -0.20967 0.38146
-0.08953 -0.20317 0.38146
-0.13477 -0.10334 0.35421
-0.15063 -0.06713 0.35421
-0.16135 0.01168 0.35421
-0.14180 -0.19851 0.35421
-0.14478 -0.11268 0.35421
-0.16400 -0.04666 0.35421
-0.16361 -0.07695 0.35421
-0.15142 -0.07881 0.35421
-0.15587 0.11240 0.35421
-0.15388 -0.04287 0.35421
-0.15828 0.02163 0.35421
-0.15802 -0.02528 0.35421
-0.14536 -0.06329 0.35421
-0.13532 -0.20986 -0.38146
-0.05207 -0.21238 -0.35421
-0.09602 -0.20504 -0.37939
-0.08603 0.20181 0.40870
-0.15428 0.20053 0.40870
0.11286 0.19731 0.40870
0.15164 -0.12032 -0.35421
0.14545 -0.01424 -0.35421
0.14556 -0.09194 -0.35421
0.00678 0.01045 0.35421
0.01393 -0.07717 0.35421
-0.00295 -0.07175 0.35421
-0.01955 -0.17235 0.35421
0.01394 -0.14306 0.35421
0.02142 0.00250 0.35421
-0.07477 -0.15023 0.35421
0.00407 -0.10582 0.35421
-0.03624 -0.07601 0.35421
-0.03202 -0.01402 0.35421
-0.07979 -0.16721 0.35421
0.01967 0.06248 0.35421
-0.03096 -0.08841 0.35421
-0.08412 -0.17238 0.35421
-0.00528 -0.04125 0.35421
-0.01161 -0.01623 0.35421
0.02005 0.12137 0.35421
-0.01539 -0.08726 0.35421
0.01488 0.14486 0.35421
-0.00299 -0.04617 0.35421
-0.02166 -0.19588 0.35421
-0.04518 -0.13994 0.35421
0.00812 -0.01889 0.35421
-0.00578 -0.09134 0.35421
0.06348 0.19345 0.05186
-0.00649 0.19345 -0.26650
0.09237 0.19345 -0.04612
0.18542 0.19345 0.39856
0.18483 0.19345 -0.30714
0.04309 0.19345 -0.15018
0.11563 0.19345 -0.15214
0.17318 0.19345 0.21509
0.18768 0.19345 -0.35060
0.01514 0.19345 -0.11076
0.00348 0.19345 -0.00238
0.07449 0.19345 0.01018
0.06138 0.19345 -0.32151
0.04862 0.19345 -0.19809
0.04602 0.19345 -0.03676
0.14485 0.19345 -0.03655
0.06956 0.19345 -0.12609
0.06129 0.19345 0.08392
0.08500 0.19345 -0.03879
-0.11687 0.19345 -0.34044
0.12543 0.19345 -0.27725
0.16725 0.19345 -0.23592
-0.00762 0.19345 -0.02345
0.10393 0.19345 0.20400
0.18490 0.19345 -0.28233
0.03268 0.19345 -0.26352
0.06664 0.19345 -0.26519
-0.03177 0.19345 -0.13530
-0.03341 0.19345 -0.33726
0.02290 0.19345 -0.10553
0.11024 0.19345 -0.05787
0.11678 0.19345 -0.00186
0.09291 0.19345 -0.25634
-0.01989 0.19345 -0.06655
0.18875 0.19345 0.07780
-0.04070 0.19345 -0.32658
-0.05670 0.19345 -0.17572
0.04935 0.19345 -0.10209
0.10608 0.19345 0.12216
0.18376 0.19345 -0.38528
0.12374 0.19345 0.06346
0.17359 0.19345 0.31015
0.14949 0.19345 -0.01575
-0.12027 0.19345 -0.38515
0.15859 0.19345 0.08741
-0.10218 0.19345 -0.40774
-0.06662 0.19345 -0.23897
0.12162 0.19345 -0.13936
0.10635 0.19345 0.13400
0.10094 0.19345 -0.38062
0.17694 0.19345 0.03024
0.11134 0.19345 0.23891
0.01671 0.19345 -0.33883
0.12616 0.19345 0.14105
0.10436 0.19345 0.09210
0.03568 0.19345 0.00194
0.00085 0.19345 -0.25227
0.01963 0.19345 -0.27633
0.00661 0.19345 -0.35037
0.13258 0.19345 0.07398
-0.17120 0.19345 -0.36643
0.07224 0.19345 -0.08933
0.13486 0.19345 0.19970
0.10192 0.19345 -0.14884
0.05745 0.19345 0.12309
0.07899 0.19345 -0.05255
0.17958 0.19345 0.24972
0.15135 0.19345 -0.13130
-0.10057 0.19345 -0.22662
-0.03691 0.19345 -0.40064
0.08191 0.19345 -0.09162
0.14766 0.19345 0.06208
-0.09971 0.19345 -0.35218
0.09426 0.19345 -0.36639
0.06888 0.19345 -0.19910
0.10697 0.19345 -0.05375
0.09615 0.19345 -0.40210
-0.03792 0.19345 -0.33265
-0.10160 0.19345 -0.29727
0.04215 0.19345 -0.32396
0.02025 0.19345 -0.24860
0.11645 0.19345 0.05106
0.02165 0.19345 -0.07236
0.12355 0.19345 0.05308
0.16279 0.19345 0.23280
0.17837 0.19345 -0.15791
0.06427 0.19345 -0.13016
0.14229 0.19345 -0.20406
0.10870 0.19345 -0.01575
0.09018 0.19345 -0.22057
-0.11412 0.19345 -0.38274
0.05961 0.19345 0.03299
0.12730 0.19345 0.00809
0.08176 0.19345 -0.18896
0.09512 0.19345 -0.33786
0.11304 0.19345 -0.08834
0.13613 0.19345 0.18771
0.03619 0.19345 -0.15020
-0.00405 0.19345 -0.18898
0.16622 0.19345 0.35422
0.01272 0.19345 -0.30804
0.07795 0.19345 -0.37249
0.18099 0.19345 0.18942
-0.05604 0.19345 -0.19221
0.13462 0.19345 -0.36899
0.10298 0.19345 -0.22135
-0.00336 0.19345 -0.14730
0.04485 0.19345 -0.36476
0.16949 0.19345 -0.40413
-0.10335 0.19345 -0.23869
-0.02846 0.19345 -0.26601
0.14742 0.19345 0.09390
0.18815 0.19345 -0.27491
0.14957 0.19345 -0.13629
0.13612 0.19345 -0.34036
0.04531 0.19345 0.00543
0.10064 0.19345 -0.07338
0.05168 0.19345 0.03136
0.12546 0.19345 -0.40148
0.18354 0.19345 0.21440
-0.00244 0.19345 -0.12469
0.07255 0.19345 -0.27315
0.14158 0.19345 -0.11573
0.12182 0.19345 -0.20960
0.09903 0.19345 0.21050
0.09432 0.19345 -0.23432
0.00175 0.19345 -0.16049
0.05224 0.19345 0.04982
-0.06975 0.19345 -0.19636
0.08211 0.19345 -0.20900
-0.12437 0.19345 -0.29818
0.05885 0.19345 0.02535
0.02488 0.19345 0.03579
0.18445 0.19345 0.02869
0.14645 0.19345 0.25022
0.15159 0.06714 0.35421
0.14386 0.13095 0.35421
0.14419 0.04009 0.35421
-0.16413 0.12498 -0.26599
-0.16413 0.08355 -0.14443
-0.16413 0.13390 0.09568
-0.16413 0.11227 -0.21453
-0.16413 0.11703 -0.13772
-0.16413 0.19017 -0.06644
-0.16413 0.17154 0.08981
-0.16413 0.18534 0.10484
-0.16413 0.10768 -0.10678
-0.16413 0.08174 -0.08445
-0.16413 0.17534 0.12077
-0.16413 0.14302 -0.25677
-0.16413 0.10515 -0.02690
-0.16413 0.19150 -0.24064
-0.16413 0.16572 -0.29101
-0.16413 0.14672 0.05548
-0.16413 0.08450 -0.06678
-0.16413 0.06293 -0.14582
-0.16413 0.17670 -0.11246
-0.16413 0.12032 -0.21419
-0.16413 0.18579 0.13716
-0.16413 0.09520 -0.31498
-0.16413 0.10636 -0.08110
-0.16413 0.09191 -0.31988
-0.16413 0.17202 0.17721
-0.16413 0.07452 -0.11024
-0.16413 0.10008 -0.24559
-0.16413 0.17021 -0.25139
-0.16413 0.12223 -0.10500
-0.16413 0.16370 -0.18198
-0.16413 0.02364 -0.34416
-0.16413 0.15413 0.14638
-0.16413 0.12508 -0.30257
-0.16413 0.18602 -0.16365
-0.16413 0.05827 -0.15654
-0.16413 0.15573 -0.22060
-0.16413 0.15043 0.13634
-0.16413 0.12641 -0.02948
-0.16413 0.09093 -0.32810
-0.16413 0.18425 -0.17299
-0.16413 0.11582 -0.16661
-0.16413 0.11095 -0.04445
-0.16413 0.17395 -0.31841
-0.16413 0.17073 -0.24091
-0.16413 0.18066 -0.10724
-0.16413 0.15235 0.04050
-0.16413 0.11897 -0.05269
-0.16413 0.15668 -0.34644
-0.16413 0.08121 -0.32119
-0.16413 0.19153 0.10174
-0.16413 0.17910 0.27661
-0.16413 0.13136 0.11511
-0.16413 0.10175 -0.03874
-0.16413 0.19337 0.06283
-0.16413 0.15264 -0.01922
-0.16413 0.03554 -0.35009
-0.16413 0.07444 -0.34000
-0.16413 0.13763 -0.05495
-0.16413 0.15370 -0.14716
-0.16413 0.15871 -0.23620
-0.16413 0.15466 -0.27572
-0.16413 0.07350 -0.14450
0.00847 0.21273 -0.40870
-0.14846 0.20962 -0.40870
-0.04993 0.21109 -0.40870
-0.00280 -0.20163 -0.36046
0.08731 -0.20163 -0.36696
0.13711 -0.20163 -0.36092
0.15738 -0.03436 0.36065
0.15738 0.04633 0.35624
0.15738 0.01126 0.36627
0.15738 -0.12911 0.35772
0.15738 -0.02018 0.36552
0.15738 -0.17378 0.37833
-0.15758 0.17164 0.35421
-0.15046 0.17974 0.35421
-0.00279 -0.21424 -0.38146
-0.02178 -0.21359 -0.38146
-0.02276 0.02960 0.38146
0.01880 -0.11555 0.38146
-0.05536 0.15057 0.38146
-0.01159 0.17278 0.38146
-0.02033 0.11808 0.38146
0.01907 0.05499 0.38146
-0.05579 0.10764 0.38146
0.01202 0.12404 0.38146
-0.07443 0.07352 0.38146
0.00096 0.04420 0.38146
-0.02155 0.16732 0.38146
-0.01790 -0.07549 0.38146
-0.01656 0.00411 0.38146
-0.01408 -0.01643 0.38146
-0.05084 0.02391 0.38146
-0.01341 -0.09851 0.38146
-0.03182 0.06718 0.38146
-0.11608 0.10460 0.38146
0.00283 -0.14988 0.38146
-0.02454 0.16004 0.38146
-0.04353 0.06078 0.38146
-0.13499 0.18122 0.38146
-0.00022 -0.04585 0.38146
-0.01206 -0.05889 0.38146
-0.04443 0.01789 0.38146
-0.08201 0.11741 0.38146
-0.11915 0.15757 0.38146
0.00671 -0.10706 0.38146
-0.00449 -0.03453 0.38146
-0.00924 0.17997 0.38146
-0.11336 0.12452 0.38146
-0.00617 -0.09799 0.38146
-0.04707 0.15974 0.38146
-0.01935 0.01962 0.38146
-0.03811 0.05956 0.38146
-0.11387 0.11419 0.38146
-0.09543 0.19242 0.38146
-0.04565 0.02638 0.38146
-0.08147 -0.21108 0.35421
0.00509 -0.20750 0.35421
-0.16413 0.13899 0.25702
-0.16413 0.13467 0.16451
-0.16413 0.12046 0.29741
-0.16413 0.04860 0.14316
-0.16413 0.04138 -0.16884
-0.16413 0.08977 0.29677
-0.16413 0.01256 0.27859
-0.16413 0.03668 -0.07166
-0.16413 0.08399 0.04124
-0.16413 0.04939 0.08909
-0.16413 0.07035 -0.00708
-0.16413 0.12658 0.21891
-0.16413 0.04553 -0.03102
-0.16413 0.02260 -0.24649
-0.16413 0.04453 0.33983
-0.16413 0.14704 0.28421
-0.16413 0.09784 0.07367
-0.16413 0.10239 0.30026
-0.16413 0.01249 0.18704
-0.16413 0.02282 0.06884
-0.16413 0.04892 0.18506
-0.16413 0.12422 0.14308
-0.16413 0.13679 0.20113
-0.16413 0.02386 -0.18418
-0.16413 0.01175 -0.00690
-0.16413 0.03399 -0.07940
-0.16413 0.02193 -0.09045
-0.16413 0.06479 0.11163
-0.16413 0.03314 0.21428
-0.16413 0.15098 0.27377
-0.16413 0.13060 0.32935
-0.16413 0.12693 0.35257
-0.16413 0.03378 0.32206
-0.16413 0.05048 0.34928
-0.16413 0.04045 -0.12919
