0.14321 -0.00285 -0.32821
-0.11035 0.02724 -0.15551
-0.00569 0.03643 -0.26282
0.09247 0.03643 -0.24073
0.03502 0.03643 -0.26770
0.12765 0.03643 -0.24756
0.00557 0.03643 -0.20149
0.06203 0.03643 -0.17625
0.08047 0.03643 -0.12531
0.13456 0.03643 -0.12675
-0.02136 0.03643 -0.25670
0.11319 0.03643 -0.12924
0.11127 0.03643 -0.23109
0.09231 0.03643 -0.30018
0.15321 -0.11000 -0.35292
-0.11932 0.22392 -0.11980
-0.00262 0.03647 -0.35173
0.14785 -0.08645 -0.16210
0.14785 -0.08627 -0.22177
0.14785 -0.06095 -0.20860
0.14785 -0.05386 -0.20055
0.14785 -0.04236 -0.19564
0.14785 -0.07625 -0.27313
0.14785 -0.02604 -0.27490
0.11969 0.01469 -0.34070
-0.00559 0.00979 -0.34070
0.13714 -0.12165 -0.01941
-0.06832 -0.19533 -0.02464
0.14603 0.23974 0.01954
0.13977 0.02571 0.04545
-0.11035 0.24416 -0.26482
-0.11035 0.22866 -0.16170
0.13954 0.24610 -0.33609
-0.11916 0.05250 0.09971
-0.07878 0.28268 0.36855
0.14019 0.08244 -0.00857
0.05340 0.03107 -0.10196
0.01434 0.03107 -0.04461
0.05768 0.03107 -0.14939
0.01444 0.03107 -0.12991
0.05199 0.03107 -0.09539
0.06833 0.03107 -0.13497
0.05248 0.03107 -0.04381
0.07513 0.03107 -0.14855
0.02138 0.03107 -0.04251
-0.01160 0.03107 -0.12500
0.13213 0.03107 -0.23538
0.04061 0.03107 -0.19149
0.06615 0.03107 -0.20126
-0.11571 0.13301 -0.12439
-0.11571 0.15665 -0.05795
-0.11571 0.07187 -0.19815
-0.11571 0.18521 -0.06197
-0.11571 0.12371 -0.09862
-0.11571 0.09317 -0.05607
-0.11571 0.12083 -0.11886
-0.11571 0.14004 -0.11624
0.13714 -0.00390 0.33290
-0.14655 0.26677 -0.13479
-0.15127 0.26677 -0.26516
-0.14605 0.26677 0.13860
-0.11363 -0.01714 -0.14617
-0.12888 0.26677 0.28709
-0.13221 0.26677 -0.00799
-0.13472 0.26677 -0.05523
-0.11571 -0.03151 -0.20735
-0.11571 -0.13881 -0.25432
-0.11571 -0.03998 -0.28934
-0.11571 -0.10330 -0.17574
-0.11571 -0.07035 -0.21222
-0.11571 -0.04158 -0.28341
-0.11571 -0.09861 -0.19370
-0.11571 -0.09795 -0.26536
0.14437 -0.04077 0.30856
0.11827 0.20463 0.01929
0.12450 0.21408 0.01929
0.12417 0.05952 0.01929
0.11858 0.10440 0.01929
0.00887 0.11358 0.01929
0.10278 0.16425 0.01929
0.09497 0.05250 0.32709
-0.12673 0.00964 0.20141
-0.14398 0.00964 -0.10902
-0.13483 0.00964 0.06917
-0.06036 0.26677 0.34929
-0.11035 -0.18412 -0.02534
0.15321 0.23900 0.08289
-0.11035 -0.21253 -0.09379
0.13714 0.05540 -0.19736
0.14816 0.05785 0.26811
0.15321 -0.18695 -0.11333
0.14160 0.05747 -0.00857
-0.07989 -0.02882 -0.33534
0.05420 -0.02152 -0.33534
0.03660 -0.08486 -0.33534
-0.03712 -0.05949 -0.33534
0.01018 -0.07307 -0.33534
0.11212 -0.03782 -0.33534
0.11204 -0.12003 -0.33534
0.03868 0.22392 0.32552
0.00117 -0.01714 0.33263
0.00043 -0.21219 0.35677
0.03444 -0.20942 0.35677
0.15321 0.06759 -0.00878
-0.12301 -0.21535 0.26536
-0.02985 -0.22388 -0.35677
0.14238 0.00708 0.01113
0.15321 -0.17265 0.00710
0.14163 0.00429 -0.17750
-0.12642 -0.09495 -0.00620
0.04883 -0.20073 0.02464
-0.12642 -0.13259 0.02672
-0.15321 -0.22663 -0.06492
-0.15321 -0.22143 0.25310
0.15220 -0.02250 -0.09179
-0.15321 0.01652 0.19077
-0.15321 0.01604 0.30238
-0.15321 0.06426 0.00149
-0.12120 0.16726 -0.00857
-0.12107 -0.15233 0.22754
-0.12107 -0.14358 0.17970
-0.12107 -0.08548 0.11380
-0.12107 -0.15420 0.16791
-0.12107 -0.17474 0.15939
-0.12107 -0.12921 0.20196
-0.12107 -0.18462 0.11599
-0.12107 -0.18801 0.04021
0.15321 -0.19010 -0.08667
0.15321 -0.19485 -0.11302
-0.11035 0.22780 -0.21871
0.14292 0.00964 0.31285
0.03891 -0.18998 0.34070
-0.12642 -0.00932 0.15327
-0.12642 -0.01507 0.05668
0.13076 0.26677 -0.35155
0.12886 0.16548 0.35677
0.15134 -0.22966 0.35677
0.15077 0.04663 0.35677
0.14685 0.15446 0.04071
0.09242 0.24476 0.34070
-0.08636 0.04732 -0.00857
-0.10010 0.26677 -0.35505
0.15321 0.12937 -0.33631
0.10149 -0.01714 0.01275
0.15321 0.05627 0.04210
-0.11994 -0.01714 -0.10122
-0.11112 -0.08435 -0.03536
0.13714 -0.01883 0.27617
0.05704 -0.01714 -0.33201
0.15321 0.01941 -0.02164
0.15321 0.02265 -0.07653
0.13192 -0.14078 0.35677
0.13844 -0.21656 0.35677
0.14236 -0.23643 0.35677
0.04585 -0.20787 0.32463
-0.04317 0.03107 -0.11909
-0.09548 0.03107 -0.31129
-0.00496 0.03107 -0.26903
-0.06976 0.03107 -0.22023
-0.04779 0.03107 -0.19695
-0.10093 0.03107 -0.04958
0.06743 0.03107 -0.30814
-0.10589 0.03107 -0.28846
-0.02966 0.03107 -0.20348
-0.06882 0.03107 -0.30666
-0.04392 0.03107 -0.26332
0.15128 0.24535 -0.20577
0.14785 -0.10166 0.27479
0.14785 -0.12729 0.17375
0.14785 -0.03342 0.29512
0.14785 -0.15785 0.18727
0.14785 -0.16902 0.10635
0.14785 -0.11940 0.21389
0.14785 -0.16436 0.19389
-0.02668 -0.23142 0.34554
0.13725 0.22928 -0.15556
0.00057 -0.22680 0.35677
0.15302 0.02571 -0.00073
-0.01379 0.02571 0.01634
0.12875 -0.01510 -0.00857
0.13714 -0.19748 -0.07808
-0.09319 0.03950 0.34070
-0.08521 0.03322 0.34070
-0.08133 0.01732 0.34070
-0.12107 -0.08873 -0.30925
-0.12107 -0.13778 -0.11898
-0.12107 -0.13402 -0.15542
-0.12107 -0.14050 -0.22198
-0.12107 -0.17593 -0.21145
-0.12107 -0.04800 -0.29266
-0.12107 -0.15001 -0.14915
-0.12107 -0.15701 -0.26571
-0.10590 0.24782 0.34070
0.14785 0.19673 -0.24990
0.14785 0.12153 -0.22466
0.14785 0.15765 -0.18236
0.14785 0.20304 -0.17943
0.14785 0.21536 -0.19647
0.14785 0.09876 -0.26790
0.14785 0.07709 -0.29485
-0.14294 0.02733 0.00857
0.16351 0.28284 -0.33020
-0.06138 0.24492 0.34070
-0.12642 -0.07449 -0.33124
-0.12345 -0.18856 0.09782
-0.12642 0.24516 -0.33774
-0.11589 -0.07176 0.34070
-0.12153 -0.03291 -0.03536
0.12107 0.13392 -0.34740
-0.12642 -0.21911 -0.17678
-0.12642 -0.21697 0.20203
-0.15023 0.26677 -0.01336
-0.15250 0.26677 -0.03420
-0.14044 0.26677 -0.17642
-0.05309 0.28285 -0.18225
-0.09376 0.28285 -0.27524
-0.15416 0.28285 -0.26516
0.10403 0.28285 -0.23762
0.02075 0.28285 -0.09628
-0.15449 0.28285 0.10775
-0.09164 0.28285 0.18296
0.05114 0.28285 -0.30210
-0.13822 0.28285 -0.21616
-0.09684 0.28285 -0.05862
0.01453 0.28285 -0.06826
-0.14268 0.28285 0.30536
-0.16326 0.28285 0.11686
0.02933 0.28285 -0.18007
-0.02234 0.28285 -0.09256
0.06658 0.28285 -0.18859
-0.11379 0.28285 -0.20820
-0.08543 0.28285 -0.35565
-0.12954 0.28285 -0.23431
-0.07901 0.28285 -0.23128
0.04578 0.28285 -0.27256
-0.15424 0.28285 -0.15318
-0.15303 0.28285 -0.19805
-0.12156 0.28285 -0.08339
-0.02560 0.28285 -0.30028
-0.09877 0.28285 -0.28331
-0.13985 0.28285 -0.17812
-0.09843 0.28285 -0.11312
-0.11427 0.28285 0.01244
-0.06433 0.28285 -0.01150
0.01472 0.28285 -0.14643
-0.13448 0.28285 0.25564
-0.00197 0.28285 -0.30623
-0.12397 0.28285 -0.11669
-0.07878 0.28285 -0.14437
-0.15424 0.28285 -0.12334
-0.14926 0.28285 -0.11905
-0.10182 0.28285 -0.29549
-0.00131 0.28285 -0.16974
-0.03691 0.28285 -0.11844
-0.04244 -0.19319 0.32463
0.17142 0.27138 -0.00305
-0.02456 0.24191 -0.02464
-0.12953 0.02571 -0.21263
-0.12756 0.02571 -0.08463
-0.13065 0.02571 -0.03582
-0.12361 0.14633 -0.03536
-0.00191 0.23807 0.32463
0.13714 0.06459 0.31065
-0.11483 -0.01714 0.27699
-0.11371 0.02571 0.07051
-0.00389 0.25070 0.32706
-0.03409 0.03107 0.16803
0.01985 0.03107 0.15371
0.03233 0.03107 0.14214
-0.06389 0.03107 0.25553
-0.10620 0.03107 0.21426
0.01062 0.03107 0.03492
0.07179 0.03107 0.09371
-0.08721 0.03107 0.06760
-0.06242 0.03107 0.13196
-0.05520 0.03107 0.20370
0.01079 0.03107 0.07841
-0.10551 0.03107 0.30501
0.02756 0.03107 0.12426
-0.12535 0.00964 -0.31014
-0.11035 0.05147 0.23812
-0.12873 -0.23142 -0.13377
-0.12859 -0.23142 0.11617
-0.14706 -0.23142 -0.22664
0.15321 0.02924 -0.34803
0.15321 -0.20213 -0.34291
0.12642 -0.13271 0.00392
0.14888 0.21856 -0.20080
0.13714 -0.01902 0.18082
0.15321 -0.03645 0.32677
-0.11571 -0.15617 0.09809
-0.11571 -0.14997 0.15089
-0.11571 -0.11387 0.15830
-0.11571 -0.04923 0.28443
-0.11571 -0.10931 0.31304
-0.11571 -0.15343 0.16066
-0.11571 -0.06927 0.26663
-0.11571 -0.16116 0.14159
0.14402 0.24535 0.18782
0.15321 -0.08704 0.02312
0.15321 -0.18919 0.10368
0.15321 -0.19080 0.18088
-0.04284 -0.21504 -0.34070
0.17142 0.27431 0.05466
-0.10710 -0.01684 -0.02464
-0.11035 0.00656 -0.17418
0.15321 0.24653 -0.09438
-0.12420 0.25070 -0.23627
-0.15321 -0.22109 -0.20363
-0.15321 -0.22478 -0.30175
-0.08773 -0.16656 0.33534
-0.05715 -0.11860 0.33534
-0.00859 -0.09795 0.33534
0.00309 -0.07478 0.33534
-0.03422 -0.10162 0.33534
-0.06689 -0.15212 0.33534
-0.07323 -0.06310 0.33534
0.08238 -0.19686 0.02464
0.13714 -0.07947 0.33509
-0.01648 0.10485 -0.01929
-0.09144 0.11265 -0.01929
0.04001 0.09363 -0.01929
0.03011 0.06168 -0.01929
0.08622 0.06815 -0.01929
-0.09716 0.19439 -0.01929
0.02266 0.09480 -0.01929
-0.11035 0.19712 0.01610
0.01599 -0.21326 0.00857
0.12642 0.01088 0.01948
0.12642 0.01022 -0.04304
0.14249 0.11795 -0.04175
0.14249 0.12710 -0.07409
0.14249 0.09683 -0.05499
0.14249 0.14425 -0.09184
0.14249 0.20188 -0.19098
0.14249 0.19813 -0.08451
0.14249 0.18860 -0.07633
0.14249 0.19492 -0.15393
0.12107 0.05554 0.35552
0.15196 0.10526 -0.30856
0.07233 0.18217 -0.33534
0.08807 0.12267 -0.33534
0.09599 0.18111 -0.33534
-0.02880 0.17310 -0.33534
0.02603 0.17200 -0.33534
0.11751 0.19692 -0.33534
0.12540 -0.21452 0.32463
-0.12642 0.22546 0.00054
0.08516 0.22392 -0.01314
-0.01657 0.03107 0.17293
0.03199 0.03107 0.09316
-0.09754 0.03107 0.29834
-0.04054 0.03107 0.05882
-0.06727 0.03107 0.24615
-0.05109 0.03107 0.18317
-0.08135 0.03107 0.25668
0.04649 0.03107 0.04982
-0.03869 0.03107 0.11077
-0.09821 0.03107 0.13818
-0.01776 0.03107 0.16449
-0.07010 0.03107 0.23076
0.15039 -0.18321 -0.22797
-0.12642 0.02784 -0.19337
0.13862 0.21856 -0.16428
-0.12642 -0.03550 0.02353
-0.15321 0.03420 -0.35507
-0.15321 0.10694 -0.35073
0.14785 0.20078 0.27638
0.14785 0.19610 0.26003
0.14785 0.20308 0.26764
0.14785 0.16088 0.16263
0.14785 0.10664 0.11749
0.14785 0.12924 0.12478
0.14785 0.06974 0.05861
0.12642 -0.22470 0.03298
0.12642 -0.22823 0.09688
-0.08391 -0.01143 0.32463
-0.11272 -0.21535 -0.15324
0.15217 0.00964 0.21036
-0.08015 -0.00069 -0.32463
-0.12642 -0.23108 -0.24516
-0.12642 -0.22427 -0.16236
0.13882 0.05785 -0.06715
-0.14870 -0.21535 0.22428
-0.13923 -0.21535 -0.26724
-0.14841 -0.21535 -0.17999
0.13054 -0.21535 -0.13062
0.13133 -0.21535 -0.01457
0.13839 -0.21535 0.00809
-0.12481 0.19304 0.34070
-0.13617 -0.05088 0.34070
-0.12677 -0.04223 0.34070
0.13714 0.04633 -0.13652
-0.14829 -0.09709 0.35677
-0.14049 0.04611 0.35677
-0.14707 -0.01119 0.35677
0.13714 0.00055 -0.10355
-0.10997 -0.21326 0.00857
0.13714 -0.21448 0.26346
-0.11928 0.25208 0.34070
-0.14242 0.02571 -0.33430
-0.14614 0.02571 0.03063
-0.14355 0.02571 -0.02202
0.01139 0.00882 0.34070
0.10147 0.23887 -0.32463
0.00356 0.11534 0.32999
-0.08617 0.05317 0.32999
0.00584 0.10716 0.32999
-0.07435 0.06328 0.32999
-0.03320 0.05770 0.32999
-0.08475 0.07828 0.32999
-0.10485 0.15173 0.32999
0.12218 -0.07434 0.35677
0.12704 -0.21732 0.35677
0.12560 0.09492 0.35677
-0.11585 0.22392 -0.09413
0.13714 -0.06946 0.33970
0.01188 -0.18047 -0.32999
0.11319 -0.07235 -0.32999
0.12959 -0.03343 -0.32999
0.06887 -0.18158 -0.32999
0.06370 -0.11054 -0.32999
0.00157 -0.14179 -0.32999
0.10683 -0.06212 -0.32999
-0.11571 -0.13416 -0.20031
-0.11571 -0.13552 -0.12100
-0.11571 -0.08080 -0.12093
-0.11571 -0.15358 -0.04299
-0.11571 -0.04487 -0.06849
-0.11571 -0.17823 -0.10131
-0.11571 -0.06801 -0.05421
-0.11571 -0.14766 -0.05751
-0.11571 -0.18620 -0.12765
-0.15321 -0.21922 0.14885
-0.14990 -0.06971 0.00857
-0.17133 0.27595 0.12990
-0.12642 0.26052 0.06637
-0.12642 0.25775 0.10273
-0.12339 0.00964 0.33408
-0.12120 0.22392 0.05399
0.14454 0.06229 -0.34070
0.14934 0.00423 -0.34070
0.15122 0.25854 -0.34070
0.13714 -0.01896 0.33381
-0.02973 -0.20738 0.34070
0.13714 0.04067 -0.05433
0.09286 -0.20999 -0.31208
-0.09064 -0.20999 -0.22433
-0.01675 -0.20999 -0.19336
-0.09870 -0.20999 -0.31908
-0.01562 -0.20999 -0.25451
0.00542 -0.20999 -0.20649
0.01836 -0.20999 -0.30644
-0.06312 -0.20999 -0.28155
-0.10501 -0.20999 -0.30456
-0.02062 -0.20999 -0.26710
-0.00146 -0.20999 -0.30157
-0.10534 -0.20999 -0.14187
-0.06697 -0.20999 -0.17541
0.15321 0.26294 -0.24951
0.15321 0.25153 0.08829
0.14177 0.05785 -0.16647
0.04528 -0.20463 -0.34915
-0.12107 0.18041 0.31216
-0.12107 0.18983 0.10567
-0.12107 0.20827 0.06462
-0.12107 0.16562 0.27291
-0.12107 0.18216 0.14222
-0.12107 0.16535 0.16682
-0.12107 0.12798 0.24658
-0.12107 0.17227 0.15697
-0.11641 0.25070 -0.30952
0.06044 0.23389 -0.00857
-0.00052 0.00777 0.32463
0.12850 0.25070 -0.01208
0.13714 0.04685 -0.31601
0.15321 -0.12040 0.02839
-0.17142 0.26756 -0.12438
0.12312 -0.18856 0.01037
-0.12107 -0.17761 0.35002
0.06232 0.00820 -0.02464
-0.02495 -0.20463 -0.12406
-0.00954 -0.20463 -0.10549
-0.05865 -0.20463 -0.24896
-0.02750 -0.20463 -0.08838
0.05895 -0.20463 -0.11255
-0.05619 -0.20463 -0.10579
-0.09396 -0.20463 -0.08121
0.01117 -0.20463 -0.10740
-0.05537 -0.20463 -0.15468
-0.00885 -0.20463 -0.15722
-0.07365 -0.20463 -0.27992
-0.09937 -0.20463 -0.26824
-0.01513 -0.20463 -0.04893
-0.05417 0.04913 0.02464
0.04186 -0.20999 -0.05646
-0.02530 -0.20999 -0.11584
0.02910 -0.20999 -0.13412
0.10818 -0.20999 -0.23273
0.09475 -0.20999 -0.17480
0.06043 -0.20999 -0.18371
0.10073 -0.20999 -0.03889
0.11484 -0.20999 -0.18706
0.07360 -0.20999 -0.05133
0.08144 -0.20999 -0.12046
0.13638 -0.20999 -0.10555
0.13147 -0.20999 -0.07023
0.15321 0.22471 0.01665
0.15321 0.21681 0.02492
-0.11035 0.03460 -0.08053
-0.11035 -0.00776 0.06573
-0.11035 0.08997 -0.32974
0.13714 -0.19018 -0.27654
0.14785 0.09905 -0.14938
0.14785 0.06467 -0.19747
0.14785 0.10168 -0.21455
0.14785 0.12817 -0.08381
0.14785 0.12337 -0.15091
0.14785 0.06306 -0.27869
0.14785 0.06357 -0.09783
0.00789 0.26182 -0.35677
-0.12180 -0.18133 -0.34070
-0.02492 -0.17197 -0.32999
0.11969 -0.17921 -0.32999
0.05655 -0.10273 -0.32999
-0.04987 -0.17902 -0.32999
-0.02972 -0.18198 -0.32999
0.13208 -0.02726 -0.32999
0.02148 -0.13762 -0.32999
0.15321 0.05650 -0.06778
0.15321 0.05725 -0.23116
0.11542 -0.21263 -0.34070
0.15321 0.13395 -0.31501
-0.01253 0.25509 -0.34070
0.02130 -0.01714 0.33777
0.05447 -0.01896 0.32999
0.08476 -0.07955 0.32999
0.11294 -0.14371 0.32999
0.13199 -0.13375 0.32999
-0.02213 -0.05047 0.32999
0.08619 -0.06280 0.32999
-0.11035 -0.21118 0.27209
0.13714 0.00344 -0.01173
0.12279 0.24278 -0.00857
0.12909 0.23884 -0.00857
-0.09321 0.22392 -0.33639
0.14249 0.08039 -0.14908
0.14249 0.10283 -0.29495
0.14249 0.10408 -0.17871
0.14249 0.12312 -0.29180
0.14249 0.07652 -0.07777
0.14249 0.13271 -0.18916
-0.11035 -0.00237 -0.02469
0.13714 0.09608 0.33531
-0.10695 0.04558 -0.32463
0.13809 -0.21535 0.04869
-0.12642 -0.12054 0.32772
-0.12235 -0.09048 0.00857
0.14249 0.09544 -0.18764
0.14249 0.08862 -0.10530
0.14249 0.13690 -0.18274
0.14249 0.20147 -0.28271
0.14249 0.09906 -0.12268
0.14249 0.08457 -0.21955
-0.12510 -0.21535 -0.06660
0.14746 -0.21334 -0.00857
0.13714 -0.01856 -0.27570
0.08725 -0.20463 0.21241
0.02050 -0.20463 0.12831
0.10511 -0.20463 0.13097
0.10401 -0.20463 0.08220
0.05211 -0.20463 0.07523
0.07827 -0.20463 0.20141
0.04379 -0.20463 0.20805
0.11760 -0.20463 0.18622
0.12074 -0.20463 0.05317
0.06589 -0.20463 0.16937
0.08406 -0.20463 0.06405
-0.11035 0.00880 0.14145
-0.11035 -0.00316 0.25264
0.15321 0.22869 0.34285
0.15321 0.24344 0.34702
0.03598 0.23999 0.34229
0.15321 -0.19407 -0.32359
0.15321 0.15608 0.00375
-0.12410 -0.17389 0.31391
-0.14375 -0.13180 0.35677
-0.13794 -0.10779 0.35677
-0.13936 -0.07295 0.35677
0.15321 0.23314 0.31203
0.06250 -0.00604 -0.00857
0.14406 0.24535 -0.17884
-0.14483 0.06407 -0.00857
0.13714 0.23167 -0.24950
0.13714 0.18963 -0.32558
0.06251 -0.01416 0.34070
-0.12632 -0.01381 -0.35677
-0.12143 -0.00771 -0.35677
-0.12107 0.21269 -0.35677
-0.12151 -0.18856 0.26155
-0.11571 0.08817 0.11083
-0.11571 0.07832 0.16671
-0.11571 0.09408 0.15840
-0.11571 0.08839 0.13679
-0.11571 0.07487 0.30739
-0.11571 0.12790 0.21988
-0.11571 0.16024 0.27372
-0.11571 0.05560 0.23012
-0.04574 -0.21535 0.34013
0.15321 0.03675 -0.19317
0.15321 0.02827 -0.26535
0.14414 0.02571 0.09836
-0.12107 -0.06812 -0.34483
0.01020 0.22671 -0.02464
-0.12107 0.17589 0.08495
-0.12107 0.05907 0.17284
-0.12107 0.11396 0.11013
-0.12107 0.10478 0.14424
-0.12107 0.10366 0.17696
-0.12107 0.11706 0.09582
-0.12107 0.10444 0.03658
-0.12107 0.12402 0.06639
-0.12642 -0.05448 -0.02564
-0.11035 0.24986 0.02288
-0.14707 0.00964 -0.03643
-0.14978 0.00964 0.06067
-0.14696 0.00964 -0.17877
0.15321 -0.16917 -0.02651
0.12107 -0.22210 0.35443
0.02330 0.03353 -0.34070
0.09112 0.02571 0.32593
0.15115 0.05785 0.24637
-0.13727 0.02571 0.10087
-0.12997 0.02571 -0.15706
-0.12806 0.02571 0.04116
0.12642 -0.02073 -0.00655
-0.15077 -0.12532 -0.34070
-0.14219 -0.04760 -0.34070
-0.14156 -0.16141 -0.34070
0.15321 -0.16482 0.32965
0.15321 -0.10447 0.32499
0.14609 0.05785 0.18986
0.13714 -0.11987 0.31838
0.14171 0.25070 -0.19338
0.01843 -0.20146 -0.34070
0.17092 0.27756 0.17894
-0.15321 0.02351 0.27205
0.15321 0.03071 -0.31330
0.15321 0.04556 -0.21953
-0.11132 -0.06098 -0.31392
0.15321 -0.21711 -0.12705
0.15321 -0.22203 0.02565
0.14785 -0.15459 0.27667
0.14785 -0.09686 0.22727
0.14785 -0.13795 0.24439
0.14785 -0.12574 0.29751
0.14785 -0.07220 0.24176
0.14785 -0.13151 0.30826
-0.15321 -0.15037 -0.34261
-0.15321 0.09048 -0.34583
0.00327 -0.20431 -0.32463
0.13890 0.06793 -0.34070
-0.12642 0.02584 0.29283
-0.11035 -0.05957 0.33038
0.17142 0.26861 -0.33362
0.13714 -0.00916 0.22738
0.15294 0.05207 0.31434
0.05073 0.04346 0.34070
0.13714 0.06292 -0.32330
0.00993 0.22392 0.02181
-0.11896 -0.18856 -0.25436
0.15321 0.02279 0.23491
0.15321 0.02123 0.10801
0.15321 0.22002 -0.13635
0.14248 -0.08029 0.00857
0.13206 -0.17243 -0.00857
-0.10828 -0.20999 -0.20142
0.07412 -0.20999 -0.31761
-0.02299 -0.20999 -0.27503
0.00194 -0.20999 -0.27739
0.03159 -0.20999 -0.23455
-0.02751 -0.20999 -0.32324
-0.07118 -0.20999 -0.12043
-0.07043 -0.20999 -0.19771
-0.02036 -0.20999 -0.24010
-0.10671 -0.20999 -0.32076
-0.05702 -0.20999 -0.28830
0.03178 -0.20999 -0.21837
0.12642 -0.22590 -0.15438
0.12642 -0.22538 -0.23467
0.15321 0.14882 -0.33099
0.15321 0.09211 -0.33772
0.15321 0.26241 0.28431
0.15321 0.25405 0.19953
0.14249 0.18752 -0.04384
0.14249 0.20298 -0.06213
0.14249 0.20507 -0.17896
0.14249 0.17754 -0.12331
0.14249 0.17533 -0.07974
0.14249 0.13207 -0.15609
0.14249 0.17834 -0.07341
0.14249 0.17083 -0.09762
0.15321 -0.19720 -0.32865
-0.11035 -0.11824 -0.31480
-0.11035 0.03152 0.03989
0.07042 0.21282 0.33534
-0.01910 0.20342 0.33534
-0.10142 0.20957 0.33534
-0.00405 0.19666 0.33534
0.09877 0.20515 0.33534
-0.00751 0.21430 0.33534
-0.04889 0.12416 0.33534
-0.15044 -0.28285 0.35047
-0.05433 0.24151 -0.32463
-0.11571 -0.03676 0.21955
-0.11571 -0.02295 0.17429
-0.11571 -0.09058 0.07033
-0.11571 -0.03902 0.15174
-0.11571 -0.08910 0.04625
-0.11571 -0.06131 0.09509
-0.11571 -0.10347 0.09801
0.12877 0.25070 -0.08597
0.12990 0.25070 -0.07269
0.14670 0.25070 0.28694
0.00234 0.00964 0.02083
0.13772 0.18162 0.00857
0.13714 -0.18932 0.13920
0.13714 0.25064 -0.09445
0.13058 -0.10705 -0.35677
0.12685 -0.03955 -0.35677
0.12264 -0.09460 -0.35677
-0.11762 -0.06566 -0.00857
-0.14595 0.25070 -0.30392
-0.13482 0.25070 -0.17274
-0.12787 0.25070 -0.15303
0.15321 -0.00285 0.22029
0.05301 0.02966 0.35677
0.12725 0.00964 -0.33908
0.14648 0.00964 -0.27502
0.14918 0.00964 0.22436
0.15018 0.00964 0.08126
0.13861 0.18172 -0.00857
0.04297 0.23999 -0.35084
-0.11035 -0.19103 -0.26469
-0.11035 -0.07003 0.32160
0.13701 -0.19366 -0.34070
0.12351 0.19650 -0.34070
0.12135 -0.06324 -0.34070
0.14720 -0.00197 -0.02018
0.13714 0.10185 0.02365
-0.11035 0.02786 0.10243
-0.15321 -0.07230 0.34442
-0.12418 0.05250 0.25995
0.14785 0.09095 0.26270
0.14785 0.06388 0.07162
0.14785 0.16583 0.28131
0.14785 0.13051 0.30088
0.14785 0.12966 0.17918
0.14785 0.06573 0.21174
0.14785 0.06111 0.27743
0.14785 0.08764 0.20318
-0.01662 -0.23142 0.34171
-0.11571 0.05927 0.05388
-0.11571 0.13016 0.23417
-0.11571 0.15274 0.26561
-0.11571 0.06999 0.31025
-0.11571 0.09452 0.22691
-0.11571 0.05718 0.09167
-0.11571 0.07047 0.16579
-0.11571 0.07345 0.21819
-0.07008 -0.00933 0.00857
0.00553 -0.01624 0.00857
0.06548 0.25070 -0.33040
-0.12107 0.17939 0.26199
-0.12107 0.17895 0.24180
-0.12107 0.18527 0.11636
-0.12107 0.21584 0.04903
-0.12107 0.19705 0.24982
-0.12107 0.10705 0.28204
-0.12107 0.17623 0.18320
-0.12107 0.19402 0.28824
0.05197 0.22392 0.01155
-0.06641 -0.01714 -0.01612
0.09548 -0.16987 -0.01929
-0.02584 -0.09839 -0.01929
-0.01159 -0.12366 -0.01929
0.10044 -0.18723 -0.01929
-0.04706 -0.10302 -0.01929
0.03507 -0.16136 -0.01929
-0.04250 -0.08311 -0.01929
-0.15321 0.08240 -0.00778
-0.13886 0.25070 0.12605
-0.13482 0.25070 0.23852
-0.15058 0.25070 0.03511
0.11706 0.26140 0.35677
0.15037 0.11952 -0.00857
0.14300 0.00429 0.19960
0.13714 0.03487 0.32037
0.14249 -0.04693 0.26146
0.14249 -0.12538 0.23640
0.14249 -0.04420 0.22114
0.14249 -0.05076 0.29692
0.14249 -0.05669 0.12832
0.14249 -0.08545 0.15553
0.14249 -0.12051 0.24149
0.14519 0.25070 0.30078
-0.00004 0.26677 0.35546
0.13714 -0.08895 -0.02553
0.14249 -0.15721 -0.21849
0.14249 -0.11726 -0.17721
0.14249 -0.14030 -0.24579
0.14249 -0.13689 -0.27688
0.14249 -0.14970 -0.11550
0.14249 -0.17483 -0.26720
0.14249 -0.07867 -0.28251
0.15290 -0.03874 0.30856
0.11350 0.08849 -0.33534
0.11135 0.19830 -0.33534
-0.04277 0.20866 -0.33534
0.08838 0.15439 -0.33534
0.04600 0.13440 -0.33534
0.03072 0.13512 -0.33534
0.04678 0.15050 -0.33534
0.12070 0.06674 -0.33534
-0.14702 0.15613 -0.34070
-0.14961 -0.20968 -0.34070
-0.14705 0.05526 -0.34070
-0.04626 -0.23142 0.35505
-0.04017 -0.16077 0.33534
0.13042 -0.04230 0.33534
0.04925 -0.08078 0.33534
-0.00363 -0.15940 0.33534
0.08041 -0.15992 0.33534
-0.00451 -0.18543 0.33534
0.12270 -0.07340 0.33534
0.09583 0.23262 0.32463
0.12642 0.25168 0.09784
0.12642 0.25129 0.08460
-0.06075 -0.01272 -0.34070
-0.11035 -0.00486 0.02773
-0.12642 0.04139 0.17558
-0.12642 0.03015 0.01990
0.05622 0.02263 0.34070
0.03441 -0.20463 -0.34194
0.15321 0.01726 -0.30916
0.15321 0.01088 -0.20748
-0.11035 -0.00128 0.21965
-0.11035 0.00577 0.22128
-0.11878 0.05250 -0.05117
-0.15321 0.13559 -0.34782
0.13714 0.19198 0.03602
0.15321 0.11629 -0.03644
-0.06386 0.02571 0.01102
-0.05557 0.01311 -0.35677
0.14209 -0.02250 0.11461
-0.12642 -0.20899 -0.20299
-0.12642 -0.21265 -0.29063
-0.05334 0.04521 0.34070
0.13714 0.22687 0.30187
-0.11109 -0.01714 -0.11076
0.13714 -0.12680 -0.33749
0.12642 0.25229 0.11186
0.12642 0.25141 0.03731
-0.05757 0.23191 -0.32463
0.00892 0.25070 0.34038
0.10769 -0.20778 0.34070
-0.13547 0.25115 -0.35677
-0.14178 0.14776 -0.35677
-0.15013 -0.22935 -0.35677
0.13234 0.25483 0.34070
0.13834 0.13078 0.34070
0.12132 -0.26229 0.34070
-0.11571 -0.11146 0.03681
-0.11571 -0.09995 0.08965
-0.11571 -0.08662 0.16645
-0.11571 -0.03120 0.28396
-0.11571 -0.04964 0.05718
-0.11571 -0.03269 0.15439
-0.11571 -0.09030 0.19301
-0.11571 -0.02073 0.04926
0.11210 0.00968 0.35356
0.01552 0.14994 0.01929
-0.10443 0.15693 0.01929
-0.03114 0.20538 0.01929
-0.07865 0.12817 0.01929
-0.10484 0.17635 0.01929
-0.05488 0.13367 0.01929
0.02428 0.17000 0.01929
-0.07585 0.11105 0.01929
-0.01167 -0.01714 -0.32823
-0.12026 -0.03832 -0.03536
-0.08624 -0.00349 0.02464
-0.14667 0.14794 0.00857
0.06531 -0.21871 -0.35677
0.15321 -0.01124 -0.03664
-0.06975 0.14491 -0.32999
0.04343 0.22006 -0.32999
-0.05774 0.10102 -0.32999
-0.00040 0.13782 -0.32999
0.03616 0.22020 -0.32999
0.05540 0.18175 -0.32999
0.06768 0.18935 -0.32999
-0.12642 0.01404 -0.10374
-0.12642 0.01296 -0.26225
0.15321 -0.22758 -0.12005
0.15321 -0.22522 -0.12619
0.14305 0.14103 -0.35677
0.13229 -0.04382 -0.35677
0.12209 -0.24074 -0.35677
-0.12107 0.12103 -0.14371
-0.12107 0.19228 -0.20309
-0.12107 0.22204 -0.27798
-0.12107 0.19811 -0.14477
-0.12107 0.16598 -0.18779
-0.12107 0.13220 -0.15457
-0.12107 0.16110 -0.04194
-0.12107 0.14968 -0.11609
0.08831 0.22408 0.34070
-0.00375 0.02571 -0.32848
-0.14795 -0.15740 -0.00857
0.13714 -0.05965 -0.00989
0.00197 -0.20999 0.07484
0.01918 -0.20999 0.13091
0.03719 -0.20999 0.14020
-0.10925 -0.20999 0.29175
-0.00832 -0.20999 0.12108
0.04123 -0.20999 0.08782
-0.07987 -0.20999 0.24155
-0.03020 -0.20999 0.17247
-0.04416 -0.20999 0.23002
0.02575 -0.20999 0.13244
-0.09271 -0.20999 0.15532
-0.06024 -0.20999 0.22303
-0.11035 0.11205 0.32808
0.15321 -0.09555 -0.33563
0.13004 0.25070 0.30718
0.13058 0.25070 -0.10535
0.13374 0.25070 -0.02091
0.13731 0.25070 0.33215
0.05025 0.01015 -0.34070
-0.09240 0.18033 -0.01929
0.06263 0.06473 -0.01929
-0.02609 0.12095 -0.01929
-0.03918 0.17292 -0.01929
-0.03235 0.15680 -0.01929
-0.06259 0.08144 -0.01929
0.02779 0.08313 -0.01929
-0.08189 0.17998 -0.01929
0.13714 -0.20002 0.31518
-0.11102 0.25070 -0.19552
-0.12642 0.04306 -0.10960
-0.12677 -0.23277 -0.35677
-0.13289 -0.12359 -0.35677
-0.12649 0.03715 -0.35677
-0.01455 0.00964 -0.34018
0.13714 0.22330 -0.30049
0.09184 0.24538 0.35677
0.07693 0.25773 0.35677
-0.07535 0.23999 -0.35185
0.08520 0.24742 0.02464
-0.11571 0.13385 -0.18874
-0.11571 0.19612 -0.18404
-0.11571 0.16038 -0.27071
-0.11571 0.20384 -0.24306
-0.11571 0.22377 -0.24030
-0.11571 0.06084 -0.30060
-0.11571 0.19752 -0.23102
-0.11571 0.17254 -0.28911
0.03721 -0.11980 0.01929
0.11464 -0.13774 0.01929
0.02922 -0.13340 0.01929
-0.06941 -0.16058 0.01929
0.04012 -0.12987 0.01929
0.02062 -0.10158 0.01929
0.00197 -0.15528 0.01929
0.08537 -0.05583 0.01929
0.14530 0.25070 0.03548
0.14939 0.25070 -0.10274
0.14313 0.25070 0.05000
0.12107 0.15929 0.34170
-0.04046 0.24384 0.34070
0.15321 0.10527 0.01528
-0.15271 0.27389 0.37498
0.12748 -0.21535 0.22805
0.13161 -0.21535 -0.22516
0.13434 -0.21535 -0.23347
0.15321 0.05118 0.30394
0.15321 0.03313 0.25564
0.13714 0.03607 0.10435
0.12107 0.26396 -0.35149
0.14813 -0.23142 -0.33569
0.13997 -0.23142 -0.31461
0.15210 -0.23142 0.14565
0.14785 -0.15545 -0.07820
0.14785 -0.11461 -0.18913
0.14785 -0.11578 -0.11852
0.14785 -0.13996 -0.13186
0.14785 -0.11090 -0.13135
0.14785 -0.12594 -0.09723
0.10311 0.22392 0.02462
-0.03267 -0.10871 -0.01393
-0.02068 -0.02874 -0.01393
0.01952 -0.03676 -0.01393
-0.07880 -0.08569 -0.01393
-0.02545 -0.11396 -0.01393
0.02994 -0.02649 -0.01393
-0.00805 -0.08407 -0.01393
-0.15321 -0.20263 0.35548
-0.01812 0.00528 0.00857
0.01794 0.03647 0.34122
0.15177 0.20725 0.30856
0.14249 -0.04758 0.23033
0.14249 -0.02524 0.05260
0.14249 -0.12060 0.30224
0.14249 -0.05238 0.19746
0.14249 -0.03490 0.27152
0.14249 -0.07849 0.22351
0.14249 -0.04110 0.28947
-0.12076 -0.18856 0.10768
0.11410 0.05133 -0.00857
-0.03840 0.05133 -0.00857
0.07647 0.11377 -0.01929
-0.08691 0.22118 -0.01929
0.08948 0.22090 -0.01929
-0.01961 0.20934 -0.01929
0.07897 0.17699 -0.01929
-0.06379 0.19917 -0.01929
-0.03468 0.19384 -0.01929
0.04714 0.12970 -0.01929
-0.02311 0.03647 0.35156
0.15321 0.23059 -0.28103
0.15321 -0.02953 -0.35571
0.07784 -0.06247 0.33534
0.05210 -0.16740 0.33534
0.09134 -0.07521 0.33534
0.08348 -0.12841 0.33534
0.15321 0.23493 0.09841
-0.12623 -0.05081 0.03536
-0.11571 -0.15383 0.10994
-0.11571 -0.17329 0.28718
-0.11571 -0.18067 0.17597
-0.11571 -0.04930 0.30200
-0.11571 -0.16661 0.10679
-0.11571 -0.08818 0.27999
-0.11571 -0.17641 0.24374
-0.11035 0.23799 -0.06630
-0.11035 0.24088 -0.01311
-0.12107 -0.14473 0.21098
-0.12107 -0.17081 0.28058
-0.12107 -0.12014 0.12235
-0.12107 -0.11893 0.14953
-0.12107 -0.09450 0.11772
-0.12107 -0.03907 0.05993
-0.12107 -0.18555 0.19314
-0.12107 -0.12134 0.13163
0.01189 0.18007 -0.01393
-0.07003 0.15743 -0.01393
-0.10631 0.18056 -0.01393
-0.10299 0.11773 -0.01393
-0.03089 0.11932 -0.01393
-0.05557 0.11824 -0.01393
0.04398 0.21157 -0.01393
-0.12642 0.03839 0.25424
-0.12642 0.03448 0.28128
0.13076 0.22392 0.02348
-0.07253 0.25070 -0.33140
0.14283 0.05785 -0.11025
-0.12642 0.23510 0.24043
0.14145 0.11529 0.04071
0.13097 -0.18469 0.00857
0.15321 0.14933 0.31294
-0.14424 0.27086 -0.37498
-0.11724 -0.19053 -0.34070
0.00871 -0.00872 -0.02464
0.13741 0.25070 -0.24296
0.15052 0.25070 0.22308
0.13905 0.25070 -0.30218
0.07976 0.22809 -0.32463
-0.06654 0.00369 0.00857
0.14614 -0.21535 0.08822
0.13545 -0.21535 0.20307
0.14987 -0.21535 0.24787
0.12922 -0.21535 0.30480
0.04522 0.01275 0.35677
0.13714 0.07038 -0.01159
0.14785 0.08016 0.24546
0.14785 0.09188 0.09938
0.14785 0.19310 0.29562
0.14785 0.07968 0.20029
0.14785 0.09944 0.21338
0.14785 0.13362 0.29026
0.14785 0.11923 0.19726
0.08575 -0.21126 -0.35677
0.00616 0.00520 -0.02464
0.13899 0.00964 0.13807
0.13686 0.00964 -0.06221
0.13226 0.00964 0.21401
0.12884 0.00964 -0.24800
-0.12642 0.04201 -0.18442
0.14208 -0.02250 -0.29292
0.15321 0.03801 0.23827
-0.11035 -0.20771 0.05164
0.14249 0.13035 0.09859
0.14249 0.10118 0.04119
0.14249 0.12349 0.13289
0.14249 0.10783 0.15973
0.14249 0.13299 0.07618
0.14249 0.10337 0.08185
0.14249 0.12807 0.18926
0.00814 0.00964 0.01083
-0.12361 0.02571 0.09177
0.04226 0.22971 -0.02464
0.14171 0.21086 -0.34070
-0.14004 -0.02121 0.00857
0.12107 -0.15199 0.34273
0.12107 -0.17518 0.34126
0.12012 -0.21406 -0.00857
-0.01618 0.04243 -0.02464
-0.11571 -0.02499 -0.04141
-0.11571 -0.13802 -0.03601
-0.11571 -0.11684 -0.05871
-0.11571 -0.14131 -0.18258
-0.11571 -0.18119 -0.08081
-0.11571 -0.12930 -0.10710
-0.11571 -0.18321 -0.04511
-0.12417 -0.21535 -0.09134
0.13933 0.21856 0.09567
0.06153 0.09608 -0.33534
0.02037 0.05363 -0.33534
-0.08939 0.14956 -0.33534
0.09817 0.05889 -0.33534
0.00940 0.05947 -0.33534
-0.08047 0.08911 -0.33534
0.03140 0.09203 -0.33534
-0.12642 0.23420 -0.18342
-0.12642 0.24312 -0.27540
0.13714 -0.20826 0.17325
-0.12642 0.04559 -0.25923
-0.06202 0.25070 -0.02097
0.07765 -0.20999 -0.19212
0.08944 -0.20999 -0.24338
0.08245 -0.20999 -0.12699
0.07356 -0.20999 -0.10656
-0.03119 -0.20999 -0.11556
-0.00669 -0.20999 -0.08083
0.08526 -0.20999 -0.05894
0.13213 -0.20999 -0.11821
0.06860 -0.20999 -0.07816
0.04107 -0.20999 -0.19564
0.07222 -0.20999 -0.04087
0.03210 -0.20999 -0.09204
0.02564 -0.20999 -0.18131
-0.12107 -0.22727 -0.35039
-0.12107 0.01013 -0.34990
0.12379 0.05717 0.33534
-0.02726 0.05447 0.33534
0.02209 0.07763 0.33534
0.05140 0.08649 0.33534
0.02191 0.09265 0.33534
0.12216 0.15649 0.33534
0.13852 -0.18321 -0.10025
0.00364 -0.20463 0.06152
0.01480 -0.20463 0.05552
0.05152 -0.20463 0.05814
0.08959 -0.20463 0.04126
0.08134 -0.20463 0.13836
0.12657 -0.20463 0.03838
-0.05119 -0.20463 0.02495
0.10558 -0.20463 0.15765
0.07785 -0.20463 0.06115
0.03025 -0.20463 0.11582
0.13026 -0.20463 0.14708
-0.06746 -0.20463 0.03078
0.06851 -0.20463 0.19837
0.15222 0.20105 0.34070
0.13195 -0.14730 0.34070
0.14454 0.04592 0.34070
-0.11571 0.19396 0.21322
-0.11571 0.17771 0.23614
-0.11571 0.18865 0.16136
-0.11571 0.18648 0.23450
-0.11571 0.11582 0.03827
-0.11571 0.10964 0.11178
-0.11571 0.16060 0.11858
-0.11571 0.14832 0.04078
-0.11571 0.08276 0.06618
-0.12107 -0.08063 -0.13986
-0.12107 -0.03717 -0.10952
-0.12107 -0.15557 -0.04696
-0.12107 -0.05017 -0.11478
-0.12107 -0.01773 -0.14558
-0.12107 -0.02727 -0.10199
-0.12107 -0.05708 -0.22874
-0.12107 -0.09183 -0.12004
-0.12642 0.00815 0.13358
-0.12642 -0.00143 0.23653
-0.12642 -0.13998 -0.02721
-0.06867 -0.20141 -0.34070
0.04662 0.02571 0.33854
0.15321 -0.06305 0.30905
-0.16699 0.26677 -0.26354
-0.05403 0.26677 0.08602
-0.05728 0.26677 -0.07018
-0.12302 0.26677 -0.04340
-0.15088 0.26677 0.00348
0.12536 0.26677 0.29288
0.01649 0.26677 0.06857
0.03611 0.26677 0.19376
0.04175 0.26677 0.10061
-0.16422 0.26677 0.11075
-0.11795 0.26677 0.15481
-0.12040 0.26677 0.31975
-0.14792 0.26677 0.01353
-0.00477 0.26677 0.15846
-0.12821 0.26677 0.06759
-0.05747 0.26677 -0.05610
-0.12407 0.26677 -0.05186
-0.10580 0.26677 0.29331
0.08939 0.26677 0.22146
-0.10083 0.26677 0.06162
-0.07631 0.26677 -0.02787
-0.05704 0.26677 -0.11682
-0.00482 0.26677 0.33531
-0.07144 0.26677 0.36392
0.02432 0.26677 0.20900
-0.11507 0.26677 0.25777
-0.15840 0.26677 -0.04263
0.00190 0.26677 0.09318
0.04802 0.26677 0.32312
0.08935 0.26677 0.36048
-0.06814 0.26677 -0.14471
-0.07590 0.26677 0.22641
-0.06794 0.26677 0.32312
-0.16819 0.26677 0.33699
-0.10991 0.26677 0.35475
-0.11658 0.26677 0.35030
-0.08794 0.26677 -0.10229
-0.12664 0.26677 -0.03691
-0.15621 0.26677 0.16303
-0.16414 0.26677 0.09588
-0.07923 0.26677 0.35456
-0.00878 0.26677 0.15239
-0.11571 -0.13208 -0.26677
-0.11571 -0.06721 -0.17993
-0.11571 -0.08655 -0.28609
-0.11571 -0.10262 -0.25415
-0.11571 -0.13954 -0.29096
-0.11571 -0.09275 -0.23603
-0.11571 -0.04940 -0.08930
-0.11571 -0.02201 -0.17587
-0.11571 -0.08076 -0.21414
-0.04795 -0.20999 0.30212
-0.00222 -0.20999 0.31149
-0.07909 -0.20999 0.31653
-0.01267 -0.20999 0.24233
0.07672 -0.20999 0.22402
0.07790 -0.20999 0.18025
0.10544 -0.20999 0.08850
0.06800 -0.20999 0.17856
0.05522 -0.20999 0.19570
0.04021 -0.20999 0.30661
0.12759 -0.20999 0.14319
-0.06244 -0.20999 0.27859
0.13206 0.00964 0.33652
0.13273 0.00964 0.19121
0.10673 0.00964 -0.32621
-0.00779 0.00097 0.34070
-0.00315 -0.20983 -0.32463
-0.08844 0.02645 -0.32463
0.13327 -0.14988 -0.00857
0.12642 0.26539 0.00392
0.12642 0.26276 -0.04096
-0.09655 0.03262 -0.34070
0.06706 -0.20463 -0.35157
-0.11239 0.05250 0.19931
-0.12107 -0.05921 0.19510
-0.12107 -0.02137 0.29563
-0.12107 -0.08477 0.20311
-0.12107 -0.09399 0.29520
-0.12107 -0.07569 0.22453
-0.12107 -0.13062 0.25357
-0.12107 -0.09014 0.25085
-0.12107 -0.15969 0.27982
-0.01847 0.23871 -0.32463
-0.11312 -0.18856 0.26266
-0.11575 0.16955 0.31391
0.13714 0.05248 0.10731
-0.10249 0.22545 -0.00857
0.08936 0.22392 -0.33684
-0.05134 -0.18856 0.33706
-0.12642 0.06090 -0.33602
0.14811 -0.06480 0.00857
-0.12642 -0.18221 0.31462
0.15321 -0.12637 0.03728
-0.02696 0.00964 -0.01498
-0.12107 0.21890 -0.20944
-0.12107 0.19166 -0.10278
-0.12107 0.21252 -0.17881
-0.12107 0.18965 -0.19407
-0.12107 0.15243 -0.07475
-0.12107 0.17600 -0.16921
-0.12107 0.17126 -0.12242
-0.12107 0.17334 -0.12932
-0.12107 0.09506 -0.03770
-0.12642 -0.12255 0.01595
-0.04943 0.27689 -0.37470
-0.05382 0.05013 -0.02464
-0.11035 -0.00842 -0.08446
-0.11035 -0.01250 -0.03804
-0.12642 0.04995 -0.01078
0.15321 0.09329 0.02559
-0.02534 0.22693 -0.00857
-0.01390 0.00968 -0.34811
-0.12642 0.22467 0.08358
0.15321 -0.03472 0.34203
0.15321 -0.27737 0.34972
-0.12382 -0.21535 0.03282
0.16361 0.28283 0.13277
0.05863 0.00964 -0.33325
0.02805 0.02958 -0.02464
-0.12642 -0.20478 -0.02826
-0.08048 0.02571 0.01455
-0.12107 0.03321 -0.34116
0.03495 0.03746 0.00857
0.14709 0.21856 0.07030
0.07206 0.27644 0.37482
-0.01510 -0.03452 0.01393
0.02952 -0.06651 0.01393
0.12713 -0.08513 0.01393
0.09544 -0.05419 0.01393
0.01888 -0.02416 0.01393
-0.01951 -0.02214 0.01393
0.11624 -0.12748 0.01393
-0.02269 0.24819 -0.34070
-0.10077 0.02571 -0.01060
0.13277 0.26677 -0.00850
0.12905 0.26677 -0.12230
0.12719 0.26677 -0.27002
0.10136 -0.14167 -0.33534
0.03565 -0.04875 -0.33534
0.11576 -0.07563 -0.33534
0.00269 -0.07645 -0.33534
0.01314 -0.08525 -0.33534
-0.04816 -0.03831 -0.33534
0.06544 -0.10832 -0.33534
-0.11035 0.08380 0.02326
-0.12642 -0.19696 -0.16579
-0.12642 -0.20054 -0.22574
0.14169 -0.23142 0.13217
0.12956 -0.23142 -0.22426
0.14915 -0.23142 0.26640
-0.08580 0.00129 -0.00857
0.13714 0.12139 0.32829
0.15321 0.06436 -0.03734
-0.17142 0.27013 -0.31819
-0.12642 0.08628 0.33438
0.06024 -0.12448 -0.01929
-0.07053 -0.02643 -0.01929
0.06708 -0.06471 -0.01929
0.02332 -0.10493 -0.01929
-0.03855 -0.02484 -0.01929
0.11948 -0.09253 -0.01929
0.06435 -0.03904 -0.01929
0.07089 0.02571 -0.33122
0.14364 0.00964 -0.26395
-0.14171 -0.21535 0.21931
-0.14587 -0.21535 0.26592
-0.13668 -0.21535 -0.05633
0.13939 -0.14725 -0.30856
0.12578 -0.20463 -0.25934
0.02403 -0.20463 -0.31372
0.03238 -0.20463 -0.16542
0.08105 -0.20463 -0.12067
0.07638 -0.20463 -0.23264
-0.01132 -0.20463 -0.30238
0.13466 -0.20463 -0.22136
0.08826 -0.20463 -0.18194
0.05390 -0.20463 -0.31431
0.08766 -0.20463 -0.16463
0.10300 -0.20463 -0.11294
-0.00527 -0.20463 -0.21259
0.05866 -0.20463 -0.12520
0.10439 -0.18856 -0.33774
0.14785 0.15112 -0.27776
0.14785 0.17349 -0.28889
0.14785 0.15914 -0.28414
0.14785 0.11042 -0.27190
0.14785 0.20261 -0.15330
0.14785 0.19002 -0.17870
0.14785 0.16997 -0.19499
0.13714 -0.00198 0.26243
-0.06960 -0.06295 -0.01929
0.07582 -0.15197 -0.01929
-0.10060 -0.16085 -0.01929
-0.05751 -0.10400 -0.01929
-0.09442 -0.08958 -0.01929
-0.10297 -0.10934 -0.01929
0.02762 -0.14291 -0.01929
0.13714 0.00914 0.33045
-0.10766 0.00968 0.35327
-0.07526 0.25070 0.02248
-0.11257 -0.12445 0.00857
-0.08430 0.01771 0.35677
-0.07744 0.02191 0.35677
0.13714 0.24380 -0.02548
0.12642 -0.21582 -0.25085
0.12642 -0.21628 0.08451
-0.14322 0.00964 -0.23417
-0.12959 0.00964 -0.14984
-0.13342 0.00964 0.11854
0.00874 0.03308 0.32463
-0.02938 -0.19266 0.00857
-0.12107 -0.14680 0.30546
-0.12107 -0.03741 0.23443
-0.12107 -0.05984 0.15781
-0.12107 -0.12326 0.26887
-0.12107 -0.04455 0.09183
-0.12107 -0.11572 0.22913
-0.12107 -0.16853 0.30775
-0.10063 0.23111 -0.32463
0.14092 -0.23142 0.21027
0.12669 -0.23142 -0.19074
-0.00623 -0.21535 -0.33917
-0.13928 0.15498 -0.00857
-0.12642 0.02540 -0.20006
-0.12642 0.01353 0.24729
0.13714 -0.21146 0.28541
-0.12308 -0.04424 -0.34070
-0.13558 0.10141 -0.34070
-0.12642 0.02283 0.31897
-0.12642 0.02431 0.28311
0.13714 -0.00865 0.28350
-0.10733 0.03107 -0.29874
-0.06637 0.03107 -0.28925
0.03658 0.03107 -0.23332
-0.00581 0.03107 -0.17015
-0.07796 0.03107 -0.12271
-0.09314 0.03107 -0.27127
-0.09171 0.03107 -0.22924
-0.07704 0.03107 -0.21961
-0.01455 0.03107 -0.20494
-0.06196 0.03107 -0.19654
-0.02157 0.03107 -0.23428
-0.01559 0.03107 -0.28382
0.09145 0.03107 -0.29480
0.14800 0.11810 -0.35677
0.15029 -0.17558 -0.35677
0.14524 -0.26760 -0.35677
0.06577 0.10037 0.33534
0.08798 0.13498 0.33534
-0.02888 0.08594 0.33534
-0.01209 0.11258 0.33534
0.10592 0.17260 0.33534
0.10250 0.10389 0.33534
0.00121 0.09685 0.33534
0.12156 0.07496 0.33534
0.14249 -0.06736 -0.14589
0.14249 -0.09736 -0.09933
0.14249 -0.09523 -0.14907
0.14249 -0.03490 -0.25352
0.14249 -0.02378 -0.07849
0.14249 -0.04608 -0.20752
-0.12642 0.11012 0.03450
0.13027 0.00745 0.00857
-0.11035 0.14885 -0.03331
-0.03817 0.27713 0.37464
-0.00617 0.03997 -0.34070
0.03736 0.26751 -0.37498
0.06632 -0.18856 0.01369
0.14153 -0.02250 0.19683
-0.11035 -0.12340 0.01828
-0.11895 -0.07669 0.00857
0.14148 0.02571 -0.17982
0.14735 0.21578 -0.30856
-0.10539 0.26537 0.34070
0.15321 0.04383 0.11905
-0.12262 -0.16163 0.00857
0.15321 -0.01648 0.29995
0.13714 -0.19284 -0.04067
-0.15321 0.15502 -0.00793
0.14404 0.25070 -0.29164
-0.14517 0.13981 -0.00857
-0.16710 0.28193 -0.02716
-0.12107 0.19366 -0.29488
-0.12107 0.13622 -0.29160
-0.12107 0.15144 -0.21227
-0.12107 0.07295 -0.23756
-0.12107 0.05286 -0.08107
-0.12107 0.18594 -0.26928
-0.12107 0.11095 -0.24279
-0.12107 0.11430 -0.21377
0.14815 0.12498 -0.30856
0.15321 0.19478 0.33749
0.13714 0.24362 0.11538
0.13342 0.04862 0.34070
-0.11051 0.24044 -0.01884
0.13966 -0.21535 0.11060
-0.12642 -0.14790 0.03145
-0.11035 -0.02297 -0.02766
-0.11035 -0.01519 0.26621
0.11589 0.23999 0.34820
-0.01760 0.13860 -0.33534
-0.06908 0.16519 -0.33534
-0.02854 0.12062 -0.33534
-0.03098 0.10994 -0.33534
0.08817 0.07914 -0.33534
-0.06144 0.06019 -0.33534
0.08210 0.06828 -0.33534
0.11551 0.05283 -0.33534
0.06272 0.02535 0.35677
0.08014 -0.21535 0.32768
0.14247 0.00429 0.17015
0.13776 -0.08832 -0.30856
-0.01047 0.24438 -0.35677
-0.09289 -0.08813 0.01393
-0.03634 -0.10212 0.01393
-0.00938 -0.10077 0.01393
-0.05381 -0.06676 0.01393
0.07277 -0.15251 0.01393
-0.06296 -0.17530 0.01393
-0.09227 -0.18412 0.01393
0.04909 0.23975 -0.34070
-0.12107 0.00830 0.35307
-0.12107 0.26564 0.34279
0.12609 -0.18856 0.33750
0.13714 -0.07774 0.32543
-0.17142 0.27436 0.28033
-0.12642 -0.00626 -0.00326
0.04582 0.22719 0.00857
0.13898 -0.15497 -0.34070
0.13787 0.25052 0.34070
-0.15321 0.25918 -0.15759
-0.15321 0.25537 -0.26958
-0.10256 0.00471 -0.34070
0.03016 -0.20999 0.13894
0.03921 -0.20999 0.13458
-0.08736 -0.20999 0.12603
-0.03940 -0.20999 0.15671
-0.08711 -0.20999 0.26702
0.00418 -0.20999 0.13169
0.02702 -0.20999 0.04361
-0.09896 -0.20999 0.20394
0.01242 -0.20999 0.13739
-0.07714 -0.20999 0.05105
0.07139 -0.20999 0.03574
-0.01553 -0.20999 0.20387
0.07617 -0.20999 0.04361
0.14679 0.26677 -0.02338
0.06932 0.26677 -0.24682
0.07014 0.26677 0.14930
0.06152 0.26677 0.04416
0.11227 0.26677 -0.19875
-0.02516 0.26677 -0.36796
0.13395 0.26677 0.00105
-0.14134 0.26677 -0.35006
0.06016 0.26677 0.02670
0.15069 0.26677 0.26492
0.02875 0.26677 -0.22171
0.15601 0.26677 -0.00097
0.08349 0.26677 -0.04198
0.00369 0.26677 -0.07184
0.08405 0.26677 -0.01260
0.11302 0.26677 -0.32278
0.03534 0.26677 -0.27932
-0.04773 0.26677 -0.26577
0.10735 0.26677 0.04452
0.02170 0.26677 -0.24830
0.10359 0.26677 -0.08745
0.07607 0.26677 -0.08742
0.14280 0.26677 -0.32795
-0.00566 0.26677 -0.30832
0.15752 0.26677 0.32778
-0.05826 0.26677 -0.25010
-0.05968 0.26677 -0.23992
-0.05601 0.26677 -0.22840
-0.14054 0.26677 -0.30899
-0.06148 0.26677 -0.29397
0.01624 0.26677 -0.26726
0.13344 0.26677 0.14460
0.07215 0.26677 0.10082
0.06979 0.26677 -0.04254
0.03653 0.26677 -0.09739
0.11377 0.26677 0.12972
0.15915 0.26677 0.06738
-0.06859 0.26677 -0.36396
0.15883 0.26677 0.19290
-0.00793 0.26677 -0.03005
0.05402 0.26677 -0.15309
-0.03410 0.26677 -0.12034
0.01197 0.26677 0.00439
-0.12130 0.25070 0.03413
0.14165 0.22815 -0.00857
0.13853 0.22002 0.00857
0.15321 -0.21361 0.06728
-0.15284 0.00964 -0.04442
-0.14317 0.00964 0.33207
-0.14234 0.00964 0.28278
0.06817 -0.20999 0.15260
0.02262 -0.20999 0.18740
0.08763 -0.20999 0.17042
0.05768 -0.20999 0.15317
-0.05613 -0.20999 0.27974
0.00870 -0.20999 0.30603
0.11674 -0.20999 0.08639
0.10828 -0.20999 0.12754
0.03354 -0.20999 0.17792
-0.06909 -0.20999 0.27847
0.12650 -0.20999 0.07900
0.10399 -0.20999 0.23027
-0.12642 -0.02613 -0.32529
-0.05518 0.03643 0.16699
-0.05429 0.03643 0.19561
-0.07609 0.03643 0.11162
-0.01598 0.03643 0.26341
-0.10930 0.03643 0.10011
0.01276 0.03643 0.27482
-0.09607 0.03643 0.28895
0.00510 0.03643 0.22794
0.05871 0.03643 0.27033
0.02127 0.03643 0.24909
-0.07413 0.03643 0.29288
-0.03060 0.03643 0.24445
0.06573 0.03643 0.30937
-0.09527 0.25070 0.01443
0.14360 -0.21535 -0.01466
-0.11128 0.00964 0.05452
0.15321 0.00534 0.25406
-0.11567 0.15814 -0.00857
-0.13139 0.14184 -0.34070
-0.13968 0.26239 -0.34070
-0.13631 0.20145 -0.34070
0.12107 -0.05289 -0.35245
0.14249 0.17142 0.09241
0.14249 0.09291 0.11352
0.14249 0.06300 0.24047
0.14249 0.15892 0.08674
0.14249 0.10050 0.20763
0.14249 0.13411 0.06591
0.14249 0.15050 0.04939
0.13323 -0.18856 -0.33468
-0.15306 -0.21499 -0.00857
0.00720 -0.21535 -0.01394
-0.09681 0.03468 0.34070
0.16961 0.27990 -0.03788
-0.02098 0.26658 0.35677
-0.00994 0.25645 -0.35677
0.13714 -0.18207 0.02330
0.12642 0.26537 0.15210
0.12642 0.26496 0.06326
0.17113 0.27693 -0.22160
-0.05077 -0.22149 -0.34070
-0.12642 0.08368 0.01858
-0.04713 0.23767 -0.02464
-0.12642 -0.00658 0.05245
-0.11703 0.05250 -0.21876
0.15321 0.01865 -0.07217
-0.11962 0.05250 -0.12169
-0.12051 0.25070 0.31312
-0.09066 -0.19126 -0.02464
-0.14850 0.25070 0.22971
-0.14869 0.25070 -0.10072
-0.12937 0.25070 0.30032
0.05586 -0.19960 -0.34070
0.07959 0.16158 0.01393
0.01287 0.17848 0.01393
0.00405 0.18713 0.01393
0.08703 0.17577 0.01393
-0.00474 0.16616 0.01393
0.10147 0.10015 0.01393
0.07247 0.22367 0.01393
0.13714 -0.20136 0.22770
0.15317 0.17692 0.04071
0.03589 0.03643 -0.05893
0.04030 0.03643 -0.12810
-0.07313 0.03643 -0.06513
-0.08412 0.03643 -0.18773
0.07777 0.03643 -0.03193
0.09207 0.03643 -0.03282
-0.08941 0.03643 -0.21171
-0.01724 0.03643 -0.11346
-0.09665 0.03643 -0.29283
-0.04851 0.03643 -0.04411
-0.08023 0.03643 -0.11151
0.02486 0.03643 -0.10766
0.03203 0.03643 -0.08572
0.14163 0.26677 0.30486
-0.12069 0.02571 -0.30145
0.13714 0.00367 0.31763
-0.12521 0.25070 0.15897
0.05409 -0.01220 0.02464
-0.10766 0.03087 -0.32463
-0.11035 0.24139 0.09871
0.15321 -0.22757 0.23283
0.15321 -0.21917 0.30662
0.10477 -0.20463 0.31923
0.04495 -0.20463 0.28260
-0.06756 -0.20463 0.15643
-0.09637 -0.20463 0.17568
0.03578 -0.20463 0.30238
-0.06050 -0.20463 0.11204
-0.07693 -0.20463 0.24618
-0.06272 -0.20463 0.26588
-0.06304 -0.20463 0.19152
-0.06267 -0.20463 0.08455
-0.01958 -0.20463 0.26507
0.01566 -0.20463 0.25298
-0.07447 -0.20463 0.17356
-0.12642 0.01024 0.09492
-0.12642 0.01461 -0.04358
-0.13976 -0.23142 0.22366
-0.14190 -0.23142 -0.02342
-0.13922 -0.23142 0.05480
0.15321 0.04782 -0.04656
0.15321 0.02632 -0.01614
0.15321 -0.00726 0.04976
0.06432 -0.15566 -0.01393
0.11956 -0.16422 -0.01393
-0.06674 -0.16245 -0.01393
0.13137 -0.10077 -0.01393
-0.01825 -0.12536 -0.01393
0.09562 -0.10527 -0.01393
-0.00132 -0.12460 -0.01393
-0.17142 0.26935 0.26813
0.15321 0.24124 0.23456
-0.11035 0.24024 -0.07497
-0.11035 0.23388 -0.08132
0.00238 0.03230 0.00857
-0.06606 0.17433 -0.32999
0.10375 0.21810 -0.32999
0.00274 0.22189 -0.32999
-0.10169 0.22283 -0.32999
0.06928 0.21502 -0.32999
-0.00768 0.14545 -0.32999
-0.01592 0.15873 -0.32999
0.06442 -0.20463 0.26475
0.00177 -0.20463 0.16125
-0.03611 -0.20463 0.19552
-0.10927 -0.20463 0.23130
0.08360 -0.20463 0.26792
-0.09441 -0.20463 0.23423
-0.06923 -0.20463 0.10517
-0.04813 -0.20463 0.23896
0.06580 -0.20463 0.31651
0.06084 -0.20463 0.30837
-0.05003 -0.20463 0.15546
-0.08095 -0.20463 0.21925
0.15321 0.26150 -0.18283
0.15321 0.25811 -0.22282
-0.14215 -0.21535 -0.23989
-0.14872 -0.21535 -0.10486
-0.13974 -0.21535 -0.11932
-0.12642 -0.06388 0.33471
-0.12107 -0.20680 0.34371
0.15321 -0.00145 -0.10418
0.04095 -0.16744 0.01393
-0.08062 -0.15478 0.01393
-0.05177 -0.18837 0.01393
-0.04828 -0.13720 0.01393
-0.09298 -0.03445 0.01393
-0.06236 -0.06834 0.01393
-0.04774 -0.06658 0.01393
0.15321 -0.18972 -0.17227
0.15321 -0.20359 -0.24325
-0.12010 0.17700 0.34070
0.12107 -0.16444 -0.34516
0.12107 -0.11824 -0.34155
0.14388 -0.01702 0.34070
0.00687 0.03107 0.19791
0.00691 0.03107 0.27855
0.11657 0.03107 0.08844
0.13036 0.03107 0.23913
0.10561 0.03107 0.14965
0.06033 0.03107 0.26784
0.09959 0.03107 0.16348
0.06845 0.03107 0.26195
-0.00864 0.03107 0.27203
0.07106 0.03107 0.16272
0.05696 0.03107 0.17887
0.02982 0.03107 0.31055
-0.06793 0.03107 0.28748
0.15321 0.00775 -0.18915
0.15321 -0.00356 -0.27639
0.13714 0.10874 0.32804
0.15298 0.14806 -0.35677
0.14456 -0.12413 -0.35677
0.14734 0.09677 -0.35677
-0.13433 0.02571 -0.29804
-0.15225 0.02571 0.05375
-0.14794 0.02571 -0.03728
-0.15321 0.25112 -0.20257
-0.15321 0.25956 0.18219
0.14147 -0.18321 0.16555
-0.12642 0.23219 -0.11140
-0.12642 0.24760 -0.08783
0.06556 0.25070 0.33632
0.12501 0.02571 0.33105
0.15180 -0.02250 -0.27929
0.12642 -0.22352 0.24403
0.12642 -0.22024 0.32984
-0.11400 0.02571 0.27991
-0.02869 0.00964 -0.32944
0.14988 -0.23142 -0.23946
0.15284 -0.23142 0.30811
0.14924 -0.23142 0.19112
-0.11035 0.02982 -0.28313
-0.11035 0.05724 -0.03403
0.15321 -0.12648 0.33876
0.01959 -0.21105 0.34070
-0.14565 -0.21535 0.30401
-0.13352 -0.21535 0.19855
0.01194 0.03643 0.02724
0.08349 0.03643 0.14171
0.07217 0.03643 0.22617
0.03491 0.03643 0.19111
-0.05460 0.03643 0.04109
-0.04612 0.03643 0.07875
-0.05366 0.03643 0.08526
-0.04381 0.03643 0.04220
0.12150 0.03643 0.08284
-0.01644 0.03643 0.09556
0.09045 0.03643 0.02913
0.00621 0.03643 0.05918
0.03018 0.03643 0.07208
0.13714 0.06254 -0.01533
-0.12308 -0.01809 0.35677
-0.14026 0.16994 0.35677
-0.13704 0.02689 0.35677
-0.04760 0.05250 0.32649
-0.12642 -0.21005 0.20798
-0.00758 -0.20463 -0.20759
-0.01815 -0.20463 -0.22155
0.05305 -0.20463 -0.22898
0.02549 -0.20463 -0.26480
0.05803 -0.20463 -0.32443
0.13569 -0.20463 -0.25035
0.10859 -0.20463 -0.09182
0.01321 -0.20463 -0.26296
0.10016 -0.20463 -0.12316
0.01634 -0.20463 -0.31546
0.11716 -0.20463 -0.16954
0.00183 -0.20463 -0.26087
0.05240 -0.20463 -0.26590
0.14433 -0.04345 -0.34070
0.13786 0.15931 -0.34070
0.13817 0.01013 -0.34070
-0.11035 -0.20506 0.01074
-0.13079 -0.21926 0.34070
-0.13716 -0.12132 0.34070
-0.13428 -0.10150 0.34070
-0.16906 0.28049 0.14021
0.10591 0.03107 -0.28401
0.09570 0.03107 -0.16615
0.08936 0.03107 -0.06210
0.10651 0.03107 -0.11615
0.02618 0.03107 -0.17011
-0.05596 0.03107 -0.08147
-0.02688 0.03107 -0.03921
0.08012 0.03107 -0.08864
0.05282 0.03107 -0.13895
-0.07839 0.03107 -0.02793
-0.03637 0.03107 -0.09586
-0.02610 0.03107 -0.06666
-0.11035 -0.01361 -0.13042
0.15321 0.18075 0.31050
0.07255 -0.18856 -0.32907
-0.12107 0.09320 0.23565
-0.12107 0.08218 0.21776
-0.12107 0.15579 0.05245
-0.12107 0.06502 0.17720
-0.12107 0.13795 0.14901
-0.12107 0.12480 0.18321
-0.12107 0.13620 0.17037
-0.12107 0.08582 0.19304
-0.10862 -0.19279 0.02464
-0.10173 -0.23011 0.34070
0.14288 0.09758 -0.00857
0.08164 -0.19949 -0.00857
-0.11035 0.03748 0.05934
0.00606 0.02571 -0.02421
-0.11035 0.07035 -0.32334
0.13396 0.25070 0.32607
-0.11035 0.03858 -0.06928
-0.12107 -0.18004 -0.11228
-0.12107 -0.14192 -0.15559
-0.12107 -0.16280 -0.18262
-0.12107 -0.13248 -0.22641
