-0.10902 0.16214 0.33148
-0.23494 0.16214 0.31792
-0.04360 0.18861 0.05341
0.07266 -0.12875 0.21177
0.11706 0.18861 0.00829
0.23824 0.18637 -0.27050
0.13649 0.18861 -0.34957
0.06618 0.09486 -0.20764
0.17481 0.18861 0.26746
-0.10000 0.16214 0.10788
-0.06618 0.08705 -0.21915
0.20607 0.18861 -0.18478
-0.12450 0.18861 -0.00343
0.08285 0.16214 -0.38624
-0.04859 0.16214 -0.28129
0.23458 0.18861 0.26298
0.22569 0.16214 0.34833
0.00815 0.10258 0.14717
-0.09469 -0.05349 0.17206
-0.11912 0.00767 -0.17320
0.19014 0.18861 0.08974
0.06618 0.14870 0.19125
0.01880 0.10258 0.08123
0.01783 0.12477 -0.05476
0.15399 0.18861 0.35463
-0.21775 0.18861 0.08476
0.20544 0.18861 -0.37730
-0.05450 -0.02757 -0.19609
0.01324 -0.11637 -0.08702
0.12985 0.16214 -0.28781
0.06618 0.14190 -0.18699
0.06618 -0.02123 0.22390
-0.20982 0.16214 -0.39703
0.16840 0.18682 0.39707
0.19412 0.18861 0.16837
-0.11912 -0.10248 -0.19078
0.11912 0.04502 -0.20577
0.10428 0.18861 -0.37687
0.11144 0.18861 -0.11149
0.13972 0.18861 0.37814
-0.16299 0.18861 -0.28122
-0.11507 0.18861 -0.36237
0.01690 0.18861 -0.21088
0.23486 0.16214 0.22857
0.23816 0.16214 -0.04316
-0.11912 0.05832 0.20643
0.06172 -0.13567 0.15473
-0.22477 0.18861 0.37320
0.07584 -0.16050 0.22501
-0.03279 0.16214 -0.28861
-0.13210 0.18861 0.33163
-0.01136 0.15552 0.09047
0.01324 0.14333 0.14741
0.17696 0.18861 -0.27888
-0.20188 0.16214 0.35868
0.11793 0.18861 0.16409
-0.21533 0.18861 -0.16841
0.08001 0.16214 -0.15266
-0.00268 0.16214 0.34912
0.11912 -0.02183 0.22072
-0.23824 0.16378 0.28476
0.09584 -0.08801 -0.22501
0.06636 -0.13567 0.17814
0.18106 0.18861 0.00369
-0.07598 0.16214 -0.31781
0.06473 -0.13567 0.02052
0.16428 0.16243 -0.39707
0.03816 0.12488 -0.05456
-0.08767 0.18861 -0.26440
-0.06840 -0.08272 0.19816
0.14890 0.18861 0.39039
-0.11170 0.16214 -0.28920
-0.04822 0.18861 0.39383
0.02647 -0.04051 0.20434
-0.18136 0.16598 0.39707
0.06215 0.16214 0.26280
-0.08349 -0.18861 0.20609
0.10163 -0.18861 -0.22393
-0.03297 0.16214 0.03357
-0.18098 0.16214 -0.16010
-0.10984 0.16214 -0.15331
0.17405 0.16214 0.00753
-0.11912 -0.14177 0.21680
0.14137 0.16214 0.27132
0.04662 0.12821 0.18530
-0.13057 0.18861 -0.13437
0.04779 0.16214 0.26224
0.11912 -0.03404 0.19229
-0.11328 0.18861 0.15100
-0.06797 -0.02199 -0.22501
0.14717 0.16214 -0.37710
-0.20474 0.18861 -0.39292
0.03712 0.13101 -0.04967
-0.02201 -0.13567 0.17766
0.06618 0.05563 -0.20437
-0.07721 -0.04606 0.17206
-0.08800 0.16214 0.12660
-0.01736 -0.04564 -0.19192
0.15481 0.18861 -0.04306
-0.00837 -0.13567 -0.02130
-0.01324 0.13654 0.04997
0.02840 0.10258 0.07196
0.10450 0.18861 0.01200
0.00134 0.18861 -0.11492
0.06618 -0.03376 -0.20408
0.23824 0.18082 -0.16072
0.07308 -0.13567 -0.06338
-0.01324 -0.10302 -0.04468
-0.02179 -0.05241 0.19192
0.07207 -0.13567 0.07012
0.11019 0.01976 -0.17206
0.21348 0.18861 0.37756
0.17671 0.18861 0.07579
-0.07519 -0.10219 -0.22501
0.09111 -0.00272 0.17206
0.20973 0.18475 -0.39707
-0.06618 -0.16906 -0.22107
-0.05844 0.07137 0.17030
0.06618 -0.16465 -0.21295
0.08221 0.18861 -0.18592
-0.05579 -0.08568 -0.21177
-0.12533 0.18861 0.24751
0.04452 0.15863 -0.22501
-0.04564 0.18861 0.17490
0.05995 0.13567 0.24348
-0.03125 -0.10148 0.04203
-0.07530 -0.02942 0.22501
0.10076 0.18861 0.09507
-0.10491 0.12492 -0.22501
0.01411 -0.13567 0.13468
-0.02693 0.18861 -0.36057
-0.13862 0.18861 0.35984
-0.23824 0.16432 -0.02222
-0.19997 0.16214 0.18013
-0.01324 0.12240 -0.07206
0.13592 0.16214 0.17264
0.02220 0.18861 -0.01356
0.05064 -0.09846 0.18530
0.07625 -0.11110 -0.17206
0.00074 0.18861 -0.03029
0.21586 0.16214 0.31464
0.02412 -0.08289 -0.08716
-0.09207 0.16214 0.33880
0.23824 0.18722 -0.02815
-0.07462 0.18861 -0.30111
0.08443 0.18861 -0.30693
-0.06313 0.07723 0.19586
0.08740 0.16214 -0.00402
-0.01713 0.16214 0.18089
-0.07977 0.16214 0.21915
-0.01394 -0.00528 -0.19192
-0.01285 0.11284 -0.08372
-0.06618 -0.07925 -0.19404
-0.04152 0.14618 0.10656
-0.11557 0.01480 -0.17206
0.20039 0.16214 0.24726
-0.23312 0.18861 0.15624
-0.01324 0.14309 0.04096
-0.20192 0.18861 0.29220
0.06453 0.18861 -0.12579
-0.05151 0.15867 0.13245
-0.10955 0.02165 0.22501
0.11912 0.04426 0.18474
-0.08082 0.06475 0.17206
-0.00144 -0.12509 -0.21177
0.01324 0.13264 0.17968
-0.10614 0.18861 0.02709
-0.21845 0.18861 -0.04104
0.06686 0.02885 -0.22501
0.13867 0.16214 -0.14818
0.06209 -0.13567 -0.05176
0.06773 -0.13567 -0.14089
-0.17264 0.18861 0.03453
0.06918 -0.13567 -0.09235
0.10938 0.09040 0.22501
-0.00573 0.15552 0.14506
-0.18696 0.16214 0.17316
0.11861 0.16214 -0.36740
0.16818 0.18861 0.18514
0.11912 -0.16763 0.19104
-0.02298 -0.08272 0.15069
0.06138 0.18861 0.28328
-0.18965 0.18861 0.31828
0.14471 0.16214 0.31574
-0.23070 0.18861 -0.35084
-0.00903 0.16214 0.07079
0.11084 0.16214 -0.15022
-0.11748 0.14058 0.17206
0.12361 0.18861 0.35389
-0.07087 0.18861 0.30585
0.01226 0.16214 -0.11719
-0.07680 0.16214 -0.26403
-0.11912 0.08695 0.17552
0.03057 0.16214 0.13426
-0.08013 0.16214 -0.36271
0.03402 -0.11948 -0.03516
0.04883 0.16214 0.17259
0.08921 -0.05915 0.22501
-0.02647 0.06126 -0.19578
-0.01324 0.14035 -0.10945
0.01283 0.16214 0.01921
0.14907 0.16214 -0.33054
-0.11912 0.10644 -0.18782
0.10386 0.18861 0.27569
0.15824 0.18861 0.33691
0.09813 0.18861 0.31510
0.05824 -0.13567 0.04908
0.04679 -0.10709 -0.09017
0.05581 0.16214 -0.35258
-0.06803 -0.10234 0.12786
0.23472 0.16214 0.10862
-0.03251 0.16214 0.06226
-0.06058 -0.12017 0.11048
-0.10194 0.16035 0.25148
-0.01280 0.01649 0.20515
0.01241 0.18861 0.00348
-0.05234 -0.11530 -0.18530
-0.07708 0.18861 0.02458
0.01915 0.11692 -0.21177
0.06001 0.13346 -0.21177
0.08304 0.12470 0.18530
-0.06618 0.00120 -0.17404
-0.09178 -0.10439 -0.17206
-0.04983 -0.12374 0.08539
-0.06955 0.03710 0.17206
-0.02343 0.18861 -0.32453
-0.23824 0.18860 0.36337
0.19405 0.18861 0.02697
0.00612 -0.07743 -0.19192
0.06618 0.11644 0.19902
0.03476 0.15444 0.22501
-0.09256 -0.09683 0.18510
0.05639 0.12876 -0.15887
-0.16933 0.16214 0.31498
0.04209 -0.12107 0.21177
-0.04947 0.11705 0.13518
0.08289 0.16555 0.39707
0.13341 0.18861 0.05814
0.09201 0.16214 0.27386
-0.07304 0.18861 -0.19810
-0.06815 0.18861 -0.23140
0.01812 0.12066 0.03896
0.08133 -0.13438 0.18530
-0.23240 0.18861 0.31679
-0.04943 0.15552 0.20975
0.10482 -0.12007 0.22501
0.09395 0.16214 0.29064
0.05091 0.12334 -0.11405
-0.09248 -0.18861 0.21603
0.17504 0.16214 -0.08223
0.11912 0.07610 0.22394
0.15952 0.16214 0.14966
0.06618 -0.03054 0.21912
-0.06652 0.17660 -0.39707
-0.00532 0.15552 0.13254
0.04947 -0.08312 -0.10013
0.07658 0.18861 0.21174
-0.18591 0.18861 0.15403
0.17075 0.18861 0.13035
-0.14113 0.18861 -0.11599
0.00028 -0.13567 0.16771
0.09785 0.16214 0.08694
0.00572 0.10398 -0.01824
-0.01147 -0.10056 0.17704
-0.00946 0.09028 -0.20515
-0.01072 0.05095 0.20515
0.06814 0.18861 0.33932
-0.23824 0.16814 0.37126
-0.00493 -0.13567 0.15740
-0.06618 0.11899 -0.22497
0.03262 0.16214 0.34909
0.04998 0.18861 0.24984
0.10794 0.18861 0.11535
0.03558 0.16214 0.14379
0.05526 -0.10912 0.21177
-0.03669 0.16214 0.12322
-0.01423 0.18861 -0.06730
-0.00540 0.16214 -0.31368
-0.15542 0.18861 -0.27920
0.06618 0.06510 0.17575
-0.09357 0.18861 -0.05852
0.02835 0.18861 -0.30297
-0.09510 -0.12603 -0.17206
0.06618 0.13828 0.18201
0.06262 0.11479 -0.17463
-0.03666 0.12690 0.12321
-0.07753 0.18861 0.11327
0.12607 0.18861 -0.39068
0.05929 0.10199 -0.16588
0.09813 0.16214 0.12571
-0.18983 0.18861 0.13110
0.04668 -0.13567 0.15682
0.01705 0.10258 -0.00295
-0.01531 0.08630 0.20515
0.05559 0.12562 0.18530
-0.00127 0.18861 0.15626
0.06040 0.18861 0.39561
0.14791 0.16214 -0.16011
0.12389 0.16214 -0.19945
-0.04490 -0.11481 0.07388
-0.15883 0.16214 0.19972
0.00801 0.18861 -0.06837
0.10373 0.18861 -0.26506
-0.08687 -0.09017 0.17181
-0.07652 0.16214 0.02218
-0.00679 -0.13567 0.16767
-0.03495 0.18861 -0.38071
-0.23824 0.18596 -0.05027
0.04674 0.18861 0.06713
0.09131 -0.16450 -0.17206
-0.02560 0.13004 0.06555
-0.12105 0.16214 0.32497
0.04705 0.16214 0.35440
0.01080 0.10258 0.11503
-0.06618 -0.17337 -0.18760
0.02647 0.02670 -0.20149
0.23188 0.16214 -0.04711
0.13714 0.16214 -0.29469
-0.18007 0.16214 0.15941
0.07512 -0.13567 -0.03473
-0.08112 0.03906 -0.17206
0.04669 0.14319 0.21177
0.22113 0.18861 0.25205
-0.03550 0.16214 -0.38736
-0.09642 0.16214 0.02173
-0.11006 0.16214 -0.05013
0.08901 -0.18793 -0.17206
-0.07489 0.18861 0.25782
0.12044 0.18861 0.23992
-0.05053 0.16214 0.36472
-0.14488 0.18861 0.23796
0.06134 0.16214 -0.32608
0.11912 -0.07646 -0.20299
-0.11341 0.16214 0.15381
-0.10128 -0.18202 -0.22501
0.01188 0.11020 0.07070
0.07428 0.08908 0.22501
-0.11704 0.09493 -0.17206
0.03839 -0.12770 -0.05562
0.15899 0.16214 -0.26064
-0.01286 -0.08823 -0.00087
0.07088 -0.13567 -0.03959
-0.04778 0.18861 -0.18397
-0.00046 0.15552 0.17975
-0.17337 0.18861 0.21038
0.11912 -0.09812 -0.21274
-0.00499 -0.11806 -0.01924
-0.03615 0.08911 0.10403
0.02179 0.16214 0.31904
-0.13821 0.16214 0.32835
-0.07487 0.18861 -0.34898
0.02471 0.15552 -0.01942
-0.10018 0.16214 0.29795
-0.07756 -0.13567 0.18713
0.22031 0.18861 -0.18865
0.12360 0.16214 0.29143
0.05838 -0.13567 -0.07346
-0.03439 0.18861 -0.31858
0.01840 0.18861 0.22907
0.06366 0.18861 0.14786
0.11912 -0.17904 -0.17918
-0.02647 0.03595 -0.19470
0.03180 0.16214 -0.16510
0.04288 0.05042 0.19533
-0.01764 -0.10761 -0.21177
-0.00414 -0.06037 -0.19192
0.16559 0.18861 0.34502
0.04082 0.16214 -0.11332
0.05034 -0.09228 -0.10759
0.11912 -0.17600 -0.20531
0.00831 -0.13567 -0.20647
0.06184 0.14363 -0.16504
0.03822 0.18861 -0.27047
-0.04614 0.16214 -0.13128
0.21949 0.18861 -0.22994
0.08368 0.06816 -0.17206
-0.20573 0.18861 0.10314
-0.00847 -0.13567 -0.20969
0.00722 -0.13567 -0.02338
0.06618 0.04917 0.22230
0.01324 0.13652 0.11020
-0.01654 -0.13567 0.14746
-0.10291 0.18861 0.05844
-0.11479 -0.12859 -0.17206
0.00588 0.15552 -0.09090
-0.02647 -0.05216 0.19679
-0.17992 0.16214 0.36864
-0.01497 0.16214 0.01155
-0.11912 -0.10287 -0.21421
0.20346 0.18861 -0.22719
-0.06531 -0.08272 0.16562
-0.05852 0.14205 0.22501
0.01324 -0.09804 -0.14562
0.11159 -0.03089 0.22501
0.01046 0.10788 -0.18196
0.06028 0.18861 -0.14863
-0.04741 0.18861 0.12617
-0.11912 0.00595 -0.22017
0.05164 -0.13567 0.07557
-0.00843 -0.13010 -0.21177
-0.07522 0.18861 -0.04912
-0.08280 0.16214 -0.06275
0.09337 0.18861 -0.03666
0.05957 0.15552 -0.20212
0.06206 -0.13567 -0.09176
0.23824 0.16717 0.18924
-0.09397 0.09843 0.22501
0.07262 0.06866 0.22501
0.16673 0.18861 -0.20238
0.09335 -0.08883 0.22501
-0.01324 0.15471 -0.04156
0.02597 0.00747 0.19192
0.05331 0.18861 0.16911
-0.00466 0.14261 0.02722
0.04390 0.18861 0.08969
0.03719 0.10581 0.21177
0.02225 0.18861 0.36667
-0.20458 0.18861 0.32864
-0.05507 0.10258 -0.20486
0.18132 0.16214 -0.02183
0.11912 -0.03921 -0.18460
-0.21983 0.18861 -0.18885
0.09631 0.01027 -0.17206
-0.01485 0.18861 -0.16282
-0.13795 0.18861 0.25781
-0.00349 -0.12029 -0.02273
0.05573 0.16214 0.19678
0.11912 -0.14956 -0.18537
-0.05282 0.16214 -0.21625
-0.21590 0.18861 0.14769
0.07117 0.18861 0.03699
-0.16648 0.16214 0.22651
0.07237 0.18861 0.24355
-0.08433 0.18861 0.28943
0.00704 0.14466 0.22501
-0.11912 -0.06320 0.22235
-0.05471 0.18861 -0.02278
0.03061 0.09418 -0.08083
0.19185 0.16214 0.28506
-0.02017 0.07669 0.06201
0.22699 0.16214 -0.17416
0.00489 -0.08378 0.20619
-0.17179 0.18861 -0.20560
0.11393 -0.13411 0.22501
0.23824 0.16245 -0.18256
0.04189 0.10258 0.03114
0.01985 0.09426 -0.20515
-0.06330 0.18861 0.03874
-0.11847 -0.18861 0.22123
0.08888 0.16214 0.21302
0.12571 0.16214 -0.04179
0.06960 0.18861 0.01068
-0.01682 0.18861 0.32382
-0.11912 0.00318 0.21030
0.12979 0.18861 0.35228
-0.22806 0.16214 0.16685
-0.22059 0.16214 -0.03509
-0.07140 -0.10666 0.13571
-0.08755 0.11213 0.17206
-0.00924 0.18861 -0.00112
-0.06618 0.02481 0.19079
-0.19766 0.16214 -0.04995
-0.11080 -0.10688 -0.17206
-0.11912 -0.00634 0.18798
-0.03620 0.18861 -0.08373
0.00201 0.10284 0.00544
0.04089 -0.11796 -0.06122
0.23721 0.16214 0.20873
-0.05179 0.16214 -0.19318
0.11912 0.04942 0.17504
-0.23824 0.18041 -0.06566
0.09745 0.18861 -0.35427
0.07358 0.15552 0.21028
-0.01216 -0.08272 0.11170
-0.06884 0.16214 -0.14657
0.08681 -0.10495 0.21177
-0.03918 0.16214 0.21455
-0.12556 0.18861 -0.27631
0.21721 0.18532 0.39707
0.06942 -0.01387 -0.22501
-0.15450 0.16214 -0.01489
-0.21842 0.18861 0.14207
-0.21769 0.18861 -0.38574
-0.00764 0.15552 -0.03742
0.01324 0.13890 0.11631
0.06181 -0.13413 0.18530
0.06404 -0.12891 0.21177
-0.12285 0.16214 0.08631
0.00758 0.11307 -0.00951
0.02556 0.11092 -0.21177
-0.22336 0.16214 0.17558
0.19259 0.16214 -0.26124
-0.17048 0.16214 -0.35973
0.06618 -0.10539 -0.22447
-0.04100 0.15615 0.22501
-0.23148 0.18861 0.13741
-0.05811 0.16214 0.14980
0.08238 0.16214 0.35303
-0.04203 0.16214 -0.05970
0.11844 0.02292 0.17206
-0.12337 0.15981 -0.25148
-0.00757 0.18861 -0.24085
-0.02268 0.10970 -0.18530
0.05866 0.18861 0.26576
0.10233 0.16214 0.12300
0.06348 0.16214 0.15524
0.05218 0.11281 -0.11997
0.11912 0.13353 0.20569
-0.11546 0.16214 -0.37295
-0.01324 0.11819 -0.04213
0.18192 0.16214 -0.32093
-0.10326 0.18861 -0.10134
0.05446 -0.09365 -0.18530
0.02037 0.10258 0.18570
0.22159 0.16214 -0.23276
0.05312 0.11599 -0.15004
0.21800 0.18861 0.18619
0.13916 0.18861 -0.19112
-0.11912 -0.11475 0.17275
-0.23824 0.17740 -0.26355
-0.09999 -0.10174 -0.22501
0.04567 -0.08272 -0.07545
-0.13008 0.18861 -0.10797
0.09248 0.18861 0.34748
-0.02190 -0.12983 0.21177
0.06758 0.16214 -0.30067
0.03023 -0.10888 -0.21177
-0.06828 0.13567 0.24808
0.23681 0.16214 -0.18915
-0.04233 0.11593 0.11545
0.01272 -0.09239 0.19409
-0.07021 0.16214 0.39416
0.21724 0.18861 0.26059
0.09968 0.18861 -0.31167
0.02567 -0.13567 0.07866
0.07201 0.01195 0.22501
-0.03558 0.18861 0.38394
0.03594 0.10258 0.04083
0.00948 -0.08676 0.00632
-0.18983 0.18861 -0.01082
-0.21599 0.16214 -0.19838
0.03689 0.10762 -0.18530
0.11300 -0.08557 -0.17206
-0.02856 0.18861 -0.12968
-0.12803 0.18861 0.11676
-0.01324 0.15045 0.03171
0.06618 0.06346 -0.19033
-0.01055 0.15552 0.12809
0.04867 0.16214 0.32638
-0.20003 0.18861 0.13881
0.13588 0.16214 0.26340
-0.07498 0.16214 0.05553
0.00024 0.18861 -0.31258
0.01324 -0.10618 0.12418
0.06523 0.16214 -0.04509
0.11130 -0.15515 0.22501
0.13788 0.18861 0.10198
0.01291 -0.09344 0.18129
0.00223 0.14133 0.00654
0.04776 0.18861 0.31502
0.10874 -0.01647 -0.17206
0.01415 0.10868 0.05963
-0.17164 0.16214 -0.37258
-0.11402 0.18861 0.28368
-0.09186 -0.01595 -0.17206
-0.11657 0.13454 0.17206
-0.04255 0.06822 0.13171
-0.05337 0.18861 0.23404
-0.23824 0.16573 -0.05177
0.09405 0.16214 -0.36174
-0.19920 0.16214 -0.11613
0.19229 0.18861 -0.03174
-0.00221 0.10287 0.07750
-0.21989 0.16214 0.23566
-0.11912 -0.11762 0.19958
0.01324 0.13297 -0.00313
-0.16469 0.16214 -0.25117
0.11598 -0.12901 -0.22501
0.06461 0.18861 -0.39194
0.17545 0.16214 0.32329
-0.13810 0.15342 0.25148
-0.02225 -0.08272 0.03979
0.09265 0.14077 0.19583
-0.21052 0.16214 -0.26130
-0.11919 0.18861 0.29778
0.19598 0.16214 0.18808
-0.00038 -0.13567 0.04109
-0.11912 -0.15848 -0.18014
-0.01324 0.12641 -0.03902
-0.06426 0.06516 0.19605
0.01910 0.02528 0.20515
0.02192 0.16214 0.09286
0.00545 0.13311 -0.02133
-0.09895 0.08380 0.17206
0.01324 0.12862 0.01472
-0.02950 -0.08272 0.19814
-0.23256 0.16214 -0.32879
-0.06941 -0.00539 0.22501
0.02635 0.11153 0.00058
0.11687 0.16214 0.27015
0.22704 0.18861 -0.07332
-0.20652 0.18436 -0.39707
-0.19321 0.16214 -0.00258
-0.23500 0.16214 0.22277
-0.04192 0.15580 -0.22501
0.06618 -0.10593 0.19994
0.21252 0.16214 0.04032
-0.19704 0.16214 0.21993
0.18692 0.16214 -0.27755
-0.11912 -0.07917 0.20424
-0.10330 0.16214 0.08231
-0.07619 0.14824 0.24158
0.03301 -0.10868 -0.02257
-0.11912 -0.03880 0.18291
0.01401 -0.13567 0.11049
0.14802 0.18861 -0.24565
0.03558 -0.11231 0.21177
0.23824 0.17687 0.01169
0.03926 0.12082 -0.11261
0.02216 -0.06139 -0.19192
0.06618 -0.15468 -0.18914
-0.05428 0.08453 0.17126
-0.06070 0.18861 -0.10489
0.20550 0.18861 0.23285
0.19048 0.18861 0.22807
-0.10934 -0.08219 0.22501
-0.17428 0.18861 0.34033
-0.19984 0.18861 0.24737
-0.12904 0.16214 -0.07958
0.00576 0.16214 -0.28438
0.04147 -0.13567 0.02874
-0.04831 0.18861 0.04737
0.04797 0.12644 -0.10031
-0.13069 0.18861 -0.20004
0.11341 0.18861 0.06418
0.01664 -0.11790 0.04586
-0.06618 -0.17921 -0.17819
-0.01417 0.06184 -0.19192
-0.09017 0.16214 0.21897
-0.02248 0.13567 0.23253
0.16100 0.18861 -0.33092
-0.00673 0.10443 -0.03600
-0.09094 -0.04750 0.17206
-0.05813 0.16214 0.01621
0.06618 -0.12641 0.18372
0.20933 0.16214 -0.23698
0.06618 -0.09230 -0.19613
0.19212 0.18861 0.33885
0.03448 0.16214 0.02908
0.19977 0.18861 -0.18881
-0.06618 0.02040 0.18388
-0.04806 0.16214 -0.20355
0.09429 0.16214 -0.21998
0.00624 0.16214 0.37911
-0.01320 0.15552 0.14763
0.20086 0.16214 0.22574
0.02647 0.04505 -0.19862
0.04367 0.16214 -0.04981
-0.09115 0.16214 -0.03425
-0.14567 0.16214 -0.35396
-0.21824 0.18861 0.07539
0.04795 0.18861 -0.34240
-0.06618 -0.14000 0.21042
-0.14177 0.16214 -0.37968
0.12073 0.15654 -0.25148
-0.23824 0.17324 -0.00858
0.04435 0.13567 0.25120
0.06532 -0.13567 0.09519
-0.00449 0.09181 0.20515
-0.18615 0.18861 -0.36605
0.05602 0.18861 0.27526
0.04604 0.05226 -0.19657
0.01261 0.11197 0.17785
-0.15470 0.16214 -0.17841
-0.19268 0.18861 0.17586
-0.07742 0.08949 -0.17206
0.16440 0.16214 0.36340
0.00262 -0.08307 0.06654
-0.20810 0.18861 0.22017
-0.11912 0.15349 -0.22305
-0.01324 0.12199 -0.01376
-0.11912 -0.18105 0.17748
-0.10841 0.18861 -0.09043
-0.14497 0.18861 -0.03062
0.00020 -0.13567 -0.12614
-0.17640 0.18861 0.32549
-0.01324 -0.09926 -0.07558
-0.12771 0.14847 -0.25148
-0.00877 0.12815 0.03954
-0.07792 0.01004 -0.17206
0.01324 0.14725 0.03393
-0.20816 0.18861 0.04191
-0.06618 -0.04834 -0.17419
0.23824 0.16247 -0.39414
0.11912 0.07138 0.21825
0.11151 0.16214 -0.13875
0.11708 0.08988 -0.22501
0.11769 -0.18861 -0.17444
0.17101 0.18861 -0.04990
-0.09740 -0.18566 -0.22501
-0.08612 0.03672 -0.22501
0.02926 0.16214 -0.10358
0.06805 0.14403 0.22501
0.04025 0.10258 -0.20097
-0.19048 0.16214 0.32940
0.17551 0.16214 0.10501
0.03260 0.13929 -0.09463
0.18073 0.16214 0.29419
0.23289 0.16214 0.29463
0.06618 -0.14267 -0.18708
-0.07695 0.00039 0.22501
-0.02647 -0.07602 0.20155
0.08506 -0.13567 0.17254
-0.07019 0.18861 0.35757
-0.05042 0.08754 0.14430
-0.18321 0.18861 0.27890
-0.17369 0.18861 -0.27465
-0.02324 0.15999 0.06483
-0.01718 0.04581 0.20515
-0.11323 0.09327 0.22501
0.07815 -0.13056 -0.17206
-0.21338 0.18861 -0.37824
-0.15868 0.18861 0.18692
-0.05034 0.15552 0.17723
-0.00104 -0.08286 -0.15965
0.01324 -0.13476 0.16763
0.23150 0.16214 -0.06149
-0.13112 0.18861 -0.33400
0.07705 -0.18861 0.21410
-0.23383 0.16214 -0.38166
0.17560 0.16214 0.29995
-0.18773 0.16214 0.29789
0.01324 -0.12230 -0.06354
0.06618 -0.07564 0.20216
-0.09522 0.18861 0.04929
-0.01324 0.12464 -0.11000
0.00443 -0.11064 0.21177
-0.07813 -0.18861 -0.17652
0.11598 0.18861 0.12092
-0.23824 0.18514 -0.02601
0.08447 -0.12811 0.21177
-0.23824 0.17832 0.11812
0.00379 0.05497 -0.20515
-0.11912 0.09333 -0.18381
0.22728 0.16214 -0.03888
0.02135 0.08746 0.20515
-0.09455 0.00516 0.22501
-0.04873 0.18861 0.14016
-0.00292 -0.08778 0.15373
0.11666 -0.13931 -0.17206
0.06618 0.06166 -0.22021
0.11912 0.12904 0.20753
0.00391 -0.13567 0.14596
0.01303 0.11423 -0.14850
-0.00085 -0.04693 -0.20515
-0.10388 0.16214 -0.27073
-0.01324 0.13963 -0.09157
0.01306 0.18539 0.39707
0.02587 0.16214 -0.35044
-0.06885 0.18861 -0.39609
0.16103 0.16214 -0.00876
0.15916 0.18861 -0.12694
0.11912 0.06024 0.20316
-0.12775 0.18861 -0.37811
0.03747 0.18861 -0.12975
-0.00346 0.10304 -0.15423
-0.06618 -0.06072 -0.17990
0.02878 0.10582 -0.18530
-0.23824 0.18376 0.21167
0.11633 0.14341 0.22501
0.23824 0.18248 -0.25684
0.11595 0.18861 0.14531
-0.07792 0.16214 0.29156
-0.07185 -0.13333 -0.17206
0.23824 0.17646 -0.37816
-0.03525 0.10258 -0.19109
0.06778 0.18861 0.01964
0.11588 0.16214 -0.27713
0.04629 0.18861 0.37668
-0.17635 0.16214 -0.29420
0.06718 0.07566 0.22501
-0.18281 0.16214 0.36287
0.01037 -0.13567 0.08624
0.08937 -0.05787 0.17206
-0.00362 0.18861 0.11497
0.02104 -0.12491 0.18530
-0.23338 0.18861 0.21429
-0.16576 0.16214 0.02417
-0.07627 -0.13567 0.15255
-0.13903 0.16390 -0.39707
0.01936 0.16214 -0.21142
-0.17378 0.16214 -0.08445
0.23216 0.16214 0.11283
0.02107 0.18861 -0.27350
0.00802 0.16214 -0.34954
-0.15517 0.16214 -0.21053
-0.06066 0.09970 0.17031
-0.17462 0.18678 -0.39707
0.06111 0.16214 -0.33378
-0.03012 0.09196 0.10077
0.01240 0.10258 0.12046
-0.01324 -0.11308 -0.13793
-0.23824 0.16824 0.29547
0.11547 -0.07353 0.22501
-0.01324 0.12507 0.09645
0.09265 -0.12515 0.19994
0.06618 0.07329 0.21030
0.06375 0.16214 0.11559
0.02710 0.10258 0.14869
-0.12653 0.18861 -0.24613
-0.12379 0.16214 -0.38050
0.07505 0.05260 0.17206
0.11396 -0.17801 -0.17206
-0.10995 0.16214 0.33856
-0.20936 0.18861 -0.03533
0.06636 0.18861 0.22807
-0.01072 0.15026 0.17354
-0.00415 -0.09500 0.14833
0.13045 0.16214 -0.15746
0.06431 0.18861 0.33486
-0.06370 0.09481 0.17988
-0.01324 0.11589 0.05337
-0.16154 0.18861 0.00987
-0.01324 -0.09949 0.11449
-0.00503 -0.13567 0.11246
0.01324 -0.09863 -0.08601
0.06659 0.00910 -0.17206
0.22659 0.18861 0.11636
-0.00975 -0.13567 0.12383
-0.23824 0.17933 -0.22725
-0.00723 0.06314 0.20515
0.09337 0.16214 0.09653
-0.11165 0.18861 -0.03403
0.05617 0.13771 -0.25148
0.15995 0.18861 0.05857
0.11912 0.16214 0.28573
0.01324 -0.10906 0.15845
0.02765 0.15311 0.25148
-0.23824 0.17695 -0.05971
-0.05702 0.16214 0.18609
-0.11912 -0.02491 0.19967
-0.01324 -0.12210 0.10770
0.01139 -0.08303 0.10845
0.02476 -0.13567 0.19705
-0.01149 0.18861 -0.35855
0.13545 0.16967 -0.39707
0.01336 -0.13207 -0.21177
-0.18627 0.18861 -0.16398
0.14319 0.14650 -0.24352
-0.05787 -0.13274 0.21177
-0.00254 0.18861 0.04916
0.09029 -0.09798 -0.17206
0.04288 0.10391 -0.18530
0.00637 -0.13567 -0.10485
0.04728 0.15552 -0.19451
0.06429 0.18861 -0.01532
0.17502 0.18861 -0.19585
-0.00730 0.10824 -0.18530
0.01293 -0.09361 0.12056
-0.07023 -0.15820 0.22501
-0.05251 0.18861 0.25399
-0.07247 0.18861 0.14756
0.02842 -0.10378 -0.09721
0.05547 0.16214 -0.13083
0.06846 0.16214 -0.21235
0.17818 0.16214 0.16351
-0.05866 0.16214 -0.33814
0.22661 0.18861 0.03358
0.14145 0.18861 -0.15135
0.18120 0.16214 0.34094
-0.01977 0.14238 -0.21177
0.01219 0.16214 -0.27952
-0.07786 0.13567 -0.23885
-0.13960 0.18861 0.01802
-0.01324 -0.11012 -0.05208
-0.11912 0.06774 0.21015
-0.04828 0.18861 0.08808
-0.05919 0.18250 0.39707
-0.04405 0.18861 0.21009
0.08891 0.13350 0.22501
0.01615 0.16214 0.27418
0.06899 0.15776 -0.22501
0.14315 0.18861 0.09348
0.23824 0.17938 0.37402
0.02647 -0.06332 -0.19650
-0.03986 -0.10478 0.21177
0.11335 0.13567 -0.24428
0.06478 0.18861 0.11545
0.18166 0.16214 -0.16873
-0.22605 0.18861 0.24279
-0.11912 0.04816 0.20556
-0.09997 -0.11760 0.22501
0.08846 0.07303 -0.22501
-0.03802 0.18861 0.21220
0.06228 0.10258 -0.15915
-0.07729 0.18861 0.27881
-0.23824 0.16861 -0.12904
-0.00819 0.16214 0.19524
0.01833 0.16214 0.33113
-0.13122 0.18861 -0.34228
-0.10871 0.16214 0.03599
-0.14505 0.16214 -0.20409
0.05591 0.16214 0.26955
-0.01107 0.15240 0.25148
-0.14834 0.16214 -0.24882
0.06618 0.00168 0.21642
-0.14512 0.16214 -0.10494
-0.19395 0.18861 -0.09922
0.03010 0.10258 0.14175
0.00864 0.10590 0.00663
-0.10506 -0.02914 -0.17206
0.09159 0.18861 -0.12992
-0.08513 0.03363 -0.17206
0.03533 0.18861 -0.33944
-0.11912 0.15036 -0.17828
0.06618 -0.04950 0.20771
-0.01019 0.18861 0.12226
0.06618 0.14778 -0.21731
0.13965 0.14296 0.23162
0.06618 -0.06813 -0.20521
-0.01251 -0.13567 -0.20474
0.17386 0.16214 -0.00750
0.01324 -0.12390 0.08896
0.11912 -0.06172 0.19233
0.05257 -0.09132 -0.11855
-0.11912 0.15914 -0.18823
0.11437 -0.02159 0.22501
0.18365 0.16214 -0.04030
-0.00081 -0.13567 0.11705
0.07148 -0.13567 0.10848
0.23824 0.16448 -0.24272
0.00425 0.12039 0.00049
-0.13553 0.16214 0.27963
-0.05031 0.16214 -0.00432
0.16213 0.16214 -0.22206
0.06618 -0.11415 0.19223
-0.01924 0.18861 -0.05365
0.21171 0.16214 -0.06107
-0.09001 0.18861 -0.29098
0.01369 0.14567 -0.04358
-0.15170 0.16214 0.29580
0.15084 0.18861 0.08663
-0.15872 0.16214 0.18508
0.17643 0.18861 -0.11173
0.20560 0.18861 0.23875
-0.15161 0.16214 0.00369
-0.00250 -0.06926 -0.20515
-0.10622 0.18861 -0.19183
-0.07297 -0.16788 0.17206
0.07019 0.16214 -0.11250
-0.06483 0.18861 -0.03461
0.03973 0.15215 -0.06188
0.03936 -0.13567 0.05624
0.05201 0.18861 0.12522
-0.10694 0.16214 -0.13657
0.04785 0.12366 -0.13581
-0.04286 -0.08272 0.19177
0.05658 0.16214 0.13423
0.09856 0.03369 0.22501
0.08821 -0.10590 -0.22501
-0.10603 0.18861 0.33335
0.11912 -0.08677 -0.21246
-0.08862 -0.00946 0.22501
-0.06297 0.05092 -0.20155
0.09803 0.18861 0.20783
0.11912 -0.01118 -0.17407
0.02503 -0.12171 0.00675
0.06145 0.16214 0.04874
0.22459 0.18861 -0.34541
0.20037 0.16214 0.32679
0.18035 0.18861 -0.06505
0.05486 0.15552 -0.13825
0.12281 0.16214 -0.08946
-0.04170 0.16214 0.33060
-0.23498 0.16214 -0.16021
0.00327 -0.08332 0.14716
0.06948 0.16214 0.38386
-0.06618 -0.16265 0.19942
0.04186 0.11092 -0.07181
0.20196 0.16214 -0.13508
-0.00601 0.15433 -0.25148
0.11912 0.12828 -0.17530
-0.11912 -0.01476 0.21617
0.04618 0.13574 -0.12532
0.06733 -0.13567 -0.02325
-0.06618 0.09806 0.17803
0.03735 0.14031 -0.22501
0.06218 -0.11674 -0.17597
-0.16255 0.18861 -0.36257
-0.09204 0.11722 -0.22501
0.14453 0.18861 0.10946
0.05179 0.16214 0.05534
0.02785 0.12540 -0.07032
-0.21922 0.16214 0.25134
0.01129 -0.08272 0.05479
0.00439 -0.13567 -0.00047
0.00618 0.10408 -0.00531
0.00390 0.12375 -0.21177
0.10446 0.06666 -0.22501
0.20031 0.18861 0.02434
-0.01324 -0.09875 -0.01954
0.11072 0.16214 0.00264
0.21095 0.18861 0.06360
-0.02647 -0.06948 0.20389
0.07480 0.16214 0.16296
-0.15513 0.16214 0.35546
0.02990 0.10258 0.07786
0.01324 0.11982 -0.05687
0.06618 0.01976 -0.18919
-0.22858 0.16214 -0.23128
0.06618 -0.09828 -0.18655
-0.03887 0.14131 0.10020
0.07986 0.18861 0.28649
0.09905 -0.02863 -0.22501
0.23824 0.18143 0.02449
0.09269 0.16214 -0.11580
0.13053 0.18861 0.15635
0.17127 0.16214 0.29300
-0.11912 0.12110 -0.19309
0.06618 -0.11327 0.21720
0.00392 0.10065 -0.01064
0.02747 0.18861 -0.15071
-0.02337 0.06959 0.07455
-0.23824 0.17538 0.23528
-0.11912 0.07804 0.18910
0.00708 -0.08272 0.08619
-0.15427 0.16214 0.06257
-0.13895 0.16214 0.33826
-0.13631 0.18861 -0.25928
0.03190 0.04754 -0.19601
-0.02485 0.10641 0.08779
-0.00630 0.12140 0.01342
-0.10703 -0.09716 -0.22501
0.00448 -0.08272 -0.02845
0.01324 0.12130 0.08678
-0.03383 0.08287 0.09890
0.07374 0.16214 0.30020
0.20135 0.18861 -0.09316
-0.08383 0.12432 -0.22501
0.17683 0.18861 0.13364
-0.04996 -0.08272 0.20432
0.19528 0.17348 0.39707
-0.03434 0.14703 -0.25148
0.06618 -0.09624 -0.21044
0.07551 0.18861 -0.38304
0.08417 -0.07606 0.22501
0.01368 0.02345 0.19192
0.23824 0.16593 -0.12272
-0.09455 -0.04217 -0.22501
-0.04694 0.09727 0.15263
0.07608 0.18861 0.17247
0.14519 0.16214 0.08765
-0.06534 0.16214 -0.35877
-0.02066 0.08432 0.06173
0.05706 0.10554 -0.15793
0.11912 -0.15270 0.17927
0.01222 0.15822 -0.02469
-0.02079 0.15552 -0.21170
-0.10307 0.18861 0.21696
-0.07704 0.16214 -0.21077
-0.15974 0.16214 0.29924
-0.14784 0.18861 0.15341
0.06618 0.01521 0.20734
-0.10929 0.16214 0.30505
-0.17464 0.18861 -0.01353
-0.21310 0.16214 -0.07796
-0.05273 0.08525 0.15127
0.03687 0.18861 0.34602
0.01846 0.01348 -0.19192
-0.16058 0.18861 -0.36801
0.10637 0.18861 0.21465
-0.01324 0.15456 -0.16649
0.11912 0.06935 0.18550
0.16846 0.18861 0.01707
0.08058 0.16214 0.13319
-0.20110 0.16268 0.39707
0.04839 -0.13174 0.21177
0.06611 0.13664 -0.18512
-0.07302 -0.18800 0.22501
-0.06499 0.16214 0.20974
0.07212 0.18861 0.09040
0.01324 -0.09793 0.13667
-0.06618 0.06255 -0.18630
0.11912 -0.02009 0.19444
-0.01912 0.01889 -0.20515
-0.07460 -0.03398 0.22501
-0.20524 0.16214 0.04538
0.06708 0.02443 0.22501
0.01477 0.15552 0.20443
-0.04429 -0.08886 0.07245
0.16265 0.18861 0.08995
-0.01324 -0.13304 0.13402
-0.09667 0.14342 0.25148
-0.03908 0.16214 0.32446
-0.07413 -0.08272 0.16227
0.03161 0.18861 -0.25649
0.03807 0.16214 -0.08933
-0.06618 -0.15693 -0.17231
-0.07516 -0.13567 0.20711
-0.01818 -0.05429 -0.20515
0.03588 0.18861 0.04033
0.23327 0.16214 -0.27548
0.17322 0.18861 0.38352
0.03807 -0.03123 0.20149
0.01773 0.10258 -0.19011
-0.11912 -0.12843 -0.18731
0.02121 -0.09089 -0.08037
-0.09865 0.16214 0.37038
-0.06618 0.03554 -0.20750
-0.01469 -0.08272 0.11618
0.07421 -0.11090 0.17206
-0.00247 -0.13567 0.05897
0.11052 0.01739 -0.22501
0.01392 0.18861 -0.34673
-0.03274 0.14356 -0.21177
-0.16199 0.18861 0.37497
-0.03755 -0.12995 0.05672
-0.02038 0.10258 -0.18833
-0.11749 -0.00393 0.22501
-0.08470 -0.07975 0.17206
0.01722 0.12620 0.04316
0.01675 0.14479 0.22501
-0.00943 -0.02868 0.20163
-0.09276 0.07333 -0.22501
-0.00773 0.18861 0.02356
0.19973 0.18861 -0.08059
0.23824 0.17805 0.09247
0.04604 -0.13567 0.20812
-0.05266 0.16214 0.26453
-0.23824 0.16772 0.10401
0.22727 0.16214 -0.05619
-0.06638 -0.03091 0.17206
-0.01574 -0.13567 0.13178
0.01486 0.14291 0.25148
-0.05836 0.15763 0.15116
0.17160 0.16214 -0.06503
0.02064 0.16214 -0.17659
0.16104 0.17402 -0.39707
0.05527 0.15552 0.21062
0.13345 0.18861 0.01420
0.06709 0.16214 0.13775
-0.02647 -0.04683 -0.19947
0.01746 0.18861 0.33031
-0.07677 0.18861 -0.16729
-0.10917 -0.16482 0.22501
-0.06678 -0.18861 -0.19515
0.04295 0.13362 -0.07688
0.19057 0.18861 0.32053
0.03036 0.10258 0.01498
0.09519 0.18861 -0.04488
0.07109 -0.13567 0.19834
0.09405 0.16214 0.19737
-0.05566 0.16214 -0.15515
-0.09444 0.16214 0.06956
0.18058 0.18861 0.16794
-0.01182 0.00242 0.19192
-0.21921 0.18328 0.39707
-0.00438 -0.05325 -0.20515
-0.18381 0.18861 -0.05769
-0.19067 0.16214 0.36036
-0.06592 0.16214 0.11338
-0.10735 -0.06027 -0.17206
-0.13565 0.18861 -0.34196
-0.12781 0.18861 0.39538
-0.05074 0.07587 0.15833
-0.00826 0.13567 -0.22582
0.01806 0.18861 0.39015
-0.21267 0.16214 -0.02397
-0.03058 0.14450 -0.18530
-0.01324 0.12947 -0.06374
0.11912 0.05164 0.21568
0.00360 -0.08325 0.03660
0.06618 0.02847 0.19511
-0.04145 0.18861 -0.17484
0.01676 0.10975 0.04599
0.09490 -0.09875 0.22501
0.00333 0.15552 0.08655
0.02852 0.10084 -0.07279
0.07839 0.18861 0.16461
-0.11912 -0.10923 0.19991
-0.04387 0.10258 0.20647
-0.02731 -0.11943 0.03285
0.03713 -0.13567 0.11934
-0.07753 0.01801 0.17206
-0.05865 0.18861 -0.22272
0.06618 -0.05025 0.21562
0.05282 0.16214 0.28195
-0.01937 -0.11743 0.21177
0.02274 0.16214 -0.20775
-0.06618 -0.09051 0.20781
-0.09677 0.13278 0.22501
-0.00032 -0.13567 0.17949
0.06301 0.13499 0.18530
0.09265 0.11435 0.19728
0.06802 0.18861 -0.31697
-0.01324 -0.12571 -0.11933
0.01324 -0.10809 -0.09537
-0.16166 0.18861 -0.26114
-0.02351 0.13379 0.08376
0.11217 -0.13522 0.17206
-0.22248 0.16214 -0.19990
-0.06442 0.16214 0.25213
-0.06214 0.18861 -0.17941
-0.03982 0.06232 0.12017
0.01324 0.13780 0.07300
0.06618 -0.08562 -0.18749
-0.03571 0.16214 0.37453
-0.00253 -0.12546 0.13533
0.00826 0.15552 0.14682
0.09824 0.13567 -0.23346
0.20291 0.16214 0.20278
0.01760 -0.08272 -0.03663
0.11784 0.16214 0.13316
0.10499 0.15100 0.17206
-0.18180 0.18861 0.11013
0.13362 0.18861 0.19020
-0.22704 0.16214 -0.02807
-0.06109 -0.03198 0.19609
-0.01323 0.16193 -0.22501
-0.06618 -0.03577 -0.19828
0.13831 0.16214 0.30728
-0.08693 0.18861 -0.11085
-0.11912 -0.18365 -0.20611
-0.14877 0.18861 -0.08572
0.01310 0.15287 0.06238
-0.08860 -0.08069 0.22501
-0.23824 0.17941 0.04665
-0.11798 0.16214 0.03222
0.02826 -0.12261 -0.00835
0.15910 0.16214 -0.00407
0.23262 0.17786 0.39707
0.06168 -0.13567 -0.08235
-0.03426 0.14078 0.11601
0.10970 0.18861 -0.15953
-0.05443 0.16214 -0.03802
0.05206 0.10343 -0.14295
-0.01087 -0.00909 0.19192
0.13648 0.16214 -0.13464
-0.10469 -0.03843 -0.22501
0.00750 0.12707 -0.00925
-0.04989 0.15552 0.17148
-0.08273 -0.04675 -0.22501
-0.07711 0.06238 0.22501
0.07653 -0.08683 0.17206
0.09231 0.16214 -0.07371
0.01324 0.13539 0.16577
0.05923 0.16214 0.08305
0.17837 0.18861 -0.25986
0.11912 -0.09721 0.18778
-0.01324 -0.11447 0.01133
-0.15445 0.18861 -0.14369
-0.15651 0.16214 0.38780
-0.06166 0.14969 0.16215
0.19009 0.16214 0.07058
0.02647 0.01743 0.19315
0.15664 0.16214 0.21418
0.11912 0.05961 -0.17823
0.11912 0.07955 -0.18106
-0.04516 -0.13567 0.10698
-0.06199 0.15552 0.20892
-0.04028 0.18861 -0.09056
0.06618 -0.08696 0.18230
0.03582 -0.13567 0.08427
-0.07709 0.18861 0.35707
-0.12957 0.16214 0.38389
0.08131 -0.08926 -0.22501
0.01277 0.12921 0.06395
-0.20639 0.18861 0.24478
-0.02166 0.08440 0.19192
0.06618 -0.16504 0.20804
-0.16414 0.18861 -0.00078
0.13472 0.15321 -0.22501
-0.23173 0.18861 -0.30127
0.01324 -0.12540 -0.03566
-0.02862 0.18861 0.10160
-0.08491 -0.07696 -0.22501
-0.11912 0.01210 0.19524
-0.09708 0.18861 -0.21928
0.10267 0.18861 -0.07573
0.10601 0.16214 -0.22031
-0.00300 0.02684 0.19192
-0.04536 0.16214 -0.07313
-0.11912 0.13287 -0.18366
-0.12118 0.18861 -0.36533
-0.01324 -0.12718 0.03446
0.00808 0.10258 0.01958
-0.12941 0.16214 -0.34371
-0.09323 0.13749 0.25148
0.11163 0.00394 0.17206
-0.00124 0.13679 0.12931
-0.00584 0.10403 -0.05050
-0.22072 0.16214 -0.25476
-0.04622 0.18861 -0.08294
-0.00596 0.10224 0.19192
-0.16390 0.18861 -0.38341
-0.12343 0.18861 0.01309
-0.01291 0.15552 0.03370
-0.09779 0.16214 -0.19883
-0.11912 -0.10651 0.17842
-0.04601 0.16214 0.36384
0.01842 0.10258 0.11919
0.23824 0.16810 0.24297
0.23824 0.18192 0.31942
0.02318 0.16214 -0.32232
0.20708 0.16214 -0.35402
-0.03285 -0.13567 0.09455
-0.13279 0.16214 0.02979
0.10543 0.07094 0.22501
-0.00783 0.14712 0.18530
-0.00916 -0.13567 0.02313
-0.00615 -0.11770 -0.18530
-0.21614 0.18861 0.07056
0.06074 0.14160 -0.16900
0.10682 0.15027 0.22501
0.11912 0.14636 0.22092
-0.11912 -0.14833 -0.22037
0.11912 0.03224 0.19891
0.05801 -0.13380 -0.16624
0.09358 0.18861 -0.08758
-0.02354 -0.12534 0.02405
0.02322 -0.13567 0.08518
0.21163 0.16214 -0.04342
-0.07718 0.11898 0.17206
0.00818 -0.13567 0.13909
-0.01324 -0.11254 0.11107
0.11912 0.08410 0.19464
-0.02247 0.16214 -0.30736
-0.11534 0.16214 -0.19594
-0.15006 0.16214 -0.10961
0.14156 0.16214 0.20467
-0.10444 0.14595 0.24913
-0.12721 0.16214 0.16900
0.10374 -0.15408 0.17206
-0.05946 0.08377 0.18662
0.03118 0.16214 -0.09373
0.11912 0.10551 -0.18016
0.01646 -0.03050 0.19532
0.07877 0.15535 -0.17206
0.04719 -0.13459 -0.09669
0.06944 -0.13567 -0.13279
-0.21790 0.18861 0.31059
-0.16639 0.18861 0.06117
0.04882 -0.11515 -0.10012
-0.23824 0.17798 -0.17613
-0.05275 -0.13567 0.10209
-0.20036 0.18861 0.12642
0.20880 0.17385 0.39707
0.14205 0.16214 0.32672
-0.19173 0.18861 0.33052
-0.06618 -0.07013 0.19593
0.04452 0.16214 -0.34978
-0.20910 0.18861 0.27567
0.16457 0.18861 -0.14931
0.03260 0.11365 -0.21177
0.03144 -0.09546 -0.10425
-0.11912 -0.00121 0.20608
-0.09992 0.00118 -0.22501
-0.03819 0.16214 -0.03757
0.06973 0.15028 0.21177
-0.00099 0.16214 0.14348
-0.13360 0.14032 0.22501
-0.00119 0.15552 0.06235
0.05115 0.18861 -0.24611
0.01212 -0.08272 -0.05731
-0.15594 0.18861 -0.33962
-0.01324 0.13514 0.12589
-0.03507 0.16058 0.12826
-0.04758 0.14700 0.15597
0.06618 0.03549 0.17902
0.21762 0.16214 -0.32608
0.06618 -0.16969 -0.19989
-0.06618 0.08310 0.21311
0.23824 0.17123 -0.14209
0.02009 0.18861 0.36161
-0.09806 0.06906 0.17206
0.01324 0.12536 -0.04609
-0.15493 0.16214 0.23500
0.13261 0.16214 0.16403
0.01246 0.15552 -0.18374
0.05421 0.14311 -0.14938
0.05187 -0.08272 -0.13462
0.06899 0.13567 0.24755
-0.09230 0.18861 -0.19943
-0.02210 0.13842 0.05389
0.21377 0.16214 -0.37313
0.22678 0.16214 -0.19518
0.01968 0.00822 0.19192
-0.06618 -0.14721 -0.18378
-0.07550 -0.08721 0.21177
0.06618 0.12668 -0.18825
0.02233 -0.09995 -0.08298
0.20002 0.18861 -0.26199
-0.22955 0.16214 0.21421
-0.04742 0.16214 -0.09774
-0.15493 0.16214 -0.12394
0.01307 0.15227 -0.02597
0.16095 0.18861 -0.16108
-0.04319 0.18861 -0.24397
-0.05016 0.16214 0.29969
0.05005 -0.13567 -0.04055
-0.03659 0.18861 0.23917
0.15920 0.18861 0.18975
0.06618 -0.07158 0.19535
-0.23824 0.18469 0.37795
0.23025 0.16214 -0.38995
-0.10187 0.18861 0.10324
-0.01920 0.16214 0.01104
-0.07128 -0.18861 -0.18711
-0.09695 0.18861 -0.16980
-0.01324 0.15338 -0.09733
0.09519 0.02360 0.17206
-0.06618 -0.12019 0.21086
-0.23824 0.17797 0.36603
0.23601 0.18861 0.21236
0.04328 0.16214 -0.19871
-0.04633 0.16214 -0.32269
-0.19964 0.16214 -0.17713
-0.06100 0.18861 0.20909
0.01011 0.02116 -0.20515
0.07781 0.18861 -0.35392
0.00665 -0.00905 -0.19192
-0.00375 -0.13567 -0.08194
0.00709 0.18861 -0.27145
-0.08358 0.16214 -0.00161
-0.00923 0.15552 0.05880
0.23296 0.16214 0.10433
0.18755 0.18861 -0.20642
-0.03864 -0.13465 0.21177
-0.01276 0.11233 0.04294
-0.05651 0.16214 -0.31148
-0.09589 0.00428 0.17206
0.01548 -0.01972 0.19192
-0.02924 0.18861 -0.29325
-0.10851 0.16214 -0.06746
-0.10438 0.18861 0.37166
-0.08959 0.18861 0.15696
0.08011 -0.07787 -0.17206
-0.17169 0.16214 0.01529
0.08030 0.18861 -0.25414
-0.13342 0.16214 0.32787
0.04693 -0.09286 0.18530
0.01324 -0.10431 0.18477
-0.08515 0.18861 0.11256
0.15280 0.18861 -0.01630
0.11074 0.06670 0.17206
-0.16572 0.18861 0.00572
0.10489 0.18861 -0.19066
0.02695 -0.08272 -0.04807
-0.09811 -0.07219 -0.22501
0.09966 0.16367 -0.39707
0.16578 0.16214 -0.31937
0.21870 0.16214 0.12291
-0.11912 0.06353 -0.19602
-0.00352 -0.13567 0.07408
-0.11912 0.05556 0.19500
0.04662 0.18861 -0.11577
-0.06002 0.12242 0.19329
0.01257 -0.09202 -0.04039
-0.22874 0.18861 0.27393
-0.02630 0.08821 -0.20515
0.11912 0.03454 0.21510
0.00114 0.13567 0.23935
0.16625 0.18861 0.37374
0.00668 0.15552 0.01836
0.01157 0.10947 -0.06579
-0.01395 0.13142 0.05510
-0.02657 0.16214 -0.08268
0.00930 -0.08656 -0.02661
-0.09289 0.06383 0.22501
0.05606 0.18861 -0.22198
-0.01428 0.16214 -0.33015
-0.03790 0.16214 0.22332
-0.10772 -0.00981 -0.17206
0.11418 -0.10955 -0.22501
-0.21552 0.18032 -0.39707
0.06618 -0.02666 -0.20587
-0.06618 0.07214 0.20898
-0.14925 0.16214 0.22801
-0.07087 0.18861 0.05930
-0.06618 -0.16596 0.17469
0.00961 -0.04638 -0.19192
-0.11886 -0.05771 -0.17206
-0.00304 0.15422 0.00159
0.22198 0.18861 -0.14766
0.02209 0.10258 0.09721
-0.00493 0.13376 0.02802
-0.21349 0.18861 -0.22026
0.13450 0.18861 0.26577
-0.11912 0.03500 0.21941
-0.05356 0.16214 0.20969
0.06530 0.10688 -0.18118
-0.22533 0.16214 -0.05946
0.14147 0.16214 -0.10919
0.07149 0.16214 0.29459
-0.06618 -0.04050 0.19452
-0.08536 0.13567 0.23255
-0.08486 0.16214 -0.13061
0.05379 0.11409 -0.18530
0.08410 0.18861 0.30802
0.06824 0.18861 0.39395
0.08885 -0.17245 0.17206
0.07442 0.18861 -0.19290
-0.05771 0.13567 -0.22551
0.00511 0.16214 -0.02116
-0.09456 0.18861 -0.07670
0.02990 0.18861 0.27106
-0.14430 0.18861 0.35042
0.10441 -0.12575 -0.22501
0.06380 0.14756 -0.17816
0.11016 0.18861 0.16330
0.10348 0.18861 0.20738
-0.06618 -0.00898 -0.19619
0.02357 0.13879 0.01355
0.08708 0.16214 0.28961
0.06618 0.05256 0.18395
-0.18540 0.16214 0.16476
0.07591 -0.13567 0.05797
-0.18578 0.16214 0.21419
-0.11912 0.07605 0.20022
0.02282 0.10258 0.08476
0.03073 0.16214 0.39017
-0.03015 -0.13352 -0.18530
-0.09612 0.02651 -0.22501
0.21401 0.16214 -0.07695
-0.14169 0.18861 0.07672
0.13258 0.16214 0.09116
-0.04277 0.13138 -0.18530
0.01877 0.16214 -0.22109
0.23586 0.18861 -0.33974
-0.12139 0.16214 -0.36078
0.23824 0.16891 -0.28560
-0.21923 0.18861 -0.32707
-0.04798 0.11339 0.15717
-0.05411 0.18861 -0.21443
0.09872 0.04276 -0.17206
-0.14559 0.15288 0.24324
0.20513 0.18861 0.12800
-0.03994 -0.10863 -0.18530
0.09941 0.18861 0.03987
-0.18899 0.18861 -0.25368
-0.14286 0.18861 -0.03817
-0.03507 0.14313 0.25148
-0.15348 0.16214 0.27380
-0.11912 -0.09483 0.21613
0.06921 -0.07015 -0.22501
0.01782 -0.02677 0.19985
-0.02183 -0.11161 0.02006
0.03131 -0.11804 -0.02248
0.00886 0.08574 0.19192
0.01420 0.18861 0.36505
0.06541 -0.13567 0.15714
-0.00952 -0.04903 0.20515
0.01754 -0.08622 -0.21177
-0.11912 -0.12684 -0.20930
-0.22575 0.16214 -0.22506
-0.10437 0.18861 0.15039
-0.05048 0.15473 0.22501
0.04022 0.16214 -0.30299
-0.19907 0.18861 -0.35741
-0.19660 0.18551 -0.39707
0.10206 -0.08690 -0.17206
-0.08074 -0.00011 0.17206
-0.05135 -0.08272 0.17891
0.07477 0.16214 0.01420
-0.22146 0.16214 0.27412
0.11912 -0.09426 -0.20044
0.11912 0.02564 0.20840
0.01038 0.10779 0.08964
-0.12681 0.16214 -0.02169
0.06410 0.18861 0.37646
0.08024 0.02148 0.17206
0.10480 -0.08905 0.22501
-0.12542 0.18861 0.13650
-0.00790 0.10534 0.13649
0.04428 0.18861 -0.21932
-0.22381 0.18861 0.35215
-0.14073 0.18861 -0.35374
-0.03254 0.15492 0.08125
0.22488 0.16214 -0.08039
-0.21088 0.18861 -0.27039
0.14175 0.16214 0.03383
-0.03953 -0.08272 0.08638
-0.04135 0.12394 0.11095
0.06696 -0.06235 -0.17206
0.15572 0.18861 0.17766
-0.11951 0.18861 0.10849
-0.19548 0.16214 -0.26441
-0.11694 0.16214 -0.32355
0.02891 0.18861 0.38831
-0.04207 0.16214 -0.09879
0.18853 0.16214 -0.20300
-0.08048 0.18861 0.03114
-0.15567 0.16214 0.33543
0.11912 -0.12896 -0.18477
0.17609 0.16214 -0.25226
0.02756 0.12901 -0.18530
-0.11912 0.02804 0.21828
0.21591 0.16214 0.29110
0.01764 -0.13567 0.16378
-0.11496 0.16214 0.31947
-0.13321 0.16214 -0.33420
0.09472 0.00427 0.17206
-0.06618 0.07156 -0.18055
0.11912 0.01322 -0.18678
0.07049 0.12810 0.22501
0.06618 0.01458 -0.20285
0.23824 0.16453 -0.36702
0.07402 0.00368 -0.22501
0.12878 0.16214 0.05645
0.01036 0.18861 0.18870
0.02280 0.05222 -0.19192
0.00041 -0.13567 0.13028
-0.01324 -0.12662 0.16438
0.01020 0.13790 0.18530
0.01324 0.09991 -0.03657
0.05825 -0.09135 -0.14640
-0.07507 0.16214 -0.38989
-0.23356 0.16214 -0.20967
-0.02598 0.18861 0.30144
0.21583 0.16214 0.08169
0.05949 0.18861 -0.36252
0.13136 0.16214 0.33578
-0.19340 0.18861 0.34290
0.05367 0.15032 0.25148
-0.06618 -0.18821 -0.17256
0.08524 0.18547 -0.39707
0.12429 0.16214 0.30143
-0.01324 0.12140 -0.00696
-0.06289 0.11330 -0.21177
-0.15626 0.16214 -0.22063
-0.22828 0.16214 0.22464
0.02862 -0.08272 -0.01092
-0.19604 0.16214 -0.37399
-0.11903 -0.14286 -0.17206
-0.15429 0.18861 0.19728
-0.05631 0.18861 -0.11218
0.06147 0.18861 -0.05921
-0.16030 0.16214 -0.17200
0.04491 0.18861 0.01750
-0.17022 0.16214 0.20881
0.00150 0.06056 0.20515
0.03047 0.14544 0.18530
0.03112 0.18861 -0.07012
-0.08323 0.18861 0.26868
0.02730 0.13567 0.22786
0.01324 0.12307 0.02302
-0.11912 -0.07175 -0.20837
-0.01324 -0.10271 -0.02859
0.12882 0.18861 0.35905
-0.01119 0.15552 0.05291
-0.04788 0.16214 -0.06261
0.22376 0.16214 0.38688
0.06920 0.11484 -0.22501
-0.04526 0.10258 0.16581
-0.05130 0.18861 0.29074
-0.06618 0.09176 0.18199
0.08549 0.16214 -0.12348
0.16029 0.18861 -0.32020
0.05657 -0.12533 -0.13817
0.01324 0.11743 0.09435
-0.05942 0.18861 -0.13709
-0.09860 0.18861 -0.13937
0.06618 0.07943 -0.17311
-0.05044 0.06404 0.14951
-0.14967 0.16214 -0.16056
0.00526 0.10258 0.14178
0.00727 -0.13567 -0.04428
0.12096 0.16214 0.17966
-0.05407 0.18861 0.13117
-0.09166 0.18861 -0.32296
0.10550 -0.18556 -0.22501
-0.20344 0.16214 0.23584
0.04418 0.18861 0.07267
-0.23626 0.17304 0.39707
-0.11400 0.00916 0.22501
0.04164 0.15552 0.18585
0.00750 0.14538 -0.00927
0.02323 0.16214 0.03489
-0.17161 0.18861 -0.02132
-0.01324 0.12233 0.03954
0.02591 0.09207 -0.06731
-0.05406 0.18861 -0.09733
0.00827 -0.13567 -0.08896
0.18987 0.16214 0.08191
-0.09265 -0.13425 0.18558
0.21725 0.18858 -0.39707
0.01944 0.16214 0.11839
-0.08405 -0.04713 -0.17206
0.04356 0.18861 0.36009
0.06618 -0.04252 -0.21265
-0.23781 0.18861 0.27188
-0.01489 -0.08272 0.03717
0.00022 0.16214 -0.27499
0.19512 0.16214 0.04228
-0.06836 -0.12953 -0.17206
-0.23824 0.18295 -0.11791
0.11058 0.16214 0.15795
0.10147 0.18861 -0.16110
0.08389 0.18861 0.16956
0.00986 0.14020 -0.01633
-0.08593 -0.10179 0.22501
0.14936 0.16214 0.29856
0.06056 -0.13567 -0.06492
0.00775 0.16214 -0.03860
0.03304 0.18861 -0.11804
-0.00718 -0.02657 0.19781
-0.01270 -0.09233 0.20443
0.13942 0.16214 0.21782
0.23824 0.18565 -0.09506
0.08130 0.01892 -0.17206
-0.09546 0.09800 -0.17206
-0.04068 0.18861 0.27399
-0.00876 0.13567 0.22670
-0.10745 0.16214 -0.33337
0.13461 0.16214 0.12415
0.01336 0.18861 -0.12229
-0.09806 0.16214 -0.09440
-0.21852 0.16214 -0.08945
-0.06639 -0.13567 0.14002
-0.04020 0.08332 0.11661
0.04448 0.18861 -0.12923
-0.15474 0.18861 -0.20811
-0.21940 0.18861 0.12010
0.03783 -0.13567 0.16531
-0.09555 0.16214 -0.00740
-0.08473 0.09014 -0.17206
0.16877 0.18861 0.17430
-0.03432 0.16214 0.30784
-0.20079 0.16214 0.10317
-0.19983 0.18861 0.10643
-0.00633 0.11307 0.01531
0.05127 0.10767 -0.11572
0.08196 0.14684 0.24308
-0.04479 -0.08272 0.15872
-0.21439 0.16214 0.04093
-0.15331 0.16214 0.31876
-0.00941 0.10652 -0.09158
0.03150 0.13208 -0.08126
0.07966 -0.13567 0.09050
0.08926 0.07755 -0.17206
0.02475 0.13061 0.00803
-0.08502 0.13573 0.25148
-0.03892 -0.10179 0.05994
-0.02525 0.18861 0.38784
-0.02799 0.18861 -0.09811
0.22970 0.16214 -0.03239
-0.13169 0.18861 -0.15083
0.07545 -0.13567 0.06750
0.22694 0.18861 -0.02283
-0.18340 0.18861 -0.19885
0.19645 0.18861 -0.21685
-0.13874 0.16214 -0.06986
-0.20635 0.18861 0.29645
-0.11816 0.07022 -0.17206
0.20281 0.18861 -0.25827
0.10086 -0.18861 -0.17455
0.03650 0.05135 0.19572
0.22538 0.18861 0.27569
-0.01324 -0.13556 -0.09264
0.10951 0.16214 0.06534
-0.08042 0.18861 -0.02940
-0.02444 0.16214 0.39538
0.15411 0.18861 0.23998
-0.12728 0.16214 -0.13949
-0.02477 0.10258 0.13624
-0.01998 0.18861 -0.29430
-0.02940 0.15794 0.10627
0.14802 0.18861 -0.37269
-0.02243 0.06285 -0.19192
0.05942 0.16214 -0.39661
-0.02736 -0.11279 0.03296
-0.01324 0.13744 -0.12560
-0.06618 0.01475 -0.21736
-0.05178 0.18861 0.16515
0.01324 -0.12501 -0.17389
-0.02504 0.05170 -0.19192
0.00920 -0.08501 0.09860
-0.06618 -0.07536 0.21688
0.08141 -0.17022 0.22501
-0.11323 0.18861 -0.34153
0.07071 0.16214 0.14813
-0.11912 -0.01451 -0.17669
0.06618 0.10380 0.20383
0.04164 0.13891 -0.11904
-0.09014 0.16214 -0.10001
0.12435 0.18861 -0.30766
0.18695 0.18861 -0.37710
0.03780 0.16214 -0.02368
-0.09676 0.18861 -0.25754
0.07119 0.15785 -0.17206
0.16299 0.18861 -0.03314
0.01042 0.18861 -0.03895
0.12154 0.18861 0.14940
-0.23824 0.17554 0.06414
0.23163 0.16214 0.17692
-0.23824 0.17807 0.38643
0.11712 0.18476 0.39707
-0.07850 0.16214 -0.02557
0.01324 0.12369 -0.05461
0.02194 0.12740 -0.06585
-0.11912 -0.16964 -0.19641
-0.03656 -0.08272 0.06472
-0.04091 0.18861 -0.26804
0.02742 0.16214 -0.00246
0.02373 -0.05794 0.19192
0.15444 0.18861 -0.35108
-0.06589 0.14024 -0.21177
0.00030 0.18861 0.31678
-0.00807 -0.09484 0.16359
0.01226 0.16214 -0.03810
-0.02786 -0.09830 -0.21177
-0.23824 0.16356 -0.20138
-0.12134 0.16214 -0.02186
-0.06618 -0.04169 -0.22051
-0.05599 0.14368 0.23945
-0.09673 0.04214 -0.17206
0.02499 0.16214 -0.14963
0.06499 -0.08498 -0.21177
-0.06574 0.13567 -0.24693
0.22799 0.16214 0.26692
0.14847 0.18861 -0.08678
0.10342 0.14009 0.25148
0.06618 0.15331 -0.17975
-0.13415 0.16214 -0.29846
-0.00109 0.14355 0.01649
0.01324 -0.13059 0.01068
0.11912 0.13716 -0.20879
-0.21242 0.18861 0.19218
-0.04502 0.13358 0.21177
0.14235 0.18861 0.37062
0.01324 -0.12914 0.17789
-0.10475 0.18861 -0.00520
0.05842 -0.13567 -0.20365
-0.02896 0.10258 0.13986
0.03690 0.18861 -0.02334
-0.00331 -0.04100 -0.20515
0.23824 0.18134 0.01877
-0.20009 0.18861 0.26328
-0.02199 -0.06020 -0.19192
0.22767 0.18861 -0.29219
0.19868 0.16214 -0.34432
0.14559 0.14938 0.23146
0.09789 0.06590 0.17206
-0.11357 0.07758 -0.22501
0.14852 0.18577 0.39707
-0.12159 0.18861 -0.00690
0.09930 0.16214 -0.13501
-0.22735 0.16214 0.15139
0.08763 0.16214 0.30849
-0.01324 0.14553 -0.07327
-0.15399 0.16861 0.39707
0.10794 0.16214 0.28971
-0.12824 0.18861 -0.33001
0.10068 0.16214 0.19966
0.11554 0.18861 0.37118
-0.16419 0.16214 0.25964
0.00643 -0.03827 0.19192
-0.19119 0.16214 0.18660
0.11046 0.16214 -0.32888
-0.04331 -0.13567 -0.18993
0.00233 -0.04658 0.19192
0.08704 0.07149 0.17206
-0.20900 0.18861 0.36982
0.00792 0.16214 0.17406
0.06597 -0.13567 0.07797
0.10244 0.16214 -0.28937
0.09583 0.16214 -0.13229
0.06849 0.15419 -0.25148
0.11912 -0.11840 0.18279
0.01324 0.18861 -0.18482
-0.06613 0.13731 -0.18530
0.11912 -0.15651 0.18586
-0.01263 -0.13567 0.07899
0.15158 0.16214 -0.01469
-0.14494 0.16214 -0.36056
0.01986 0.18861 -0.29861
-0.17383 0.16214 -0.26490
0.03321 -0.13567 -0.09399
0.00566 0.10869 -0.01729
-0.01150 0.10928 -0.11787
-0.22440 0.16214 -0.32642
-0.00656 0.09916 0.03200
-0.18099 0.16214 -0.37314
0.14723 0.16214 -0.09225
0.19570 0.16214 0.33130
-0.23824 0.18628 -0.31673
0.06712 0.16214 -0.04973
-0.01520 0.18861 -0.12816
-0.02204 0.10258 0.13074
-0.06485 0.15552 -0.19459
0.12350 0.16214 -0.30506
0.11912 0.04050 -0.21112
0.23824 0.16681 -0.36062
0.01324 -0.13501 0.15383
0.02446 -0.13567 0.04037
-0.02322 0.18861 -0.31535
-0.05597 -0.10105 -0.21177
0.02929 -0.13567 0.01718
0.00469 0.15552 -0.15968
0.00351 0.14368 -0.01610
-0.06423 0.16993 0.39707
0.06923 -0.17298 0.17206
0.12075 0.13567 0.23091
0.05642 0.18861 0.07495
-0.03242 -0.10511 0.04476
