-0.04849 0.12205 -0.47092
0.08769 0.03330 0.27454
0.07375 -0.02121 0.47349
0.05189 0.04767 0.25316
-0.05785 0.12501 -0.25174
0.07784 0.04678 0.38183
-0.08314 0.08164 -0.24300
-0.08323 0.04668 -0.30684
0.04019 0.04318 0.01511
0.08145 0.02687 -0.01528
0.08497 0.03994 -0.19060
0.08397 0.04125 -0.11022
-0.06790 0.03760 0.00698
-0.07465 0.05152 -0.44794
-0.01105 0.03191 0.01175
0.08705 0.02462 0.17316
-0.07860 0.05128 -0.12329
0.03236 0.03968 -0.01528
-0.07020 0.03838 0.09809
0.02134 0.05034 0.23543
-0.00736 0.04923 0.23543
-0.06919 0.04773 0.23543
-0.07137 0.10837 -0.46076
-0.00938 0.12882 0.46721
-0.08029 0.05052 -0.22076
0.05786 0.12472 0.46094
-0.08535 0.07989 0.25063
0.07320 0.04884 0.05370
0.07165 0.04933 0.13437
0.03349 0.11966 -0.46088
0.01471 0.12231 -0.46086
-0.08272 0.09343 0.25063
0.03833 -0.09618 -0.45624
0.04362 0.04892 -0.47111
-0.08612 0.07434 -0.47088
0.04017 0.12032 0.00498
0.08552 0.00587 -0.45908
0.02186 0.02555 0.22929
-0.07754 0.03775 0.34210
-0.05561 0.12556 0.01496
0.06748 0.04985 0.44755
-0.07668 0.12094 -0.46075
-0.06921 0.05810 -0.24976
0.02837 0.02404 0.24348
0.05546 0.12807 -0.47283
0.07978 0.02517 -0.14521
0.08268 0.02411 -0.03155
0.01499 0.05155 0.00801
0.04271 0.05155 0.00894
-0.05437 0.05155 0.01345
-0.08302 0.09207 0.24303
-0.02443 0.05146 0.46802
0.03426 0.05146 0.47229
0.07678 0.04737 0.34640
0.07448 0.01523 -0.30620
0.07311 0.01378 -0.05785
0.07114 0.01172 0.22409
0.07427 0.01500 -0.37947
0.07127 0.01186 -0.12957
0.07211 0.01274 -0.42034
0.07242 0.01307 -0.08315
0.07246 0.01310 -0.10350
0.03404 -0.09338 0.46266
-0.07222 0.05146 -0.19965
0.08959 0.02062 0.22927
-0.08355 0.04413 0.44661
0.04938 -0.04504 -0.45594
-0.06081 -0.11609 -0.45987
0.08005 0.02507 0.42188
0.01879 0.12129 0.46090
0.04847 0.11856 0.46093
0.07822 0.02505 -0.04208
0.07793 0.02604 -0.13473
0.07767 0.02691 0.01414
0.07644 0.03113 -0.43033
0.07687 0.02964 -0.42083
0.07685 0.02973 -0.29638
0.07785 0.02631 0.22072
0.07766 0.02694 -0.18117
0.07725 0.02834 -0.31444
0.07722 0.02845 -0.21562
0.07676 -0.01530 -0.45594
-0.05315 0.11500 0.25219
-0.07059 0.05097 -0.09724
-0.08218 0.04047 -0.07064
0.04048 0.01965 -0.46092
0.06963 -0.12776 0.45576
0.02088 0.03195 -0.24047
0.02900 0.12246 0.47104
0.03948 0.04789 0.24050
0.06339 0.03956 -0.14919
0.06297 0.03966 -0.31339
0.06769 0.03851 -0.44880
0.06708 0.03866 -0.12950
0.06685 0.03872 -0.26005
0.06483 0.03921 -0.29744
0.06307 0.03964 0.09062
0.06389 0.03944 -0.15743
0.06912 0.03817 -0.31436
0.06501 0.03917 -0.22774
-0.01923 -0.09005 -0.46230
0.08605 0.03785 -0.07182
0.08531 0.03940 -0.02817
-0.07067 0.12057 0.00378
-0.02180 0.11732 -0.24167
0.05717 0.00416 0.46704
-0.08357 0.04425 0.29705
-0.08104 0.03926 0.42236
-0.08195 0.04902 -0.20153
0.08532 0.01595 -0.46097
-0.08147 0.03959 0.37303
0.01547 0.05155 -0.01389
-0.01142 0.05155 -0.01483
-0.05792 0.05155 -0.01142
-0.07747 0.05146 0.31877
0.07922 0.04853 -0.24564
-0.08431 0.05047 -0.24964
-0.00034 0.12515 -0.25060
0.07806 0.03067 0.24814
0.05045 0.04260 0.46095
-0.00201 0.03835 0.46089
0.00488 0.03508 0.46090
-0.01095 0.05007 0.46088
-0.07675 0.07507 0.25003
-0.07403 0.05151 -0.27666
0.08197 0.04182 0.01511
-0.01780 0.12732 -0.47348
-0.04928 -0.10909 -0.46917
-0.03654 0.05034 -0.22295
-0.02126 0.04577 -0.22295
-0.02826 0.05058 -0.22295
0.03858 -0.07465 0.47096
0.00064 0.03006 0.01511
-0.06929 0.03767 0.23236
-0.01350 0.05155 0.00911
-0.08210 0.04049 -0.47343
-0.05404 0.03684 -0.25003
-0.01203 0.03205 -0.25222
0.03243 0.12882 -0.46437
-0.01712 0.12882 -0.46374
-0.04755 0.11588 -0.24053
0.08816 0.02640 -0.02818
-0.08046 0.11983 -0.47236
-0.02106 0.04477 -0.25313
0.05457 0.04914 -0.47359
0.04372 -0.08381 0.47096
-0.07977 0.05077 0.24406
0.02253 0.03928 -0.00262
-0.00778 0.03379 0.25316
-0.07552 0.03769 0.05680
-0.07455 0.03774 0.10615
-0.00905 0.12629 0.47240
-0.02747 0.12840 0.01286
-0.01175 -0.08566 0.47349
0.01415 -0.08595 -0.47114
-0.08296 0.04739 -0.15884
-0.08949 0.06358 0.25175
0.05831 0.04066 0.46096
0.06448 0.04668 0.46097
0.05491 0.01204 -0.21701
0.05265 0.01420 -0.16580
0.05531 0.01166 -0.25035
0.05399 0.01291 0.01633
0.05565 0.01133 -0.31041
0.05499 0.01196 0.21154
0.05362 0.01327 -0.07151
0.05432 0.01260 -0.14767
0.05561 0.01137 0.07238
0.05404 0.01286 -0.27874
0.05424 0.01267 -0.02356
-0.02753 0.05155 0.00888
-0.05615 0.05155 0.00594
0.00646 -0.07590 0.47230
-0.06510 0.04553 -0.46079
0.02939 0.02310 0.47114
0.04917 0.12126 -0.47103
-0.01666 -0.11182 -0.47367
0.05123 0.12845 0.24502
-0.03027 0.12606 0.25316
0.04645 0.04992 -0.30955
-0.04468 0.04992 -0.45565
-0.01958 0.04992 -0.44534
0.00699 0.04992 -0.35088
0.03462 0.04992 -0.31110
0.05247 0.04992 -0.33919
0.04936 0.04992 -0.41077
0.05986 0.04992 -0.30300
0.00231 0.04992 -0.42568
0.05219 0.04992 -0.36406
0.06054 0.04992 -0.27324
0.06138 0.04992 -0.41381
0.05378 0.04992 -0.45587
-0.00880 0.04992 -0.37722
-0.01172 0.04992 -0.45616
0.06413 0.04992 -0.29324
-0.00368 0.04992 -0.41481
0.04945 0.04992 -0.40259
0.02873 0.04992 -0.43452
-0.05420 0.04992 -0.43834
0.03414 0.04992 -0.40244
-0.00559 0.04992 -0.43256
0.03567 0.04992 -0.45243
0.01668 0.04992 -0.39237
-0.02699 0.04992 -0.42673
0.04225 0.04992 -0.45054
0.06038 0.04992 -0.35425
-0.01313 0.04992 -0.40159
-0.00242 0.04992 -0.39903
0.02555 0.04992 -0.32941
0.01978 0.04992 -0.42016
0.04947 0.04992 -0.44922
0.03188 0.04992 -0.39479
0.06520 0.04992 -0.27709
0.00987 0.04992 -0.37577
0.00791 0.04992 -0.39696
0.04769 0.04992 -0.43909
0.03475 0.04992 -0.38361
-0.04254 0.11393 0.24553
-0.04269 0.12264 -0.24300
-0.07935 0.09163 0.46514
-0.05778 0.12204 -0.46077
0.06379 -0.04014 0.47096
0.02585 0.02463 -0.23151
0.02132 0.03357 0.24050
-0.09240 0.06558 0.47012
0.03230 -0.05002 -0.47136
0.05668 0.12200 0.47183
-0.07695 0.05154 -0.40996
0.04713 -0.01804 -0.46518
-0.07207 0.05145 0.20234
0.01782 0.12845 0.01063
0.04001 0.12845 0.00491
0.01627 0.02683 -0.01130
0.07693 0.01940 0.05532
0.07764 0.02231 -0.44040
0.07667 0.01833 0.06665
0.07761 0.02218 -0.25273
0.07695 0.01946 0.12533
0.07684 0.01902 -0.42022
0.07649 0.01757 -0.29519
0.07740 0.02133 -0.17522
0.07744 0.02147 -0.26446
-0.09039 0.08869 0.24050
0.05498 -0.10423 -0.47114
0.07208 0.05015 -0.46095
-0.07020 0.04784 0.32149
-0.07019 0.04740 0.28560
-0.07018 0.04719 0.33697
-0.07678 0.03767 -0.14962
0.08287 0.04268 0.02612
0.08300 0.04251 0.08086
0.08585 0.03827 0.30733
-0.02933 0.12428 -0.24300
0.02734 0.04861 -0.47103
0.00954 0.03549 -0.47101
-0.00194 0.04151 -0.47099
-0.03513 0.04804 -0.47095
-0.07017 0.04636 -0.38602
-0.07024 0.04961 -0.30554
-0.01536 0.05146 0.22277
0.01393 0.05059 0.22277
0.07199 0.01262 -0.40274
0.07334 0.01403 -0.18977
0.07295 0.01362 -0.25309
0.07170 0.01231 -0.01433
0.07203 0.01266 -0.23246
0.07354 0.01423 0.01999
0.07457 0.01531 -0.39287
0.07348 0.01418 -0.27905
0.07305 0.01372 -0.07715
-0.04474 -0.11880 0.45576
0.08903 0.03783 -0.24057
0.02418 0.02823 0.25316
0.05182 0.00743 -0.46556
0.05734 0.04652 0.00244
0.07027 0.03371 0.47111
0.07931 0.02357 -0.24047
0.07427 0.01380 -0.47109
-0.08350 0.04851 -0.46076
0.08732 0.03477 -0.29374
0.08720 0.03525 -0.27218
-0.07257 0.04439 -0.46078
-0.07015 0.04563 0.17841
-0.07019 0.04749 0.22174
0.04993 0.04760 -0.01528
0.03647 0.03818 0.01511
-0.01136 0.03220 0.23543
-0.01582 0.03272 0.46512
-0.08079 0.05012 0.44426
0.05138 0.00498 0.47331
0.03066 -0.07887 0.45576
-0.07974 0.08934 0.01363
0.03568 0.12845 -0.24140
0.06886 0.04971 0.01611
-0.07174 0.05140 0.14226
0.05592 0.04066 -0.00904
0.05396 -0.06514 -0.47114
0.04966 -0.00253 -0.46726
0.08131 0.04419 0.05976
-0.05700 0.04560 -0.24047
-0.08359 0.04451 -0.40440
0.07140 -0.01327 -0.45594
0.03379 -0.04798 -0.46026
-0.07017 0.04650 -0.19861
-0.07021 0.04856 -0.14292
0.07112 0.04452 0.25316
-0.08046 0.07260 0.47345
-0.00670 0.12058 0.24303
0.07596 -0.10582 0.45750
-0.07021 0.04851 0.12486
-0.07021 0.04838 0.15941
-0.07021 0.04854 0.14834
-0.07023 0.04927 0.19601
-0.07016 0.03845 -0.28839
-0.07964 0.03836 0.39878
-0.01549 0.05155 -0.22609
0.02152 0.05155 -0.22915
-0.05948 0.11871 0.24303
0.04944 0.02318 -0.45594
-0.07877 0.04225 0.01511
-0.09226 0.07897 0.25025
-0.00518 -0.08871 0.45576
-0.07800 0.03780 0.15758
-0.01154 0.12390 0.25063
0.03202 0.12001 -0.24300
0.07575 0.04794 -0.34579
0.07593 0.04785 -0.42392
0.08396 0.02371 -0.25644
-0.06807 -0.12042 0.47089
-0.07236 0.04463 0.01511
0.00373 0.03193 0.47313
0.05916 -0.06665 -0.45594
-0.07193 0.05188 0.01257
0.01493 0.04874 0.25316
-0.03282 0.04874 0.25316
-0.04945 0.04581 0.25316
-0.04688 0.05032 -0.47347
-0.01118 -0.11100 0.46907
0.02497 0.02483 -0.00356
0.05612 0.01112 -0.36044
0.06130 0.00986 0.27299
0.06275 0.00951 0.45313
0.05744 0.01080 0.42813
0.05651 0.01102 0.03721
0.05592 0.01117 0.15081
0.05712 0.01088 0.20172
0.05659 0.01100 0.36157
0.05655 0.01101 -0.05980
0.03635 -0.07353 0.45576
-0.07838 0.03787 -0.09560
0.09096 0.02714 0.00539
0.03575 0.02432 -0.24047
0.02585 0.04992 -0.29493
-0.03439 0.04992 -0.25850
-0.05822 0.04992 -0.27993
-0.02560 0.04992 -0.25370
0.01816 0.04992 -0.25574
-0.06391 0.04992 -0.43544
-0.03019 0.04992 -0.29695
-0.06479 0.04992 -0.26871
0.01579 0.04992 -0.29948
-0.05164 0.04992 -0.30053
0.02984 0.04992 -0.26215
-0.05674 0.04992 -0.38760
-0.04851 0.04992 -0.39279
-0.04067 0.04992 -0.38609
-0.01249 0.04992 -0.30550
-0.06553 0.04992 -0.28623
-0.02315 0.04992 -0.33411
0.04487 0.04992 -0.28381
-0.05949 0.04992 -0.40706
-0.04656 0.04992 -0.25770
0.02388 0.04992 -0.26987
0.02283 0.04992 -0.31285
-0.00028 0.04992 -0.28290
0.03011 0.04992 -0.27878
-0.00641 0.04992 -0.29929
-0.03475 0.04992 -0.37313
-0.02206 0.04992 -0.36902
-0.05268 0.04992 -0.33646
-0.05398 0.04992 -0.29328
-0.05643 0.04992 -0.27183
0.01015 0.04992 -0.26422
-0.06910 0.04992 -0.43143
-0.00363 0.04992 -0.33669
-0.06566 0.04992 -0.35049
-0.02772 0.04992 -0.25915
-0.01944 0.04992 -0.35518
-0.01690 0.04992 -0.26885
0.07215 0.03616 -0.44617
0.07051 0.03772 0.06483
0.07234 0.03598 -0.33096
0.07042 0.03781 0.26181
0.07588 0.03260 -0.43603
0.07065 0.03760 0.38730
0.07139 0.03688 -0.03409
0.07173 0.03656 0.17629
0.07387 0.03452 -0.25787
0.04542 0.02254 -0.24047
-0.00956 0.03598 -0.24047
0.05097 -0.05867 -0.47114
0.07858 -0.10886 -0.45733
0.02811 -0.08820 -0.45594
0.08451 0.04054 -0.37624
-0.08539 0.10870 -0.25313
0.07191 0.04925 -0.04965
-0.04023 0.12071 -0.47093
0.04897 0.02865 0.28628
0.04895 0.02858 0.10790
0.04803 0.02478 0.18425
0.04872 0.02763 0.09396
0.04924 0.02976 0.25336
0.04836 0.02615 0.35252
0.04858 0.02704 0.21252
0.04805 0.02486 0.42757
0.04799 0.02460 -0.20903
0.08784 -0.11921 0.47069
0.07812 0.04662 0.05034
0.08017 0.02070 -0.01528
-0.05269 0.04992 -0.37643
-0.06965 0.04992 -0.44923
-0.06876 0.04992 -0.25540
-0.04601 0.04992 -0.29607
0.00198 0.04992 -0.30284
-0.00202 0.04992 -0.30648
0.00348 0.04992 -0.31693
-0.04129 0.04992 -0.36580
0.00733 0.04992 -0.33703
0.01236 0.04992 -0.29512
0.00651 0.04992 -0.25681
-0.06210 0.04992 -0.25336
-0.04958 0.04992 -0.40697
0.00201 0.04992 -0.34264
-0.01316 0.04992 -0.32499
-0.06223 0.04992 -0.37487
-0.01901 0.04992 -0.32800
-0.04304 0.04992 -0.40514
-0.04724 0.04992 -0.34641
-0.06049 0.04992 -0.32768
-0.04506 0.04992 -0.26695
0.03057 0.04992 -0.25585
0.01481 0.04992 -0.28009
0.01573 0.04992 -0.31550
-0.00830 0.04992 -0.29193
-0.03669 0.04992 -0.38117
-0.06498 0.04992 -0.41711
-0.04859 0.04992 -0.32189
-0.05773 0.04992 -0.26523
0.08469 0.04435 0.24094
-0.01291 0.04241 -0.22295
-0.01091 0.11581 0.24050
0.04964 0.01820 -0.44978
0.04792 0.02406 0.04075
0.04800 0.02379 0.22939
0.04800 0.02379 -0.03054
0.04941 0.01899 -0.25902
0.04911 0.01998 -0.20233
0.04790 0.02413 -0.26781
0.04849 0.02210 -0.05788
0.04966 0.01812 -0.33275
0.04855 0.02191 -0.00905
0.08394 0.02371 -0.42951
-0.08353 0.04510 0.19708
0.03115 0.11536 -0.47354
0.06141 0.03934 -0.27268
0.06056 0.03909 -0.07344
0.06188 0.03948 0.33841
0.06241 0.03963 0.35729
0.06029 0.03901 -0.03045
0.05941 0.03875 0.39023
0.06239 0.03963 -0.38307
0.06188 0.03947 0.03401
0.05827 0.03842 0.31384
0.05941 0.03875 0.01773
0.06039 0.03904 0.43255
0.06362 0.04244 0.24461
0.08822 0.02967 0.02948
0.08815 0.03131 0.05032
-0.07970 0.10075 -0.24300
0.04911 0.00342 0.46152
0.00202 0.02967 -0.46350
0.01638 -0.09613 0.46348
0.04156 0.12883 -0.47236
-0.03473 0.12883 -0.47144
-0.04262 -0.10496 0.45815
0.06612 -0.05000 -0.47081
-0.08332 0.04266 -0.05376
0.05915 -0.07929 0.47184
0.08141 0.02457 0.33016
0.07246 0.04908 -0.11304
0.07202 0.04921 -0.13234
0.04871 0.04518 0.24050
-0.08601 0.06106 -0.25248
0.08816 0.03104 -0.39053
0.08815 0.03145 -0.25396
0.08101 0.04665 0.46960
-0.07921 0.03856 0.00855
0.08089 0.04456 -0.43978
-0.00055 0.12691 0.47353
-0.07982 0.05074 -0.19422
0.04657 0.11628 -0.25313
-0.01631 0.11756 0.47352
0.04306 0.02066 0.24745
0.00585 0.02906 0.23365
-0.07372 0.03779 0.03936
0.04572 0.02374 -0.22295
-0.07673 0.05156 0.45620
0.06082 -0.02892 -0.47114
-0.09475 0.09017 0.46745
-0.07538 0.03769 0.44189
0.07935 0.04589 0.21034
-0.06405 -0.12778 -0.45594
-0.07299 0.03782 -0.13819
-0.07551 0.03769 -0.21191
0.08012 0.04523 0.03719
-0.09423 0.07466 -0.46862
0.02751 0.04992 -0.45100
-0.00571 0.04992 -0.39146
0.04987 0.04992 -0.35015
0.03189 0.04992 -0.41619
0.05517 0.04992 -0.41349
0.02038 0.04992 -0.36423
0.00388 0.04992 -0.44241
0.02021 0.04992 -0.39881
-0.01507 0.04992 -0.43099
-0.04045 0.04992 -0.44788
0.00478 0.04992 -0.43071
0.02850 0.04992 -0.34540
0.03907 0.04992 -0.37979
-0.05761 0.04992 -0.44689
0.06420 0.04992 -0.34712
0.00737 0.04992 -0.41248
-0.01976 0.04992 -0.41226
0.01212 0.04992 -0.42991
0.04356 0.04992 -0.43369
0.04396 0.04992 -0.39372
0.02416 0.04992 -0.41127
0.03424 0.04992 -0.32579
0.04805 0.04992 -0.37246
0.04899 0.04992 -0.42934
-0.03601 0.04992 -0.43189
-0.00510 0.04992 -0.36529
0.06023 0.04992 -0.44777
0.04210 0.04992 -0.40810
0.06621 0.04992 -0.39198
-0.02141 0.04992 -0.42751
-0.00691 0.04992 -0.44340
-0.02931 0.04992 -0.45238
0.01585 0.04992 -0.45692
-0.01209 0.05041 0.01511
-0.05517 0.04398 0.01511
-0.04894 0.05115 0.01511
-0.04043 0.12759 -0.47346
0.08119 0.04429 -0.17532
0.08105 0.04441 -0.18967
-0.01695 0.12845 0.00614
0.03601 0.03236 -0.25313
-0.06177 0.03729 -0.22642
-0.01515 0.03250 -0.22625
-0.07001 0.03933 -0.15504
-0.07011 0.04370 -0.10544
-0.08407 0.10459 0.24303
0.05919 0.12242 -0.25032
0.06778 0.04982 0.30145
-0.05269 0.11508 0.24133
0.08725 0.03505 -0.03374
0.08771 0.03320 -0.13401
-0.07437 0.05875 0.01257
0.04386 0.12151 0.25063
0.05418 0.03374 -0.47106
0.08836 0.03908 0.23126
0.04953 -0.05125 -0.47114
-0.05904 -0.12886 -0.46567
-0.01720 0.12595 -0.25313
0.08773 0.03312 -0.06484
0.04793 0.00997 -0.46267
0.08074 0.02482 0.08678
0.08135 0.02460 0.02809
-0.06855 -0.12886 -0.46184
-0.00336 0.04992 -0.10700
-0.03589 0.04992 -0.02324
0.04914 0.04992 -0.14045
0.03155 0.04992 -0.11002
0.00564 0.04992 -0.12822
-0.04056 0.04992 -0.03328
0.01756 0.04992 -0.14159
-0.00245 0.04992 -0.04381
-0.01618 0.04992 -0.01999
0.01934 0.04992 -0.11238
0.05005 0.04992 -0.18779
0.03683 0.04992 -0.02459
-0.05267 0.04992 -0.03783
0.06597 0.04992 -0.08228
-0.01141 0.04992 -0.03588
0.02837 0.04992 -0.06859
0.03770 0.04992 -0.05733
-0.04484 0.04992 -0.04730
0.06557 0.04992 -0.21088
0.03263 0.04992 -0.05234
0.05978 0.04992 -0.11545
0.03969 0.04992 -0.15233
-0.06642 0.04992 -0.01537
-0.04692 0.04992 -0.03353
0.02633 0.04992 -0.08130
-0.00690 0.04992 -0.02264
0.05374 0.04992 -0.12064
0.00516 0.04992 -0.06012
-0.00529 0.04992 -0.09357
-0.01995 0.04992 -0.03012
0.05580 0.04992 -0.02597
-0.01011 0.04992 -0.10587
0.02310 0.04992 -0.07477
0.05892 0.04992 -0.18576
0.05724 0.04992 -0.19686
0.02033 0.04992 -0.04374
-0.01469 0.04992 -0.09449
0.00146 0.04992 -0.07005
-0.07786 0.05140 -0.13005
0.07049 0.01141 0.43641
0.06643 0.01022 0.00151
0.06453 0.00966 0.28148
0.06384 0.00946 0.15918
0.06537 0.00991 0.34377
0.06547 0.00994 -0.15438
0.06538 0.00991 -0.21379
0.06392 0.00948 -0.29544
0.06575 0.00599 0.47170
0.03783 0.02408 0.00244
0.01189 0.03701 0.25316
-0.07930 0.03822 0.18671
-0.05685 0.11742 -0.25060
0.06342 0.00934 0.14318
0.06298 0.00945 0.23422
0.06184 0.00973 0.11715
0.06220 0.00964 -0.16399
0.06074 0.00999 -0.14351
0.05722 0.01085 -0.30017
0.06311 0.00942 0.01862
0.05928 0.01035 -0.27753
0.06303 0.00944 -0.08276
0.06340 0.00935 0.12499
0.05116 0.00572 -0.47342
-0.08715 0.08640 -0.24300
-0.03752 -0.10856 0.47096
0.08642 0.02413 0.22204
0.08036 -0.00839 -0.46262
-0.07049 0.05090 0.42494
-0.05596 0.12549 0.24068
0.00607 0.11563 0.47354
-0.02218 0.03988 -0.24047
-0.09277 0.08580 0.47344
-0.00793 0.04736 -0.47098
0.02054 0.04478 -0.47102
0.03667 0.03576 -0.47104
0.07647 0.03463 -0.24601
0.06572 0.05035 0.23543
0.08218 -0.11295 0.46766
0.04017 -0.03690 0.45725
0.00091 0.11485 0.00752
-0.08933 0.06580 0.00244
0.04268 0.11497 0.00426
-0.03188 0.11467 -0.25183
0.05140 0.01539 -0.41025
0.05323 0.01364 -0.37410
0.05508 0.01187 -0.10444
0.05413 0.01278 0.05201
0.05338 0.01350 -0.41526
0.05519 0.01176 -0.22772
0.05450 0.01242 -0.20956
0.05276 0.01409 -0.04486
0.05547 0.01150 -0.40204
0.05161 0.01519 -0.38610
0.04302 0.02930 -0.00262
0.08911 0.02099 0.23543
0.06688 0.05146 -0.46628
0.03070 0.05145 -0.46133
0.03600 0.05146 -0.46614
0.07590 0.04786 0.11474
0.07602 0.04780 0.06445
0.04307 -0.10125 -0.45720
0.02163 0.12047 0.24303
0.08819 0.03047 0.21765
0.08829 0.02816 0.09366
0.07913 0.02360 0.46099
0.05770 -0.09227 0.47096
-0.07118 0.03792 -0.41920
-0.07209 0.03787 -0.26036
0.00074 0.12883 -0.47064
0.00854 0.12035 -0.46085
0.02867 0.03304 -0.01528
-0.04497 0.04703 0.46084
0.05757 0.03234 0.47109
0.09096 0.02720 0.24197
0.05649 -0.11897 0.46333
0.07996 0.04683 -0.25313
0.03070 0.02434 0.23543
-0.08335 0.04955 0.25316
-0.03412 0.11711 0.24071
0.02163 0.05155 0.24812
-0.03937 0.05155 0.25284
0.08286 0.01723 -0.22908
-0.06591 0.04992 0.40660
-0.02790 0.04992 0.30046
-0.04966 0.04992 0.26154
-0.04056 0.04992 0.41349
0.03490 0.04992 0.30046
-0.00374 0.04992 0.34908
0.02497 0.04992 0.30567
-0.04003 0.04992 0.28385
-0.04411 0.04992 0.35371
-0.04092 0.04992 0.29279
-0.02350 0.04992 0.35270
-0.02581 0.04992 0.37066
-0.04571 0.04992 0.32570
0.00749 0.04992 0.32907
0.04133 0.04992 0.29007
-0.05725 0.04992 0.26597
-0.05637 0.04992 0.31809
-0.03452 0.04992 0.35439
0.02081 0.04992 0.25439
-0.00225 0.04992 0.28560
-0.00876 0.04992 0.32171
-0.02724 0.04992 0.29151
0.02704 0.04992 0.27641
-0.04165 0.04992 0.39596
0.00464 0.04992 0.32392
0.00662 0.04992 0.27276
-0.01327 0.04992 0.36175
-0.03724 0.04992 0.37602
-0.01482 0.04992 0.37008
0.04618 0.12845 -0.24053
0.03060 0.12845 -0.24552
-0.08839 0.05260 0.46167
0.06737 0.01049 0.35383
0.06419 0.00957 0.24706
0.06649 0.01024 -0.05308
0.06457 0.00968 0.17457
0.06355 0.00938 -0.00551
0.06421 0.00957 0.08474
0.06938 0.01109 0.35971
0.06664 0.01028 0.40253
0.06419 0.00957 0.00636
0.03838 0.04688 -0.24047
0.07207 0.04713 0.46098
0.07161 0.03667 0.32304
0.07372 0.03466 0.11888
0.07584 0.03263 0.11024
0.07541 0.03305 0.30774
0.07559 0.03287 0.27126
0.07338 0.03498 0.16932
0.07530 0.03315 0.36259
0.07203 0.03628 0.24092
0.07507 0.03337 -0.16410
0.05602 -0.03104 0.45576
0.07267 -0.11635 0.47096
0.06124 -0.10946 -0.47114
0.04535 0.02881 -0.01528
-0.01112 -0.09640 -0.45594
-0.07887 0.03806 -0.45471
0.01086 0.02968 0.00244
-0.07526 0.03796 -0.01272
0.08217 0.04432 -0.46096
0.08773 0.03313 -0.15641
0.01729 0.02646 0.46837
-0.08110 0.03931 0.43993
-0.00661 -0.08244 -0.45594
0.06653 -0.10518 0.45576
0.05423 0.12548 0.00380
0.02483 -0.05808 -0.45769
-0.07951 0.07198 0.00498
0.08771 0.03322 0.07099
0.08755 0.03385 0.11091
0.02900 -0.07196 0.47096
0.07594 0.04784 0.44328
-0.07924 0.04321 -0.25313
-0.08340 0.04315 -0.35370
0.03379 -0.05345 -0.45594
-0.05546 -0.12664 -0.47114
0.07813 0.02433 -0.10115
0.07698 0.01959 0.34791
0.07740 0.02131 0.28749
0.07803 0.02391 0.23299
0.07757 0.02203 0.33931
0.07711 0.02012 0.20164
0.07762 0.02225 -0.09603
0.08289 0.04266 -0.06135
0.07012 0.00237 -0.46735
0.01462 0.02720 0.22870
0.08042 0.02493 -0.16113
0.06423 -0.05638 0.47142
-0.05892 0.12472 0.24662
0.08825 0.02890 0.31108
0.01571 -0.09641 -0.47351
-0.02779 0.03990 -0.22295
0.03062 0.12845 0.24129
0.04960 0.03123 -0.20031
0.04945 0.03061 0.12356
0.04881 0.02798 -0.38004
0.04908 0.02909 -0.34498
0.04806 0.02490 -0.38707
0.04884 0.02811 -0.43265
0.04939 0.03036 0.08140
0.04891 0.02838 0.03457
0.07914 0.04605 -0.41804
0.08300 0.02998 0.25316
0.07627 0.04766 -0.17590
0.07618 0.04770 -0.09807
0.05890 0.03860 0.19820
0.06106 0.03924 0.22971
0.05938 0.03874 0.38335
0.05993 0.03890 0.40248
0.05794 0.03832 0.16099
0.06244 0.03964 -0.30727
0.06143 0.03934 -0.21047
0.06061 0.03910 0.13385
0.08635 0.00815 0.46104
0.04924 0.02977 -0.33967
0.04923 0.02972 -0.08442
0.04875 0.02775 -0.15851
0.04932 0.03007 -0.15012
0.04828 0.02580 -0.42688
0.04848 0.02663 -0.41396
0.04966 0.03148 0.06651
0.04942 0.03051 0.27237
0.04948 0.03074 0.17034
-0.07971 0.05081 0.00744
0.04987 0.01739 -0.39210
0.04850 0.02209 0.14278
0.04849 0.02213 0.02635
0.04938 0.01907 -0.18919
0.04795 0.02395 -0.35580
0.04926 0.01948 -0.35975
0.04816 0.02323 -0.29019
0.04817 0.02319 0.04778
0.04934 0.01920 -0.24551
0.08064 0.04477 0.28161
0.05652 -0.11901 -0.45954
0.03170 0.03985 -0.23561
0.04452 -0.08400 0.45576
0.08254 0.04312 0.38608
-0.02150 0.05146 -0.47115
0.03755 0.05146 -0.47217
-0.01177 0.05146 -0.46901
0.07803 -0.00790 0.47349
0.08830 0.02781 0.37276
-0.02301 0.03695 0.00244
0.08599 0.02397 -0.33761
-0.08449 0.11378 0.46078
0.05289 -0.11399 -0.47215
0.03025 -0.08441 0.45576
-0.07720 0.03809 0.24247
0.03062 0.02416 0.01511
0.08411 0.02369 0.12488
0.04477 0.11497 0.24935
0.02696 0.11492 0.24317
0.08335 0.03495 -0.24047
0.04770 0.03785 -0.01528
0.04185 0.02505 -0.46092
-0.07500 0.03772 -0.34648
0.04539 0.01489 0.46926
0.07751 0.02176 0.19375
0.07805 0.02402 -0.19972
0.07720 0.02051 0.31365
0.07771 0.02261 0.24491
0.07686 0.01911 0.43302
0.07775 0.02275 0.26991
0.07742 0.02142 0.41662
0.07714 0.02027 0.25522
0.07803 0.02391 0.18639
0.07776 0.02282 -0.04779
0.07798 0.02370 -0.00459
0.08786 0.02563 0.43093
-0.03226 0.12369 0.24303
0.02167 -0.06086 -0.47193
-0.02175 0.11479 0.25086
-0.01408 0.11481 0.24485
-0.03902 0.11931 0.01257
0.08100 0.04446 0.26553
0.08139 0.04413 0.33156
0.07341 0.05084 -0.25199
0.07352 0.04311 -0.23561
0.06967 0.04963 0.33146
0.05832 -0.04132 -0.47114
-0.04898 -0.12886 -0.45869
0.06744 0.03858 0.15825
0.06858 0.03830 0.28858
0.06833 0.03836 -0.19876
0.06613 0.03889 0.20560
0.06479 0.03922 0.28293
0.06946 0.03808 -0.27519
0.06325 0.03959 0.44556
0.06814 0.03840 -0.05085
0.06316 0.03962 0.42113
0.06714 0.03865 -0.05940
-0.07007 0.04219 0.33370
-0.07002 0.03960 0.44445
-0.07023 0.04938 0.44829
-0.07003 0.04025 0.28720
-0.08221 0.04862 -0.01135
0.02644 0.05146 0.46194
-0.01056 0.11482 0.00455
0.01299 0.03892 -0.22295
-0.07866 0.05125 0.06450
0.06235 0.01807 -0.46094
0.07948 0.02527 -0.39300
-0.07203 0.03780 0.25115
0.00725 0.11487 0.01117
0.08890 0.03618 0.46765
-0.08038 0.08140 0.47345
0.07323 0.04883 0.07733
0.07358 0.04872 0.03416
0.01201 0.03512 -0.00262
0.02702 0.03437 0.00244
-0.06969 0.11045 0.01257
0.06241 0.02963 0.46097
0.08714 0.03548 -0.28332
0.07570 0.03814 0.23543
-0.02533 0.12464 -0.25060
-0.07055 0.05095 0.29037
-0.07555 0.10700 -0.24300
0.05415 -0.06246 0.47096
-0.08483 0.05408 -0.47089
0.01423 0.04197 -0.46088
0.05003 0.04086 -0.46092
0.04340 0.04059 -0.46092
-0.02041 0.04413 -0.46084
0.00331 0.04561 -0.46087
-0.01118 0.05146 0.47167
-0.04212 0.05146 0.47000
-0.05789 -0.11537 0.45576
0.07708 0.04720 -0.05494
-0.02899 -0.11559 0.45576
-0.07559 0.03768 -0.29442
-0.07565 0.03768 -0.31831
0.08721 0.02475 -0.08495
0.08482 0.02366 0.39422
-0.07005 0.04123 0.39618
-0.07008 0.04264 0.41469
-0.07004 0.04046 0.45282
0.08199 0.02436 -0.31395
0.08224 0.02427 -0.34652
-0.01182 0.12591 0.01409
-0.00384 -0.10368 -0.47284
0.06672 -0.04808 -0.45623
-0.05306 0.11243 -0.24982
-0.03696 0.05155 -0.00439
0.04346 0.05155 -0.00566
-0.07773 0.04791 0.01511
-0.00161 0.12576 -0.46084
0.08678 0.03636 0.41214
0.08675 0.03640 0.29774
-0.09086 0.07064 -0.47088
0.01200 0.12739 0.00244
-0.06414 0.05155 -0.24831
-0.02173 0.03447 -0.22295
-0.08069 0.05020 -0.14909
-0.07027 0.05049 -0.46043
-0.00213 0.03935 0.25316
-0.00623 0.12845 0.01317
0.03328 0.04992 0.38780
-0.01457 0.04992 0.38391
0.06220 0.04992 0.35039
0.05308 0.04992 0.38164
0.05370 0.04992 0.33122
0.02453 0.04992 0.42201
0.04999 0.04992 0.40471
0.06153 0.04992 0.29352
0.05888 0.04992 0.36738
0.02538 0.04992 0.35124
-0.00847 0.04992 0.43914
-0.01332 0.04992 0.42699
0.01786 0.04992 0.39325
-0.00761 0.04992 0.45361
0.00786 0.04992 0.35150
0.01425 0.04992 0.35502
0.04312 0.04992 0.31042
-0.03238 0.04992 0.40465
0.04309 0.04992 0.43129
0.04702 0.04992 0.33030
0.00738 0.04992 0.41613
-0.03360 0.04992 0.42610
0.03329 0.04992 0.31828
-0.00080 0.04992 0.41385
-0.00205 0.04992 0.43090
0.03165 0.04992 0.41341
0.00574 0.04992 0.35888
0.05465 0.04992 0.44261
0.00043 0.04992 0.36840
0.06068 0.04992 0.41786
-0.00489 0.04992 0.36467
0.05971 0.04992 0.30391
0.06137 0.04992 0.39049
0.05130 0.04992 0.45830
0.04222 0.04992 0.34307
0.03024 0.04796 0.00244
-0.05734 0.04151 0.00244
0.05008 -0.11011 0.46610
-0.08021 0.10705 0.47091
-0.07332 0.04336 0.24050
-0.08274 0.06483 0.01257
0.00477 0.11501 0.24050
0.00662 0.05155 0.23411
0.04034 0.05155 0.23401
0.08827 0.02846 0.30123
-0.08284 0.04771 0.36544
0.08198 0.01389 0.47354
0.03471 0.12188 0.24303
-0.07101 0.05118 -0.27120
-0.03015 -0.11667 0.47096
-0.08210 0.04883 -0.39438
-0.08347 0.04559 0.33708
0.04182 -0.09983 -0.46745
0.07197 0.03944 -0.24807
-0.03476 0.03511 -0.23409
0.01921 0.04194 -0.23561
-0.08031 0.09763 0.24303
0.06161 0.04229 0.00458
-0.00791 0.04922 0.25316
0.01099 0.12591 -0.25288
0.04319 -0.09462 0.47096
0.00622 0.02898 0.00939
0.01403 -0.06918 0.47349
0.05335 0.12338 -0.25060
-0.07006 0.04141 -0.44288
-0.07010 0.04326 -0.40381
-0.08188 0.06212 0.47092
0.03322 0.05155 -0.22968
0.05342 0.05155 -0.23368
0.04145 -0.03429 -0.46726
-0.08620 0.05954 0.46079
0.04861 0.12883 -0.47263
0.01176 0.12882 -0.46760
-0.03019 0.03459 0.24716
0.08519 0.03965 0.03809
0.08074 0.03743 -0.46096
-0.08316 0.04689 -0.06916
-0.02986 0.11770 0.01257
0.03800 -0.04819 -0.45594
0.04946 0.05024 -0.46092
0.03694 0.04685 -0.46091
-0.00731 0.04492 -0.46085
0.03047 0.02499 -0.46090
0.00288 0.03697 -0.46087
-0.01772 0.04981 -0.46084
0.00150 -0.08315 0.45576
0.08133 0.04633 0.22277
-0.04315 0.04698 0.00244
-0.02263 0.05042 0.00244
-0.08327 0.04252 0.07528
-0.06663 0.11397 -0.24300
-0.06871 0.12144 -0.24098
0.02817 0.03054 -0.22295
-0.07872 0.03892 0.46082
-0.07016 0.04626 0.26140
-0.07014 0.04529 0.34773
-0.07021 0.04820 0.27074
0.05514 0.12790 -0.24471
-0.01905 -0.09748 -0.47114
-0.01428 0.05155 0.23370
0.07434 0.04848 -0.02167
-0.08637 0.05509 0.24315
0.04759 0.02929 0.24621
0.01644 0.11532 -0.46089
0.02735 0.11532 -0.46546
0.05190 0.03408 -0.16119
0.05415 0.03644 -0.12300
0.05504 0.03737 0.33269
0.05435 0.03665 -0.14988
0.05432 0.03662 -0.24211
0.05199 0.03417 -0.14340
0.05148 0.03364 -0.17832
0.05410 0.03639 -0.04812
0.05217 0.03437 -0.09053
0.05293 0.03516 -0.29366
-0.00866 0.12845 0.24718
-0.04109 -0.12886 0.46070
-0.07736 0.03773 -0.12760
-0.08261 0.04103 -0.13180
0.04681 -0.07907 0.47096
0.08306 0.04243 0.45561
-0.07532 0.03770 -0.25381
0.02028 0.03175 -0.22295
-0.02707 -0.09918 0.45576
0.03262 0.12591 0.00488
0.08683 0.03625 -0.39502
0.08684 0.03623 -0.35473
0.05149 0.00612 0.45576
0.03595 -0.07896 -0.47114
-0.05532 0.03692 -0.22401
-0.07318 0.03781 0.29423
-0.07200 0.03788 0.26766
0.05404 -0.09133 -0.45594
0.05478 -0.02063 -0.45594
0.05752 -0.05731 -0.45594
0.02298 0.11850 -0.25060
-0.00886 -0.10956 -0.45819
-0.08084 0.03911 -0.35845
0.05492 -0.11680 -0.46638
0.08507 0.00612 -0.47367
0.06444 0.00627 0.46403
-0.06080 0.04992 -0.03392
-0.02064 0.04992 -0.09979
-0.06983 0.04992 -0.03182
-0.04497 0.04992 -0.13743
-0.00161 0.04992 -0.15119
0.03902 0.04992 -0.18901
-0.03125 0.04992 -0.17464
0.04180 0.04992 -0.20950
-0.05229 0.04992 -0.04432
0.01484 0.04992 -0.19290
-0.05663 0.04992 -0.13409
-0.05853 0.04992 -0.17199
0.01274 0.04992 -0.17389
-0.05029 0.04992 -0.18768
-0.05865 0.04992 -0.13986
-0.01224 0.04992 -0.16547
-0.04720 0.04992 -0.05483
-0.03850 0.04992 -0.21597
-0.06647 0.04992 -0.08067
-0.04193 0.04992 -0.22008
0.00167 0.04992 -0.16477
0.03086 0.04992 -0.20659
-0.06037 0.04992 -0.15341
0.03895 0.04992 -0.20241
-0.06687 0.04992 -0.05608
-0.04421 0.04992 -0.14457
-0.03058 0.04992 -0.12843
-0.03840 0.04992 -0.20042
-0.02851 0.04992 -0.10511
-0.00930 0.04992 -0.19858
-0.01862 0.04992 -0.12198
-0.01432 0.04992 -0.17244
0.00532 0.04992 -0.20341
-0.05247 0.04992 -0.18132
0.06144 0.04992 -0.21581
-0.03823 0.04992 -0.17461
-0.02450 0.04992 -0.21490
-0.00551 0.04992 -0.17981
-0.02665 0.04992 -0.12012
0.04787 -0.01487 0.46821
-0.03029 0.03733 0.47099
0.06725 0.04988 0.31879
-0.00319 0.03499 0.22277
-0.02255 0.03359 -0.25150
-0.02047 -0.11591 -0.45594
0.08674 0.03643 0.15404
0.08700 0.03590 0.19917
0.08738 0.03453 0.39191
-0.04273 0.03571 0.46202
0.08820 0.03013 0.42764
0.08579 0.03839 0.27018
0.08601 0.03794 0.33544
-0.01795 0.11523 0.01511
0.02123 0.12051 0.25063
-0.07609 0.06518 -0.24047
-0.02345 0.12242 0.47098
0.08517 0.02370 -0.33172
0.05884 0.12379 0.00809
-0.01054 0.03383 -0.00262
0.04383 0.04778 -0.01528
-0.06803 0.05536 -0.46863
0.08783 0.03273 -0.38501
0.08765 0.03345 -0.45953
-0.07019 0.04748 0.08307
-0.07012 0.04406 0.07085
-0.07022 0.04873 0.02001
-0.07007 0.04210 0.02880
-0.07101 0.10455 -0.25262
-0.07327 0.10901 -0.47342
-0.08040 0.05043 0.04753
0.02514 -0.08849 0.45576
-0.08829 0.09602 -0.25193
0.05051 0.04845 0.01511
0.05836 -0.10086 0.47096
0.03057 0.11532 0.47348
0.00438 -0.10089 0.47349
0.05255 -0.01552 -0.47114
0.04368 -0.06496 0.47096
-0.05823 0.04684 -0.00262
-0.06451 0.04879 -0.00262
0.02784 0.04800 -0.00262
-0.08790 0.10526 0.00651
-0.03326 0.11532 -0.46212
-0.02603 0.11532 -0.46938
-0.08038 0.05971 -0.25060
-0.07168 0.05686 -0.46077
0.02173 0.02701 0.22277
0.02707 -0.09254 0.46584
0.06540 0.05106 -0.22295
-0.07511 0.03771 0.31558
-0.08291 0.05754 0.00498
0.05890 0.12014 0.46501
0.00627 0.04439 -0.22295
0.07067 0.04953 -0.26713
0.00213 0.12591 0.24293
-0.08227 0.04059 -0.04081
-0.09142 0.07166 -0.24812
0.02280 0.12591 0.00358
-0.05178 -0.11918 -0.45594
-0.06169 0.11318 -0.47305
-0.08352 0.04516 -0.21493
0.07648 0.01755 -0.01856
0.07676 0.01871 -0.14844
0.07707 0.01996 -0.22268
0.07791 0.02344 -0.43510
0.07722 0.02059 -0.38928
0.07741 0.02136 -0.33481
0.07654 0.01778 -0.06043
0.07745 0.02153 -0.22858
-0.07671 0.03766 0.30112
-0.04835 0.05155 0.24410
-0.06713 0.05155 0.24695
0.00606 -0.07587 -0.47367
-0.05987 0.04992 0.13748
-0.00199 0.04992 0.10660
0.02836 0.04992 0.02228
-0.03849 0.04992 0.07220
0.05628 0.04992 0.01744
0.01439 0.04992 0.07872
-0.03550 0.04992 0.09894
-0.02284 0.04992 0.03707
-0.06841 0.04992 0.04903
-0.02828 0.04992 0.05702
0.00080 0.04992 0.08697
-0.01700 0.04992 0.10196
-0.06009 0.04992 0.08850
0.01649 0.04992 0.02935
-0.00969 0.04992 0.08740
-0.01192 0.04992 0.12875
0.03575 0.04992 0.04707
-0.00715 0.04992 0.11058
-0.03255 0.04992 0.11618
-0.03996 0.04992 0.14463
-0.00587 0.04992 0.04582
-0.00705 0.04992 0.02947
-0.06099 0.04992 0.18830
-0.02136 0.04992 0.04605
-0.03311 0.04992 0.03253
-0.01662 0.04992 0.03194
-0.02400 0.04992 0.08244
0.03963 0.04992 0.02295
0.02370 0.04992 0.07666
-0.03045 0.04992 0.13770
0.01453 0.04992 0.06871
-0.04789 0.04992 0.15092
-0.06704 0.04992 0.04196
-0.06047 0.04992 0.12537
-0.05332 0.04992 0.11202
-0.04534 0.04992 0.11613
-0.03942 0.04992 0.03726
0.05252 0.03473 -0.44878
0.05370 0.03597 -0.37985
0.05222 0.03442 -0.41632
0.05487 0.03719 0.25980
0.05495 0.03728 0.32069
0.05420 0.03649 -0.25064
0.01007 0.12883 0.47354
-0.03324 0.12883 0.46948
0.05754 -0.11402 0.45576
0.05954 -0.09061 0.45576
0.01201 0.03721 0.00244
-0.07831 0.03784 -0.28162
-0.07612 0.05155 -0.15166
-0.07283 0.05148 0.34540
-0.07417 0.05151 0.43327
0.04451 -0.09906 -0.47226
-0.07228 0.05146 -0.35624
0.09098 0.02903 -0.01016
-0.08245 0.04835 -0.29857
-0.05500 0.11200 0.01442
-0.07012 0.04433 -0.35063
-0.07015 0.04582 -0.37913
-0.07003 0.04000 -0.32606
0.07121 -0.12044 -0.47114
-0.01311 0.03220 -0.00839
0.03418 -0.04840 0.45576
0.08374 -0.12886 0.46705
-0.08348 0.04366 -0.36481
0.05753 0.12651 -0.46403
0.08550 0.03901 -0.13246
0.09096 0.02727 0.01141
-0.06288 0.05183 0.00777
0.08702 0.03586 -0.10519
0.08673 0.03645 -0.12624
0.03554 0.04556 -0.01528
-0.00932 0.03166 0.24659
0.05738 0.02101 0.47110
0.00606 0.11593 -0.47352
-0.01250 -0.09751 0.45576
0.09050 0.02381 0.25060
0.07054 -0.03647 -0.47258
-0.04094 0.03575 0.22415
0.02920 -0.09214 0.45576
0.07415 -0.11511 -0.45594
-0.02146 0.04893 -0.23561
-0.03453 0.04893 -0.23561
-0.02882 0.04945 -0.23561
0.08744 0.03427 -0.20469
0.08750 0.03406 -0.16774
-0.01445 0.03240 -0.24053
0.05882 -0.11345 -0.45594
0.06218 -0.12683 -0.46428
0.00144 0.12845 0.00608
0.06473 0.05155 0.00483
0.03611 0.05155 0.01167
0.00867 0.05155 0.01326
0.00590 -0.09124 0.45576
0.05168 0.04569 0.23543
-0.07006 0.03863 -0.31424
-0.07773 0.05142 0.26743
-0.08088 0.05005 -0.35411
0.00798 0.02890 -0.22295
0.08601 0.03795 0.16701
0.05917 0.00350 -0.46896
0.07381 -0.02696 -0.45774
-0.08988 0.09336 0.25316
0.03553 0.11748 0.25117
-0.04514 -0.11472 -0.45594
-0.07603 0.03766 0.25809
-0.03209 0.03841 -0.46083
-0.02357 0.03373 -0.22947
-0.04457 -0.10766 0.47349
0.02791 -0.05527 0.46661
-0.04916 -0.12886 0.46924
0.07886 0.02714 0.24151
-0.07391 0.03790 0.01241
0.03503 -0.04600 0.46403
-0.07590 0.10139 0.47032
-0.07376 0.05150 0.37455
0.07854 0.04639 0.18160
0.00621 0.02899 -0.01007
-0.02571 -0.10196 0.47096
-0.02089 0.11941 0.46085
0.02586 0.12744 0.46090
0.04109 0.04892 0.47155
0.03247 0.02310 -0.24510
0.07519 0.03325 0.42455
0.07405 0.03435 0.02360
0.07309 0.03527 0.13942
0.07554 0.03292 -0.13750
0.07506 0.03338 0.35141
0.07398 0.03442 0.25576
0.07603 0.03246 0.07847
0.07510 0.03334 -0.02839
-0.04395 0.11767 0.47348
0.07223 0.04915 -0.19227
-0.03229 0.11483 -0.24047
-0.08329 0.04258 0.14195
0.02210 0.04992 0.35635
0.01732 0.04992 0.37706
0.06622 0.04992 0.26044
0.04795 0.04992 0.41301
0.03620 0.04992 0.42470
0.03449 0.04992 0.35214
0.05297 0.04992 0.27676
0.03169 0.04992 0.40753
-0.02320 0.04992 0.41562
0.01575 0.04992 0.40231
0.03339 0.04992 0.34092
0.05699 0.04992 0.32389
0.03523 0.04992 0.36700
0.00133 0.04992 0.40301
0.05641 0.04992 0.42554
-0.03853 0.04992 0.45592
-0.04512 0.04992 0.43541
0.06504 0.04992 0.39833
-0.04531 0.04992 0.45148
0.01839 0.04992 0.38391
0.00687 0.04992 0.36884
0.00975 0.04992 0.45431
-0.00860 0.04992 0.43378
0.06126 0.04992 0.31854
0.03897 0.04992 0.38162
0.00453 0.04992 0.37782
0.06603 0.04992 0.26857
0.05749 0.04992 0.29889
0.05135 0.04992 0.42079
0.02494 0.04992 0.39816
0.04050 0.04992 0.30334
0.05739 0.04992 0.33700
0.06791 0.03449 0.45576
-0.05360 0.04754 0.22277
0.07896 -0.10929 -0.47285
-0.03182 0.11786 -0.47277
0.03593 0.12882 0.46254
0.01493 0.12882 0.46676
0.06921 -0.01525 -0.47114
-0.07230 0.05147 0.30487
0.06364 -0.08600 0.47003
-0.07710 0.05151 0.20946
0.05210 0.03429 0.41269
0.05045 0.03256 0.14777
0.05244 0.03465 0.35165
0.04992 0.03201 -0.35314
0.05230 0.03450 0.22233
0.05021 0.03232 0.31268
0.05169 0.03386 -0.05395
0.08117 0.03596 -0.25313
-0.07645 0.09467 0.25316
-0.07337 0.04197 -0.22295
-0.07648 0.05079 -0.01528
0.08572 0.03855 0.06704
0.08630 0.03735 0.01664
0.00156 0.12882 0.46395
0.01165 0.02779 -0.46825
0.08831 0.02755 -0.42831
0.07652 0.03084 -0.00068
0.07682 0.02981 0.12809
0.07612 0.03221 -0.20710
0.07621 0.03191 0.40161
0.07719 0.02857 0.23619
0.07660 0.03056 -0.15477
0.07676 0.03001 0.05932
0.07635 0.01718 0.36081
0.07451 0.01525 -0.04414
0.07533 0.01611 -0.11344
0.07408 0.01481 0.13499
0.07422 0.01495 0.25634
0.07614 0.01696 -0.13453
0.07487 0.01564 -0.00391
0.07469 0.01545 -0.03548
0.00790 0.02866 0.24672
0.04116 0.02109 -0.22480
-0.02740 -0.09534 0.46522
0.08170 0.02816 0.00244
-0.07064 0.03801 -0.39278
-0.08247 0.04832 0.38631
-0.08224 0.04054 -0.15525
-0.02286 -0.09364 0.45576
-0.04721 0.04273 -0.22295
-0.03368 0.04277 -0.22295
-0.03994 0.04504 -0.22295
0.02906 0.05058 -0.22295
-0.07412 0.03776 -0.10295
-0.07032 0.03822 -0.37369
0.07752 -0.12178 -0.47114
0.08789 0.02568 0.26645
0.04775 -0.06915 0.45576
-0.03760 -0.10183 0.47297
0.01557 0.04992 -0.03231
-0.04662 0.04992 -0.02405
0.05313 0.04992 -0.16667
0.03113 0.04992 -0.15761
-0.03497 0.04992 -0.05323
-0.00640 0.04992 -0.07162
0.03556 0.04992 -0.03959
0.00870 0.04992 -0.09514
-0.00718 0.04992 -0.05516
0.03687 0.04992 -0.17063
0.01275 0.04992 -0.13530
0.02719 0.04992 -0.13740
0.05687 0.04992 -0.06699
-0.02622 0.04992 -0.04807
0.03617 0.04992 -0.10559
0.01457 0.04992 -0.04473
0.05422 0.04992 -0.20177
-0.00635 0.04992 -0.06137
0.05382 0.04992 -0.10601
-0.01175 0.04992 -0.07261
-0.03414 0.04992 -0.04305
0.01395 0.04992 -0.09223
0.05833 0.04992 -0.14407
0.05447 0.04992 -0.12831
0.03881 0.04992 -0.08804
0.03863 0.04992 -0.11974
0.01636 0.04992 -0.12898
0.00210 0.04992 -0.09650
0.05327 0.04992 -0.18081
0.05017 0.04992 -0.04023
-0.01262 0.04992 -0.02800
-0.02379 0.04992 -0.08476
0.01816 0.04992 -0.13524
-0.03184 0.04992 -0.06819
0.08021 0.02501 0.03871
0.04488 0.12591 0.24099
0.05664 0.03647 -0.46093
-0.08219 0.04870 -0.26847
0.00681 -0.08521 0.45576
-0.07494 0.12331 -0.47342
0.08650 0.03692 -0.41190
0.02407 0.02504 0.00373
-0.07655 0.05156 0.14730
0.02476 0.03156 0.23543
0.08501 0.01700 -0.22382
0.03524 0.02742 0.47107
0.08307 0.02397 0.36364
0.04675 0.02278 -0.23147
0.03373 0.05155 0.25242
-0.04840 0.05155 0.25083
-0.08967 0.07199 -0.24047
0.05585 0.03441 0.46096
0.08662 -0.12510 0.47096
0.05361 0.11510 0.24136
-0.04095 0.03575 -0.01148
0.08285 0.04601 0.23382
-0.07014 0.04522 -0.17145
0.02154 -0.09417 -0.46870
-0.07153 0.12019 0.24787
0.08076 0.02481 -0.11506
0.00206 -0.09627 -0.47114
-0.07242 0.05147 0.11912
0.02496 0.11711 0.25316
0.01724 0.03264 -0.01528
0.07420 0.04853 -0.40025
0.08512 0.02369 0.02070
0.08344 0.04193 0.42604
-0.04482 0.12879 -0.46441
-0.08229 0.04061 0.27161
0.08809 0.03172 0.04447
0.07632 -0.10627 0.46353
0.06131 0.00281 -0.46171
0.05148 0.05146 0.24050
-0.07531 0.03770 -0.04889
-0.07385 0.03778 -0.11128
0.04271 0.03197 -0.25313
-0.05054 0.12846 0.46726
0.04826 -0.02443 0.45576
0.01562 0.11532 -0.47334
0.03673 -0.08240 0.45576
0.08753 0.02511 0.11289
0.08645 -0.11769 0.46176
0.01625 0.04980 0.01511
-0.01467 0.04453 0.01511
0.04993 -0.00617 -0.45594
-0.05661 0.04173 -0.01528
-0.05538 0.04840 -0.01528
-0.08715 0.11196 -0.46176
0.08404 0.02370 0.19764
0.04928 0.11773 0.01257
-0.00642 -0.08160 0.45774
0.04128 -0.08017 -0.45594
0.01397 0.03367 0.47104
-0.01785 0.04771 0.47100
-0.01333 0.03781 0.47101
0.02234 0.04840 0.47105
-0.07920 0.05101 0.39777
0.00628 0.12194 0.47101
0.06669 -0.10180 0.47096
0.05669 0.01454 0.45576
0.07952 0.04574 0.44870
0.07168 0.00250 0.46141
0.07134 -0.09976 -0.46175
-0.07685 0.09102 -0.24639
0.06123 -0.07513 0.45908
0.01431 0.03832 0.24050
0.07991 0.04541 -0.02662
0.08075 0.04467 -0.03963
0.07537 0.04816 0.17530
-0.09188 0.06357 0.46308
0.05269 -0.05532 0.45576
0.05257 -0.00070 0.45576
0.05643 -0.11521 0.47349
0.05786 0.01070 0.10845
0.05633 0.01107 -0.34876
0.05803 0.01065 0.13817
-0.07740 0.03773 -0.36311
0.05616 -0.08764 -0.47114
0.08818 0.03065 -0.32107
0.08709 0.03567 0.17671
0.04802 0.11498 -0.24642
0.04016 0.11496 -0.24552
-0.07954 0.11662 0.46078
-0.01227 0.03208 0.22427
0.07984 0.02514 -0.28752
0.05493 0.04002 0.22729
0.08949 0.03295 -0.01528
0.08209 0.04352 -0.18143
0.00083 0.03002 -0.23480
0.08012 0.04522 0.39111
0.07963 0.04565 0.30553
-0.05752 -0.11410 0.46475
0.07718 0.04715 -0.11716
-0.01166 -0.10166 0.47096
-0.08332 0.04266 0.35479
0.08995 0.02173 0.00959
-0.08796 0.06852 0.46078
-0.03658 0.03507 -0.46422
0.06571 0.00220 0.45755
0.05084 0.03063 -0.45594
0.02212 0.11532 0.47136
-0.00948 0.11532 0.47101
0.01447 0.04632 -0.23561
0.04729 0.05134 -0.23561
0.00202 0.02968 -0.46978
0.08361 -0.12359 -0.47114
0.04305 0.02066 -0.01446
-0.08261 0.04102 0.02309
0.08654 0.02419 -0.16862
0.07471 0.03122 -0.47108
0.05171 0.03388 0.00053
0.05153 0.03369 -0.01158
0.04991 0.03200 -0.30473
0.05162 0.03379 0.21367
0.04986 0.03194 0.37257
0.05237 0.03457 0.36370
0.05185 0.03403 0.23752
0.05215 0.03435 0.04969
0.05069 0.03281 0.38733
-0.08353 0.04397 -0.09165
-0.05268 -0.11117 -0.45918
-0.06783 0.10732 0.25015
-0.08002 0.08661 0.24123
-0.04635 0.03625 -0.22944
0.01929 0.12215 0.01257
-0.03817 0.11485 -0.24047
0.07123 0.05124 0.22565
0.08401 0.04120 -0.45295
0.01204 -0.06866 -0.46772
0.07353 -0.12359 0.45576
0.00390 0.03170 -0.24047
0.05627 0.04088 0.00301
0.08806 0.03182 0.09779
-0.08580 0.05377 -0.46076
0.05790 0.00151 0.45576
0.08553 0.03705 0.47214
0.07901 0.02545 0.13314
-0.00730 0.04992 -0.15839
-0.04758 0.04992 -0.10295
0.00164 0.04992 -0.15752
0.02421 0.04992 -0.18381
-0.01038 0.04992 -0.11763
-0.04772 0.04992 -0.21831
0.01435 0.04992 -0.20210
-0.02642 0.04992 -0.20107
-0.02960 0.04992 -0.18865
-0.06772 0.04992 -0.07137
-0.01505 0.04992 -0.11092
0.00542 0.04992 -0.15043
-0.03310 0.04992 -0.14763
0.01899 0.04992 -0.15946
-0.01110 0.04992 -0.22011
0.03936 0.04992 -0.21749
-0.01013 0.04992 -0.13094
-0.00157 0.04992 -0.18693
-0.01409 0.04992 -0.15653
-0.02661 0.04992 -0.14052
-0.05784 0.04992 -0.04588
-0.04426 0.04992 -0.15053
-0.03484 0.04992 -0.15291
-0.06496 0.04992 -0.21050
-0.05860 0.04992 -0.16083
-0.00263 0.04992 -0.17154
0.05895 0.03862 -0.32982
0.06004 0.03894 -0.13566
0.05752 0.03820 0.02344
0.05557 0.03763 0.06050
0.05950 0.03878 -0.11376
0.06004 0.03894 -0.42452
0.05794 0.03832 -0.16701
0.05523 0.03753 0.14512
0.05660 0.03793 -0.00181
0.04830 -0.09306 -0.47114
0.07700 0.02920 -0.11213
0.07702 0.02914 -0.40525
0.07719 0.02856 -0.23568
0.07675 0.03007 -0.25228
0.07629 0.03164 -0.37190
0.07774 0.02668 0.21138
0.07822 0.02505 0.16107
0.07771 0.02678 -0.19370
0.03235 0.02312 -0.25092
-0.00321 0.04009 -0.25313
0.06818 0.02582 0.47111
0.07624 0.01707 -0.34149
0.07480 0.01556 0.30548
0.07278 0.01344 0.36342
0.07462 0.01537 0.37750
0.07562 0.01642 0.23022
0.07306 0.01374 0.21318
0.07537 0.01616 0.29035
0.07543 0.01622 0.33762
0.07647 0.04992 -0.23093
-0.02735 0.11478 0.24218
0.08825 0.02678 -0.16109
0.03348 0.02969 -0.47104
-0.07078 0.03774 0.24443
-0.08977 0.08569 0.25278
-0.07066 0.10889 0.24303
0.04547 0.04441 0.22277
-0.01281 0.04992 0.11591
0.00748 0.04992 0.07345
-0.05398 0.04992 0.08013
-0.01477 0.04992 0.08019
0.01280 0.04992 0.01973
-0.03163 0.04992 0.08911
-0.03013 0.04992 0.09453
-0.04009 0.04992 0.15080
0.01629 0.04992 0.03966
-0.01222 0.04992 0.04817
-0.01920 0.04992 0.14278
-0.04927 0.04992 0.16353
-0.05947 0.04992 0.06221
-0.00540 0.04992 0.10240
-0.03939 0.04992 0.07879
-0.01310 0.04992 0.12269
-0.04159 0.04992 0.15726
-0.05998 0.04992 0.02072
-0.06104 0.04992 0.15624
-0.02398 0.04992 0.06274
-0.05103 0.04992 0.01991
-0.06422 0.04992 0.09207
-0.06270 0.04992 0.04750
-0.03933 0.04992 0.12809
-0.04935 0.04992 0.10296
0.08933 0.03718 0.01088
0.08494 0.03998 0.13874
-0.07224 0.05146 0.09814
-0.07176 0.05140 -0.16395
0.07607 0.04180 -0.24047
0.07354 -0.02773 -0.47144
0.06119 -0.07056 0.46590
0.08361 0.04171 -0.29954
0.01518 0.05146 -0.46417
-0.05008 0.12658 0.24866
0.02120 -0.06484 -0.45594
0.08508 0.03489 0.22277
0.02422 0.12660 -0.24047
-0.08995 0.05705 0.46494
-0.07153 0.03778 -0.23245
0.08396 0.02371 -0.05779
-0.04725 0.11866 0.25063
-0.03007 -0.12347 -0.45687
0.02925 0.11493 -0.24571
-0.05192 0.04893 0.47324
-0.08452 0.11084 0.24798
-0.08633 0.06922 0.01257
0.05638 0.03787 -0.34222
0.06182 0.03946 -0.36630
0.05574 0.03768 0.03623
0.06017 0.03898 -0.20184
0.05519 0.03752 -0.18365
0.05674 0.03797 -0.30000
0.05564 0.03765 -0.43101
0.06156 0.04270 0.23543
0.08654 0.02826 -0.22295
0.08355 0.02381 0.21750
0.04918 0.04380 -0.23561
-0.07901 0.03811 0.40616
0.07726 0.04710 -0.07996
-0.07063 0.03801 -0.12749
-0.06911 -0.12886 0.46501
-0.07485 -0.12441 -0.46043
0.08453 0.04052 0.09510
0.08323 0.04222 0.21972
-0.02802 0.12220 0.46084
0.00418 0.12399 0.46088
0.02199 -0.08398 0.47096
-0.02726 -0.12152 -0.47345
-0.07917 0.03817 0.08568
0.08822 0.02962 -0.17762
0.07758 0.04693 0.32478
0.07553 0.04807 0.43160
0.04776 0.02997 -0.22785
-0.08335 0.09314 0.00498
0.05178 0.05146 0.46948
-0.00014 -0.09691 -0.45594
-0.06137 -0.11643 0.47076
0.09370 -0.12549 0.45630
-0.07022 0.04891 -0.28373
-0.07007 0.04199 -0.28259
-0.07016 0.04612 -0.33114
-0.03148 0.03670 0.01511
-0.07757 0.08550 0.25023
0.08474 0.04024 -0.05645
-0.03753 0.05155 0.22326
0.00664 0.05155 0.22481
-0.08151 0.04954 -0.14379
0.06234 0.04776 0.47110
-0.02871 0.04631 0.47099
0.00315 0.03876 0.47103
0.01086 0.04588 0.47104
0.01166 0.12652 0.24050
-0.04350 -0.10550 -0.45891
-0.07780 0.05141 -0.37992
0.05315 0.01371 0.40625
0.05447 0.01245 0.43416
0.05170 0.01510 -0.01712
0.05031 0.01642 -0.12044
0.05065 0.01611 -0.34920
0.05024 0.01650 0.25408
0.05088 0.01588 0.30365
0.05040 0.01634 -0.31847
-0.08410 0.11579 0.47344
-0.07884 0.05117 0.03182
0.04199 0.01765 -0.47084
-0.08132 0.03947 0.38538
-0.08343 0.04601 -0.11763
0.05865 -0.02841 -0.45594
-0.06000 0.03719 0.24112
0.06930 0.03812 0.03581
0.06789 0.03847 0.23671
0.07029 0.03788 0.42180
0.06615 0.03889 0.07464
0.06682 0.03872 0.32648
0.06981 0.03800 -0.10365
0.06879 0.03825 -0.01420
-0.08551 0.08054 -0.47088
-0.05991 0.11569 0.00498
-0.05595 0.03965 -0.46080
0.00562 0.04166 -0.00262
0.03962 0.12273 0.46092
-0.00525 0.11739 0.46087
0.08783 0.03276 0.32127
0.04935 0.03021 0.27879
0.04912 0.02925 0.25875
0.04818 0.02538 -0.07777
0.04822 0.02555 0.02104
0.04885 0.02815 0.44963
0.04876 0.02780 0.39581
0.04835 0.02611 0.08536
0.00890 0.03244 0.25316
-0.02063 -0.09209 -0.47367
-0.07598 -0.12508 0.46748
-0.06701 0.03955 -0.25313
0.05343 0.04992 0.15072
-0.00516 0.04992 0.14502
0.05093 0.04992 0.10920
0.04135 0.04992 0.11877
-0.04567 0.04992 0.21370
0.05875 0.04992 0.09894
0.06309 0.04992 0.02628
-0.06025 0.04992 0.22117
0.06127 0.04992 0.21567
-0.04302 0.04992 0.21949
0.02269 0.04992 0.09895
0.02743 0.04992 0.18517
0.05291 0.04992 0.17572
0.06045 0.04992 0.12811
0.05725 0.04992 0.06705
-0.01351 0.04992 0.20996
0.04677 0.04992 0.13343
0.04192 0.04992 0.07549
0.06138 0.04992 0.18254
0.01636 0.04992 0.16732
0.01415 0.04992 0.09809
0.04096 0.04992 0.13831
0.05651 0.04992 0.16546
-0.00108 0.04992 0.16164
0.04627 0.04992 0.21340
0.04023 0.04992 0.09035
0.01948 0.04992 0.15763
0.01540 0.04992 0.10497
0.05695 0.04992 0.10494
-0.01936 0.04992 0.19717
0.04580 0.04992 0.06201
0.01000 0.04992 0.13261
0.06124 0.04992 0.07565
0.03610 0.04992 0.15746
0.06174 0.04992 0.09339
0.03244 0.04992 0.16321
0.02011 0.04992 0.11332
-0.05362 -0.12750 0.45576
-0.07649 0.11340 0.01257
0.08539 0.03923 -0.28935
-0.06173 0.03729 -0.25312
0.08363 0.02379 -0.09608
0.03883 -0.05349 0.45576
0.02760 0.12845 0.24636
-0.07989 0.03845 -0.18885
-0.07553 0.05154 -0.32089
-0.00675 0.03917 -0.01528
0.06732 0.04987 -0.31226
0.06797 0.04980 -0.28257
-0.07311 0.03782 0.07523
0.07373 0.04867 0.37233
-0.01131 0.03451 -0.46085
-0.06005 0.11344 0.46443
0.02055 0.11491 -0.24193
0.08147 0.04405 0.17230
0.05191 0.11532 0.47054
0.00982 0.02826 -0.23498
0.07687 0.02964 0.28349
0.07638 0.03132 0.20626
0.07701 0.02916 0.17971
0.07774 0.02668 0.31507
0.07663 0.03048 0.16533
0.07646 0.03104 0.32716
0.07627 0.03170 -0.03567
0.07664 0.03045 0.08937
0.08294 0.04259 0.18544
-0.08317 0.11731 -0.46412
-0.08041 0.11454 0.24050
-0.07762 0.03776 -0.27209
-0.07816 -0.12862 -0.45594
-0.07607 0.05155 0.13170
-0.02556 0.03825 0.24050
0.08618 0.02404 0.16476
-0.07469 0.05152 0.33053
0.05713 0.04569 -0.23561
-0.06003 0.03719 -0.24271
0.00062 0.03960 -0.00262
-0.08355 0.04493 0.43732
-0.09292 0.07424 0.47344
-0.03697 -0.10406 -0.45594
-0.01921 0.03311 0.23064
-0.07241 0.04712 -0.24047
-0.05684 0.12119 0.25063
-0.08073 0.03903 -0.03283
-0.01393 0.04307 -0.01528
-0.07006 0.04502 -0.01528
-0.03294 0.04464 -0.01528
-0.07296 0.10186 0.00459
-0.07996 0.05068 -0.04219
-0.05983 0.11592 -0.24300
0.07433 0.04849 0.35546
0.08399 0.02371 -0.17409
-0.06425 0.03742 -0.01372
-0.01783 0.03290 -0.01182
0.04261 0.01715 0.46298
0.06289 0.04992 0.11393
0.01142 0.04992 0.17112
-0.00743 0.04992 0.17022
0.02573 0.04992 0.20153
0.00161 0.04992 0.19428
0.00336 0.04992 0.14780
0.03119 0.04992 0.17270
0.04217 0.04992 0.05339
0.03485 0.04992 0.21081
0.06192 0.04992 0.08428
-0.00646 0.04992 0.15647
-0.02105 0.04992 0.15046
