0.04736 0.15557 0.28507
0.08264 -0.11724 -0.06842
-0.05376 -0.03041 0.18593
-0.05608 -0.03041 0.18051
-0.03202 -0.03041 0.23887
-0.08915 -0.03041 0.18034
-0.11018 -0.06598 0.07227
0.04214 0.08952 -0.29267
0.01489 -0.14824 -0.29904
0.01683 -0.14824 -0.31616
0.05824 0.10779 0.28507
0.06991 -0.03041 0.45909
-0.06457 0.14936 -0.08627
0.10864 -0.03041 -0.09540
0.08443 -0.03041 -0.11820
-0.09878 -0.15637 -0.32834
0.02675 0.15584 0.31806
0.06639 0.15584 0.29769
0.02565 -0.03041 0.01497
0.04220 -0.03041 -0.02827
0.08152 -0.03041 0.06825
0.11018 -0.07974 -0.15875
0.01873 -0.14824 -0.15029
0.03020 -0.14824 -0.12042
-0.11018 -0.10961 0.40879
-0.11018 -0.10048 0.43103
0.04164 0.15584 -0.33598
0.06561 0.15584 -0.29901
-0.05407 -0.11069 0.15964
-0.07248 -0.08641 0.15964
-0.07757 -0.12894 0.15964
0.06119 0.12758 0.14444
0.06817 0.08939 0.14444
-0.06267 0.08146 0.09051
0.02747 0.15584 0.11049
0.05033 0.15584 0.05764
-0.01135 -0.00403 0.44480
0.02203 0.10659 -0.45421
-0.06825 0.11613 0.29268
-0.03544 0.08999 -0.28887
-0.05432 0.06629 -0.28887
-0.06267 0.09916 -0.21969
0.06442 0.06462 0.37684
0.04617 0.06462 0.39756
-0.06494 0.08521 0.42951
-0.05283 0.12985 0.42951
0.02276 0.08956 0.40476
0.02276 0.14679 0.41202
0.02276 0.13745 0.40976
0.02276 0.15558 0.42983
0.06726 0.10144 0.29268
-0.04875 0.15964 0.03003
-0.05317 0.15964 0.09366
0.07271 -0.11803 -0.45612
0.02507 -0.10008 -0.45612
0.08692 -0.12305 -0.45612
-0.04649 -0.14227 -0.45612
0.01277 -0.14670 -0.45612
0.07335 -0.07225 -0.45612
-0.01325 -0.10947 -0.45612
-0.05936 -0.03041 0.08270
-0.05099 -0.03041 0.07926
-0.08774 -0.03041 0.08247
0.04459 0.08431 0.14444
0.03800 0.10579 0.14444
0.02276 0.10006 -0.43237
0.02276 0.11013 -0.39805
0.02276 0.06986 -0.39159
0.02276 0.06874 -0.38099
0.03379 0.11213 0.32563
0.11398 -0.02911 -0.34306
0.02325 0.04561 -0.27272
-0.04758 0.06462 -0.38245
-0.03181 0.06462 -0.35393
-0.02276 0.12441 -0.11163
0.11018 -0.11682 -0.35936
-0.06126 0.09699 -0.06842
0.06267 0.10370 -0.16018
-0.06457 0.15243 -0.12977
0.03357 0.15300 -0.28507
-0.06025 0.08138 0.28887
-0.04424 0.07957 0.28887
0.06457 0.14366 -0.35831
0.04365 0.10676 -0.14444
-0.06837 0.12541 0.33050
0.05923 0.08835 -0.14444
0.09593 -0.07753 -0.06842
0.09852 -0.08622 -0.06842
0.08942 -0.10267 -0.06842
-0.02276 0.07759 0.21517
-0.02276 0.09209 0.15713
-0.02276 0.07276 0.27122
-0.02276 0.06599 0.20792
-0.02276 0.12674 0.14464
-0.07865 -0.03041 -0.18622
-0.07544 -0.03041 -0.17007
-0.09420 -0.03041 -0.26057
-0.06837 0.13971 0.06832
-0.06837 0.08046 0.03888
0.01135 0.15161 0.04959
-0.11018 -0.04065 0.43672
-0.06320 0.15417 0.29268
-0.06457 0.07317 -0.22165
0.06267 0.12067 -0.34220
-0.06837 0.12513 -0.13422
-0.05922 0.07828 0.00000
-0.03311 0.06842 0.06166
-0.03151 0.06842 0.07088
-0.01135 0.04387 0.44872
0.06837 0.11326 -0.27329
-0.03502 0.10504 -0.43331
-0.11018 -0.07312 -0.15243
0.02842 0.15408 -0.42951
-0.11018 -0.03424 0.35944
-0.03585 -0.14824 -0.09989
-0.04772 -0.14824 -0.10247
-0.01135 0.08046 -0.26248
-0.01135 0.08204 -0.30434
-0.02850 0.15584 0.20804
-0.02595 0.15584 0.22232
-0.04579 0.08877 0.42951
0.02276 0.04281 0.02679
0.02276 0.04327 0.14127
0.02276 0.04106 0.35654
0.02276 0.04135 0.39647
0.02276 0.03552 0.14841
-0.05887 0.11488 -0.00534
-0.06837 0.12170 -0.38742
0.11018 -0.11603 0.11821
-0.05407 -0.15964 -0.08925
-0.04079 -0.15964 -0.12959
0.09648 -0.15964 0.38620
0.04034 -0.15964 0.29663
0.03594 -0.15964 0.32479
0.07729 -0.15964 0.38175
-0.01135 0.08918 0.43262
-0.06457 0.11360 0.29754
0.06034 0.06462 0.15254
0.04852 0.06462 0.17791
0.02055 0.15964 -0.41254
0.01213 0.15964 -0.36838
0.01135 0.15399 0.28514
0.10214 -0.12619 0.29648
-0.02276 -0.01760 -0.11569
-0.02276 0.08502 0.18625
0.01135 -0.01272 0.45200
-0.05078 -0.03041 0.02697
-0.08884 -0.03041 0.04557
-0.07145 -0.03041 0.01602
-0.10659 -0.03041 0.00813
-0.05887 0.08783 -0.21561
-0.01753 -0.03041 -0.15043
-0.11018 -0.03540 0.13579
0.11398 -0.02495 -0.22814
-0.06115 0.14729 0.26009
0.02227 0.09122 0.09210
0.07665 -0.03041 0.11021
0.07377 -0.03041 0.09996
0.05613 -0.03041 0.09437
0.05057 -0.02383 -0.45992
0.02503 0.10928 -0.17308
-0.01896 -0.15701 -0.03231
-0.00070 -0.15964 -0.27723
-0.06030 0.07697 -0.21124
0.06012 0.07865 -0.14064
0.01896 -0.15499 0.25588
0.06837 0.11359 -0.41241
0.06837 0.09722 -0.41136
-0.03585 0.11213 0.41983
0.00332 -0.14824 0.24568
-0.00718 -0.14824 0.28052
0.11018 -0.04314 -0.11677
-0.06588 0.07873 0.36489
-0.06196 0.06842 -0.26165
-0.06271 0.06842 -0.16660
0.04448 0.10082 -0.00380
-0.06837 0.09323 0.00163
0.02276 0.00508 0.45051
-0.04026 0.06462 -0.03343
-0.05727 0.06462 -0.02515
0.01848 -0.11339 -0.21115
0.01848 -0.06441 -0.28758
0.01848 -0.14457 -0.28520
0.01848 -0.05660 -0.29614
0.01848 -0.11824 -0.29180
0.11018 -0.06299 -0.07135
-0.00647 -0.15964 0.23701
0.00166 -0.15964 0.22170
0.00620 -0.15964 0.34309
0.00951 -0.15964 0.38262
0.00527 -0.15964 0.33807
-0.03418 0.10262 -0.29267
-0.06837 0.10856 0.17594
-0.06055 0.11265 0.06842
-0.03967 0.15839 -0.14444
-0.06837 0.07375 -0.41528
0.06267 0.12261 -0.01642
0.06267 0.11458 -0.01936
0.02277 0.04561 -0.42997
-0.01896 -0.15715 0.04222
0.05326 0.11213 -0.10987
0.05206 -0.15372 0.15964
-0.11018 -0.13676 0.35116
0.06267 0.08525 0.42454
-0.04460 0.13437 0.00000
0.04228 0.11509 0.14444
-0.06457 0.12192 -0.28005
-0.08658 -0.03041 0.07747
-0.02911 -0.03041 0.09741
0.03908 0.11213 -0.14961
0.02715 0.11213 -0.21972
-0.02273 0.09122 -0.34723
-0.01722 0.09122 -0.27960
0.01848 -0.06697 -0.20405
0.01848 -0.08173 -0.21848
0.01848 -0.06306 -0.22745
0.01848 -0.12197 -0.16943
0.01848 -0.08534 -0.22723
-0.02431 0.15964 -0.35403
-0.05278 0.15964 -0.33776
-0.06837 0.11401 -0.38459
0.04861 0.10928 0.26667
0.06837 0.13474 -0.13357
-0.06837 0.11706 0.15957
-0.02333 0.15964 0.40748
-0.03412 0.15964 0.40021
-0.11018 -0.08959 0.31456
-0.02276 0.15532 0.03617
-0.02276 0.10777 0.10232
-0.02276 0.07678 0.12744
-0.02276 0.13977 0.06414
-0.04546 0.15584 0.39565
-0.05298 0.15584 0.35546
-0.04039 0.11213 -0.40485
-0.04936 0.11213 -0.42072
0.06837 0.10266 0.05189
-0.11018 -0.03898 0.09417
0.01896 -0.12874 0.28335
0.01896 -0.04039 0.26011
0.01896 -0.07847 0.24930
0.01896 -0.03171 0.20994
0.01896 -0.10066 0.24508
0.02276 0.11075 -0.02112
0.02276 0.14103 -0.00300
0.02276 0.15744 -0.07922
0.02276 0.09984 -0.02244
0.11018 -0.08088 0.07212
0.04119 0.15584 0.39282
0.06267 0.10512 -0.01414
0.06267 0.09571 -0.02537
0.00675 -0.15964 -0.21749
0.01838 -0.15964 -0.27775
0.09801 -0.15964 -0.14323
0.08670 -0.15964 -0.12618
0.11018 -0.07619 0.30150
-0.08813 -0.15964 0.34369
-0.07440 -0.15964 0.32035
-0.07451 -0.15964 0.33436
-0.07941 -0.15964 0.34977
0.05244 0.08463 0.29268
0.05571 0.13079 0.29268
0.06392 0.15584 0.36284
0.04563 0.15584 0.38072
0.02276 0.15555 -0.33678
0.02276 0.11802 -0.33318
0.02276 0.14239 -0.29722
0.02276 0.14815 -0.36856
0.02276 0.15013 -0.40965
0.05696 0.15202 -0.42951
-0.06267 0.10586 -0.16623
-0.06267 0.12865 -0.16020
-0.01264 0.15964 0.05610
0.01520 0.09122 0.36437
-0.06533 0.12483 0.21285
0.05270 -0.15964 0.12405
0.08584 -0.15964 0.10022
-0.06837 0.15389 0.18366
-0.03309 0.06842 0.31217
-0.06750 0.06842 0.34319
0.01754 0.07982 0.20496
-0.01932 0.09122 0.02390
-0.04839 0.15964 0.21913
-0.06313 0.15964 0.20596
0.03711 0.11213 0.20219
0.05044 0.11213 0.15890
-0.05887 0.07175 0.08113
0.02276 0.15218 -0.38178
0.04509 -0.11456 -0.06842
0.02590 -0.14545 -0.06842
0.02060 -0.11070 -0.06842
0.01135 -0.00941 -0.11818
-0.11018 -0.05862 -0.38027
-0.02365 0.06462 0.19198
-0.06837 0.06577 -0.11803
-0.06837 0.14095 -0.40681
0.11018 -0.14470 -0.43508
0.01537 0.14824 -0.40844
0.02020 -0.00505 0.45421
-0.02276 0.14305 -0.05738
-0.02276 0.10383 -0.03583
-0.02276 0.12187 -0.01257
-0.02276 0.14310 -0.08893
-0.02276 0.14641 -0.10666
-0.02394 0.02661 0.02974
-0.09878 -0.15141 0.38626
-0.02777 0.11213 -0.24565
-0.03690 0.11213 -0.14920
-0.04693 0.10699 -0.14824
-0.02276 0.06646 0.26922
-0.02276 0.09290 0.19994
-0.02276 0.09673 0.18278
-0.02276 0.11831 0.16717
-0.08145 -0.12046 0.29648
0.02276 0.09762 -0.20976
0.02276 0.11236 -0.26297
0.02276 0.13455 -0.25513
0.02276 0.06843 -0.16640
0.02276 0.07879 0.17319
0.02276 0.14849 0.15607
0.02276 0.10764 0.18399
0.02276 0.13269 0.16602
-0.01896 -0.06823 -0.05658
-0.01896 -0.03782 -0.01559
-0.01896 -0.04033 0.03658
-0.01896 -0.07274 -0.03528
-0.01896 -0.05300 -0.01095
-0.02276 0.14877 0.37408
0.02276 0.15376 0.41739
0.02276 0.15558 0.40903
0.05016 0.11213 -0.29898
0.04051 0.11213 -0.35532
-0.04031 0.10928 -0.23817
-0.02656 0.03199 -0.32942
-0.02656 0.04128 0.23040
-0.02656 0.03089 -0.36071
-0.02656 0.03634 -0.39223
-0.02656 0.03694 -0.11998
-0.02656 0.03754 -0.02789
-0.04211 0.08473 0.43331
0.04115 0.06842 0.34649
0.06672 0.06842 0.34577
0.00244 -0.03041 0.19513
-0.01631 -0.03041 -0.00084
0.06837 0.07393 0.34036
0.03928 0.10928 0.04652
-0.03225 0.06842 0.29506
-0.05083 0.06842 0.33905
-0.06837 0.10130 0.20360
-0.07393 -0.14824 -0.44963
-0.06823 -0.14824 -0.43434
-0.00944 -0.14824 -0.36756
0.04416 -0.14824 -0.39784
-0.05765 -0.14824 -0.43802
0.00653 -0.14824 -0.42647
0.02770 -0.14824 -0.43484
-0.05677 -0.14824 -0.39690
-0.04270 -0.14824 -0.43337
-0.00905 -0.14824 -0.42852
0.02039 0.07982 0.38759
-0.03038 0.10928 -0.03143
-0.02818 0.10928 -0.08571
0.03859 0.10928 0.35015
-0.06837 0.12481 0.05796
-0.01698 0.03704 0.44471
0.11018 -0.10055 0.44954
0.11018 -0.08524 0.42031
-0.01687 0.15964 0.27135
0.01588 -0.15964 0.27723
0.01624 -0.15964 0.28806
-0.01125 -0.15964 -0.15899
0.01139 -0.15964 0.26537
0.00631 -0.15964 0.04495
-0.00605 -0.15964 -0.07458
0.01524 -0.15964 -0.01529
0.02728 0.12168 -0.14064
-0.07296 -0.05434 -0.15964
-0.05394 -0.05547 -0.15964
-0.09647 -0.04224 -0.15964
-0.06267 0.10094 -0.21207
-0.02276 0.07304 0.09937
-0.02276 0.10082 0.04973
-0.02276 0.12305 0.03330
-0.06267 0.08602 -0.22015
-0.05078 -0.03758 0.15964
-0.06883 -0.03400 0.15964
-0.02357 -0.08864 0.15964
-0.11018 -0.12808 -0.14431
-0.03681 0.10928 0.09305
0.02433 -0.14964 0.45612
0.08957 -0.03041 -0.03673
0.03771 -0.03041 -0.05571
0.10136 -0.03041 -0.06025
0.10301 -0.03041 -0.03542
0.06164 0.06937 0.38625
0.03350 0.10928 0.17423
-0.06661 0.06842 0.10218
-0.03364 -0.15964 -0.36302
-0.01814 -0.15964 -0.35017
-0.06838 -0.15964 -0.43236
-0.01737 -0.15964 -0.32550
-0.06566 -0.15964 -0.43773
-0.02312 -0.15964 -0.36570
0.04375 -0.15964 -0.44763
-0.01551 -0.15964 -0.36603
-0.00043 -0.15964 -0.36453
-0.02183 -0.15964 -0.37890
-0.05649 -0.03041 -0.21192
-0.07062 -0.03041 -0.20099
-0.09865 -0.03041 -0.27821
-0.09642 -0.03041 -0.16723
-0.11018 -0.05088 0.07695
0.01135 0.15939 0.34429
-0.04292 0.13380 0.28887
-0.05448 0.15544 0.28887
0.11018 -0.14324 0.34907
0.10472 -0.14824 -0.37510
-0.02276 0.08293 0.07086
-0.02276 0.12473 0.01785
-0.02276 0.10590 0.08145
0.04821 0.06720 0.28887
0.03747 0.08332 0.28887
0.11018 -0.04241 -0.35400
-0.03950 -0.03041 -0.05324
-0.06596 -0.03041 -0.05615
-0.08606 -0.03041 -0.04494
-0.01927 -0.03041 0.04500
0.04312 0.15964 0.30391
0.03416 0.15964 0.29758
0.06083 0.08982 0.43331
0.05091 0.11108 0.43331
-0.01760 0.09122 0.37838
-0.01201 0.09122 0.35532
-0.06837 0.10494 0.35700
-0.01135 0.15800 0.08622
0.06324 0.14387 0.00380
-0.04459 0.11213 0.04738
-0.03296 0.11213 0.01367
-0.02276 0.06921 -0.07210
-0.02276 0.06634 -0.04918
-0.02276 0.09962 -0.08627
-0.02276 0.11474 -0.09410
-0.06412 0.09287 -0.00380
-0.04090 -0.15416 0.15964
-0.02740 0.15584 0.02769
-0.03598 0.15584 0.03216
-0.01355 -0.03041 0.19540
0.00126 -0.03041 0.23302
0.02635 0.11213 0.37461
-0.06206 0.12606 -0.21285
-0.08479 -0.03041 -0.36368
-0.08034 -0.03041 -0.33467
-0.09318 -0.03041 -0.34963
-0.09055 -0.03041 -0.32916
-0.09045 -0.03041 -0.38380
-0.01758 -0.14824 -0.20466
-0.01238 -0.14824 -0.19786
-0.04239 0.09896 -0.14444
-0.06457 0.13556 -0.36299
-0.04634 -0.15155 0.06842
0.03623 -0.02281 -0.30454
0.03431 -0.02281 -0.16417
-0.07936 -0.02281 0.22642
-0.07454 -0.02281 -0.30459
-0.06437 -0.02281 0.05025
0.02791 -0.02281 -0.18245
-0.03398 -0.02281 0.12596
-0.10675 -0.02281 0.39429
0.02115 -0.02281 -0.31457
-0.09481 -0.02281 -0.00250
-0.08460 -0.02281 0.14424
-0.03700 -0.02281 -0.25335
-0.06209 -0.02281 0.01696
-0.09124 -0.02281 0.24224
-0.05355 -0.02281 -0.00220
-0.01360 -0.02281 -0.09856
-0.06124 -0.02281 0.02233
-0.00767 -0.02281 -0.17910
-0.08840 -0.02281 0.21166
-0.04714 -0.02281 -0.33224
-0.01204 -0.02281 0.02461
0.06622 -0.02281 -0.36538
-0.09315 -0.02281 0.28637
-0.00814 -0.02281 -0.27596
-0.08931 -0.02281 0.08116
-0.01561 -0.02281 -0.02975
0.02724 -0.02281 -0.26391
-0.07498 -0.02281 -0.19172
0.01364 -0.02281 -0.27560
-0.01268 -0.02281 -0.07582
-0.07121 -0.02281 -0.25060
-0.05483 -0.02281 -0.43977
-0.06067 -0.02281 0.21332
-0.10855 -0.02281 0.06208
-0.08444 -0.02281 0.12181
-0.05886 -0.02281 0.07491
-0.08479 -0.02281 -0.42753
-0.06291 -0.02281 -0.15221
-0.08465 -0.02281 -0.11480
-0.07160 -0.02281 -0.23182
-0.07955 -0.02281 0.11881
0.02283 -0.02281 -0.32000
-0.08780 -0.02281 0.29257
-0.04408 -0.02281 -0.42373
-0.10663 -0.02281 -0.41881
-0.09528 -0.02281 0.09310
-0.09727 -0.02281 -0.23143
-0.05577 -0.02281 0.17836
0.06573 -0.02281 -0.29267
0.03937 -0.02281 -0.17601
-0.05388 -0.02281 -0.42259
-0.03431 -0.02281 -0.10041
-0.07465 -0.02281 0.17557
-0.07454 -0.02281 -0.14766
-0.06263 -0.02281 -0.37676
-0.04393 -0.02281 -0.34597
0.02978 -0.02281 -0.16704
-0.06367 -0.02281 0.23642
-0.06121 -0.02281 0.16880
-0.05552 -0.02281 0.05420
-0.02725 -0.02281 0.10748
-0.08151 -0.02281 -0.17327
0.06714 0.13439 0.00380
-0.06837 0.11169 0.21168
-0.06837 0.10894 0.20232
0.06307 0.08885 0.14444
0.02276 0.08310 -0.16634
-0.02475 0.11213 -0.12017
-0.03928 0.11213 -0.06555
-0.02276 0.15526 0.09506
0.03864 0.06462 -0.06075
0.03113 0.06462 -0.10919
-0.04395 -0.03041 -0.25134
-0.05556 -0.03041 -0.23649
-0.06306 -0.03041 -0.24457
0.05887 0.07152 0.12501
0.02276 0.15038 -0.08339
0.04203 0.14954 0.28887
0.06151 0.10171 0.28887
-0.00982 -0.14824 0.17840
-0.02986 0.08387 0.00000
0.07883 -0.02281 0.27801
0.05748 -0.02281 0.00883
0.10062 -0.02281 0.35701
0.03109 -0.02281 -0.02969
-0.01223 -0.02281 0.08921
0.10258 -0.02281 -0.38353
0.06011 -0.02281 0.45071
-0.06576 -0.02281 0.38868
0.11257 -0.02281 0.33326
-0.01400 -0.02281 0.13186
0.02962 -0.02281 -0.07590
0.06420 -0.02281 0.40607
-0.02166 -0.02281 0.20361
0.05279 -0.02281 -0.11650
-0.05917 -0.02281 0.33865
0.11339 -0.02281 -0.28237
0.03050 -0.02281 0.03116
0.07493 -0.02281 0.31831
0.07678 -0.02281 0.13979
0.07817 -0.02281 -0.06645
0.04986 -0.02281 0.19030
0.04155 -0.02281 0.03680
0.04848 -0.02281 0.26767
-0.04146 -0.02281 0.39525
-0.01829 -0.02281 0.22135
0.08229 -0.02281 -0.02461
0.02436 -0.02281 -0.09529
-0.04399 -0.02281 0.41465
-0.09330 -0.02281 0.40654
0.08914 -0.02281 0.28284
-0.01451 -0.02281 0.34464
0.09800 -0.02281 0.29812
-0.02483 -0.02281 0.12861
0.04950 -0.02281 0.12993
0.10478 -0.02281 -0.11587
-0.02347 -0.02281 0.30582
0.04929 -0.02281 0.15356
0.00260 -0.02281 0.30510
0.05985 -0.02281 -0.22618
0.05672 -0.02281 0.18862
-0.01515 -0.02281 0.33601
0.09500 -0.02281 -0.20914
0.07955 -0.02281 -0.04885
0.06788 -0.02281 -0.03120
0.04627 -0.02281 0.16073
0.08104 -0.02281 0.14827
0.02135 -0.02281 0.38918
0.10404 -0.02281 -0.07215
0.02824 -0.02281 0.26085
-0.02866 -0.02281 0.39025
0.10256 -0.02281 -0.08634
0.03289 -0.02281 0.37435
0.04635 -0.02281 0.07693
0.05917 -0.02281 -0.11761
0.10205 -0.02281 -0.20753
-0.00839 -0.02281 0.45602
-0.06091 -0.02281 0.37021
0.01895 -0.02281 -0.03296
-0.07340 -0.02281 0.36365
0.06087 -0.02281 -0.20744
0.10688 -0.02281 0.00172
0.11072 -0.02281 -0.01069
-0.00695 -0.02281 0.03284
-0.11018 -0.07519 0.13582
-0.02840 0.07412 0.28507
-0.06844 -0.15908 0.45612
0.02276 0.15150 -0.26098
0.05216 0.10928 0.08838
-0.04364 0.06462 -0.04425
-0.06522 0.06462 -0.08842
0.03868 0.15964 -0.32748
0.02950 0.15964 -0.34241
-0.04000 0.15964 -0.00896
-0.04519 0.15964 -0.00761
0.11018 -0.12177 0.36665
0.01135 0.08416 -0.36901
-0.06734 0.06462 -0.40309
-0.02966 0.06842 0.34367
-0.03636 0.06842 0.36094
-0.06667 0.15489 -0.09251
-0.01843 0.07512 0.44471
-0.06457 0.07280 -0.35965
-0.06837 0.10916 -0.27100
-0.11018 -0.05468 -0.07541
0.06053 0.13172 0.14064
-0.09583 -0.15707 -0.29647
-0.11018 -0.06707 0.40299
-0.04604 0.06842 -0.18204
-0.06064 0.06842 -0.15252
0.11018 -0.04313 0.31316
-0.11018 -0.12837 0.44753
-0.11018 -0.09453 0.41709
0.11018 -0.10510 0.08060
-0.06267 0.07625 -0.01678
-0.04489 0.12064 -0.28507
-0.04452 0.15555 -0.28507
0.03672 0.06462 0.11555
0.06825 0.06462 0.12535
0.06837 0.09439 0.02378
0.01455 0.14824 -0.15144
-0.06006 0.09931 -0.29267
0.06267 0.07056 0.39823
-0.02276 0.15299 -0.31402
0.03299 0.11213 -0.02018
0.03881 0.11213 -0.07412
0.06457 0.14330 -0.28201
0.05072 0.11213 -0.26639
0.01135 0.08937 0.44992
-0.02857 0.11213 0.37273
-0.04284 0.11213 0.38964
0.06837 0.11234 -0.11607
-0.06837 0.15738 -0.15554
-0.06457 0.07155 -0.11935
-0.06301 0.11005 -0.42951
0.01808 0.15964 -0.03556
0.02344 0.09102 -0.14444
0.09878 -0.15877 -0.41887
0.01511 0.07982 -0.23894
-0.06837 0.14291 0.15391
-0.01243 0.06603 -0.11878
0.01135 0.15573 0.12089
-0.05887 0.14330 0.42884
-0.03927 0.07425 -0.14444
-0.01135 0.09386 0.11236
0.03767 0.06842 0.12572
0.04035 0.06842 0.08298
0.01470 0.14824 0.23767
0.06057 0.07626 -0.00380
-0.02276 0.11125 -0.23937
-0.02276 0.08431 -0.18061
-0.02276 0.13402 -0.27350
-0.02276 0.12212 -0.24646
-0.06531 -0.15964 -0.33792
-0.06119 -0.15964 -0.36405
-0.09180 -0.15964 -0.34360
-0.04957 -0.15964 -0.35015
-0.02276 0.10195 -0.07665
-0.02276 0.10084 -0.06423
-0.02276 0.08796 -0.07080
-0.02276 0.08084 -0.08827
-0.02276 0.13091 -0.10666
0.11018 -0.11066 -0.11333
0.08715 -0.03041 -0.36586
0.10697 -0.03041 -0.30781
0.08312 -0.03041 -0.33085
0.09605 -0.03041 -0.30167
0.07007 -0.03041 -0.30336
0.09878 -0.15088 -0.41522
0.01135 0.15235 -0.28354
-0.00919 -0.15964 0.15688
-0.00466 -0.15964 0.25795
0.00009 -0.15964 0.27952
0.01169 -0.15964 0.40913
-0.00408 -0.15964 0.15294
0.06457 0.09237 -0.07127
-0.06267 0.14143 0.26047
0.01969 -0.15964 -0.09430
0.03988 -0.15964 -0.12463
0.06267 0.14149 -0.17869
0.02276 0.08495 -0.38282
0.02276 0.07661 -0.37144
0.02276 0.08198 -0.38809
0.02276 0.07372 -0.35710
0.06837 0.14926 0.20066
-0.11018 -0.13096 0.07156
0.02212 -0.12545 -0.29647
0.03303 -0.05558 -0.29647
0.03927 -0.11013 -0.29647
-0.11018 -0.08318 0.33652
0.03244 -0.11866 -0.29647
0.04565 -0.07652 -0.29647
0.04614 -0.13111 -0.29647
-0.05485 0.06842 -0.19431
-0.06289 0.06842 -0.21074
0.11018 -0.14584 0.30943
0.04545 0.11213 -0.20834
-0.01157 0.07982 -0.32710
0.06837 0.10152 -0.07631
0.11018 -0.07535 -0.08707
0.01904 0.15964 0.14811
-0.08365 -0.03236 0.06842
-0.08646 -0.06134 0.06842
-0.09252 -0.08708 0.06842
0.11018 -0.08197 -0.31818
-0.11018 -0.05890 0.32001
0.02786 0.06842 -0.29536
0.02611 0.06842 -0.31789
-0.02882 -0.03041 -0.42639
-0.03792 -0.03041 -0.33808
-0.02263 -0.03041 -0.43923
-0.03320 -0.03041 -0.41083
0.04173 -0.03041 -0.41662
0.04835 -0.03041 -0.41152
-0.00579 -0.03041 -0.39347
0.04259 -0.03041 -0.43435
-0.00880 -0.03041 -0.34227
-0.02646 -0.03041 -0.38009
-0.06457 0.15041 -0.10646
-0.05298 0.11213 0.15304
-0.11018 -0.07086 0.12860
0.05917 -0.15964 -0.45128
-0.03408 -0.15964 -0.40188
0.01819 -0.15964 -0.38823
0.09151 -0.15964 -0.45592
-0.03725 -0.15964 -0.44482
-0.04144 -0.15964 -0.45224
0.00013 -0.15964 -0.41113
0.00801 -0.15964 -0.34899
-0.00804 -0.15964 -0.40892
-0.06101 -0.15964 -0.39079
0.01135 0.08520 -0.33954
0.06267 0.11852 0.11150
0.05970 -0.04746 0.45612
-0.05731 -0.05585 0.45612
-0.07611 -0.03992 0.45612
-0.10180 -0.03228 0.45612
0.08398 -0.04611 0.45612
0.05040 -0.10877 0.45612
0.02114 -0.04567 0.45612
-0.02176 -0.05108 0.45612
0.01986 0.12537 -0.44471
-0.05326 0.10126 0.43331
-0.02812 0.13265 -0.14064
-0.02703 0.11213 0.08306
-0.04373 0.11213 0.11783
-0.05179 0.10658 -0.43331
-0.05841 0.15777 -0.43331
-0.06837 0.13828 -0.09827
-0.11018 -0.06490 0.09317
0.01971 0.09122 -0.30276
-0.04515 0.15584 -0.24214
-0.02802 0.15584 -0.18639
0.01896 -0.15293 -0.02894
-0.01896 -0.15498 0.18453
-0.04007 0.06462 -0.19894
-0.04971 0.06462 -0.21291
0.10755 -0.14824 0.45013
-0.01135 0.15484 -0.38821
-0.06133 0.14729 0.08114
0.02276 0.08716 0.30709
0.02276 0.08602 0.37005
-0.05583 0.06842 0.05976
-0.04856 0.06842 0.08033
-0.01135 0.08361 -0.16195
0.05887 0.07365 -0.20963
0.02656 0.02956 -0.34127
0.02656 0.03883 -0.31059
0.02656 0.03560 -0.26000
0.02656 0.03050 -0.36408
0.02656 0.03304 -0.27566
-0.10632 -0.12777 -0.06842
0.01577 -0.15964 0.39303
0.00070 -0.15964 -0.14715
0.01773 -0.15964 -0.06637
-0.00808 -0.15964 -0.10859
0.01136 -0.15964 0.08533
-0.01123 -0.15964 -0.13565
0.00647 -0.15964 -0.09232
-0.11018 -0.03638 0.34432
0.03446 0.06842 0.08990
0.04308 0.06842 0.09911
0.06079 0.14409 -0.36489
0.02276 0.02790 0.38392
0.02276 0.03832 -0.13638
0.02276 0.02987 0.06372
0.02276 0.02994 0.18548
0.02276 0.02751 -0.12249
-0.03494 0.13073 -0.00380
-0.11018 -0.04766 -0.06873
-0.05333 0.15964 0.25190
-0.03661 0.15964 0.21456
-0.06837 0.13702 -0.07669
-0.01386 -0.14824 -0.09537
0.02276 0.15239 0.25878
0.02276 0.09331 0.27218
0.02276 0.12945 0.26987
0.02276 0.15507 0.23896
0.09878 -0.14894 0.10791
0.02276 0.08316 -0.41359
0.02276 0.08361 -0.44376
-0.05749 0.10024 0.00000
-0.05919 0.11257 0.42951
-0.02276 0.13837 -0.06343
-0.02276 0.14874 -0.11202
-0.02276 0.13479 -0.09513
-0.02276 0.11550 -0.05764
0.05887 0.15366 -0.04322
0.01581 0.14824 -0.31413
0.01878 0.14824 -0.18092
-0.02112 -0.08031 0.29648
-0.06795 -0.11465 0.29648
-0.02020 -0.11959 0.29648
0.07069 -0.03672 0.15964
0.04941 -0.06630 0.15964
0.07783 -0.07591 0.15964
-0.01135 0.08274 0.14752
-0.01209 0.04740 0.11878
-0.03281 0.15964 0.04507
-0.03229 0.15964 0.03203
-0.01429 -0.15964 -0.26422
0.09773 -0.03041 0.23022
0.06887 -0.03041 0.20109
0.10452 -0.03041 0.26162
0.06228 -0.03041 0.18868
0.06267 0.11988 -0.21090
0.06267 0.12088 -0.19469
-0.11398 -0.02983 -0.31022
-0.11398 -0.02465 0.45450
0.03535 0.15584 0.02756
0.04254 0.15584 0.01134
-0.05887 0.10804 -0.36362
-0.06706 -0.03041 -0.01582
-0.05231 -0.03041 -0.00226
-0.02120 -0.03041 -0.00781
-0.00318 -0.15466 0.45612
0.11018 -0.13260 -0.44343
0.11018 -0.06797 -0.43489
-0.06837 0.14887 -0.41933
-0.04367 0.11213 -0.12366
-0.06389 0.15549 -0.14824
0.02858 0.12258 0.43331
0.04285 0.09723 0.43331
0.06457 0.15382 0.19646
-0.01135 0.15047 0.12039
0.05697 0.10997 -0.39747
0.06693 -0.06094 0.06842
0.03642 -0.05611 0.06842
0.05076 -0.06220 0.06842
-0.05107 0.08851 -0.29267
-0.05697 0.11126 -0.21564
-0.01848 -0.10575 -0.26663
-0.01848 -0.03209 -0.25076
-0.01848 -0.06293 -0.20010
-0.01848 -0.07700 -0.23442
0.01635 0.15964 0.11696
-0.01896 -0.15365 0.20066
0.06837 0.15674 0.03627
-0.01135 0.11301 0.11337
-0.06487 0.14133 0.28887
0.03733 0.15584 0.22218
0.03045 0.15584 0.25128
-0.04297 0.09048 0.00000
0.01236 -0.02059 -0.11878
0.01135 0.08781 -0.14461
-0.11018 -0.08868 -0.31851
0.05773 0.13025 0.00000
0.04647 0.12434 0.14064
0.06399 0.13957 -0.00380
0.05095 0.11104 -0.00380
-0.05180 0.10928 -0.08654
-0.05052 0.11154 -0.28507
-0.06040 -0.15964 0.34552
-0.06975 -0.15964 0.35659
-0.06766 0.09261 0.01140
0.01667 0.09122 0.26437
-0.09878 -0.15275 -0.09817
-0.01896 -0.06361 0.16292
-0.01896 -0.07175 0.19739
-0.01896 -0.06625 0.24275
-0.01896 -0.10107 0.18511
-0.01896 -0.04433 0.19583
-0.07089 -0.15964 -0.29678
-0.08093 -0.15964 -0.39670
-0.09564 -0.15964 -0.40671
-0.03827 -0.15964 -0.33177
-0.04471 0.13507 0.14824
-0.06135 0.15489 -0.29608
0.03825 0.15964 -0.42344
0.06825 0.15964 -0.33107
0.02276 0.07189 0.30433
0.02276 0.09518 0.35625
0.02276 0.07260 0.31720
0.02276 0.08249 0.39471
-0.06267 0.07376 0.26026
0.03673 0.13731 0.28887
-0.06204 0.14729 -0.17393
0.02207 0.13809 0.45421
0.07172 -0.14824 -0.09284
0.05643 -0.14824 -0.08100
0.04975 0.06462 -0.25679
0.03255 0.06462 -0.19868
-0.06837 0.12456 0.14713
0.01135 0.11024 0.11048
-0.04009 0.14858 -0.28887
0.06837 0.06953 -0.10983
0.00967 -0.02670 0.45992
-0.04580 0.10928 0.17413
-0.03222 0.10928 0.18651
-0.01390 0.07982 -0.28423
0.06510 0.15964 0.01829
0.06030 0.15964 0.04229
0.11018 -0.03047 0.10034
-0.11018 -0.13622 0.10788
-0.05312 0.10928 -0.20270
-0.05887 0.15126 0.12904
0.01896 -0.08233 -0.02446
0.01896 -0.11060 0.01317
0.01896 -0.13074 0.03926
0.01896 -0.09887 -0.03852
0.01896 -0.14394 -0.06764
0.02260 0.07982 0.31867
0.06098 0.06917 0.28887
0.03531 0.06547 0.28887
0.02363 0.15964 -0.35774
0.04780 0.15964 -0.34126
0.06837 0.11319 -0.06884
-0.02276 0.12787 0.41246
-0.02276 0.13708 0.38735
-0.10843 -0.06647 -0.29647
-0.02624 0.02661 0.31977
0.03288 0.10928 -0.41396
-0.06457 0.10497 0.07447
0.04747 0.11213 0.39138
0.03640 0.15964 -0.00314
0.04784 0.15964 -0.05123
-0.01135 0.08086 -0.44883
-0.00533 -0.03041 0.03671
-0.02276 0.15769 0.07393
-0.02276 0.11051 0.11062
-0.02276 0.14588 0.04038
-0.02276 0.15474 0.02039
0.07272 -0.15263 -0.06842
-0.03549 0.11213 0.27848
-0.04998 0.10717 0.14064
-0.06267 0.12698 0.40875
-0.06267 0.08558 0.40505
-0.02276 0.13240 0.29956
-0.02276 0.06894 0.30751
-0.02276 0.07676 0.31045
-0.02276 0.08308 0.30007
-0.01579 0.14824 -0.33384
-0.11018 -0.04550 -0.10364
0.03350 0.11213 0.06586
0.06267 0.07692 -0.35879
-0.06837 0.10643 -0.10776
0.06837 0.10759 0.21708
-0.05003 0.11213 0.38013
-0.04533 0.11213 0.31069
0.05595 0.06842 0.24397
0.04731 0.06842 0.21964
0.02674 -0.03041 0.31173
0.06799 -0.03041 0.39495
-0.11018 -0.04312 -0.42732
0.05343 0.11213 -0.41557
0.03155 0.11213 -0.40438
0.04949 0.10928 0.27930
-0.02262 0.07982 0.00467
-0.06837 0.07243 -0.22917
0.03053 0.06462 -0.39422
0.04847 0.06462 -0.38560
0.07260 -0.15964 -0.30204
0.06991 -0.15964 -0.34775
0.09722 -0.15964 -0.34047
0.09787 -0.15964 -0.43126
0.01591 0.09122 -0.35968
-0.02276 0.15429 0.23796
-0.02276 0.15907 0.26305
-0.02276 0.10101 0.26860
-0.02276 0.10299 0.25605
-0.11018 -0.12020 -0.12990
-0.01693 0.14824 0.06881
0.06457 0.15434 -0.36234
-0.02209 0.15964 -0.19497
0.02276 0.08231 0.03636
-0.05252 0.06842 -0.36482
-0.04130 0.06842 -0.38519
0.06669 -0.03041 -0.07972
0.04682 -0.03041 -0.07256
0.04887 -0.03041 -0.08123
0.02276 0.11007 0.45292
-0.05887 0.15255 -0.07571
-0.01135 0.06558 -0.11335
0.11018 -0.06382 -0.44716
0.11018 -0.09429 -0.43573
0.06726 0.13381 0.06842
-0.02389 0.15964 0.18043
-0.02968 0.15964 0.24729
0.08902 -0.15221 -0.15964
0.05680 0.15964 0.03245
-0.05121 0.15584 0.00900
-0.04466 0.13242 -0.29267
0.11018 -0.07046 0.15873
0.09878 -0.15453 0.33441
0.02319 0.15964 0.34059
0.02515 0.15964 0.41941
0.03501 0.13299 0.42951
0.05448 0.06842 -0.26812
0.06673 0.06842 -0.21953
0.06719 0.15964 -0.08116
0.05127 0.15964 -0.08953
-0.04786 0.11199 0.14064
-0.06020 0.15584 -0.02227
-0.04482 0.15584 -0.05004
0.01135 0.07170 0.10993
0.04257 0.06462 0.24009
0.06824 0.06462 0.22330
0.02276 0.11760 0.41452
0.02276 0.15186 0.33252
0.02276 0.08373 0.41874
0.02276 0.11678 0.42278
0.09878 -0.14871 0.37352
-0.11018 -0.06093 0.08269
-0.05167 -0.14824 0.14780
-0.03766 -0.14824 0.14330
0.06018 0.15489 -0.18808
0.06101 0.12862 0.42951
0.06690 0.09295 0.42951
0.03877 0.11213 0.02758
0.02656 0.03582 -0.03174
0.02656 0.03172 -0.43539
0.02656 0.03971 -0.25326
0.02656 0.03565 -0.34354
0.04282 -0.14824 -0.34505
0.00381 -0.14824 -0.30917
-0.02894 0.14789 0.00000
-0.06539 0.10393 0.00000
-0.04405 0.11393 -0.14444
-0.11018 -0.07792 -0.10433
-0.06837 0.09912 -0.39535
-0.02276 0.08510 -0.40663
-0.04836 0.10928 -0.33532
-0.03440 0.10928 -0.31329
-0.08599 -0.07940 0.06842
-0.06226 -0.03405 0.06842
-0.06515 -0.05449 0.06842
0.03896 0.06462 -0.42539
-0.02276 0.11939 0.45259
0.06837 0.08794 -0.13303
-0.03214 0.11213 -0.05178
0.06312 0.07021 0.14824
0.05944 0.07856 0.14824
0.06816 0.13328 -0.29267
-0.05887 0.13617 0.28476
-0.02579 0.04561 0.44649
-0.02709 0.06462 0.21857
-0.03123 0.06462 0.18725
0.03978 0.15584 -0.26926
0.03389 0.15584 -0.23979
0.06156 0.11090 -0.21285
-0.04122 -0.14560 0.45612
-0.06382 -0.08038 0.45612
-0.06199 -0.12737 0.45612
-0.02620 -0.09574 0.45612
0.01128 -0.10977 0.45612
-0.00363 -0.11088 0.45612
-0.05797 -0.10160 0.45612
0.01423 0.09122 0.44219
0.11018 -0.05352 -0.36893
0.02874 0.08092 0.28887
-0.06136 0.15489 -0.15831
0.03896 0.06462 -0.02972
0.03977 0.06462 -0.00435
0.05184 0.10008 0.14824
0.06259 0.15489 0.38656
-0.01969 0.07982 0.33175
0.11018 -0.04512 -0.30658
-0.04771 0.15584 -0.10937
-0.02711 0.15584 -0.05101
-0.08040 -0.03041 0.13253
-0.01149 0.09122 0.02022
0.03861 0.06462 0.40474
0.03814 0.06462 0.42474
0.01655 0.15964 -0.26432
0.01790 0.15964 -0.19592
0.06646 0.09675 -0.43331
0.01648 0.05115 0.11878
-0.03056 0.11213 -0.29582
-0.06267 0.10947 0.13981
-0.03065 0.15964 -0.30046
-0.01756 -0.14824 0.09757
0.11018 -0.13373 -0.37414
0.06267 0.10292 -0.18436
0.05887 0.12336 -0.15143
0.01552 0.07982 0.42331
-0.11018 -0.08443 0.13892
0.06777 0.07697 -0.22299
-0.03144 -0.12198 -0.29647
-0.01919 -0.14110 -0.29647
-0.02008 -0.07494 -0.29647
-0.01135 0.15333 0.18586
0.06267 0.15140 0.27299
-0.01896 -0.12074 0.16376
-0.01896 -0.03985 0.24943
-0.01896 -0.04525 0.18999
-0.01896 -0.05779 0.20109
-0.01896 -0.03171 0.18393
-0.05528 0.06842 0.25312
-0.05399 0.06842 0.28024
-0.02276 0.14982 0.17715
0.02807 -0.15545 0.06842
-0.02968 0.15584 0.39567
-0.04371 0.15584 0.30248
-0.02550 0.07733 0.14064
-0.05887 0.13897 -0.35844
-0.05332 0.06462 0.38549
-0.05660 0.06462 0.40277
-0.06551 0.15489 0.06067
-0.03158 0.06462 0.42228
-0.03693 0.06462 0.39248
0.02276 0.15944 -0.03973
-0.11018 -0.03282 0.15203
-0.06261 0.06842 0.22954
-0.04505 0.06842 0.18750
0.06837 0.12670 -0.23121
0.06837 0.08890 -0.23657
-0.06267 0.12550 0.07645
0.02276 0.15016 0.40476
0.06267 0.14739 0.39204
0.06539 0.07016 -0.14444
0.05887 0.07181 0.08315
0.11018 -0.04094 -0.44389
-0.04797 0.10928 0.02328
-0.02948 0.10928 0.09840
0.03012 0.10221 -0.14444
-0.02276 0.12286 0.39131
-0.02276 0.13738 0.33212
-0.02276 0.10055 0.39638
-0.02276 0.14478 0.38927
-0.11012 -0.14824 0.34150
0.03358 0.12372 0.28887
-0.06837 0.10034 -0.07251
-0.06457 0.14766 0.31848
-0.00353 -0.03041 0.05552
-0.01557 0.14824 -0.08602
-0.06267 0.10760 0.39996
0.04572 0.09495 0.42951
0.06457 0.14575 0.29853
-0.03095 0.12570 0.14444
-0.05897 0.14760 -0.36489
0.05574 0.15584 0.18469
0.02971 0.15584 0.16792
-0.04427 0.15964 -0.16862
-0.03534 0.15964 -0.24305
0.02615 0.08276 -0.29267
-0.03515 0.15964 -0.21253
-0.04153 0.15964 -0.19465
-0.06837 0.14789 -0.26068
-0.03514 -0.07451 0.06842
-0.06507 -0.12715 0.06842
0.01892 0.15964 -0.22472
0.02273 0.15964 -0.16946
0.01848 -0.11354 -0.19706
0.01848 -0.04545 -0.19492
0.01848 -0.09850 -0.19823
0.01848 -0.03575 -0.25506
0.01848 -0.12921 -0.17244
0.05693 0.07011 -0.28887
0.03083 0.06462 -0.05723
0.03773 0.06462 -0.14278
0.11134 -0.03041 0.32687
0.03027 0.15964 0.28434
-0.02055 -0.01735 0.11878
0.05592 0.15964 -0.26630
0.03692 0.15964 -0.25714
-0.05226 0.10928 -0.24532
0.06580 0.08903 -0.42951
0.05751 0.08484 0.14444
-0.02276 0.15775 -0.40282
-0.04808 0.15964 -0.12620
-0.03688 0.15964 -0.11233
0.06600 -0.11167 0.06842
0.08777 -0.14002 0.06842
0.09856 -0.14556 0.06842
0.06837 0.10909 0.31239
0.06837 0.13989 0.34860
-0.06267 0.13351 0.26173
-0.03182 0.13565 -0.14824
-0.05782 0.08450 -0.14824
0.01135 0.08539 0.30831
-0.06837 0.06582 -0.05488
0.02439 0.06842 -0.17676
0.03270 0.06842 -0.25022
0.06267 0.14436 0.11432
-0.06267 0.09088 -0.35881
0.06837 0.09310 -0.08491
-0.03431 0.15584 0.41495
-0.05620 0.15584 0.39304
0.01120 -0.03041 0.03612
-0.00859 -0.03041 -0.23670
0.01837 -0.03041 0.28582
0.00966 -0.03041 -0.18081
-0.01561 -0.03041 -0.27136
0.00161 -0.03041 -0.03449
0.05762 0.13576 0.00000
0.03167 0.14588 0.00000
0.05650 0.11213 0.25610
0.02276 0.02836 -0.35143
0.02276 0.02808 -0.13349
0.02276 0.03480 -0.00562
0.02276 0.02849 -0.17907
0.02276 0.03294 -0.01313
0.02276 0.02668 -0.41479
0.06267 0.12663 -0.31365
-0.06267 0.11223 -0.33968
-0.11018 -0.08321 -0.39107
0.11398 -0.02672 0.02305
0.05359 0.06842 -0.35946
0.06686 0.06842 -0.33118
-0.11018 -0.14067 0.13327
0.08778 -0.03041 0.10823
0.10564 -0.03041 0.08879
0.03169 -0.03041 0.06889
-0.06138 0.08570 -0.42951
-0.02276 0.09882 -0.35308
-0.02276 0.06954 -0.39889
-0.02276 0.08511 -0.41892
0.11018 -0.14199 0.14121
-0.02276 0.03961 -0.00413
-0.02276 0.04161 0.19663
-0.02276 0.03815 -0.03782
-0.02276 0.04542 -0.20850
-0.02276 0.03893 0.34215
-0.05887 0.07460 0.08929
0.11018 -0.13319 -0.42663
-0.03210 0.10928 -0.35630
0.04201 -0.15427 -0.06842
-0.04881 0.15964 0.18432
-0.06518 0.15964 0.25756
0.03182 0.10928 -0.09902
0.04475 0.10928 -0.30577
0.04997 0.10928 -0.36573
0.02906 -0.15964 -0.33985
0.04538 -0.15964 -0.38279
-0.08540 -0.03041 -0.14305
-0.02838 -0.03041 -0.07852
-0.03094 -0.03041 -0.10426
-0.01135 0.15222 -0.03167
-0.11018 -0.11166 -0.36870
-0.05897 0.15134 0.14444
-0.05145 0.15688 0.14444
0.04644 0.10928 0.37856
-0.06774 0.14729 -0.27491
0.02273 0.07982 -0.19879
0.02276 0.11315 0.06328
0.02276 0.07715 0.11679
0.02276 0.07950 0.08253
0.02276 0.12131 0.03178
0.09407 -0.04138 0.29648
0.05185 -0.09294 0.29648
0.03489 -0.07937 0.29648
-0.06835 0.09663 -0.42191
0.05770 -0.15964 0.40320
0.02545 -0.15964 0.38499
0.02061 -0.15964 0.43751
0.06636 -0.15964 0.40616
0.02460 0.15964 -0.19073
0.02560 0.15964 -0.15546
-0.02145 0.14824 -0.38601
-0.01896 -0.07485 0.03658
-0.01896 -0.13879 0.00629
-0.01896 -0.10717 0.00307
-0.01896 -0.08306 0.04841
0.08033 -0.03041 0.42451
-0.01088 -0.03041 0.34816
0.00126 -0.03041 0.36557
-0.01924 -0.03041 0.34512
0.10125 -0.03041 0.44864
0.05014 0.15584 -0.39210
0.04820 0.15584 -0.41438
0.01462 0.14824 0.14893
0.11018 -0.05502 0.39763
-0.02276 0.15356 -0.04649
-0.05570 0.11226 0.28507
0.10906 -0.14824 -0.38740
0.01482 -0.01574 -0.10928
-0.04503 0.15584 -0.41141
-0.04017 0.15584 -0.36493
0.11018 -0.03111 -0.10618
0.01135 0.15250 -0.29434
-0.01896 -0.03201 0.01358
-0.01896 -0.07886 0.00930
-0.01896 -0.13757 -0.06015
-0.01896 -0.08669 -0.03311
-0.01896 -0.08799 -0.01524
-0.05173 0.06462 0.12381
-0.06116 0.06462 0.07128
0.04321 0.13750 0.29268
0.01886 -0.02169 0.11878
-0.08593 -0.06270 -0.29647
-0.06424 -0.13440 -0.29647
-0.09214 -0.14043 -0.29647
0.06605 0.06842 0.28225
0.02341 0.06842 0.22728
0.06830 0.06937 0.07085
-0.03964 0.15964 -0.40865
-0.06502 0.15964 -0.39030
-0.06837 0.07067 0.05143
0.04552 0.10469 0.14444
0.02276 0.13592 -0.31463
0.02276 0.13406 -0.33589
0.02276 0.09857 -0.33832
-0.03496 -0.14824 0.12859
-0.02364 -0.14824 0.11652
-0.03783 -0.14824 0.07045
-0.10775 -0.14824 -0.11762
-0.06457 0.06991 0.21584
-0.01242 0.14824 -0.15849
0.11018 -0.08112 0.37044
0.03071 0.15298 -0.14824
-0.01135 0.08805 -0.19393
0.11018 -0.03265 0.06876
-0.01298 0.15964 0.41134
-0.06837 0.13111 -0.24487
-0.06837 0.12284 -0.25483
-0.03916 0.14542 0.28507
0.06267 0.14690 0.12610
-0.06837 0.10485 -0.29140
0.02276 0.06814 -0.09042
0.02276 0.07681 -0.05440
0.02276 0.14968 -0.13993
0.02276 0.09913 -0.10993
0.02276 0.12288 -0.19307
0.02276 0.07939 -0.16243
0.02276 0.12373 -0.18388
0.04496 0.06842 -0.13833
0.11018 -0.05415 0.11548
-0.07331 -0.04714 -0.06842
-0.03990 -0.06917 -0.06842
-0.02146 -0.07665 -0.06842
-0.06494 0.06462 0.11417
-0.05027 0.06462 0.11747
0.08019 -0.15964 -0.13418
0.03438 -0.15964 -0.07705
-0.11043 -0.03041 0.13435
0.07754 -0.10947 -0.06842
-0.11018 -0.09038 0.09317
0.02876 0.15964 0.07881
0.02613 0.15964 0.06697
0.06837 0.09479 0.17415
0.06267 0.11393 -0.21815
-0.05857 -0.02998 -0.45992
0.02441 0.06842 -0.36950
0.02657 0.06842 -0.34378
0.11018 -0.08107 -0.40711
-0.01135 0.08350 0.23127
0.11018 -0.11270 0.30146
-0.03130 0.06959 -0.28887
-0.04269 0.11588 -0.28887
-0.03274 0.06462 0.02987
-0.05040 0.06462 0.00509
0.03084 0.08244 -0.14824
0.05903 0.12734 -0.15584
0.05270 0.11213 -0.37139
0.11018 -0.07341 0.10678
0.06722 0.06462 -0.42568
0.05784 0.06462 -0.38490
-0.06267 0.15218 0.42234
-0.00179 -0.03041 0.13010
0.06837 0.15340 0.06730
-0.06515 0.12853 -0.14444
-0.04629 0.14031 -0.14444
-0.05345 0.10928 0.05698
-0.09744 -0.05357 -0.45612
-0.01854 -0.07711 -0.45612
0.00869 -0.06635 -0.45612
-0.06217 -0.10030 -0.45612
-0.05574 -0.07852 -0.45612
-0.06422 -0.03336 -0.45612
-0.09684 -0.03049 -0.45612
-0.04689 -0.05971 -0.45612
-0.03794 0.08413 0.29268
-0.04691 0.08453 0.29268
-0.06269 0.15964 -0.18899
-0.06012 0.15964 -0.23459
-0.11018 -0.05323 -0.13849
-0.02417 -0.15964 0.13256
-0.07773 -0.15964 0.14089
0.11018 -0.07405 0.33705
0.06267 0.13901 0.26947
-0.07539 -0.03041 -0.38931
-0.08086 -0.03041 -0.36810
-0.09721 -0.03041 -0.36901
-0.09896 -0.03041 -0.39812
-0.06335 -0.03041 -0.31511
-0.01711 -0.00194 -0.10928
-0.05315 0.11107 -0.14444
-0.06586 0.11509 -0.14444
-0.06203 0.15584 -0.03289
-0.03637 0.15584 -0.02199
0.09666 -0.14824 -0.33689
0.08210 -0.14824 -0.39963
0.06030 -0.14824 -0.36248
0.07899 -0.14824 -0.32323
0.01896 -0.15083 -0.04554
0.02263 0.15964 0.01120
-0.02276 0.03600 0.11520
-0.06116 0.06462 -0.17897
-0.05384 0.06462 -0.15577
0.04954 0.10928 0.08305
0.02890 0.10928 0.13512
-0.01135 0.15853 -0.20733
0.02705 0.04061 -0.36491
-0.02969 0.10928 -0.23449
-0.05844 0.14576 -0.42951
0.09878 -0.15359 0.36624
-0.03963 0.08653 -0.43331
0.06267 0.14920 -0.02124
-0.11018 -0.12784 -0.40223
0.06837 0.06703 0.03426
0.10990 -0.03041 0.05365
0.08214 -0.03041 0.00122
0.08987 -0.03041 -0.00276
0.10399 -0.03041 -0.01352
-0.10333 -0.06516 -0.15964
-0.10666 -0.05758 -0.15964
-0.03932 -0.12280 -0.06842
-0.09287 -0.14655 -0.06842
-0.06267 0.14223 -0.32423
0.03907 -0.14824 -0.15394
0.07618 -0.14824 -0.15940
0.06457 0.14839 0.34364
-0.08594 -0.03041 0.35102
0.04048 -0.03041 0.40808
-0.06976 -0.03041 0.35296
-0.03000 -0.03041 0.40550
-0.07082 -0.03041 0.39465
0.02967 -0.03041 0.44510
-0.07263 -0.03041 0.33454
0.01257 -0.03041 0.40437
-0.08530 -0.03041 0.41479
-0.00569 -0.14824 -0.24910
0.01735 -0.14824 0.25673
0.01197 -0.14824 -0.01416
0.01622 -0.14824 0.21828
0.01301 -0.14824 0.08855
0.00943 -0.14824 0.01241
-0.06267 0.09616 0.12510
-0.06267 0.14085 -0.03415
-0.03235 0.10979 0.14064
0.11018 -0.05909 0.33073
0.11018 -0.06452 0.43966
0.11018 -0.04778 0.42504
0.11018 -0.04236 0.39856
-0.06267 0.11885 0.10644
-0.02276 -0.00746 -0.44545
0.06314 0.15529 0.14824
0.03389 0.09265 0.14824
0.02750 0.11623 0.29268
-0.04026 0.15584 0.21344
-0.02591 0.15584 0.24755
-0.02816 0.06462 -0.20977
-0.02801 0.06462 -0.26797
-0.01336 0.15964 -0.08612
0.01896 -0.03437 0.00573
0.01896 -0.05861 -0.00425
0.01896 -0.12004 0.04900
0.01896 -0.12602 0.06708
0.01896 -0.03940 -0.01908
-0.03838 0.11213 -0.24597
-0.11018 -0.13567 -0.44656
-0.11018 -0.06363 -0.42951
-0.06267 0.14413 0.39252
-0.06267 0.12392 0.37047
0.11018 -0.13965 -0.44230
-0.02656 0.04330 0.13676
-0.02656 0.03671 -0.36492
-0.02656 0.04341 0.10976
-0.02656 0.03872 -0.21945
-0.02656 0.04200 -0.33008
0.05128 0.09969 0.00000
0.06837 0.11103 0.00147
-0.02498 0.06842 -0.25499
-0.04362 0.06842 -0.17256
0.04971 -0.15964 -0.32181
0.06844 -0.15964 -0.33803
0.07531 -0.15964 -0.37691
0.07846 -0.15964 -0.39969
-0.06837 0.14908 -0.12676
-0.01814 0.09122 -0.21727
0.06158 -0.14824 -0.06952
0.04868 -0.14824 -0.07603
0.02330 0.06842 -0.02416
0.03035 0.06842 -0.02035
0.02276 0.05568 -0.44995
0.10453 -0.14227 -0.45612
0.06487 -0.08537 -0.06842
0.07057 -0.08687 -0.06842
0.11398 -0.02522 -0.26841
0.11398 -0.02925 0.28024
0.02089 0.14824 0.23062
0.05901 0.10362 -0.14824
-0.11398 -0.02572 0.09170
-0.11398 -0.02915 -0.38812
0.02276 0.15686 -0.23324
0.02276 0.15771 -0.24587
-0.01302 -0.15964 -0.17820
-0.00295 -0.15964 -0.16844
-0.04032 -0.08344 0.15964
-0.03298 -0.10153 0.15964
-0.09044 -0.03639 0.15964
0.06813 0.13863 0.30028
0.05916 0.15584 0.13357
0.04663 0.15584 0.12276
-0.04412 0.08266 -0.14444
0.06837 0.09042 0.33397
0.03460 0.15584 -0.39359
0.03708 0.15584 -0.42761
0.01896 -0.11106 -0.00671
0.01896 -0.12883 -0.06309
0.01896 -0.09806 -0.01552
0.01896 -0.09103 -0.01535
0.01896 -0.07831 -0.05125
-0.11018 -0.03891 -0.40796
0.05697 0.11200 -0.07846
-0.02354 -0.15496 0.06842
-0.06837 0.15806 0.22734
-0.03460 -0.02555 0.45992
0.06281 -0.03041 -0.27438
0.04022 -0.03041 -0.27272
0.08714 -0.03041 -0.23341
0.03265 -0.03041 -0.28414
0.05042 -0.03041 -0.37527
0.01100 -0.03041 -0.29817
-0.06267 0.07361 -0.19857
0.01896 -0.11158 0.17342
0.01896 -0.12789 0.22590
0.01896 -0.13127 0.21306
0.01896 -0.13208 0.18171
0.01896 -0.11020 0.23615
0.06837 0.10810 -0.14430
0.06001 0.08830 0.36489
-0.01896 -0.10044 0.03095
-0.01896 -0.10156 0.01266
-0.01896 -0.14792 0.01790
-0.01896 -0.11434 -0.01628
-0.01896 -0.09214 0.06611
0.01135 0.15262 -0.33542
0.10341 -0.14824 0.39875
-0.04412 0.07328 0.00380
0.02264 0.14824 -0.37469
-0.01135 0.08365 0.03511
-0.02276 0.08459 -0.36296
0.03395 0.14241 0.00380
-0.02276 0.09994 0.36520
-0.02276 0.08212 0.39263
-0.02276 0.11474 0.33891
-0.02276 0.09949 0.32332
0.02591 0.11213 -0.09756
0.04982 -0.14827 -0.29647
0.02276 0.12770 -0.23405
0.02276 0.14573 -0.20600
0.02276 0.12038 -0.17013
0.02276 0.08255 -0.14468
-0.06292 0.15584 0.13930
-0.04465 0.15584 0.08674
0.11018 -0.09495 0.42158
-0.03339 0.08017 0.00380
0.06213 0.13622 0.06842
-0.06383 0.14740 0.14824
-0.06470 0.06842 -0.29549
-0.05504 0.06842 -0.29466
0.03741 0.06842 -0.02169
0.04740 0.06842 -0.06141
-0.04206 0.15964 0.35922
-0.05481 0.15964 0.40760
0.11018 -0.14327 -0.36033
0.03119 0.15584 -0.04538
0.02387 0.15584 -0.11551
0.02276 0.11630 -0.44651
0.02656 0.03984 0.39984
0.02656 0.03555 0.36523
0.02656 0.02905 0.37760
0.02656 0.02922 -0.22980
-0.06219 0.06937 -0.03699
0.07441 -0.03041 0.22995
0.06707 -0.03041 0.22325
0.04838 -0.03041 0.16895
0.10970 -0.03041 0.18610
0.06079 0.06842 0.01003
0.04274 0.06842 0.00925
-0.11018 -0.07561 -0.42022
0.02276 0.14945 0.37861
-0.06734 -0.15964 0.41466
-0.05471 -0.15964 0.40956
0.01178 -0.15964 0.42983
-0.06191 -0.15964 0.45315
-0.03609 -0.15964 0.33242
-0.03090 -0.15964 0.34657
-0.02418 0.11158 0.23197
0.05682 -0.15964 0.32544
0.08589 -0.15964 0.38256
0.08440 -0.15964 0.42599
0.07865 -0.15964 0.35747
0.06551 0.09125 0.28887
0.10098 -0.14824 -0.35187
0.02276 0.08681 0.13145
0.02276 0.11149 0.08053
0.02276 0.13764 0.04569
0.02276 0.15941 0.07816
0.02276 0.10097 0.09592
0.05238 0.15584 0.22162
0.05991 0.15584 0.24005
0.09681 -0.06031 0.06842
0.06062 -0.13586 0.06842
0.09448 -0.07954 0.06842
-0.09878 -0.15961 -0.34849
-0.05940 0.06842 -0.12789
-0.04780 0.06842 -0.11420
-0.01135 0.15419 0.38750
0.04631 -0.14824 0.14051
0.05216 -0.14824 0.13978
0.04206 -0.14824 0.09678
-0.02276 0.13245 -0.18050
-0.02276 0.15125 -0.17230
-0.02276 0.08771 -0.17587
-0.02276 0.15570 -0.23095
0.06644 -0.14824 -0.31690
0.09873 -0.14824 -0.44848
0.05785 -0.14824 -0.34641
0.09055 -0.14824 -0.32506
-0.10860 -0.14824 -0.30693
-0.01146 0.12568 0.45421
0.05449 -0.08217 -0.15964
0.02815 -0.07642 -0.15964
0.03146 -0.06907 -0.15964
-0.02276 0.13647 -0.38589
-0.02276 0.12583 -0.32620
-0.02276 0.13180 -0.33618
-0.02276 0.10245 -0.30481
0.01817 0.09122 -0.33194
0.01547 0.09122 -0.29364
-0.04159 0.10620 0.42951
-0.05029 -0.15537 -0.15964
-0.05453 0.10928 -0.10720
-0.02798 -0.03041 0.20258
-0.03331 -0.03041 0.20576
-0.02705 -0.03041 0.28337
-0.09672 -0.03041 0.16835
-0.06267 0.11670 -0.03635
-0.01848 -0.13545 -0.20856
-0.01848 -0.05062 -0.17435
-0.01848 -0.05229 -0.16278
-0.01848 -0.10200 -0.18773
-0.01848 -0.12166 -0.26286
-0.02276 0.08270 -0.13193
0.02418 -0.03041 -0.19750
0.03788 -0.03041 -0.24680
0.06847 -0.03041 -0.16326
0.08508 -0.03041 -0.18778
-0.08484 -0.14903 -0.29647
-0.03584 0.15584 0.27945
-0.11018 -0.08891 -0.08959
0.02393 0.02661 -0.30051
0.01973 -0.14019 0.06842
0.02040 -0.03107 0.06842
0.07541 -0.06553 0.06842
-0.01356 0.14824 0.38618
-0.01431 -0.14824 -0.01209
-0.11018 -0.04958 0.11541
-0.00870 -0.03041 0.28961
-0.01996 0.14586 0.10928
0.02456 0.08363 0.14064
-0.03531 0.09327 0.29268
-0.11018 -0.05473 0.36264
-0.11018 -0.05927 -0.30683
-0.10673 -0.03041 -0.15358
-0.07257 -0.03041 -0.11983
0.01135 -0.01180 0.11525
0.01135 0.08421 0.19051
0.06457 0.12261 0.00866
0.01135 0.09057 0.27955
-0.06837 0.07536 -0.25147
-0.01492 -0.03041 0.09282
0.02315 0.02661 0.31926
0.04913 0.09686 -0.42951
0.05316 0.07741 -0.42951
0.06594 0.06462 0.01346
0.03775 0.06462 0.14017
0.03260 0.15584 -0.20416
0.04151 0.15584 -0.24841
-0.04722 -0.15964 0.12660
-0.05129 -0.15964 0.15914
0.03113 -0.14824 0.09715
0.03279 -0.14824 0.10984
-0.02276 0.10004 -0.22104
-0.02276 0.11701 -0.26505
-0.05887 0.06956 0.39731
0.05116 0.10928 -0.18089
-0.01169 0.07982 0.30223
0.11018 -0.14213 -0.11535
0.11018 -0.10980 -0.15361
0.01508 -0.14824 -0.26612
0.11018 -0.04216 -0.13923
-0.04376 0.15584 0.36617
-0.02408 0.15584 0.31448
-0.03901 0.15584 -0.15207
-0.06217 0.15584 -0.16656
-0.03280 0.10928 0.39488
-0.02738 0.06842 0.17564
-0.03894 0.06842 0.19952
0.11018 -0.08037 -0.31167
-0.11018 -0.11397 0.15109
0.05657 0.07295 0.28507
-0.04323 0.14824 0.14444
0.11018 -0.06652 -0.11107
-0.11018 -0.06456 -0.09913
-0.05038 0.14922 -0.14824
0.02276 0.06760 0.20314
0.02276 0.08420 0.22772
0.02276 0.08112 0.16523
-0.04571 0.09874 -0.28887
0.06752 -0.03041 -0.24681
0.10562 -0.03041 -0.17762
0.09050 -0.03041 -0.24135
0.06588 -0.03041 -0.23714
0.03530 -0.03041 -0.35805
-0.02276 0.13066 -0.30966
-0.02276 0.12478 -0.28994
-0.02276 0.13402 -0.35877
-0.02276 0.12533 -0.33199
-0.06594 0.15086 -0.14064
-0.06570 0.15964 0.32873
-0.05777 0.15964 0.35173
0.11018 -0.09493 0.13963
0.11018 -0.12494 0.39841
0.01135 0.08164 0.29432
0.01135 0.08393 0.25305
-0.05474 0.15964 -0.40452
0.01135 0.15959 -0.34263
-0.02496 -0.15327 -0.45612
0.06463 0.14729 -0.40313
0.05972 -0.03041 -0.35483
0.10508 -0.03041 -0.44312
0.08946 -0.03041 -0.31232
-0.06267 0.09709 0.24640
-0.06267 0.10114 0.24110
0.01135 0.15960 -0.03166
-0.05371 0.10928 0.27475
-0.11018 -0.08192 0.39615
-0.11018 -0.09550 0.45589
-0.04507 0.08741 0.28887
0.02947 -0.03041 0.34945
0.05569 -0.03041 0.36688
0.05674 0.12667 -0.00380
0.01704 0.13220 -0.10928
-0.02486 0.14659 0.43331
-0.03967 0.10268 0.43331
0.01385 -0.00868 0.11878
0.02656 0.03740 0.23824
0.02656 0.03225 0.39757
0.02656 0.03456 0.03349
0.02656 0.02662 0.34997
0.05887 0.13687 0.28238
-0.03592 0.15584 -0.40717
-0.02480 0.15584 -0.38605
-0.04829 -0.11434 0.29648
-0.03640 -0.12784 0.29648
-0.01922 -0.07455 0.29648
-0.02276 0.08163 0.02127
0.02219 -0.01790 0.45421
-0.07858 -0.03041 0.41574
-0.10644 -0.03041 0.44258
-0.08927 -0.03041 0.45119
0.08318 -0.03041 0.45015
-0.05298 -0.03041 0.41428
-0.10857 -0.03041 0.40058
-0.09037 -0.03041 0.31874
-0.01406 -0.03041 0.45004
-0.10398 -0.03041 0.36781
0.00697 -0.03041 0.41231
-0.05300 -0.03041 0.42352
-0.02429 0.15964 0.04737
-0.02970 0.15964 0.14325
-0.06837 0.13636 -0.22909
0.05477 0.10928 0.32782
-0.05568 0.10928 0.24763
-0.10732 -0.14824 -0.42870
0.09530 -0.10900 -0.29647
0.08132 -0.09070 -0.29647
0.08507 -0.08575 -0.29647
0.05615 -0.06368 -0.29647
0.01896 -0.03151 0.24346
0.01896 -0.06292 0.25148
0.01896 -0.11944 0.27536
0.01896 -0.04754 0.24156
0.01896 -0.11612 0.28400
0.04367 0.10928 -0.03425
-0.02276 0.04727 -0.44628
-0.03455 0.15964 -0.00449
-0.02708 0.15964 -0.11059
-0.09878 -0.14849 -0.13274
-0.03019 0.15101 -0.14444
0.03089 0.06462 0.33853
0.03119 0.06462 0.31863
0.07138 -0.12595 -0.15964
0.07489 -0.11396 -0.15964
0.05023 -0.14806 -0.15964
-0.11018 -0.10071 0.36731
-0.11149 -0.03041 0.31352
0.06837 0.11069 0.03562
-0.11018 -0.04902 0.32749
0.01914 0.14824 0.37477
-0.02276 0.08230 0.31538
-0.05346 0.12374 -0.28507
0.06081 0.10342 -0.43331
0.06280 0.12127 -0.43331
-0.04312 0.11486 0.14444
-0.05202 0.08867 0.14444
-0.02660 -0.08707 0.06842
-0.02283 -0.12911 0.06842
-0.05589 -0.12335 0.06842
-0.02276 0.07703 -0.45303
0.06267 0.15450 -0.35678
-0.02276 0.03291 -0.24910
-0.02276 0.04164 -0.42904
-0.02276 0.03660 -0.25637
-0.02276 0.03784 -0.19768
0.05131 0.11213 0.33172
0.04784 0.11213 0.33864
-0.06924 -0.15964 0.12102
-0.04719 -0.15964 0.09060
0.02006 0.15964 0.20126
0.05375 0.08485 0.00000
0.03076 0.11667 0.00000
-0.11398 -0.02389 -0.16633
-0.11398 -0.02431 -0.06505
-0.01795 0.09122 0.42971
-0.11018 -0.03081 -0.13012
0.01233 0.15964 0.33307
-0.11018 -0.04736 0.31696
0.06846 -0.11586 -0.06842
0.05100 -0.13098 -0.06842
0.03841 -0.07817 -0.06842
0.06457 0.07481 -0.36620
0.01135 0.08767 -0.01018
-0.11018 -0.04501 0.31174
0.06710 0.07697 0.15821
0.08094 -0.03041 0.33543
0.10738 -0.03041 0.31564
0.09659 -0.03041 0.33783
0.03352 -0.03041 0.32031
0.09329 -0.03041 0.39769
-0.04331 0.06842 0.39212
-0.02735 0.06842 0.35162
0.03096 0.06462 0.04113
0.02313 0.06462 0.08134
0.06267 0.08477 0.10494
0.05136 -0.10424 0.15964
0.04094 -0.14809 0.15964
0.05248 -0.08758 0.15964
-0.01896 -0.15400 -0.00252
-0.04861 0.10928 0.15369
0.00194 -0.15964 -0.29923
0.04823 -0.15964 -0.35897
0.05819 0.06842 -0.40072
