-0.00920 0.10403 0.09708
-0.20184 0.10403 -0.20964
-0.07173 0.10403 -0.07641
-0.12663 0.10403 -0.20613
-0.05694 0.10403 -0.18933
-0.03584 0.10403 -0.08905
-0.01225 0.10403 0.04003
-0.17825 0.10403 -0.18122
-0.00553 0.10403 0.00307
-0.05447 0.10403 0.04736
-0.11845 0.10403 -0.10750
-0.15599 0.10403 -0.19418
-0.03012 0.10403 -0.15619
-0.02933 0.10403 0.03311
-0.15167 0.10403 -0.09474
-0.17283 0.10403 -0.14924
-0.06883 0.10403 0.03453
-0.03161 0.10403 0.12387
-0.10883 -0.18182 0.33455
-0.03339 -0.18182 0.34005
-0.04563 -0.18182 0.34492
0.01404 -0.18182 0.33764
-0.22068 0.13668 0.19519
-0.22068 0.13425 -0.05205
0.19847 0.16374 -0.35204
0.19847 0.16451 -0.36025
0.22623 0.08544 0.27789
-0.13922 0.13998 -0.40714
-0.22055 0.13185 -0.31551
0.04183 0.16812 -0.40714
0.03957 -0.01539 0.40400
-0.07606 0.13185 0.33564
-0.03980 0.13185 0.35742
-0.04498 0.13185 0.33069
-0.01534 0.13185 0.32363
-0.00934 0.13185 0.29348
-0.06766 0.13185 0.35564
-0.13525 0.13185 0.31373
-0.11393 0.13185 0.31712
-0.07915 0.13185 0.29050
-0.06449 0.13185 0.34950
0.02449 -0.00972 0.39670
0.13865 0.18182 -0.23335
-0.21105 -0.17067 0.28222
-0.14986 -0.16944 0.28222
-0.00555 0.11356 0.31391
-0.00555 0.11454 0.29751
-0.00555 0.01946 0.30483
-0.00555 0.07079 0.30497
-0.00555 0.02636 0.28578
-0.00555 0.12754 0.31399
0.15899 -0.16965 0.35471
0.21397 -0.02134 0.26557
-0.13685 0.14851 -0.05358
-0.05820 0.14851 -0.25888
-0.14023 0.14851 -0.18632
-0.12758 0.14851 -0.02211
-0.11048 0.14851 -0.11896
-0.15929 0.14851 -0.00277
-0.15202 0.14851 -0.23560
-0.17279 0.14851 0.12726
-0.20634 0.14851 -0.37731
-0.11114 0.14851 -0.37905
-0.04416 0.14851 -0.26669
-0.16442 0.14851 0.10150
-0.20480 0.14851 -0.35527
-0.04343 0.14851 -0.31375
-0.16650 0.14851 0.04598
-0.12581 0.14851 -0.23217
-0.06207 0.14851 -0.21243
-0.11636 0.14851 -0.36716
-0.10825 0.14851 -0.07084
-0.06059 0.14851 -0.34346
-0.21665 0.14851 0.25567
-0.15884 0.14851 -0.18762
-0.04851 0.14851 -0.21359
-0.12370 0.14851 -0.28153
-0.20450 0.14851 0.19773
-0.11143 0.14851 -0.30039
-0.16767 0.14851 -0.17542
-0.13739 0.14851 -0.01091
-0.12814 0.14851 -0.12278
-0.16007 0.14851 0.08046
-0.08741 0.14851 -0.36515
-0.16254 0.14851 -0.04462
-0.08596 0.14851 -0.24006
-0.17820 0.14851 -0.02952
-0.19772 0.14851 -0.21550
-0.10499 0.14851 -0.06133
0.01803 0.14851 -0.39612
-0.04177 0.14851 -0.39932
-0.17160 0.14851 0.02236
-0.19284 0.14851 0.19201
-0.17235 0.14851 -0.03550
-0.17168 0.14851 0.11962
-0.07140 0.14851 -0.35245
-0.16802 0.14851 -0.08282
-0.06070 0.14851 -0.30894
-0.14747 0.14851 -0.30724
-0.07920 0.14851 -0.27335
-0.21438 0.14851 -0.02909
-0.09298 0.14851 -0.16582
-0.14361 0.14851 -0.07470
-0.13959 0.14851 0.03940
-0.15839 0.14851 -0.27131
-0.17004 0.14851 -0.31584
-0.18504 0.14851 0.10763
-0.17275 0.14851 -0.28189
-0.20495 0.14851 -0.26179
-0.18329 0.14851 -0.04881
-0.16537 0.14851 -0.38566
-0.07705 0.14851 -0.36440
-0.16922 0.11776 0.26557
-0.20823 0.12064 0.26557
0.09967 0.12790 0.26557
0.06236 -0.00972 0.33760
0.02636 -0.00972 0.33634
0.10874 0.15471 -0.40714
0.06276 0.15263 -0.40714
-0.08815 0.13185 0.36926
0.22623 0.03343 0.26678
0.14382 -0.16516 0.34747
0.10864 -0.16516 0.34728
0.15037 -0.16516 0.32629
-0.02913 -0.16516 0.34123
0.05038 -0.00972 0.37961
-0.02854 -0.00972 0.37521
-0.09064 -0.16516 0.31214
-0.01469 -0.16516 0.30389
0.15146 -0.16516 0.30896
0.15914 -0.16516 0.30809
0.18990 -0.16516 0.30901
0.06304 0.17072 -0.27629
0.09325 0.18182 -0.40006
0.03499 0.18182 -0.40170
-0.18309 -0.01624 0.26557
-0.20333 -0.04769 0.26557
-0.19256 0.08347 0.26557
-0.18495 -0.03187 0.26557
-0.12318 -0.01800 0.26557
-0.16615 0.03044 0.26557
-0.14132 0.08839 0.26557
-0.11174 0.09379 0.26557
-0.18064 -0.03642 0.26557
-0.10247 -0.01738 0.26557
-0.15922 0.10016 0.26557
-0.06883 0.04515 0.26557
-0.17136 0.07068 0.26557
-0.12953 -0.03587 0.26557
-0.13895 -0.08040 0.26557
-0.18380 -0.14522 0.26557
-0.16257 0.06539 0.26557
-0.16799 -0.08726 0.26557
-0.19801 0.10231 0.26557
-0.14311 -0.06561 0.26557
-0.18766 0.13392 0.32432
0.22122 0.03192 0.22258
0.20971 0.03192 -0.14940
0.20984 0.03192 0.22756
-0.21513 0.12059 -0.25144
-0.21513 0.12939 -0.25201
-0.21513 0.10230 -0.31467
0.07607 -0.18182 0.39481
0.11164 0.16523 -0.40714
0.08522 0.16409 -0.40714
-0.15826 0.06377 0.28222
-0.18282 0.05611 0.28222
-0.21220 0.04199 0.28222
-0.20711 0.11597 0.28222
-0.09627 0.00077 0.28222
-0.21693 0.10904 0.28222
-0.21695 0.09313 0.28222
-0.07110 0.02705 0.28222
-0.12644 0.02130 0.28222
-0.15074 0.04782 0.28222
-0.11702 0.01134 0.28222
0.01635 0.08063 -0.40714
-0.04176 0.01943 -0.40714
0.02219 -0.03077 -0.40714
0.17347 -0.02026 -0.40714
0.14630 -0.00215 -0.40714
-0.04889 0.09859 -0.40714
0.10590 0.12601 -0.40714
0.06157 0.09224 -0.40714
-0.05461 0.12378 -0.40714
0.10145 0.00113 -0.40714
-0.01910 0.00546 -0.40714
0.06310 0.06456 -0.40714
-0.08521 0.07963 -0.40714
0.01572 0.01764 -0.40714
0.15125 0.12353 -0.40714
-0.05147 0.09320 -0.40714
0.02191 0.04208 -0.40714
-0.07398 0.10927 -0.40714
0.11767 -0.10052 -0.40714
0.16708 -0.14605 -0.40714
-0.06794 0.12074 -0.40714
-0.02098 0.07270 -0.40714
0.11237 0.09477 -0.40714
-0.00775 0.07261 -0.40714
0.05486 0.07416 -0.40714
0.18265 0.09874 -0.40714
0.10322 0.07498 -0.40714
0.12613 0.09572 -0.40714
0.06303 -0.04722 -0.40714
0.07153 0.07546 -0.40714
0.00288 -0.00458 -0.40714
0.21762 0.08020 -0.40714
-0.01896 0.08998 -0.40714
0.18687 -0.00125 -0.40714
0.18266 0.10795 -0.40714
0.13301 -0.11107 -0.40714
0.17609 -0.12568 -0.40714
-0.10487 0.11937 -0.40714
0.13928 -0.08690 -0.40714
-0.09468 0.05691 -0.40714
-0.11193 0.06671 -0.40714
0.08887 0.11889 -0.40714
0.05767 -0.06383 -0.40714
-0.01303 -0.01107 -0.40714
0.15229 -0.08953 -0.40714
-0.03332 0.05025 -0.40714
-0.03256 0.06983 -0.40714
0.03370 -0.18182 -0.40535
0.16157 -0.18182 -0.39416
0.09234 -0.18182 -0.40218
-0.16331 -0.18182 0.33003
-0.01597 -0.18182 0.33554
0.13341 -0.01709 -0.22676
0.15386 0.18182 -0.25619
0.22623 0.16760 -0.37200
0.22623 0.15801 -0.21162
0.17855 -0.13718 -0.22676
0.19057 -0.14823 -0.22676
0.21532 -0.17086 -0.22676
0.18308 -0.10950 -0.22676
-0.18840 -0.18182 -0.25390
-0.09866 -0.18182 -0.24587
-0.00074 -0.18182 -0.25844
0.05882 -0.18182 -0.23948
-0.19866 -0.18182 -0.32908
-0.13419 -0.18182 -0.30150
-0.21588 -0.18182 -0.29235
0.06939 -0.18182 -0.27635
-0.08441 -0.18182 -0.26597
-0.12687 -0.18182 -0.34057
-0.19637 -0.18182 -0.37502
-0.17986 -0.18182 -0.31646
-0.03122 -0.18182 -0.24712
0.03005 -0.18182 -0.27776
-0.04632 -0.18182 -0.27263
0.02179 -0.18182 -0.25316
-0.02382 -0.18182 -0.29011
0.17146 -0.18182 -0.22940
0.07646 -0.18182 -0.27841
-0.21322 -0.18182 -0.36977
-0.20976 -0.18182 -0.25129
0.11418 -0.18182 -0.24237
0.12272 -0.18182 -0.24864
-0.03067 -0.18182 -0.24075
0.09936 0.17072 -0.40361
0.07927 0.17072 -0.40469
-0.15863 0.13553 -0.40714
0.15191 -0.02637 0.32083
0.07240 -0.02637 0.32364
-0.13549 -0.02637 0.31830
0.04475 -0.05363 -0.22676
-0.08971 0.06078 -0.22676
-0.02404 0.06219 -0.22676
-0.03710 0.08701 -0.22676
0.03717 0.02401 -0.22676
-0.08193 0.04052 -0.22676
-0.09586 0.09619 -0.22676
0.01219 -0.04907 -0.22676
0.09989 -0.11243 -0.22676
0.01013 0.08062 -0.22676
-0.15700 0.07155 -0.22676
-0.07081 0.10175 -0.22676
0.03605 -0.00226 -0.22676
0.05768 -0.04457 -0.22676
-0.02199 -0.00325 -0.22676
-0.01855 0.04087 -0.22676
0.04622 -0.03551 -0.22676
-0.00555 0.11287 0.36225
-0.00555 0.11046 0.33552
-0.00555 0.06491 0.33109
-0.00555 0.10847 0.32022
-0.00555 0.09564 0.36735
-0.00555 0.12532 0.37969
-0.00555 0.09357 0.29126
-0.00555 -0.06851 0.33548
-0.00555 -0.04986 0.29951
-0.00555 -0.03770 0.37125
-0.00555 -0.07443 0.32230
-0.00555 -0.04982 0.37480
-0.00555 -0.05550 0.37805
-0.00536 0.14851 0.39120
0.07049 -0.17212 0.39728
-0.11197 0.13185 0.16703
0.06613 0.13185 0.24974
0.11565 0.13185 0.25156
0.05572 0.13185 0.11894
-0.16267 0.13185 0.16967
-0.18794 0.13185 0.14997
0.11198 0.13185 0.26297
0.18834 0.13185 0.25490
-0.13492 0.13185 -0.02234
-0.07055 0.13185 0.07502
-0.11219 0.13185 0.03941
-0.06295 0.13185 0.15635
-0.05588 0.13185 0.03152
-0.21004 0.13185 -0.12294
-0.20896 0.13185 -0.08303
-0.20887 0.13185 -0.10852
0.02461 0.13185 0.15897
-0.12223 0.13185 0.26204
-0.21661 0.13185 -0.01943
0.02290 0.13185 0.19887
0.16371 0.13185 0.22500
-0.03304 0.13185 0.17264
-0.09987 0.13185 0.03619
0.00963 0.13185 0.08311
-0.05454 0.13185 -0.01445
-0.14855 0.13185 -0.03827
-0.02996 0.13185 0.03257
0.10586 0.13185 0.15203
-0.01313 0.13185 0.25599
-0.17048 0.13185 0.11310
0.11044 0.13185 0.17300
-0.21982 0.13185 0.25770
-0.10132 0.13185 -0.03126
0.13393 0.13185 0.21022
-0.13244 0.13185 0.21960
-0.20247 0.13185 -0.14815
-0.14551 0.13185 0.06174
0.06218 0.13185 0.18502
-0.09581 0.13185 0.08103
0.03997 0.13185 0.12699
-0.13046 0.13185 -0.04496
-0.16837 0.13185 0.03908
0.04812 0.13185 0.10201
0.07402 0.13185 0.19326
-0.11144 0.13185 0.19568
-0.05710 0.13185 0.25237
0.04580 0.13185 0.21971
-0.03148 0.13185 0.20148
-0.18415 0.13185 0.07297
-0.02596 0.13185 0.16843
-0.19785 0.13185 -0.07497
-0.14405 0.13185 -0.08427
-0.17942 0.13185 0.16358
0.00069 0.13185 0.03041
0.17424 0.13185 0.24050
0.07129 0.13185 0.13743
-0.03065 0.13185 0.01996
0.06483 0.13185 0.15121
-0.20332 0.13185 0.19722
0.06780 0.13185 0.20791
-0.00006 0.13185 0.11650
0.00464 0.13185 0.21955
-0.07313 0.13185 0.18685
-0.04114 0.13185 0.14849
-0.06522 0.13185 0.04805
-0.16112 0.13185 -0.10495
-0.11702 0.13185 0.02896
-0.05099 0.13185 0.24607
-0.13853 0.13185 -0.09620
-0.10229 0.13185 0.02454
-0.19999 0.13185 0.07178
0.02362 0.17072 -0.39496
0.04106 0.17072 -0.38479
-0.00555 -0.16074 0.33180
-0.00555 -0.14727 0.31336
-0.00555 -0.13973 0.34778
-0.00555 -0.03324 0.40318
-0.00555 -0.13284 0.31841
-0.00555 -0.13252 0.38253
0.08487 0.17072 -0.36847
0.06705 0.17072 -0.35046
0.02875 0.17072 -0.37581
0.14135 0.17072 -0.30258
0.10365 0.17072 -0.33615
0.13697 0.17072 -0.26453
0.12577 0.17072 -0.36323
0.17614 0.17072 -0.30409
0.06556 0.17072 -0.36108
0.07434 0.17072 -0.33738
0.15744 0.17072 -0.31006
0.11195 -0.09396 -0.22676
-0.09979 0.13732 0.38530
0.22623 -0.16518 0.27479
0.20821 0.17072 -0.31212
0.20122 0.17072 -0.20976
0.07367 -0.18182 0.35190
0.00336 -0.18182 0.36121
0.07575 -0.18182 0.35983
0.08332 -0.00972 0.31772
-0.07650 -0.00972 0.31696
0.03775 -0.00972 0.30600
0.09416 -0.00972 0.29648
0.16220 -0.00972 0.31003
-0.16469 -0.10394 0.26557
-0.14613 0.02941 0.26557
-0.20507 -0.03462 0.26557
-0.09801 0.10288 0.26557
-0.16327 -0.03117 0.26557
-0.07415 0.07752 0.26557
-0.15756 0.07311 0.26557
-0.11581 -0.03509 0.26557
-0.18243 -0.07410 0.26557
-0.18632 -0.08005 0.26557
-0.19601 -0.15142 0.26557
-0.13759 -0.04856 0.26557
-0.18243 -0.10071 0.26557
-0.13320 0.08169 0.26557
-0.19979 -0.09502 0.26557
-0.07753 0.03177 0.26557
-0.15943 0.05477 0.26557
-0.04951 0.05143 0.26557
-0.07739 0.02512 0.26557
-0.14835 -0.00656 0.26557
-0.17834 0.07197 0.26557
-0.19209 -0.06149 0.26557
0.21608 -0.18133 0.28222
0.22623 0.17963 -0.37412
0.03912 0.18182 -0.32285
-0.03299 -0.16516 0.39867
0.03417 0.17072 -0.36477
0.06250 0.17072 -0.32744
0.07796 -0.16516 0.38374
0.22623 0.13299 0.16479
0.22623 0.13774 -0.10539
0.22623 0.13490 -0.39293
0.22623 0.13188 -0.19004
-0.20967 -0.08591 0.26557
-0.21466 -0.09095 0.26557
0.22623 0.17309 -0.28373
0.02731 -0.01883 0.28222
0.12499 -0.02231 0.28222
-0.22068 0.14068 -0.29486
-0.22068 0.14174 -0.12055
-0.22068 0.13661 -0.35881
-0.22068 0.14625 0.05818
-0.09976 -0.18182 -0.34930
0.10371 0.17072 -0.23323
-0.14376 -0.01974 0.28222
0.03052 -0.18182 0.39744
0.11243 0.17072 -0.26855
0.06769 0.17291 -0.40714
0.00231 -0.02637 0.28693
0.00256 0.11430 0.08555
0.00256 0.11199 0.07120
-0.11926 0.13185 0.29400
-0.03691 0.13185 0.30127
-0.03539 0.13185 0.32923
-0.09342 0.13185 0.31103
-0.19594 0.13185 0.28398
-0.04018 0.13185 0.37394
-0.02462 0.13185 0.36571
-0.02751 -0.15119 -0.22676
-0.22068 -0.05470 0.27796
0.22398 0.17072 -0.26967
0.20261 0.17072 -0.37360
0.05917 -0.00972 0.36394
0.13862 -0.00972 0.35316
-0.22068 -0.17365 -0.23455
0.07398 0.14556 0.39637
-0.11477 -0.00972 0.28928
-0.14983 -0.00972 0.29997
-0.02275 -0.02637 0.40147
0.00555 -0.13817 0.37420
0.00555 -0.14171 0.37978
0.00555 -0.13034 0.34190
0.00555 -0.11768 0.31074
0.00555 -0.14882 0.29169
-0.22068 0.14491 -0.12629
-0.22068 0.14468 -0.37208
-0.22068 0.14228 -0.20589
-0.22068 0.14475 0.00238
-0.03681 0.03898 0.28222
-0.11586 0.08372 0.28222
-0.07003 0.06487 0.28222
-0.19383 0.11901 0.28222
-0.17483 0.11115 0.28222
-0.12848 0.12740 0.28222
-0.01685 0.08979 0.28222
-0.01041 0.03669 0.28222
-0.00584 0.01761 0.28222
-0.05326 0.08857 0.28222
0.00427 -0.02637 0.37469
-0.10207 -0.18182 0.26858
0.11713 -0.18182 0.27392
-0.10872 0.13185 -0.12905
-0.00642 0.13185 -0.13377
0.16328 0.13185 -0.00250
0.02844 0.13185 -0.00380
-0.02370 0.13185 -0.06997
-0.17912 0.13185 -0.19526
0.17312 0.13185 0.07735
0.02556 0.13185 -0.14400
-0.14837 0.13185 -0.20296
0.19820 0.13185 0.19336
0.04549 0.13185 -0.20294
0.20904 0.13185 0.11497
0.04298 0.13185 -0.18642
0.12125 0.13185 0.15108
0.15943 0.13185 0.07764
0.15854 0.13185 -0.18380
-0.11257 0.13185 -0.13934
-0.04124 0.13185 -0.09240
-0.00720 0.13185 -0.19455
-0.02951 0.13185 -0.11718
0.10216 0.13185 0.05690
-0.04567 0.13185 -0.03822
0.20501 0.13185 -0.11980
0.16607 0.13185 0.16778
0.18682 0.13185 0.21259
0.19793 0.13185 -0.10316
0.18707 0.13185 -0.03493
-0.09659 0.13185 -0.12851
-0.06466 0.13185 -0.08130
-0.02289 0.13185 -0.22478
0.17495 0.13185 0.11603
-0.01456 0.13185 -0.05045
0.06926 0.13185 0.00425
0.04007 0.13185 0.02195
0.16322 0.13185 -0.10436
0.11808 0.13185 -0.17753
-0.17667 0.13185 -0.22370
0.17519 0.13185 0.18596
0.12202 0.13185 -0.12106
0.20219 0.13185 -0.04192
0.20008 0.13185 0.24904
-0.10482 0.13185 -0.21707
0.12856 0.13185 0.15030
0.02274 0.13185 -0.06718
0.10550 0.13185 -0.17359
-0.02145 0.13185 -0.17962
-0.00940 0.13185 -0.07478
0.12227 0.13185 -0.03655
0.12060 0.13185 -0.05957
0.13519 0.13185 -0.17723
0.19362 0.13185 0.00990
0.00874 0.13185 -0.13688
0.06685 0.13185 -0.15327
0.16504 0.13185 -0.17430
0.00381 0.13185 -0.17324
-0.01670 0.13185 -0.20370
-0.05420 0.13185 -0.20727
0.17900 0.13185 0.08913
-0.13854 0.13185 -0.19060
-0.04415 0.13185 -0.07904
0.07466 0.13185 0.02118
-0.02104 0.13185 -0.09417
-0.17615 0.13185 -0.18879
0.17960 0.13185 -0.02118
-0.00197 0.13185 -0.21005
0.02764 0.13185 -0.13204
0.15146 0.13185 0.00435
0.08391 0.13185 -0.10263
0.00104 0.13185 -0.07920
0.11472 0.13185 0.10559
0.14933 0.13185 0.16907
0.10896 0.13185 -0.16650
0.14938 0.13185 0.15111
0.05139 0.15857 -0.37938
0.14559 0.07930 -0.22676
-0.09429 -0.00972 0.28536
-0.20689 -0.00972 0.29971
-0.09865 0.13185 0.22337
-0.01601 0.13185 0.15991
-0.21408 0.13185 -0.04848
-0.17097 0.13185 -0.11505
-0.03244 0.13185 0.11337
-0.16919 0.13185 0.19694
-0.09220 0.13185 -0.00362
-0.13528 0.13185 0.01983
-0.08591 0.13185 -0.00965
0.04881 0.13185 0.23345
-0.17621 0.13185 0.10447
-0.02197 0.13185 0.19844
-0.13391 0.13185 0.21270
-0.17203 0.13185 0.13123
-0.06057 0.13185 0.17226
0.04564 0.13185 0.24933
-0.08639 0.13185 -0.07233
0.07769 0.13185 0.21982
-0.00547 0.13185 0.25626
-0.21499 0.13185 0.01486
0.13773 0.13185 0.24635
-0.14087 0.13185 0.04221
-0.08202 0.13185 0.18843
-0.14726 0.13185 0.01186
-0.03869 0.13185 0.11422
-0.17589 0.13185 -0.11968
-0.05859 0.13185 0.14494
-0.06429 0.13185 0.01432
-0.05782 0.13185 0.04074
0.08488 0.13185 0.17256
-0.12164 0.13185 0.20573
-0.19576 0.13185 -0.10632
-0.18814 0.13185 -0.16694
-0.03853 0.13185 0.25358
0.10161 0.13185 0.18799
-0.19701 0.13185 -0.11420
-0.06308 0.13185 -0.02403
-0.14433 0.13185 0.10722
-0.20174 0.13185 0.22372
-0.10724 0.13185 0.05093
-0.15596 0.13185 0.22633
-0.17379 0.13185 -0.12989
0.03657 0.13185 0.18858
0.08598 0.13185 0.21027
-0.13012 0.13185 0.04413
-0.20405 0.13185 -0.04500
-0.00884 0.13185 0.18499
-0.21807 0.13185 0.18334
-0.12664 0.13185 0.11387
0.16859 0.13185 0.23543
-0.08361 0.13185 0.08355
0.01421 0.13185 0.13396
-0.05424 0.13185 0.01321
-0.02387 0.13185 0.03699
-0.04566 0.13185 -0.00515
0.20403 0.13185 0.25974
-0.18944 0.13185 -0.17708
-0.16227 0.13185 -0.13978
-0.22068 0.13185 -0.17426
-0.00419 0.13185 0.18109
-0.16032 0.13185 0.15521
-0.14491 0.13185 0.08894
-0.20765 0.13185 0.17211
-0.20983 0.13185 0.19770
-0.20037 0.13185 0.14394
-0.09434 0.13185 -0.05350
0.08959 0.13185 0.24437
-0.10282 -0.02615 0.38392
0.11933 -0.16516 0.35055
0.08346 -0.16516 0.35223
-0.12960 -0.16516 0.35633
0.19801 0.15190 -0.37938
0.12134 0.16386 -0.37938
-0.00555 0.00083 0.38711
-0.00555 0.07063 0.37131
-0.00555 0.03432 0.33099
-0.00555 0.00219 0.34427
-0.00555 0.03895 0.34193
-0.00555 0.05513 0.37682
-0.20699 0.03127 0.28222
-0.21502 -0.00006 0.28222
-0.21576 0.02163 0.28222
-0.12624 0.06054 0.28222
-0.20805 -0.00902 0.28222
-0.18447 0.02068 0.28222
-0.21833 0.00477 0.28222
-0.20175 0.10094 0.28222
-0.20382 0.06135 0.28222
-0.16218 0.07108 0.28222
-0.07487 -0.18182 0.30108
-0.04107 -0.18182 0.30656
0.09593 -0.18182 0.31251
0.14443 -0.18182 0.31556
-0.19431 -0.18182 0.28827
-0.21118 0.11423 0.21581
-0.21118 0.11153 -0.19355
0.09929 -0.02637 0.35307
0.07821 -0.02637 0.34998
-0.05095 -0.02637 0.35770
-0.22068 0.13223 -0.38151
0.22623 -0.10632 -0.39519
0.22623 0.01877 -0.30744
0.22623 -0.01697 -0.27113
0.22623 0.02061 -0.40048
0.22623 -0.07093 -0.31262
0.22623 0.03269 -0.28518
0.22623 0.02936 -0.36876
0.22623 0.07552 -0.31368
0.22623 -0.00987 -0.25942
0.22623 -0.07784 -0.31820
0.22623 -0.00220 -0.31704
0.22623 0.05483 -0.28633
0.22623 0.02331 -0.36203
0.22623 0.11689 -0.38170
0.22623 -0.10714 -0.34171
0.22623 0.00076 -0.37737
0.22623 -0.00138 -0.34580
0.22623 0.01972 -0.38460
0.22623 -0.00660 -0.34934
-0.00555 0.00794 0.33771
-0.00555 -0.00380 0.33372
-0.00555 0.01111 0.37921
-0.00555 0.00630 0.35593
-0.00555 0.10727 0.40412
-0.00555 0.05288 0.35618
-0.00555 0.07118 0.35563
0.00499 0.10952 -0.22676
0.19406 -0.09400 0.28222
0.06420 -0.05810 0.28222
0.21137 -0.07512 0.28222
0.12474 -0.06876 0.28222
0.14545 -0.09557 0.28222
0.16762 -0.12533 0.28222
0.08694 -0.03427 0.28222
0.08953 -0.05177 0.28222
0.22313 -0.11540 0.28222
0.20872 -0.04950 0.28222
0.11357 0.18182 -0.22246
0.22623 -0.17903 -0.36810
0.22623 -0.02132 -0.24042
0.22623 -0.10843 -0.27067
0.22623 -0.13080 -0.33754
0.22623 -0.12424 -0.30363
0.22623 -0.01392 -0.24403
0.22623 -0.05696 -0.26216
0.22623 -0.15984 -0.33203
0.22623 -0.04521 -0.28505
0.22623 -0.15195 -0.29606
0.22623 -0.15953 -0.34268
0.22623 -0.10258 -0.32471
0.22623 -0.08949 -0.31498
0.22623 0.16180 -0.38500
0.22623 0.15212 -0.33306
-0.07619 -0.16516 0.37894
0.13647 0.13185 0.35128
0.08781 0.13185 0.37299
0.16846 0.17072 -0.22627
0.05889 -0.16516 0.35478
0.00083 -0.16516 0.36090
-0.09080 -0.16516 0.35555
0.20958 0.06087 0.08788
0.20958 0.04953 0.13502
0.20958 0.10826 0.19905
0.20958 0.07581 0.22968
0.20958 0.07393 0.15895
0.20958 0.06833 0.16320
0.20958 0.09131 0.23335
0.20958 0.07749 0.24413
0.20958 0.05469 0.08895
0.20958 0.03735 0.08417
0.20958 0.07398 0.10554
0.20958 0.08301 0.22120
0.20958 0.08046 0.17721
0.20958 0.04141 -0.03736
0.20958 0.05301 -0.09548
0.20958 0.04151 0.01016
0.20958 0.08168 0.04307
-0.22068 0.09296 -0.23455
-0.22068 0.11833 -0.23508
0.04536 -0.02637 0.35387
0.10243 -0.02637 0.37035
0.22623 0.14792 0.27544
0.22623 0.14815 -0.23098
0.22623 0.14185 0.23359
0.02921 0.17992 -0.32634
-0.06693 -0.16335 0.28222
-0.17960 -0.08579 0.28222
-0.07452 -0.13675 0.28222
-0.20007 -0.05592 0.28222
-0.15776 -0.12106 0.28222
-0.14396 -0.08139 0.28222
-0.15144 -0.11867 0.28222
-0.20576 -0.10246 0.28222
-0.14703 -0.10405 0.28222
-0.14957 -0.15675 0.28222
-0.06307 0.12189 -0.22676
-0.11815 0.12579 -0.22676
-0.14115 0.12825 -0.22676
0.20455 0.14851 -0.20181
0.20222 0.14851 -0.33096
-0.09785 0.12080 -0.22676
-0.10012 0.13154 -0.22676
0.20864 -0.16794 0.30604
-0.10813 -0.02637 0.35728
-0.11705 -0.02637 0.36012
0.08239 -0.00972 0.29209
-0.03088 -0.00972 0.29113
-0.22015 -0.07666 -0.24341
-0.00996 -0.02539 0.40605
0.06662 0.13185 0.29356
0.10577 0.13185 0.35540
0.03001 0.13185 0.32336
0.08459 0.13185 0.34304
0.03578 0.13185 0.37063
0.13783 0.13185 0.32415
0.03987 0.13185 0.32124
0.03131 0.13185 0.31135
0.21277 0.13278 0.30045
0.11558 0.00745 -0.22676
0.11537 0.13185 0.33579
0.05860 0.13185 0.35659
0.08222 0.13185 0.29831
0.02954 0.13185 0.34622
0.04622 0.13185 0.33642
0.04991 0.13185 0.31118
0.03327 0.13185 0.37961
-0.00498 -0.04380 -0.22676
-0.02060 -0.16516 0.30903
0.17741 -0.16516 0.28886
0.17900 -0.16516 0.30496
-0.06169 -0.16516 0.31367
-0.08887 -0.11141 0.28222
-0.09880 -0.05738 0.28222
-0.17640 -0.03212 0.28222
-0.03610 -0.07349 0.28222
-0.02582 -0.10284 0.28222
-0.03406 -0.08544 0.28222
-0.02615 -0.08372 0.28222
-0.01968 -0.04122 0.28222
-0.14047 -0.02907 0.28222
-0.21082 -0.02641 0.28222
0.21349 0.14851 -0.26672
0.20909 0.14851 -0.21907
-0.15782 -0.16516 0.33682
0.02210 -0.16516 0.32909
0.06304 -0.16516 0.32570
0.17360 -0.16516 0.31954
-0.18312 -0.18182 0.27114
-0.08915 -0.18182 0.27921
-0.18941 -0.18182 0.26963
0.02717 -0.18182 0.27958
-0.00823 -0.18182 0.28025
-0.20279 0.14228 0.30644
0.16515 0.04883 -0.22676
0.16963 0.08337 -0.22676
-0.21513 0.08371 -0.28076
0.21279 0.03192 -0.06148
0.22497 0.03192 0.22982
-0.01434 -0.18182 0.29936
-0.22068 0.04148 0.27899
0.04139 0.12057 0.28222
0.21500 0.06384 0.28222
0.18317 0.11574 0.28222
0.15373 0.07715 0.28222
0.19444 0.06235 0.28222
0.13157 0.05989 0.28222
0.21115 0.12827 0.28222
0.08583 0.12028 0.28222
0.22427 0.12007 0.28222
0.21489 0.07107 0.28222
-0.12751 -0.05430 -0.40714
0.16071 -0.16461 -0.40714
-0.03337 -0.17653 -0.40714
-0.07003 -0.07519 -0.40714
-0.01666 -0.11809 -0.40714
-0.16765 -0.16323 -0.40714
0.01805 -0.07545 -0.40714
-0.17319 -0.11819 -0.40714
-0.05601 -0.10708 -0.40714
0.07238 -0.08773 -0.40714
-0.14485 -0.12677 -0.40714
0.09025 -0.15102 -0.40714
-0.15724 -0.12766 -0.40714
-0.06761 -0.04043 -0.40714
-0.12767 -0.06186 -0.40714
0.01865 -0.15927 -0.40714
-0.02510 -0.12041 -0.40714
0.00997 -0.03874 -0.40714
-0.04410 -0.12834 -0.40714
-0.13779 -0.08710 -0.40714
-0.08346 -0.13971 -0.40714
-0.00057 -0.17245 -0.40714
0.05016 -0.16894 -0.40714
-0.09157 -0.03188 -0.40714
-0.07194 -0.08472 -0.40714
-0.12257 -0.10401 -0.40714
0.03926 -0.09669 -0.40714
-0.19310 0.04091 -0.40714
0.03205 -0.07993 -0.40714
-0.00643 -0.17493 -0.40714
-0.16601 0.09150 -0.40714
-0.18218 -0.16349 -0.40714
0.05883 -0.14555 -0.40714
0.05762 -0.08265 -0.40714
-0.12521 0.01004 -0.40714
0.03934 -0.15150 -0.40714
-0.13537 -0.03936 -0.40714
-0.09811 -0.06207 -0.40714
-0.15873 -0.15432 -0.40714
-0.13153 -0.01152 -0.40714
-0.17114 0.00371 -0.40714
-0.15334 -0.02746 -0.40714
0.03360 -0.14756 -0.40714
-0.16391 0.06649 -0.40714
-0.17857 -0.12064 -0.40714
-0.03539 -0.06543 -0.40714
0.00214 0.14851 0.28805
-0.02451 0.14851 0.28327
-0.14491 0.14851 0.31030
-0.01071 0.14851 0.29434
-0.00792 0.14851 0.28498
0.07200 0.14851 0.29134
-0.09661 -0.18182 -0.39323
-0.17824 -0.18182 -0.40052
-0.05469 -0.18182 -0.39141
0.08866 0.13185 -0.04561
0.20799 0.13185 -0.16177
-0.19419 0.13185 -0.20745
0.18658 0.13185 -0.10292
0.04025 0.13185 -0.16624
0.08646 0.13185 -0.00561
-0.15807 0.13185 -0.16799
0.10448 0.13185 0.10075
0.02215 0.13185 -0.13847
0.04787 0.13185 0.06852
0.19817 0.13185 -0.12568
0.14419 0.13185 -0.18698
0.06054 0.13185 -0.15913
0.06761 0.13185 -0.04578
0.07487 0.13185 -0.20264
0.04635 0.13185 -0.13938
0.18413 0.13185 0.04015
-0.02996 0.13185 -0.05659
0.09193 0.13185 -0.10418
0.15408 0.13185 0.14399
0.19914 0.13185 0.00271
0.14420 0.13185 0.16108
0.12835 0.13185 0.02314
0.10314 0.13185 -0.12220
0.15968 0.13185 -0.07938
-0.10162 0.13185 -0.10432
0.17906 0.13185 -0.08604
0.06100 0.13185 -0.07512
-0.02567 0.13185 -0.15577
0.06753 0.13185 -0.08207
0.06282 0.13185 0.02512
0.10154 0.13185 0.13541
0.08286 0.13185 0.07356
-0.04244 0.13185 -0.12398
0.10002 0.13185 -0.08026
0.09627 0.13185 -0.02428
-0.06497 0.13185 -0.07271
0.19887 0.13185 0.02721
-0.08869 0.13185 -0.21801
0.04531 0.13185 -0.07941
0.07509 0.13185 -0.14908
0.20873 0.13185 -0.00449
0.14218 0.13185 -0.07512
0.11567 0.13185 0.01425
-0.18668 0.13185 -0.21662
0.12094 0.13185 0.02161
0.08713 0.13185 -0.02583
0.05304 0.13185 -0.02294
0.14957 0.13185 -0.08305
0.13312 0.13185 -0.15268
0.07659 0.13185 0.05517
0.07094 0.13185 -0.02382
0.09377 0.13185 0.12637
-0.10589 0.13185 -0.12109
0.00162 0.13185 -0.06339
0.16043 0.13185 0.06959
0.20861 0.13185 -0.20190
0.13009 0.13185 0.04807
0.01814 0.13185 -0.05317
0.00249 0.13185 -0.13655
-0.01417 0.13185 -0.11957
-0.03276 0.13185 -0.17793
0.20041 0.13185 -0.15387
0.04619 0.13185 -0.01505
-0.07509 0.13185 -0.08644
0.04785 0.13185 0.01757
0.19104 0.13185 -0.04186
0.08281 0.13185 -0.13044
0.02299 0.13185 0.03275
0.01104 -0.16516 0.34723
0.19534 -0.16516 0.32020
0.03714 -0.16516 0.34456
0.22623 0.17326 -0.20211
0.20567 0.16594 -0.40714
0.20658 0.15951 -0.40714
0.14439 0.11570 0.26557
0.14287 0.00501 0.26557
0.10816 -0.01268 0.26557
0.18261 -0.07462 0.26557
0.19296 0.01020 0.26557
0.13232 -0.05386 0.26557
0.18380 -0.09175 0.26557
0.14032 -0.01627 0.26557
0.20382 -0.14280 0.26557
0.10971 0.10166 0.26557
0.09225 0.07170 0.26557
0.14105 -0.04839 0.26557
0.17253 0.06686 0.26557
0.10075 0.10444 0.26557
0.17907 -0.13055 0.26557
0.17691 0.07570 0.26557
0.17177 -0.03055 0.26557
0.06339 0.06844 0.26557
0.17009 0.03823 0.26557
0.13018 0.02356 0.26557
0.14847 -0.00053 0.26557
0.09645 0.00957 0.26557
0.20016 -0.12053 0.26557
-0.19803 -0.18182 -0.26324
-0.13455 -0.18182 -0.34794
-0.12448 -0.18182 -0.27577
-0.21021 -0.18182 -0.32758
-0.06324 -0.18182 -0.23783
0.00499 -0.18182 -0.27365
-0.16188 -0.18182 -0.29081
-0.13821 -0.18182 -0.27503
0.04062 -0.18182 -0.25634
-0.05436 -0.18182 -0.30353
0.21523 -0.18182 -0.22938
-0.09969 -0.18182 -0.25588
-0.03529 -0.18182 -0.27814
-0.15736 -0.18182 -0.34142
-0.11095 -0.18182 -0.27167
-0.21237 -0.18182 -0.35535
0.07281 -0.18182 -0.26203
-0.06875 -0.18182 -0.27422
0.17959 -0.18182 -0.24143
0.08247 -0.01526 0.39415
-0.17840 -0.18182 -0.39397
-0.00045 -0.18182 -0.39541
0.16527 -0.02543 0.35046
-0.21513 0.11157 -0.25168
-0.21513 0.01967 -0.25980
-0.21513 0.09031 -0.24493
0.22623 0.17477 -0.25064
0.12768 0.17072 -0.25493
0.20695 0.14851 -0.40631
0.03199 -0.00972 0.32641
0.09502 -0.00972 0.32133
-0.06534 -0.00972 0.32955
-0.10270 -0.00972 0.34015
0.01069 -0.02637 0.38562
-0.04872 0.11752 0.26557
0.02359 0.17350 -0.38871
0.04746 -0.01280 0.28222
0.21341 0.14851 -0.34692
0.22612 0.14851 -0.40701
-0.00254 -0.16516 0.29374
0.07859 0.17072 -0.25837
-0.14820 -0.03193 -0.22676
-0.02995 -0.05077 -0.22676
-0.18167 0.05559 -0.22676
-0.17117 -0.04859 -0.22676
-0.01129 -0.05715 -0.22676
-0.06597 -0.13034 -0.22676
-0.06123 -0.00725 -0.22676
-0.02072 -0.13642 -0.22676
-0.19159 -0.07124 -0.22676
0.00256 -0.09435 -0.22676
-0.10243 -0.12419 -0.22676
-0.21778 -0.11997 -0.22676
-0.10291 -0.01527 -0.22676
-0.20532 -0.03745 -0.22676
-0.03852 -0.11680 -0.22676
-0.14703 0.02046 -0.22676
0.05215 -0.11564 -0.22676
-0.12635 -0.13851 -0.22676
-0.03056 -0.10724 -0.22676
-0.16774 -0.03900 -0.22676
0.07449 -0.11620 -0.22676
-0.08987 -0.00360 -0.22676
-0.08727 -0.07137 -0.22676
-0.02371 -0.03735 -0.22676
-0.18023 0.07727 -0.22676
-0.19405 0.04314 -0.22676
0.04240 -0.13292 -0.22676
-0.09803 -0.08917 -0.22676
-0.07318 -0.01396 -0.22676
-0.08317 -0.18182 0.30684
-0.00132 -0.18182 0.30820
-0.10859 -0.18182 0.30035
-0.03094 -0.18182 0.30435
-0.04232 -0.18182 0.31467
0.21132 -0.11357 -0.22676
0.21478 -0.12730 -0.22676
0.15812 -0.00539 -0.22676
0.19600 0.02786 -0.22676
0.17613 0.03111 -0.22676
0.20826 -0.10721 -0.22676
-0.20759 -0.03824 -0.40714
-0.20523 0.07733 -0.40714
0.17024 -0.07377 -0.40714
0.12918 0.10816 -0.40714
-0.04964 0.02671 -0.40714
0.13508 0.00824 -0.40714
-0.13124 0.13015 -0.40714
0.11946 -0.10607 -0.40714
0.02486 0.01891 -0.40714
0.03520 0.01229 -0.40714
0.12220 0.02758 -0.40714
-0.01499 0.10258 -0.40714
0.16010 0.05366 -0.40714
0.13907 -0.01044 -0.40714
-0.02046 0.04090 -0.40714
0.03458 0.07153 -0.40714
0.20078 0.09692 -0.40714
-0.02672 0.01658 -0.40714
0.11002 0.02790 -0.40714
0.18284 -0.15637 -0.40714
0.04045 0.10610 -0.40714
0.18755 -0.08315 -0.40714
0.15165 -0.02261 -0.40714
0.08627 0.10550 -0.40714
0.22159 0.05268 -0.40714
0.13023 0.08899 -0.40714
0.01186 0.03557 -0.40714
0.11684 0.06460 -0.40714
-0.08372 0.10962 -0.40714
0.02629 -0.01611 -0.40714
0.13567 -0.00228 -0.40714
0.20605 -0.16798 -0.40714
0.07633 -0.01190 -0.40714
0.19548 -0.08189 -0.40714
0.15730 0.00865 -0.40714
0.13677 -0.12171 -0.40714
0.08071 0.13079 -0.40714
0.16445 -0.12061 -0.40714
0.11965 0.10241 -0.40714
0.02606 0.12579 -0.40714
0.15212 0.09417 -0.40714
0.20666 0.04122 -0.40714
0.19095 0.06725 -0.40714
0.12119 -0.02004 -0.40714
0.15473 0.11855 -0.22676
0.14144 0.11218 -0.22676
0.08948 0.11555 -0.22676
0.06701 0.10448 -0.22676
0.19606 -0.16950 0.28222
0.21645 0.14851 -0.36890
0.21920 0.14851 -0.32623
0.10437 -0.17724 0.28222
0.07301 -0.17886 0.28222
0.07976 -0.17192 0.28222
0.13514 0.18182 -0.27158
0.03217 0.18182 -0.35275
-0.18405 0.14851 -0.10630
-0.14259 0.14851 -0.21223
-0.19129 0.14851 0.10553
-0.16711 0.14851 -0.20757
-0.15210 0.14851 -0.03396
-0.18377 0.14851 -0.08408
-0.19982 0.14851 0.20122
-0.02150 0.14851 -0.39376
-0.21344 0.14851 0.20808
-0.19088 0.14851 0.07563
-0.18233 0.14851 -0.12534
-0.16387 0.14851 0.05723
-0.08034 0.14851 -0.33446
-0.10655 0.14851 -0.15548
-0.22064 0.14851 -0.27157
-0.16678 0.14851 0.03176
-0.18493 0.14851 0.03711
-0.17246 0.14851 -0.10524
-0.17789 0.14851 -0.14159
-0.20380 0.14851 -0.21177
-0.20797 0.14851 -0.18352
-0.18612 0.14851 -0.34136
-0.19729 0.14851 -0.28017
-0.14682 0.14851 -0.15200
-0.20892 0.14851 0.08750
-0.21224 0.14851 -0.25493
-0.09232 0.14851 -0.35013
-0.07859 0.14851 -0.16719
-0.20645 0.14851 -0.40266
-0.13007 0.14851 -0.22068
-0.17067 0.14851 -0.30500
-0.18189 0.14851 -0.23819
-0.08317 0.14851 -0.18650
-0.18341 0.14851 -0.27923
-0.19113 0.14851 -0.39889
-0.00607 0.14851 -0.33351
-0.12239 0.14851 -0.34792
-0.07384 0.14851 -0.25773
-0.14024 0.14851 -0.38259
-0.18582 0.14851 -0.13427
-0.15714 0.14851 -0.37149
-0.07744 0.14851 -0.12484
-0.05957 0.14851 -0.38623
-0.16150 0.14851 0.10966
-0.21592 0.14851 -0.26760
-0.06728 0.14851 -0.34365
-0.04058 0.14851 -0.37964
0.00641 0.14851 -0.39219
-0.09862 0.14851 -0.40011
-0.03617 0.14851 -0.38737
-0.09896 0.14851 -0.10348
-0.14746 0.14851 -0.36558
-0.01462 0.14851 -0.32793
-0.19181 0.14851 0.03934
0.13317 -0.02327 0.37217
0.12570 0.14851 0.35694
0.10949 0.14851 0.35629
0.01526 0.11821 -0.22676
0.01937 -0.02637 0.29567
-0.07683 -0.02637 0.29382
-0.15623 -0.02637 0.28629
-0.00360 -0.10033 0.40714
0.10032 -0.16530 -0.22676
-0.13713 -0.17048 -0.22676
0.04292 -0.17044 -0.22676
0.06591 -0.13750 -0.22676
0.17860 -0.17938 -0.22676
0.16878 -0.17317 -0.22676
0.11980 -0.14481 -0.22676
0.18457 0.16348 -0.37938
-0.15294 0.14851 0.34198
-0.08325 0.14851 0.32078
0.07989 0.14851 0.32464
-0.02426 0.14851 0.32359
-0.00153 -0.01356 0.28222
0.00147 -0.00972 0.37497
0.12352 -0.00745 -0.22676
-0.06227 -0.02637 0.30163
-0.11971 -0.02637 0.30193
-0.16570 -0.02637 0.29780
0.06475 -0.02637 0.31256
-0.00883 -0.02637 0.30199
-0.00555 -0.14310 0.33250
-0.00555 -0.07502 0.36495
-0.00555 -0.14956 0.33090
-0.00555 -0.16303 0.30547
-0.00555 -0.15063 0.34363
0.09329 -0.02637 0.38282
0.08774 0.03165 -0.22676
0.08038 0.02926 -0.22676
0.06095 0.02194 -0.22676
0.04757 0.06006 -0.22676
0.05424 0.02256 -0.22676
-0.06643 -0.16933 0.39689
0.02851 -0.17035 0.40495
-0.22011 0.04424 0.26557
0.15904 -0.02637 0.29148
0.15870 -0.02637 0.30010
0.17338 -0.02637 0.28582
-0.21513 -0.06179 -0.24513
-0.21513 0.04053 -0.25287
-0.21513 0.03717 -0.24418
0.10694 -0.18182 0.30075
0.07362 -0.18182 0.30233
0.14226 -0.18182 0.30885
0.13437 -0.18182 0.28426
-0.14515 -0.18182 0.28394
-0.21795 -0.15573 -0.39048
-0.21118 0.11307 0.13348
-0.21118 0.11408 0.02285
0.12939 -0.08751 0.26557
-0.11302 -0.17505 0.26557
0.14072 -0.17054 0.26557
-0.01770 -0.06625 0.26557
-0.16827 -0.14066 0.26557
-0.02883 -0.11070 0.26557
-0.14234 -0.10599 0.26557
-0.06078 -0.07371 0.26557
0.14521 -0.11438 0.26557
-0.06619 -0.09782 0.26557
0.05857 -0.18030 0.26557
0.05273 -0.03248 0.26557
-0.02488 0.00230 0.26557
0.03560 0.05788 0.26557
0.16594 -0.12708 0.26557
0.00355 -0.12707 0.26557
-0.07276 -0.08515 0.26557
-0.02111 -0.16776 0.26557
0.00915 0.01244 0.26557
-0.01969 -0.09421 0.26557
0.10149 -0.16852 0.26557
0.08946 -0.13095 0.26557
-0.01722 -0.12032 0.26557
0.07827 -0.11906 0.26557
0.17292 -0.16911 0.26557
-0.14498 -0.11871 0.26557
0.03663 -0.02250 0.26557
0.10171 -0.03816 0.26557
-0.05638 0.00091 0.26557
-0.07840 -0.17736 0.26557
-0.16848 -0.16490 0.26557
0.14394 -0.10864 0.26557
-0.01832 0.02189 0.26557
0.02697 -0.01955 0.26557
0.12012 -0.06536 0.26557
0.06893 -0.14454 0.26557
0.03941 -0.15016 0.26557
0.03999 0.01851 0.26557
-0.01955 -0.14544 0.26557
0.00346 0.00189 0.26557
-0.01571 -0.00186 0.26557
-0.04975 -0.00203 0.26557
-0.07316 0.13185 0.38374
0.07148 -0.13665 0.28222
0.07644 -0.16101 0.28222
0.18485 -0.16275 0.28222
0.08288 -0.07993 0.28222
0.01085 -0.04554 0.28222
0.01569 -0.15290 0.28222
0.01936 -0.04814 0.28222
0.05296 -0.07523 0.28222
0.06477 -0.10544 0.28222
0.03565 -0.11354 0.28222
0.09006 -0.02230 0.28222
-0.22068 -0.06097 0.26873
-0.22068 -0.15846 0.27913
-0.16782 0.13922 -0.40714
-0.20149 0.14193 -0.40714
0.06785 -0.16516 0.37823
-0.02518 -0.16516 0.37645
0.08146 -0.03360 0.26557
-0.00121 -0.01086 0.26557
-0.03941 -0.12576 0.26557
0.04594 0.03046 0.26557
0.02452 -0.05455 0.26557
-0.03736 -0.13930 0.26557
0.01119 0.08280 0.26557
-0.03720 0.04609 0.26557
0.07987 -0.01087 0.26557
-0.07198 -0.02614 0.26557
-0.18554 -0.15829 0.26557
-0.08588 -0.08000 0.26557
-0.02608 -0.15769 0.26557
-0.09835 -0.16472 0.26557
-0.12080 -0.15741 0.26557
0.00841 -0.17457 0.26557
0.04237 0.00030 0.26557
0.00926 0.00257 0.26557
0.03065 -0.07381 0.26557
-0.03350 0.00674 0.26557
-0.09775 -0.05659 0.26557
0.07294 -0.09564 0.26557
-0.00335 0.07320 0.26557
0.02507 0.04997 0.26557
-0.05356 -0.17567 0.26557
0.00948 -0.00510 0.26557
0.02411 -0.17397 0.26557
0.13607 -0.11848 0.26557
-0.12363 -0.10064 0.26557
0.08353 -0.02822 0.26557
0.02843 -0.08321 0.26557
0.02026 -0.04314 0.26557
0.06941 -0.01567 0.26557
-0.13629 -0.10399 0.26557
0.07460 -0.12736 0.26557
0.04977 -0.06077 0.26557
0.01648 -0.07487 0.26557
-0.01320 -0.06198 0.26557
0.01351 0.04935 0.26557
0.22623 0.03382 -0.40180
0.22623 0.07162 -0.39158
0.22623 -0.05685 -0.37689
0.22623 -0.01959 -0.28945
0.22623 -0.00029 -0.28705
0.22623 -0.06231 -0.38222
0.22623 -0.02964 -0.30662
0.22623 -0.01796 -0.34404
0.22623 0.08386 -0.37984
0.22623 -0.01154 -0.30223
0.22623 -0.14854 -0.38394
0.22623 -0.07138 -0.38789
0.22623 0.03694 -0.37601
0.22623 -0.10991 -0.37612
0.22623 -0.03910 -0.31831
0.22623 -0.01145 -0.28165
0.22623 -0.09132 -0.34913
0.22623 0.06932 -0.35517
0.18971 -0.02072 0.32769
0.22623 0.12587 0.15882
0.22623 0.07237 0.07876
0.22623 0.08544 -0.01961
0.22623 0.07183 0.08692
0.22623 0.05017 0.24638
0.22623 0.04157 0.22005
0.22623 0.10566 0.23325
0.22623 0.10942 -0.21754
0.22623 0.12754 0.19793
0.22623 0.12123 -0.06336
0.22623 0.07209 0.14162
0.22623 0.09687 0.26797
0.22623 0.09915 -0.05387
0.22623 0.11597 0.27019
0.22623 0.09601 -0.11956
0.22623 0.11029 -0.22644
0.22623 0.11690 -0.21530
0.22623 0.11396 -0.05085
0.22623 0.12969 -0.07284
0.22623 0.12898 0.11668
0.22623 0.06082 0.20044
0.22623 0.13180 0.17067
0.05188 0.17592 -0.40714
-0.21177 -0.11708 -0.40714
-0.20975 0.00768 -0.40714
0.03837 -0.18182 0.38248
-0.15708 0.14532 0.35224
-0.02065 0.04442 0.28222
-0.06508 0.05044 0.28222
-0.03429 0.12518 0.28222
-0.03174 0.02668 0.28222
-0.04252 0.12057 0.28222
-0.02411 0.11054 0.28222
-0.00655 0.09669 0.28222
-0.02238 0.09775 0.28222
-0.00718 0.01014 0.28222
-0.16907 0.12616 0.28222
-0.01354 0.10103 0.28222
-0.09764 -0.18182 0.37350
0.09050 -0.18182 0.37055
0.21451 -0.17481 0.28222
0.20753 0.16889 -0.20172
0.05030 -0.00972 0.29316
0.03034 -0.00972 0.28961
-0.12061 -0.14410 -0.40714
-0.01281 -0.04567 -0.40714
-0.07135 -0.11529 -0.40714
-0.11258 -0.08076 -0.40714
-0.14205 -0.17787 -0.40714
-0.06319 -0.16063 -0.40714
-0.16175 -0.14503 -0.40714
-0.00782 -0.13064 -0.40714
-0.09128 0.03139 -0.40714
-0.04665 -0.10633 -0.40714
-0.15040 0.00512 -0.40714
-0.19319 0.08463 -0.40714
-0.13908 -0.13533 -0.40714
-0.07283 0.02296 -0.40714
-0.10360 -0.15245 -0.40714
-0.08292 -0.15073 -0.40714
-0.17375 -0.13210 -0.40714
-0.12622 -0.12986 -0.40714
-0.19911 -0.17024 -0.40714
-0.15273 0.05668 -0.40714
-0.20125 0.00115 -0.40714
-0.18859 -0.15042 -0.40714
-0.07018 -0.12897 -0.40714
0.02983 -0.05776 -0.40714
-0.06239 -0.00310 -0.40714
0.10644 -0.15272 -0.40714
-0.06092 -0.02717 -0.40714
-0.09412 -0.10133 -0.40714
0.01508 -0.13853 -0.40714
-0.07792 -0.08020 -0.40714
0.06866 -0.09388 -0.40714
-0.09830 -0.08850 -0.40714
-0.11508 0.02695 -0.40714
-0.19606 -0.12434 -0.40714
-0.17480 -0.02647 -0.40714
0.14092 -0.16635 -0.40714
0.14866 -0.17187 -0.40714
-0.08082 -0.04384 -0.40714
-0.12479 -0.07167 -0.40714
-0.13481 -0.03001 -0.40714
0.00555 0.12137 0.36432
0.00555 0.11896 0.29683
0.00555 0.11276 0.32145
0.00555 0.04412 0.37832
0.00555 0.02016 0.39926
0.00555 0.12696 0.31255
0.17920 0.18182 -0.23063
0.07172 -0.02103 0.39696
0.00555 -0.12923 0.38908
0.00555 -0.15910 0.40433
0.00555 -0.03524 0.37231
0.00555 -0.03403 0.33405
0.00555 -0.08123 0.33985
0.00555 -0.11295 0.38026
-0.22066 -0.17117 -0.31244
0.09925 0.17072 -0.27044
-0.12159 -0.16687 0.37543
0.03043 0.18105 -0.40714
-0.21991 0.09809 -0.24341
-0.15721 0.13185 0.32879
0.17185 -0.14510 -0.22676
-0.00555 -0.03189 0.28599
-0.00555 -0.05753 0.35101
-0.00555 -0.08177 0.30783
-0.00555 -0.12149 0.30775
-0.00555 -0.09501 0.28692
-0.00555 -0.05002 0.30843
-0.00555 -0.08342 0.33358
0.00256 0.11061 0.19001
0.00256 0.10858 0.14280
0.11157 -0.18182 0.35353
0.05855 -0.18182 0.35004
0.04020 -0.18182 0.35528
-0.06454 0.11513 -0.20838
-0.19018 0.11513 -0.07486
-0.10191 0.11513 -0.00002
-0.10428 0.11513 -0.01142
-0.21098 0.11513 -0.21527
-0.03216 0.11513 -0.19591
-0.16042 0.11513 -0.16283
-0.20446 0.11513 0.04079
-0.15631 0.11513 0.02454
-0.11119 0.11513 -0.11108
-0.14536 0.11513 -0.03200
-0.19454 0.11513 0.08654
-0.07310 0.11513 -0.16488
-0.19240 0.11513 0.10547
-0.20024 0.11513 0.14549
-0.13807 0.11513 0.02478
-0.19703 0.11513 0.12094
-0.19178 0.11513 -0.18751
-0.20236 0.11513 -0.09169
-0.12434 0.11513 -0.18648
-0.17341 0.11513 0.12420
-0.20914 0.11513 0.06616
-0.20984 0.11513 0.01581
-0.14901 0.11513 0.07334
-0.15460 0.11513 -0.13493
-0.14340 0.11513 -0.06114
-0.20563 0.11513 -0.11591
-0.17903 0.11513 -0.08856
-0.11929 0.11513 0.00525
-0.20805 0.11513 0.14112
-0.20619 0.11513 0.20237
-0.12872 0.11513 -0.21112
-0.19377 0.11513 0.01720
-0.08372 0.11513 -0.04824
-0.12776 0.11513 -0.03167
-0.16915 0.11513 -0.04430
-0.20046 0.11513 -0.10119
0.06559 0.18182 -0.39525
0.09916 0.17072 -0.26254
-0.18446 -0.18182 -0.23832
-0.18910 -0.18182 -0.22774
0.22623 -0.13864 -0.39330
0.13275 0.17535 -0.21219
0.00555 0.10983 0.34317
0.00555 0.10118 0.38460
0.00555 0.07211 0.37252
0.00555 0.08406 0.40205
0.00555 0.12281 0.38479
0.00555 0.09966 0.40393
0.00555 0.06279 0.34528
0.22623 0.07621 -0.21167
0.22623 0.03567 0.04974
0.22623 0.08583 -0.16818
0.22623 0.07732 -0.24096
0.22623 0.08919 -0.21513
0.22623 0.09716 -0.24757
0.22623 0.05549 0.02144
0.22623 0.05699 -0.16817
0.22623 0.08057 -0.18290
0.22623 0.03457 -0.03835
0.22623 0.07095 -0.02949
0.22623 0.10646 -0.24900
0.22623 0.04602 -0.19907
0.22623 0.05998 -0.00856
0.22623 0.05164 0.12916
0.22623 0.06480 -0.02475
0.22623 0.05019 -0.17588
-0.21534 0.02008 -0.22676
0.18147 0.17072 -0.30621
0.13882 0.17072 -0.31640
0.16786 0.17072 -0.29280
0.15477 0.17072 -0.32791
0.11078 0.17072 -0.33419
0.08673 0.17072 -0.37777
0.11492 0.17072 -0.35919
0.09528 0.17072 -0.31484
0.15967 0.17072 -0.25470
0.08141 0.17072 -0.33815
0.05202 0.17072 -0.37826
-0.21044 -0.18182 -0.23588
-0.00828 0.14851 0.02538
-0.00128 0.14851 0.02155
0.18220 0.14851 -0.30619
-0.01207 0.14851 0.03781
-0.06628 0.14851 0.04999
0.04692 0.14851 -0.04083
0.07156 0.14851 -0.11610
0.05968 0.14851 -0.06093
0.09474 0.14851 -0.14778
0.17560 0.14851 -0.30096
0.14612 0.14851 -0.25103
0.17869 0.14851 -0.23755
0.06289 0.14851 -0.05565
0.16750 0.14851 -0.20317
0.16514 0.14851 -0.30507
0.02983 0.14851 -0.11257
0.08667 0.14851 -0.11436
0.01750 0.14851 -0.09368
0.07718 0.14851 -0.16584
0.14627 0.14851 -0.15063
0.12439 0.14851 -0.12558
0.18068 0.14851 -0.24743
-0.17189 0.14851 0.21704
-0.04437 0.14851 0.05095
-0.09867 0.14851 0.11036
-0.04363 -0.02637 0.38480
-0.00371 -0.02637 0.39190
0.13169 0.18182 -0.24428
0.16710 0.18182 -0.22005
0.04018 0.18182 -0.37087
0.11054 0.18182 -0.36214
0.18911 0.18182 -0.25103
0.16507 0.18182 -0.39391
0.16973 0.18182 -0.33809
0.21402 0.18182 -0.22215
0.20825 0.18182 -0.37182
0.15310 0.18182 -0.33025
0.18372 0.18182 -0.26933
0.22181 0.18182 -0.29908
0.04999 0.13741 0.40262
0.21607 -0.16381 -0.40714
0.22215 -0.13183 -0.40714
-0.02858 -0.15733 -0.22676
0.16876 -0.15649 -0.22676
0.14289 -0.17893 -0.22676
-0.09753 -0.16966 -0.22676
0.09107 -0.17162 -0.22676
0.04724 -0.15002 -0.22676
-0.00966 -0.17439 -0.22676
-0.20547 -0.18166 -0.22676
0.04246 0.17443 -0.29176
-0.05268 -0.01966 0.28222
0.03605 0.13754 -0.40714
0.09809 0.13188 -0.40714
0.05737 0.14358 -0.40714
0.09100 -0.02637 0.28879
0.06860 -0.02637 0.29078
-0.13526 0.10403 -0.14868
-0.00061 0.10403 0.19754
-0.04589 0.10403 -0.10118
-0.15362 0.10403 -0.20504
-0.01365 0.10403 0.11022
-0.06885 0.10403 -0.17514
-0.20397 0.10403 -0.21720
0.00063 0.10403 -0.12425
-0.02499 0.10403 0.00702
-0.16149 0.10403 -0.15958
-0.11594 0.10403 -0.15379
-0.12317 0.10403 -0.17781
-0.00123 0.10403 -0.13189
-0.10661 0.10403 -0.05644
-0.02853 0.10403 -0.15008
-0.04229 0.10403 -0.21324
-0.18028 0.10403 -0.19767
-0.19077 0.10403 -0.21039
-0.11355 0.10403 -0.19836
-0.12096 0.10403 -0.16524
-0.03257 0.10403 -0.05130
-0.09281 0.10403 -0.06708
-0.12558 0.10403 -0.08627
-0.02611 0.10403 -0.08703
-0.01047 0.10403 0.19268
-0.13258 0.10403 -0.08996
-0.05850 0.10403 0.09589
-0.06667 0.10403 -0.15488
-0.07777 0.10403 -0.17599
-0.15816 0.10403 -0.15230
-0.01388 0.10403 -0.08556
-0.11755 0.10403 -0.03356
-0.00691 0.10403 -0.02326
-0.13692 0.10403 -0.10313
-0.06673 0.10403 -0.11866
0.15263 0.14392 0.35901
0.15133 0.14851 -0.11499
0.12685 0.14851 0.09470
-0.03052 0.14851 0.13447
0.08419 0.14851 0.11061
-0.06249 0.14851 0.12277
0.09910 0.14851 -0.01855
0.21727 0.14851 0.02287
-0.05304 0.14851 0.16269
-0.05462 0.14851 0.24016
0.00729 0.14851 0.25355
0.01450 0.14851 0.17604
0.17711 0.14851 0.03209
-0.06982 0.14851 0.15094
0.03605 0.14851 0.25058
0.04809 0.14851 0.25269
0.02789 0.14851 0.13543
0.04137 0.14851 0.18395
0.10310 0.14851 0.03903
0.16795 0.14851 0.27573
0.22210 0.14851 -0.04461
-0.00629 0.14851 0.06711
0.04168 0.14851 0.03325
0.06930 0.14851 0.22475
0.11855 0.14851 0.11795
0.16927 0.14851 0.10254
-0.18185 0.14851 0.25190
-0.02679 0.14851 0.25701
0.20407 0.14851 0.06029
0.17701 0.14851 0.01423
-0.01111 0.14851 0.18643
0.22333 0.14851 -0.19252
-0.00638 0.14851 0.15546
0.19287 0.14851 0.07345
0.15016 0.14851 0.19990
0.00805 0.14851 0.15701
0.21921 0.14851 0.24470
-0.02281 0.14851 0.27324
0.21754 0.14851 0.12138
0.21502 0.14851 -0.13110
0.22432 0.14851 0.01806
-0.08926 0.14851 0.15932
0.19786 0.14851 0.07032
0.16176 0.14851 -0.11178
-0.03368 0.14851 0.21152
0.09000 0.14851 0.16906
0.07532 0.14851 0.08863
0.09409 0.14851 0.11100
0.11068 0.14851 -0.04064
0.18884 0.14851 0.00898
-0.09086 0.14851 0.20314
-0.04777 0.14851 0.25738
0.11958 0.14851 0.25162
0.21087 0.14851 0.09568
0.04257 0.14851 0.02136
0.10212 0.14851 0.15978
0.06235 0.14851 -0.02203
0.15023 0.14851 -0.03539
0.10400 0.14851 0.07208
0.09950 0.14851 0.06626
0.17438 0.14851 -0.11698
-0.03614 0.14851 0.12535
-0.01900 0.14851 0.09242
0.19664 0.14851 -0.09657
0.05079 0.14851 0.19440
0.15831 0.14851 -0.08686
0.02406 0.14851 0.02611
0.22623 -0.07861 0.27338
-0.04990 0.11513 0.22698
-0.01471 0.11513 -0.14940
-0.15309 0.11513 0.21395
-0.02706 0.11513 0.09342
-0.14744 0.11513 0.17947
-0.04744 0.11513 0.18695
-0.01535 0.11513 0.04866
-0.10812 0.11513 0.13435
-0.03356 0.11513 -0.01598
-0.07217 0.11513 0.06270
-0.02202 0.11513 0.08499
-0.02203 0.11513 -0.07077
-0.01354 0.11513 -0.01688
-0.15257 0.11513 0.24440
-0.05716 0.11513 0.02781
-0.14833 0.11513 0.22707
-0.08813 0.11513 0.18266
-0.11142 0.11513 0.21215
-0.05486 0.11513 -0.02605
-0.07146 0.11513 -0.00078
-0.00324 0.11513 0.17671
-0.13564 0.11513 0.09731
-0.06496 0.11513 -0.03532
-0.05299 0.11513 0.00660
-0.13492 0.11513 0.11231
-0.12323 0.11513 0.16394
-0.11475 0.11513 0.06027
-0.13791 0.11513 0.21236
-0.18371 0.11513 0.23290
-0.08152 0.11513 0.24964
-0.08916 0.11513 0.22689
0.00084 0.11513 -0.01260
-0.04872 0.11513 -0.03418
-0.02818 0.11513 0.03064
-0.22068 -0.07685 0.28125
-0.18477 0.14851 0.31451
-0.03397 0.14851 0.28964
-0.18885 0.14851 0.29791
0.04850 0.14851 0.28493
0.16362 0.14851 0.28442
0.06549 -0.03306 0.28222
0.14891 -0.10820 0.28222
0.22099 -0.03966 0.28222
0.20281 -0.10108 0.28222
0.16812 -0.11871 0.28222
0.18628 -0.09644 0.28222
0.21340 -0.03122 0.28222
0.18363 -0.04788 0.28222
0.05780 -0.05323 0.28222
0.19100 -0.05421 0.28222
0.14737 -0.11489 0.28222
-0.05137 -0.18182 -0.33052
0.15574 0.13185 0.30415
0.00924 0.13185 0.28227
0.00509 -0.16516 0.32896
0.05857 0.17072 -0.33696
0.17435 -0.18182 -0.35778
0.20534 -0.18182 -0.37277
0.17823 -0.18182 -0.36577
-0.13343 -0.18182 -0.37518
0.18871 -0.18182 -0.28498
0.09349 -0.18182 -0.34909
0.16823 -0.18182 -0.30529
-0.07135 -0.18182 -0.36634
0.05068 -0.18182 -0.38529
0.17737 -0.18182 -0.29987
0.03335 -0.18182 -0.30307
0.01771 -0.18182 -0.33739
0.15593 -0.18182 -0.38807
0.15477 -0.18182 -0.36353
0.07868 -0.18182 -0.34168
0.22204 -0.18182 -0.25843
0.02580 -0.18182 -0.38296
0.18593 -0.18182 -0.29947
0.07778 -0.18182 -0.30712
-0.04445 -0.18182 -0.33325
0.17319 -0.18182 -0.28762
0.10853 -0.18182 -0.38749
0.16179 -0.18182 -0.26338
0.18679 -0.18182 -0.32912
0.04084 0.14851 0.37723
-0.22068 -0.10494 -0.24195
-0.22068 -0.09802 -0.23977
-0.07634 -0.18182 0.38759
0.15909 -0.15061 -0.22676
0.21943 -0.04004 -0.22676
0.21078 0.02165 -0.22676
0.21436 0.14851 -0.39674
0.02823 0.13453 0.40497
-0.21513 -0.14606 -0.38656
-0.21513 -0.15613 -0.28399
-0.21513 0.01024 -0.37705
-0.21513 -0.03803 -0.33047
-0.21513 -0.00769 -0.36371
-0.21513 -0.08989 -0.36833
-0.21513 -0.05017 -0.35825
-0.21513 -0.13552 -0.37953
-0.21513 -0.15319 -0.38395
-0.21513 -0.17087 -0.33809
-0.21513 0.00593 -0.38242
-0.21513 -0.04860 -0.37696
0.12637 0.14851 0.30971
0.06046 0.14851 0.30425
0.20531 0.14851 0.30934
0.17541 0.14851 0.31286
0.19198 0.14851 0.29486
-0.22040 0.02780 -0.24341
-0.08388 0.14851 -0.08126
0.00886 0.14851 -0.32664
-0.00482 0.14851 -0.11617
0.01799 0.14851 -0.12287
0.03907 0.14851 -0.26744
0.07747 0.14851 -0.26488
-0.14243 0.14851 0.15760
0.15354 0.14851 -0.30928
-0.11405 0.14851 0.00595
0.09578 0.14851 -0.24052
0.04443 0.14851 -0.20566
0.02997 0.14851 -0.27908
-0.07704 0.14851 -0.08805
-0.06056 0.14851 0.02201
0.11675 0.14851 -0.36435
-0.02665 0.14851 -0.08430
-0.12180 0.14851 0.06431
0.10030 0.14851 -0.27309
-0.02991 0.14851 -0.12298
-0.08062 0.14851 -0.00164
0.05438 0.14851 -0.28884
0.05327 0.14851 -0.19840
0.08809 0.14851 -0.23876
-0.12800 0.14851 0.12791
-0.11636 0.14851 0.09304
-0.16742 0.14851 0.14249
-0.14547 0.14851 0.13276
0.08476 0.14851 -0.22437
0.04510 0.14851 -0.26907
-0.03261 0.14851 -0.03744
0.16063 0.14851 -0.37234
0.02650 0.14851 -0.35582
0.11123 0.14851 -0.34114
0.00071 0.14851 -0.29076
-0.02523 0.14851 -0.22121
0.10629 0.14851 -0.32223
-0.14006 0.14851 0.14693
0.09824 0.14851 -0.36858
-0.01769 0.14851 -0.19624
0.08132 0.18182 -0.31026
0.05022 -0.02637 0.39742
0.11811 -0.18182 0.37833
-0.00885 -0.18182 0.38045
-0.08970 -0.16516 0.32405
-0.15053 -0.16516 0.32106
-0.14605 -0.16516 0.33352
-0.10335 -0.16516 0.31870
0.05179 0.10509 -0.22676
0.11930 0.10500 -0.22676
0.12223 0.11009 -0.22676
0.10340 0.08285 -0.22676
-0.17480 0.10403 0.26187
-0.14882 0.10403 0.13741
-0.17673 0.10403 -0.13787
-0.12449 0.10403 0.10137
-0.18372 0.10403 0.25098
-0.10967 0.10403 0.24057
-0.16099 0.10403 0.17071
-0.19656 0.10403 -0.01739
-0.04046 0.10403 0.22821
-0.17792 0.10403 0.07636
-0.10055 0.10403 0.03906
-0.06149 0.10403 0.17560
-0.12337 0.10403 0.20992
-0.17755 0.10403 -0.07992
-0.20183 0.10403 -0.02032
-0.20847 0.10403 -0.07261
-0.17334 0.10403 -0.08557
-0.04714 0.10403 0.23584
-0.13889 0.10403 0.21013
