-0.13918 0.13709 -0.08140
0.12390 0.11486 0.32014
0.13558 0.11486 0.33124
-0.15932 -0.00805 -0.45018
-0.15932 -0.04796 -0.45147
-0.15932 0.06914 -0.43406
-0.15932 0.03809 -0.44101
-0.15932 0.02771 -0.44923
-0.15932 0.06876 -0.41860
-0.15932 -0.02901 -0.45232
-0.15932 -0.07195 -0.44811
-0.14093 -0.13051 0.45368
-0.14363 -0.02123 0.45368
-0.14000 -0.08647 0.45368
-0.14139 0.01532 0.45368
-0.13211 0.13709 -0.43470
-0.11209 0.13709 -0.43531
-0.11391 0.13709 -0.42452
-0.13784 0.11486 -0.10092
-0.14628 0.11486 -0.09938
0.13709 0.12495 0.27013
0.13709 0.12151 0.29848
-0.15932 0.11578 0.16509
0.13709 0.12346 0.39457
0.13709 0.12126 0.38736
-0.00927 0.12189 -0.45368
0.12125 0.13709 -0.41787
0.01303 0.13709 -0.14302
-0.04977 0.13709 -0.20240
0.00893 0.13709 -0.16577
-0.00238 0.13709 -0.19955
-0.01515 0.13709 -0.16925
0.02327 0.13709 -0.13258
0.02993 0.13709 -0.12211
0.06644 0.13709 0.21434
0.08357 0.13709 0.23068
0.09986 0.13709 0.27038
0.06654 0.13709 0.23302
0.05509 0.13709 0.20934
0.10879 0.13709 0.29765
-0.14669 0.11486 -0.10798
0.02859 0.13709 0.11505
0.01820 0.13709 0.14106
0.00619 0.13709 0.11925
0.01208 0.13709 0.16969
-0.03346 0.13709 0.11990
0.01967 0.13709 0.17763
-0.01988 0.13709 -0.34329
-0.03124 0.13709 -0.36197
-0.01099 0.13709 -0.30921
-0.04562 0.13709 -0.39586
-0.02781 0.13709 -0.33561
-0.00160 0.13709 -0.31087
-0.13871 0.13709 -0.17014
-0.14157 0.13709 -0.20069
-0.15758 0.11486 0.18032
-0.15802 0.11486 0.11600
-0.15932 0.04690 0.42250
-0.15932 -0.00460 0.43563
-0.15932 0.06942 0.44400
-0.15932 0.06790 0.42602
-0.15932 0.08840 0.44792
-0.15932 0.09492 0.44521
-0.15932 0.08757 0.41605
-0.15932 0.02452 0.45274
-0.15924 0.09017 0.40989
0.00923 0.13709 0.13842
0.01595 0.13709 0.11410
0.02844 0.13709 0.19724
-0.01069 0.13709 0.14581
-0.00826 0.13709 0.13274
-0.03027 0.13709 0.08720
-0.04394 0.13709 0.07248
-0.02570 0.13709 0.06162
-0.02683 0.13709 0.03415
-0.03857 0.13709 0.04839
-0.15932 0.12161 -0.08813
0.10208 0.13709 0.37881
0.09518 0.13709 0.34016
0.07289 0.13709 0.34657
0.09143 0.13709 0.32441
0.11365 0.13709 0.39004
0.09216 0.13709 0.31668
0.09091 0.13709 0.37681
0.13709 0.11589 0.43294
0.13709 -0.02366 0.43965
0.13709 -0.03285 0.44258
0.13709 0.00505 0.42884
0.13709 0.04483 0.43157
0.13709 0.09988 0.44773
0.13709 -0.07351 0.44745
0.13709 0.06183 0.42413
-0.05631 0.13709 0.12695
-0.06780 0.13709 0.17855
-0.08655 0.13709 0.15942
-0.09856 0.13709 0.10731
-0.05637 0.13709 0.16636
-0.10933 0.13709 0.13417
-0.06002 0.13709 0.11523
-0.00804 0.11486 0.43280
-0.04182 0.11486 0.44340
-0.09368 0.13709 -0.34342
-0.09290 0.13709 -0.33333
-0.13237 0.13709 -0.38847
-0.11254 0.13709 -0.35248
-0.05556 0.13709 -0.30716
-0.11803 0.13709 -0.33850
-0.12590 0.13709 -0.45117
-0.06887 0.13709 -0.43600
0.15911 0.01742 -0.43199
0.12360 0.13709 0.30629
-0.13710 -0.05226 0.45295
-0.14749 0.13709 -0.07568
-0.15932 0.11796 0.15049
-0.15932 0.12238 0.16089
-0.08990 0.13709 -0.19324
-0.09822 0.13709 -0.17427
-0.06966 0.13709 -0.16743
-0.10365 0.13709 -0.19177
-0.09639 0.13709 -0.20361
-0.06029 0.13709 -0.14350
0.15932 0.12291 -0.44410
0.15932 0.03845 -0.43938
0.15932 0.13498 -0.44819
0.15932 0.07588 -0.44085
0.15932 0.08844 -0.44328
-0.12862 0.11486 0.42041
-0.13187 0.11486 0.45178
0.13228 0.13709 0.14739
0.12807 0.13709 0.19481
0.01190 0.13709 0.45182
0.02719 0.13709 0.43148
0.01284 0.13709 0.44301
-0.04082 0.11486 0.43133
-0.05001 0.11486 0.43427
0.11717 0.12436 0.45368
0.13132 -0.06776 0.45368
0.13336 0.08478 0.45368
0.10319 0.13709 -0.08267
0.07293 0.13709 -0.09753
0.06602 0.13709 -0.09404
0.10093 0.13709 -0.07457
0.06845 0.13709 -0.07874
0.11011 0.13709 -0.07861
0.07853 0.13709 -0.05232
-0.03811 0.12507 0.45368
0.12883 0.11486 -0.14993
0.12016 0.11486 -0.18712
-0.15640 0.13709 0.11549
-0.10034 0.13709 0.32544
-0.08786 0.13709 0.36713
-0.12324 0.13709 0.31690
-0.08499 0.13709 0.32271
0.07777 0.13709 0.03147
0.07912 0.13709 0.02017
0.05654 0.13709 0.00340
0.11445 0.13709 0.08042
0.08358 0.13709 0.00168
0.05967 0.13709 0.03112
-0.14901 0.11486 0.21905
-0.15212 0.11486 0.23880
-0.14340 0.13709 0.16117
-0.13709 0.09071 -0.40996
-0.14604 0.13709 0.15418
0.14122 0.07268 -0.43145
-0.14517 0.13709 -0.01686
0.13709 0.12398 0.19471
0.13709 0.11677 0.16181
-0.15136 -0.00446 0.40922
-0.15333 -0.06143 0.40922
-0.15751 -0.02345 0.40922
0.04634 0.13709 0.40412
0.05759 0.13709 0.35699
0.09262 0.13709 0.39739
0.04429 0.13709 0.37622
0.04899 0.13709 0.38803
0.12801 0.07323 0.40922
0.12404 0.03983 0.40922
0.12574 0.11145 0.40922
0.13463 0.05187 0.40922
-0.04479 0.13709 0.06417
-0.03218 0.13709 0.03883
-0.03785 0.13709 0.02248
0.01259 0.13709 0.08686
-0.01683 0.13709 0.05169
0.07267 0.13709 0.24550
0.11410 0.13709 0.26212
0.09833 0.13709 0.22029
0.07594 0.13709 0.21730
0.10922 0.13709 0.23728
0.08250 0.13709 0.24328
0.07884 0.13709 0.25914
-0.14059 0.13709 0.30735
-0.14937 0.13709 0.35090
0.04418 0.13709 -0.24226
0.06183 0.13709 -0.26477
0.08877 0.13709 -0.20611
0.08469 0.13709 -0.22736
0.03099 0.13709 -0.21978
0.03318 0.13709 -0.28091
-0.13853 0.13709 0.17680
-0.15447 0.13709 0.10626
-0.11102 0.13709 0.32296
-0.09898 0.13709 0.31027
-0.06701 0.13709 0.35656
-0.09141 0.13709 0.33917
-0.10616 0.13709 0.30949
-0.07430 0.12182 0.45368
0.11486 -0.12015 -0.43746
0.11486 -0.09567 -0.45122
0.11486 -0.12511 -0.45098
0.11486 -0.08345 -0.45221
-0.15719 0.13709 0.28838
-0.03904 0.13709 0.28328
0.00813 0.13709 0.28446
-0.05273 0.13709 0.29146
-0.00947 0.13709 0.27419
-0.01450 0.13709 0.29568
-0.04717 0.13709 0.23700
0.13709 0.11779 -0.14852
0.13709 0.12272 -0.13685
0.13202 0.13709 -0.24769
0.13709 0.13416 -0.01515
0.13709 0.13331 -0.02566
0.04574 0.13709 -0.28582
0.08583 0.13709 -0.21705
0.04375 0.13709 -0.21586
0.03715 0.13709 -0.29523
0.07617 0.13709 -0.24919
-0.13709 0.05711 0.43713
-0.13709 0.08788 0.44769
-0.13709 0.10150 0.41133
-0.13709 0.09699 0.44850
-0.13709 -0.00391 0.41349
-0.13709 0.06489 0.43738
-0.13709 0.10126 0.43534
-0.15402 0.09858 0.40922
-0.14577 0.03916 0.40922
-0.15615 -0.10172 0.40922
-0.15613 -0.04546 0.40922
-0.06583 0.13709 0.08806
-0.12028 0.13709 0.06882
-0.08997 0.13709 0.07449
-0.10036 0.13709 0.09562
-0.11373 0.13709 0.05725
-0.09347 0.13709 0.06211
0.13709 0.13609 0.26857
0.13709 0.13173 0.23061
-0.14718 0.13709 0.42581
-0.15932 0.11975 -0.00485
0.04729 0.13709 0.12526
0.11253 0.13709 0.20247
0.05765 0.13709 0.18566
0.05319 0.13709 0.16205
0.06988 0.13709 0.17291
0.03528 0.13709 0.13034
-0.14948 0.13679 -0.45324
-0.15932 0.12575 0.27812
-0.14183 0.11486 -0.30189
-0.15532 0.11486 -0.23342
0.13709 0.13622 0.20647
-0.15932 0.13387 -0.35193
-0.15932 0.13420 -0.33452
-0.15932 0.03936 -0.41409
-0.15932 0.08676 -0.41454
-0.15932 -0.00215 -0.41118
-0.15932 -0.11074 -0.44063
-0.15932 -0.08007 -0.43222
-0.15932 0.05903 -0.41651
-0.15932 -0.09338 -0.43844
0.13078 0.11486 0.29638
0.13413 0.13709 -0.08780
-0.15932 0.12710 0.40527
-0.15932 0.11742 0.35740
0.12203 0.11486 0.18447
0.13009 0.11486 0.20384
-0.15932 0.13249 0.18625
0.03959 0.13709 -0.13831
0.05037 0.13709 -0.14984
0.07602 0.13709 -0.13466
0.06750 0.13709 -0.12442
0.08368 0.13709 -0.13154
0.04974 0.13709 -0.12365
-0.14093 0.13709 0.19204
0.11486 0.04867 0.44539
0.11486 0.00848 0.44869
0.11486 -0.03916 0.44249
0.11486 0.03345 0.43527
0.11486 0.01998 0.44836
0.11486 0.03635 0.42884
0.11486 0.06913 0.43770
-0.14821 0.13709 -0.26189
0.12600 0.13709 -0.20378
0.11608 0.13709 -0.18155
-0.15063 0.13709 -0.22031
-0.15620 0.13709 -0.22740
0.13709 0.13365 -0.12263
0.15932 0.05177 -0.44094
0.15932 0.02719 -0.44096
0.11552 0.03354 -0.43153
-0.14642 0.00437 -0.45368
-0.14047 0.05834 -0.45368
-0.14861 -0.06909 -0.45368
0.01052 0.13709 0.22504
-0.00987 0.13709 0.23872
-0.01945 0.13709 0.24228
-0.00955 0.13709 0.22248
0.02690 0.13709 0.20914
-0.04173 0.13709 0.21018
0.01740 0.13709 0.28682
-0.13926 0.11486 0.21575
-0.13709 -0.10607 -0.44697
-0.13709 -0.12910 -0.43583
-0.13709 0.02612 -0.41691
-0.13709 -0.09387 -0.44085
-0.13709 -0.07014 -0.42312
-0.13709 -0.12576 -0.41590
-0.13709 0.06550 -0.41483
-0.13709 -0.08613 -0.41699
0.13709 0.12494 -0.09006
0.13709 0.12285 -0.09824
0.01076 0.13709 0.09528
-0.04987 0.13709 0.09281
-0.01469 0.13709 0.09718
-0.04270 0.13709 0.04112
-0.04640 0.13709 0.08140
-0.00101 0.13709 0.08457
0.12194 0.13709 0.45241
-0.02392 0.13428 0.45368
-0.14268 0.08270 -0.45368
-0.15635 0.03747 -0.45368
-0.15291 0.06886 -0.45368
-0.15932 0.12350 -0.21047
-0.14874 0.13709 -0.34104
-0.14291 0.13709 -0.32747
0.11486 -0.01419 0.43419
0.11486 -0.02090 0.44983
0.11486 0.05450 0.43619
0.11486 -0.03193 0.43976
0.11486 0.11184 0.41075
0.11486 -0.08128 0.44670
-0.15932 0.11152 -0.44937
-0.15932 0.00323 -0.44984
-0.15932 -0.01245 -0.43788
-0.15932 0.12229 -0.43611
-0.15932 0.11611 -0.41510
-0.15932 -0.00093 -0.43529
-0.15932 0.07333 -0.42717
-0.15932 0.12014 -0.44260
-0.08200 0.13709 0.02220
-0.05700 0.13709 0.01017
-0.08697 0.13709 0.04321
-0.10692 0.13709 0.01950
-0.11560 0.13709 0.01292
-0.07443 0.13709 0.03058
-0.15596 0.13709 -0.30302
-0.13897 0.13709 -0.30089
-0.04510 0.13709 0.41427
-0.05312 0.13709 0.44945
-0.02643 0.13709 0.43798
0.12292 0.11486 -0.12989
0.12332 0.11486 -0.16010
-0.14411 0.02936 -0.40922
-0.14910 0.06834 -0.40922
-0.14473 -0.00204 -0.40922
0.13709 0.13203 0.38776
-0.14839 0.13709 -0.05416
-0.14389 0.13709 -0.06471
0.15760 -0.01059 -0.43145
0.15852 0.02719 -0.43145
0.15224 0.04088 -0.43145
0.14496 0.08194 -0.43145
-0.15932 0.13412 -0.08235
-0.15932 0.13332 -0.02746
0.11837 0.13709 0.20745
0.11378 0.13709 0.44305
0.09975 0.13709 0.42388
0.09147 0.13709 0.23220
0.09371 0.13709 0.20778
0.10863 0.13709 0.22188
0.11256 0.13709 0.25373
0.06508 0.13709 0.23957
0.09714 0.13709 0.24577
0.13709 0.12491 0.15684
0.00497 0.13709 -0.11963
-0.04658 0.13709 -0.15793
-0.03410 0.13709 -0.12808
-0.05207 0.13709 -0.11261
-0.00710 0.13709 -0.13595
0.12952 0.13709 0.32143
0.11878 0.13709 0.38369
-0.13026 0.13709 0.05154
-0.10970 0.13709 0.08080
-0.07350 0.13709 0.10064
-0.10850 0.13709 0.06129
-0.10752 0.13709 0.05443
-0.15290 0.13709 0.22236
-0.15751 0.13709 0.20973
0.09890 0.11486 0.42499
0.08188 0.11486 0.42006
-0.08316 0.11486 0.41240
-0.06316 0.11486 0.41592
0.05081 0.13709 -0.18451
0.09344 0.13709 -0.14106
0.10028 0.13709 -0.13955
0.08122 0.13709 -0.16330
0.10714 0.13709 -0.19189
0.07444 0.13709 -0.17673
0.10510 0.13709 -0.16345
0.08427 0.13709 0.14324
0.07016 0.13709 0.14070
0.05589 0.13709 0.12914
0.08459 0.13709 0.11687
0.09199 0.13709 0.12197
0.11057 0.13709 0.17989
0.13651 0.11502 0.20494
0.13709 0.13626 0.06258
-0.13716 0.13709 -0.41577
0.09717 0.13709 -0.41043
0.06402 0.13709 -0.42734
0.03876 0.13709 -0.43361
-0.14785 0.08939 -0.40922
-0.15185 0.05348 -0.40922
-0.14197 0.06875 -0.40922
-0.15905 -0.01159 0.45321
-0.15932 0.12728 -0.29007
0.08873 0.13709 -0.32878
0.06615 0.13709 -0.36453
0.05212 0.13709 -0.32805
0.07892 0.13709 -0.34503
0.08216 0.13709 -0.30808
0.03501 0.13709 -0.38503
0.04069 0.13709 -0.34129
-0.03339 0.13709 -0.42085
0.00591 0.13709 -0.41561
-0.01532 0.13709 -0.42295
0.13709 0.12618 0.23502
-0.08238 0.13709 -0.08765
-0.07218 0.13709 -0.03419
-0.06799 0.13709 -0.02080
-0.05621 0.13709 -0.09779
-0.08336 0.13709 -0.09605
-0.15872 0.13694 0.18044
-0.13713 0.11486 -0.10988
0.00859 0.13709 -0.42722
-0.00084 0.13709 -0.43334
-0.01717 0.13709 -0.44049
0.10036 0.13709 -0.43699
0.07380 0.13709 -0.43210
0.10708 0.13709 -0.44371
0.13436 0.13709 -0.42990
-0.10590 0.11486 0.42695
0.11486 0.09968 -0.45223
0.11486 -0.05086 -0.45290
0.11486 -0.09516 -0.43984
0.11486 -0.13490 -0.43397
0.13412 0.13709 0.36363
0.13490 0.13709 0.34046
0.01692 0.13709 -0.17778
-0.02166 0.13709 -0.17065
0.01707 0.13709 -0.16776
-0.00851 0.13709 -0.17044
0.02106 0.13709 -0.19434
-0.14965 0.13709 -0.41057
0.12244 0.13709 0.23431
-0.14001 -0.03480 -0.45368
-0.14662 -0.12188 -0.45368
-0.14701 -0.04932 -0.45368
-0.09901 0.13709 -0.36007
-0.10939 0.13709 -0.32808
-0.09773 0.13709 -0.30897
-0.12967 0.13709 -0.32674
-0.07811 0.13709 -0.33680
0.11486 -0.02168 0.42598
0.11486 -0.11649 0.41962
0.11486 -0.07901 0.41672
0.11486 -0.06280 0.41951
0.11486 0.04398 0.41010
0.11486 -0.01878 0.41221
0.11486 -0.13189 0.42544
0.11486 0.07186 0.41040
-0.15268 0.00176 -0.45368
-0.15657 0.05567 -0.45368
-0.15764 -0.01328 -0.45368
-0.15560 -0.08766 -0.45368
-0.15279 -0.02257 -0.45368
-0.14926 0.11486 0.33985
-0.05537 0.13709 -0.41957
-0.05976 0.13709 -0.44472
-0.07604 0.13709 -0.44925
-0.15333 0.13709 -0.01004
-0.15932 0.01426 0.45213
-0.15932 0.03124 0.42478
-0.15932 0.07762 0.42284
-0.15932 0.04915 0.43413
-0.15932 -0.07056 0.44972
0.09576 0.13709 0.19838
0.04411 0.13709 0.13889
0.05025 0.13709 0.14889
0.06979 0.13709 0.18857
0.03464 0.13709 0.11128
0.13709 0.12157 0.37222
0.13709 0.11917 0.38089
-0.02433 0.13709 -0.43337
0.03236 0.13709 -0.04152
0.03225 0.13709 -0.06043
0.07298 0.13709 -0.01410
0.04806 0.13709 -0.02755
0.07557 0.13709 -0.04332
0.08014 0.13709 -0.02625
0.05745 0.13709 -0.38948
0.10952 0.13709 -0.34525
0.08707 0.13709 -0.39688
0.08802 0.13709 -0.38116
0.11866 0.13709 0.36551
-0.01547 0.13709 0.27760
-0.04107 0.13709 0.30677
-0.04517 0.13709 0.25607
-0.15932 0.11731 0.28038
-0.15932 0.13037 0.30344
0.13321 0.13709 0.13731
0.12463 0.13709 0.20414
-0.15932 0.11957 -0.12374
-0.15304 0.11486 0.35124
-0.15649 0.11486 0.37015
0.12120 0.13709 0.42970
-0.02464 0.11486 0.45101
-0.15151 0.11486 0.09653
-0.14261 0.11486 0.07731
0.04622 0.13709 0.05031
0.09534 0.13709 0.09342
0.05403 0.13709 0.04254
0.07540 0.13709 0.09984
0.07218 0.13709 0.08504
-0.14043 0.04250 -0.45368
-0.14600 -0.02242 -0.45368
-0.14536 -0.01131 -0.45368
-0.15138 0.13709 0.24448
-0.14794 0.13709 0.28536
0.13006 0.11126 0.45368
0.13027 -0.01798 0.45368
0.12133 0.05710 0.45368
-0.04719 0.13681 0.45321
0.13709 0.11701 0.10041
0.06577 0.13709 -0.08658
0.08633 0.13709 -0.06095
0.08140 0.13709 -0.08406
0.11253 0.13709 -0.02028
0.05957 0.13709 -0.07100
0.11486 0.01723 -0.44949
0.11486 -0.07621 -0.45106
0.11486 -0.01311 -0.44250
-0.13011 0.13709 -0.24019
-0.11231 0.13709 -0.22423
-0.12609 0.13709 -0.22593
-0.08111 0.13709 -0.20931
-0.11578 0.13709 -0.21547
-0.07511 0.13709 -0.22229
-0.10772 0.13709 -0.21796
-0.15231 0.00270 -0.40922
-0.14492 -0.11897 -0.40922
-0.15085 -0.03376 -0.40922
-0.13899 0.13709 0.41785
-0.07408 0.13709 0.43073
-0.07103 0.13709 0.44219
-0.08665 0.13709 0.44686
-0.15932 0.12452 -0.41063
0.06334 0.13709 -0.34257
0.04419 0.13709 -0.30931
0.03514 0.13709 -0.32197
0.04038 0.13709 -0.39096
0.05539 0.13709 -0.30744
0.11932 0.11486 -0.22116
0.11740 0.11486 -0.24587
0.13385 0.11486 -0.40178
0.11916 0.11486 0.22317
0.13461 0.11486 0.23251
-0.15932 0.12465 0.34076
-0.15932 0.13354 0.33012
0.12758 0.13709 -0.31668
0.12699 0.13709 -0.35769
0.07841 0.13709 0.34215
0.08265 0.13709 0.33415
0.06082 0.13709 0.30889
0.04888 0.13709 0.32402
0.13709 -0.08182 0.42366
0.13709 -0.07468 0.42454
0.13709 -0.05754 0.42313
0.13709 0.01574 0.41885
0.13709 -0.08498 0.41657
0.13709 -0.06869 0.41345
0.13709 0.06008 0.41267
-0.12860 0.13135 -0.45368
-0.09426 0.12933 -0.45368
-0.15932 0.12559 0.37016
-0.13895 0.13709 -0.44459
-0.15932 0.13532 0.01125
-0.15932 0.12260 0.02268
-0.15014 -0.05177 0.45368
-0.14934 -0.07020 0.45368
0.13709 0.12233 0.16900
0.13661 0.13682 0.44635
-0.02384 0.13416 -0.45368
0.06491 0.13709 0.44503
-0.09836 0.13709 0.04382
-0.08318 0.13709 0.00926
-0.12589 0.13709 0.00793
-0.09719 0.13709 0.00565
-0.07342 0.13709 0.06168
-0.06080 0.13709 0.05981
0.12169 0.11486 -0.36476
-0.13709 -0.13564 0.42099
-0.13709 -0.04584 0.43375
-0.13709 -0.02250 0.43449
-0.13709 -0.10636 0.44261
-0.13709 0.02613 0.45195
-0.13709 -0.12262 0.44606
-0.13709 -0.07317 0.42208
-0.13709 -0.08615 0.43700
-0.00002 0.13709 0.15242
0.02499 0.13709 0.17138
0.02747 0.13709 0.18939
0.02105 0.13709 0.13081
0.02222 0.13709 0.12273
0.02062 0.13709 0.16121
0.12686 0.13709 0.01610
-0.00020 0.13709 -0.04993
-0.03569 0.13709 -0.09901
0.01726 0.13709 -0.01734
-0.01965 0.13709 -0.09117
0.07512 0.13709 -0.33381
0.03244 0.13709 -0.40590
0.09241 0.13709 -0.32260
0.06547 0.13709 -0.32059
0.07043 0.13709 -0.35052
-0.06353 0.13709 0.13866
-0.13063 0.13709 0.10700
-0.07731 0.13709 0.12096
-0.09362 0.13709 0.13018
-0.07974 0.13709 0.10411
-0.12196 0.13709 0.10528
0.06791 0.11486 0.43279
0.04612 0.11486 0.45013
0.04427 0.11486 0.42669
0.11997 0.13709 0.03916
0.11674 0.13709 0.03036
-0.15932 0.12320 0.01033
0.11360 0.11886 0.45368
-0.15133 0.11486 0.05780
-0.15522 0.11486 0.06622
-0.06038 0.13709 -0.40464
-0.07647 0.13709 -0.35824
-0.09834 0.13709 -0.38046
-0.09189 0.13709 -0.38159
-0.07431 0.13709 -0.38034
-0.05392 0.13709 -0.35507
0.12285 -0.03031 0.40922
0.11915 -0.11428 0.40922
0.11590 0.03509 0.40922
0.12058 -0.08619 0.40922
0.15300 0.09256 -0.43145
0.14789 0.05889 -0.43145
0.15069 -0.01047 -0.43145
0.15007 0.07364 -0.43145
0.14927 0.12325 -0.43145
-0.14687 0.11486 0.11035
-0.14536 0.11486 0.35811
-0.14223 0.11486 0.39580
-0.15932 -0.06156 -0.42464
-0.15932 -0.10498 -0.44756
-0.15932 0.02950 -0.41106
-0.15932 0.02165 -0.41180
-0.15932 -0.01008 -0.42438
-0.15932 -0.11760 -0.42268
0.15932 -0.11093 -0.44308
0.15932 -0.05607 -0.44002
0.15932 -0.10451 -0.44708
0.15932 -0.06572 -0.45132
0.11668 0.10351 0.40922
0.13536 -0.05711 0.40922
0.13533 0.09729 0.40922
0.05566 0.11514 0.45323
-0.15932 0.12395 0.08727
-0.14025 0.13709 -0.24926
0.08618 0.13709 -0.09381
0.05985 0.13709 -0.08031
0.10592 0.13709 -0.01366
0.10718 0.13709 -0.06569
0.03605 0.11486 -0.41083
0.06794 0.11486 -0.41195
0.07593 0.11486 -0.41980
0.12643 0.11486 0.09030
0.12172 0.11486 0.04450
-0.14527 0.05208 0.45368
-0.15370 -0.07547 0.45368
-0.15062 0.08930 0.40922
-0.15473 0.04159 0.40922
0.11834 0.11486 -0.10341
0.12178 0.07784 -0.43145
0.11622 0.09171 -0.43145
0.11776 -0.07115 -0.43145
0.08277 0.13709 -0.26846
0.10410 0.13709 -0.28865
0.07634 0.13709 -0.27940
0.07056 0.13709 -0.27620
0.11148 0.13709 -0.28956
-0.12205 0.13709 0.15184
-0.07678 0.13709 0.18882
-0.11681 0.13709 0.16458
-0.12512 0.13709 0.20309
-0.12516 0.13709 0.16418
-0.12840 0.13709 0.19601
-0.13709 -0.09653 -0.44807
-0.13709 0.07119 -0.42565
-0.13709 0.10933 -0.44465
-0.13709 0.00655 -0.43387
-0.13709 0.10053 -0.44669
-0.13709 -0.06452 -0.44262
-0.13709 0.10694 -0.43258
-0.01158 0.13709 0.26275
-0.02550 0.13709 0.25424
-0.04072 0.13709 0.23138
-0.02572 0.13709 0.28293
-0.03379 0.13709 0.26096
-0.04439 0.13709 0.26434
-0.13731 -0.08475 -0.40974
-0.14888 0.13709 -0.11010
-0.00465 0.13709 -0.31943
-0.04407 0.13709 -0.36118
-0.02232 0.13709 -0.31008
-0.03996 0.13709 -0.34012
-0.04850 0.13709 -0.33216
0.08264 0.12141 0.45368
-0.13735 0.07217 -0.45321
0.12768 0.13709 -0.08626
0.09889 0.13709 -0.22832
0.06373 0.13709 -0.28942
0.07125 0.13709 -0.25959
0.05750 0.13709 -0.27972
0.00654 0.13709 0.40860
-0.02056 0.13709 0.40497
-0.01973 0.13709 0.37230
-0.05125 0.13709 0.33924
0.01042 0.13709 0.38575
-0.03505 0.13709 0.36244
-0.09268 0.11486 -0.44797
-0.12690 0.11486 -0.44688
-0.12300 0.11486 -0.42791
0.05389 0.13709 -0.01731
0.09379 0.13709 -0.00700
0.06126 0.13709 -0.05518
0.03371 0.13709 -0.05198
0.03414 0.13709 -0.01865
0.03496 0.13709 -0.08854
0.09723 0.13709 0.30351
0.06337 0.13709 0.26549
0.04824 0.13709 0.29950
0.09043 0.13709 0.29922
-0.10681 0.13709 0.43120
-0.08245 0.13709 0.41790
-0.12168 0.13709 0.44457
0.12710 0.13709 -0.44280
-0.13705 0.13709 -0.25797
-0.11850 0.13709 -0.24107
-0.09307 0.13709 -0.24319
-0.10960 0.13709 -0.25416
-0.13330 0.13709 -0.26745
-0.13409 0.13709 -0.10940
-0.11094 0.13709 -0.12351
-0.11178 0.13709 -0.14545
-0.11202 0.13709 -0.15329
-0.10545 0.13709 -0.11202
-0.08791 0.13709 -0.10888
-0.15063 0.13709 -0.11792
-0.14401 0.13709 -0.13250
-0.14332 0.11486 -0.22537
-0.14692 0.11486 -0.24909
0.04354 0.12284 -0.45368
-0.11214 0.11486 -0.42205
-0.05689 0.11486 -0.42447
-0.06250 0.11486 -0.43520
-0.14658 0.13709 -0.22673
0.12499 0.00072 -0.43145
0.12120 -0.01404 -0.43145
0.13029 0.04532 -0.43145
0.12876 0.11486 0.13968
0.11818 0.13709 0.19721
0.15932 0.08340 -0.43501
0.00675 0.13709 -0.03474
0.01558 0.13709 -0.09309
0.00399 0.13709 -0.09301
0.01656 0.13709 -0.05899
-0.01940 0.13709 -0.07690
-0.13634 0.13709 -0.05745
-0.11593 0.13709 -0.07350
-0.10632 0.13709 -0.00323
-0.11049 0.13709 -0.05950
-0.10667 0.13709 -0.02669
-0.04661 0.11486 0.42046
-0.01989 0.11486 0.42773
0.08043 0.13709 0.07834
0.06698 0.13709 0.05223
0.09331 0.13709 0.08161
0.03439 0.13709 0.03444
0.05080 0.13709 0.03036
-0.09132 0.13709 -0.02130
-0.09086 0.13709 -0.03840
-0.12886 0.13709 -0.03202
-0.13296 0.13709 -0.09270
-0.06689 0.13709 -0.00964
-0.08811 0.13709 -0.03202
-0.11492 0.13709 -0.04688
0.12017 0.13709 0.10740
0.10270 0.13709 -0.40258
0.08984 0.13709 -0.34699
0.04405 0.13709 -0.39775
0.08382 0.13709 -0.37545
-0.02776 0.13709 0.29687
-0.01231 0.13709 0.28946
-0.00074 0.13709 0.30090
-0.01859 0.13709 0.25629
-0.12497 0.13709 0.12100
-0.10665 0.13709 0.19904
-0.13244 0.13709 0.13467
-0.11247 0.13709 0.20417
-0.10297 0.13709 0.16560
-0.13424 0.13709 0.20342
0.13586 -0.10521 -0.45368
0.11818 0.07842 -0.45368
0.13518 -0.12805 -0.45368
0.11724 -0.13272 -0.45368
0.13695 -0.06308 -0.45368
0.14965 -0.10768 -0.45368
0.13924 -0.03219 -0.45368
0.12595 -0.02770 -0.45368
0.11685 0.13709 -0.03649
0.11547 0.13709 -0.07150
-0.13747 0.10693 -0.45332
-0.02818 0.13709 -0.19930
0.01957 0.13709 -0.12130
0.02439 0.13709 -0.14644
0.13287 0.13709 -0.19532
0.12179 0.13709 -0.14016
-0.15473 0.13709 0.42067
0.11486 -0.04874 0.41841
0.11486 -0.07320 0.44192
0.11486 0.03766 0.41840
0.11486 -0.06888 0.42745
0.11486 -0.11976 0.44797
0.11931 0.13709 0.39797
0.11603 0.13709 0.24532
0.12911 0.13709 0.21099
-0.13931 0.11486 -0.05111
-0.14228 0.11486 -0.06825
-0.03397 0.13709 0.42739
-0.02566 0.13709 0.42687
-0.03386 0.13709 0.41286
0.01951 0.11486 0.41095
0.02171 0.11486 0.42998
-0.13142 0.12545 0.45368
-0.11237 0.12995 0.45368
-0.13709 -0.02571 0.45156
-0.13709 0.03479 0.45113
-0.13709 -0.01038 0.44854
-0.13709 -0.07929 0.43438
-0.13709 0.04595 0.44781
-0.13709 -0.03559 0.43679
0.06614 0.11793 -0.45368
-0.13782 0.03589 0.40922
-0.01015 0.13709 -0.04826
-0.04621 0.13709 -0.00302
-0.03195 0.13709 -0.05686
0.02821 0.13709 -0.00076
-0.02289 0.13709 -0.03359
-0.03129 0.13709 -0.04937
-0.15932 0.12829 -0.24572
-0.14185 0.11486 -0.09155
-0.15650 0.11486 -0.07203
-0.15932 0.12619 -0.16694
-0.15932 0.12595 -0.01077
-0.05161 0.13709 -0.28939
-0.00280 0.13709 -0.23306
0.00368 0.13709 -0.21458
-0.04405 0.13709 -0.23890
-0.03179 0.13709 -0.25443
-0.01930 0.13709 -0.24678
-0.14686 0.11486 -0.32369
-0.13972 0.11486 -0.39532
-0.14540 0.11486 -0.20155
-0.15725 0.11486 -0.13811
0.11809 -0.00246 0.40922
0.12192 -0.05924 0.40922
0.12997 -0.11312 0.40922
-0.15900 -0.10658 -0.40964
0.06680 0.13709 0.37221
0.03107 0.13709 0.38275
0.04816 0.13709 0.34079
0.04168 0.13709 0.38262
0.07241 0.13709 0.37833
0.06744 0.13709 0.39430
-0.12207 0.13709 -0.21171
-0.07100 0.13709 -0.20483
-0.09794 0.13709 -0.23294
-0.10078 0.13709 -0.24984
-0.12805 0.13709 -0.25633
-0.13718 0.11486 0.40235
0.12935 0.11486 0.10305
0.12069 0.11486 0.11158
0.12956 0.11486 -0.02458
-0.14029 0.11486 0.17895
-0.14236 0.11486 0.13872
0.12331 0.13709 -0.18632
0.11983 0.13709 -0.14766
-0.13709 0.04477 -0.43207
-0.13709 -0.02054 -0.43883
-0.13709 0.00940 -0.45165
-0.13709 0.00354 -0.44001
-0.13709 0.07560 -0.41947
-0.13709 0.09820 -0.41897
-0.13712 0.11486 0.18863
-0.02196 0.13709 0.16946
-0.03264 0.13709 0.16288
-0.02119 0.13709 0.18037
0.00903 0.13709 0.20391
-0.03599 0.13709 0.13002
0.12061 0.11486 -0.06828
-0.15932 0.02329 0.41549
-0.15932 0.04977 0.41625
-0.15932 -0.10250 0.41561
-0.15932 -0.02359 0.41724
-0.15932 -0.05331 0.41073
-0.15932 -0.09897 0.43832
-0.05614 0.13709 0.21329
-0.06561 0.13709 0.26695
-0.08755 0.13709 0.22946
-0.08179 0.13709 0.26622
-0.11008 0.13709 0.22367
-0.07263 0.13709 0.26999
-0.06438 0.13709 0.20991
0.02174 0.13709 -0.01053
0.01006 0.13709 -0.00844
-0.05100 0.13709 -0.01168
-0.04419 0.13709 -0.06694
-0.02461 0.13709 -0.02572
-0.15243 0.11486 0.18563
0.13709 0.12605 0.31235
0.11854 0.11486 0.16881
0.00049 0.13709 0.25968
-0.03676 0.13709 0.21724
0.02165 0.13709 0.22118
-0.15932 0.13221 -0.05705
-0.04128 0.13709 -0.18146
-0.04212 0.13709 -0.14439
-0.02821 0.13709 -0.12470
-0.03686 0.13709 -0.11463
-0.01979 0.13709 -0.13093
0.01288 0.13709 -0.10330
0.14183 0.04597 -0.45368
0.13524 0.11965 -0.45368
0.13993 0.05379 -0.45368
0.13850 0.00988 -0.45368
0.15232 0.04690 -0.45368
0.13776 0.06926 -0.45368
-0.06601 0.11486 -0.41550
-0.05400 0.13709 0.23371
-0.10157 0.13709 0.21891
-0.09093 0.13709 0.25897
-0.07703 0.13709 0.23615
-0.09644 0.13709 0.21352
-0.10662 0.13709 0.21395
0.13709 0.12326 -0.22470
0.13709 0.02821 0.45077
0.13709 -0.04239 0.44322
0.13709 0.12157 0.44031
0.13709 0.06804 0.43113
0.13709 0.06103 0.44845
0.13709 0.00570 0.44980
0.01909 0.12715 -0.45368
0.11593 0.13709 -0.33497
0.12577 0.13709 -0.37081
0.04861 0.13709 -0.06717
0.07358 0.13709 -0.03594
-0.15932 0.12657 0.42825
0.00201 0.13709 0.32281
0.02432 0.13709 0.37620
0.02348 0.13709 0.31641
-0.00977 0.13709 0.34866
0.01480 0.13709 0.33536
0.02243 0.13709 0.35418
0.13267 0.09167 0.45368
0.13556 -0.11027 0.45368
0.12276 0.09137 0.45368
0.12448 0.08486 0.45368
0.12992 0.04030 0.45368
0.06118 0.13709 0.28945
0.05003 0.13709 0.26729
0.03665 0.13709 0.27336
0.06434 0.13709 0.29918
0.09484 0.13709 0.28580
0.04347 0.13709 0.45199
0.13709 0.12220 0.05913
-0.11084 0.13709 0.34241
-0.12878 0.13709 0.38502
-0.08783 0.13709 0.38690
-0.09308 0.13709 0.37321
-0.12923 0.13709 0.40451
-0.04976 0.13709 -0.27056
-0.01090 0.13709 -0.21157
-0.03471 0.13709 -0.23213
-0.02574 0.13709 -0.23301
-0.04286 0.13709 -0.28263
-0.12296 0.13709 0.24512
-0.10810 0.13709 0.28893
-0.12175 0.13709 0.27772
-0.06279 0.13709 0.30045
-0.13181 0.13709 0.24903
-0.10238 0.13709 0.29334
-0.10224 0.13709 -0.41805
-0.06802 0.13709 -0.41087
0.04678 0.13709 -0.31646
0.15929 0.07270 -0.43216
0.11555 0.11486 -0.32045
-0.15907 0.11535 -0.31636
-0.15414 0.11486 0.31629
0.13709 0.12593 0.08284
0.13709 0.12003 0.04244
0.13709 0.13029 0.05187
0.13014 0.11486 -0.19251
0.01705 0.13342 0.45368
-0.15337 0.11486 0.14800
-0.03576 0.13709 0.45063
0.00485 0.13709 0.42273
-0.15727 0.13709 -0.41739
0.15856 0.10756 -0.43145
0.14894 0.00929 -0.43145
0.14202 0.10563 -0.43145
-0.08089 0.13709 0.06478
-0.06578 0.13709 0.03385
-0.09360 0.13709 0.02886
0.11486 0.06045 -0.44938
0.11486 -0.00102 -0.45237
-0.15932 0.12800 -0.04506
-0.12511 0.13709 0.37015
-0.11800 0.13709 0.35727
-0.13294 0.13709 0.31254
-0.10287 0.13709 0.38963
0.11598 0.13709 0.33725
0.01833 0.13709 -0.35220
0.01436 0.13709 -0.37137
0.02846 0.13709 -0.38489
-0.03179 0.13709 -0.39288
0.11554 0.13709 0.27065
-0.15932 0.12864 0.00062
-0.15932 0.13259 0.03778
0.04737 0.11486 -0.41939
0.10641 0.11486 -0.45115
0.05013 0.11486 -0.43622
-0.04518 0.13709 0.02444
-0.00588 0.13709 0.07855
-0.05292 0.13709 0.07196
-0.15932 0.12085 -0.30162
0.13647 0.13696 0.00156
-0.14490 0.13709 0.38992
0.00700 0.13709 0.04545
0.01502 0.13709 0.00670
0.00987 0.13709 0.06817
-0.03636 0.13709 0.01597
0.00636 0.13709 0.02938
-0.12437 0.11765 -0.45368
0.15932 -0.04058 -0.45157
0.15932 -0.04535 -0.44455
0.15932 -0.09433 -0.45253
0.11827 0.03700 -0.45368
0.12006 -0.03236 -0.45368
0.12710 0.02869 -0.45368
0.12353 -0.07600 -0.45368
0.12980 -0.09611 -0.45368
-0.15832 0.11486 0.29188
0.13709 0.13082 0.35785
-0.09059 0.11486 0.43642
-0.08163 0.11486 0.44617
-0.07509 0.11486 0.44622
0.13194 0.11486 -0.03489
0.05874 0.13709 0.43322
0.09100 0.13709 0.41505
0.13119 0.11486 -0.22631
0.13119 0.11486 0.36817
0.12622 0.11486 0.32887
-0.14584 0.13709 -0.36242
-0.14426 0.13709 -0.37160
-0.14378 0.13709 -0.43186
0.02227 0.13709 0.29345
0.02462 0.13709 0.28523
0.02427 0.13709 0.23304
-0.00204 0.13709 0.23832
0.05513 0.13709 0.02180
0.06579 0.13709 0.00368
0.08979 0.13709 0.01168
0.10624 0.13709 0.06649
-0.00069 0.13709 -0.07478
-0.00994 0.13709 -0.06070
0.02814 0.13709 -0.03516
-0.03047 0.13709 -0.08807
-0.07730 0.13709 -0.16562
-0.06271 0.13709 -0.19078
-0.11081 0.13709 -0.20292
-0.07841 0.13709 -0.14555
-0.15552 -0.10864 -0.45368
-0.14461 -0.07512 -0.45368
0.10987 0.13709 0.08690
0.04576 0.13709 0.01634
0.10492 0.13709 0.01334
0.08321 0.13709 0.03767
-0.13709 0.11291 0.42681
-0.13709 0.00057 0.42748
-0.13709 0.01851 0.41527
-0.13709 -0.06067 0.41336
-0.13709 -0.01235 0.42140
-0.13709 0.03999 0.41899
-0.13709 0.00981 0.41901
-0.13026 0.13708 0.45295
-0.13709 -0.05805 -0.43570
-0.13709 -0.07986 -0.43367
-0.13709 -0.08904 -0.43574
-0.13709 -0.01231 -0.43107
-0.13709 0.01237 -0.41688
-0.13709 -0.02753 -0.43238
-0.13709 -0.11804 -0.43682
0.01913 0.13709 -0.22685
-0.02137 0.13709 -0.30117
0.02313 0.13709 -0.27444
0.00344 0.13709 -0.29907
-0.01797 0.13709 -0.26628
0.00522 0.13709 -0.27921
-0.08315 0.13709 0.25768
-0.08420 0.13709 0.22158
-0.07876 0.13709 0.27352
-0.06099 0.13709 0.25884
0.07874 0.13709 0.17846
0.04644 0.13709 0.17603
0.03327 0.13709 0.20213
0.12631 0.11486 -0.34829
0.12321 0.11486 -0.31064
0.13255 0.11486 -0.40984
-0.04222 0.13709 -0.38918
-0.03862 0.13709 -0.38062
-0.00343 0.13709 -0.32987
-0.00588 0.13709 -0.34093
-0.04690 0.13709 -0.37242
0.05639 0.13709 -0.44114
0.10498 0.13709 -0.42909
-0.11760 0.13709 0.42133
-0.11682 0.13709 0.42977
-0.15767 0.13709 -0.35890
-0.15655 0.13709 -0.39048
0.12317 0.13709 0.14266
0.12183 0.13709 0.16750
0.04564 0.13709 -0.24981
0.06831 0.13709 -0.21793
0.05501 0.13709 -0.21814
0.04611 0.13709 -0.26212
0.13636 0.11487 0.25257
-0.13674 0.11486 -0.45264
-0.12031 0.11486 -0.44640
-0.15264 0.13709 0.37675
-0.15751 0.13709 0.39963
-0.14046 0.02222 -0.40922
-0.14476 0.06197 -0.40922
-0.14983 0.00965 -0.40922
-0.15521 0.13709 0.06449
0.13366 0.13709 -0.14422
0.12398 0.13709 -0.11560
-0.15129 -0.06672 -0.40922
-0.15457 0.04680 -0.40922
-0.15932 -0.02581 0.44986
-0.15932 0.11454 0.42570
-0.15932 0.09355 0.42774
-0.15932 -0.06362 0.44822
-0.15932 0.02082 0.42943
0.13198 0.11486 0.35208
0.12408 0.11486 0.31222
-0.05433 0.13709 0.43856
0.09771 0.11486 0.41846
0.09231 0.11486 0.41023
-0.04340 0.13709 0.44016
-0.01864 0.13709 0.42165
0.13174 -0.05471 0.45368
0.12672 0.06970 0.45368
0.12973 0.03322 0.45368
0.12481 0.11539 0.45368
-0.14510 0.13709 0.44315
-0.14853 0.13709 0.06472
-0.15932 0.12609 0.13004
-0.08223 0.11486 -0.43653
-0.06667 0.11486 -0.42333
-0.09159 0.11486 -0.42278
0.13709 0.13414 0.04188
0.13709 0.12562 0.02063
-0.00876 0.13709 -0.45050
0.02088 0.13709 -0.41600
0.02172 0.13709 -0.44410
0.12391 0.11486 0.15820
0.12004 0.13709 -0.10856
0.11486 0.05158 -0.44112
0.11486 -0.00601 -0.43501
0.11486 -0.01809 -0.43413
-0.14892 0.11102 -0.40922
-0.13979 -0.02527 -0.40922
-0.13873 0.09728 -0.40922
0.13709 0.11996 -0.16520
0.13709 0.11618 -0.19638
0.01159 0.13709 0.37629
0.00221 0.13709 0.36553
0.02905 0.13709 0.32309
0.02657 0.13709 0.36018
-0.00368 0.13709 0.32824
-0.01396 0.13709 0.31266
0.01648 0.13709 0.31060
-0.15106 0.13709 0.36792
-0.02273 0.13709 -0.05980
-0.01971 0.13709 -0.01744
-0.05137 0.13709 -0.06499
-0.00902 0.13709 -0.01476
-0.03634 0.13709 -0.43797
0.00121 0.11502 -0.45310
0.13709 0.11577 0.27529
0.04807 0.13709 -0.04136
0.03991 0.13709 -0.03107
-0.00321 0.13709 -0.06369
0.01349 0.13709 -0.02318
-0.00055 0.13709 -0.08412
0.02604 0.13709 -0.09453
-0.15932 -0.02401 -0.43883
-0.15932 0.11196 -0.42360
-0.15932 -0.03668 -0.44521
-0.15932 0.00020 -0.44361
-0.15932 -0.01643 -0.44391
-0.15932 0.04092 -0.43483
0.05401 0.11510 -0.45318
0.01498 0.13709 0.20856
-0.02201 0.13709 0.23172
-0.11645 0.13709 0.30217
-0.10668 0.13709 0.24927
-0.13353 0.13709 0.27365
-0.11679 0.13709 0.28914
-0.13232 0.13709 0.28928
0.11921 0.13709 -0.34475
0.13709 0.12898 0.13201
0.11605 0.11486 0.36166
0.11639 0.11486 0.36993
-0.14217 0.11486 -0.23403
-0.14283 0.11486 -0.25973
0.02689 0.13709 -0.32332
-0.02694 0.13709 -0.40468
0.03064 0.13709 -0.36806
0.01565 0.13709 -0.33855
0.02093 0.13709 -0.38091
0.02989 0.13709 -0.29708
0.00329 0.13709 -0.24213
0.00286 0.13709 -0.25522
0.00516 0.13709 -0.28990
0.03542 0.13709 -0.44153
0.03984 0.13709 -0.42589
0.11801 0.07070 0.45368
0.12016 -0.10677 0.45368
0.12172 0.02300 0.45368
0.14682 -0.11883 -0.43145
0.14852 -0.09027 -0.43145
0.13933 -0.13632 -0.43145
0.12939 -0.05928 -0.43145
0.13078 -0.08466 -0.43145
0.13814 0.00572 -0.43145
0.13709 0.00964 0.44380
0.13709 0.08862 0.43992
0.13709 0.10930 0.43315
0.13709 -0.00684 0.43674
0.13709 -0.00694 0.45229
0.13709 0.10692 0.43989
0.05824 0.13709 0.08355
0.05659 0.13709 0.09507
0.05357 0.13709 0.05435
0.03622 0.13709 0.06218
0.08578 0.13709 0.09398
0.11585 0.04543 -0.43145
0.11694 0.06760 -0.43145
0.13136 0.13709 -0.28195
0.12748 0.11486 0.28959
-0.06601 0.12998 -0.45368
0.08080 0.11486 0.40964
0.08855 0.11486 0.42134
0.07187 0.11486 0.41110
-0.15385 0.11486 -0.01928
-0.13926 0.11486 -0.07435
-0.12152 0.13709 -0.29541
-0.09139 0.13709 -0.26781
-0.07421 0.13709 -0.27416
-0.13334 0.13709 -0.30582
-0.06942 0.13709 -0.29488
-0.15932 0.13284 0.34887
-0.03642 0.13709 -0.20598
-0.03602 0.13709 -0.26653
-0.03731 0.13709 -0.21901
-0.01024 0.13709 -0.22233
0.13105 -0.02956 0.40922
0.13561 -0.10655 0.40922
0.12097 0.08627 0.40922
-0.15932 0.11872 0.33804
-0.13709 -0.01897 -0.42411
-0.13709 -0.08224 -0.42353
-0.13709 -0.13340 -0.42236
-0.13709 0.03716 -0.41266
-0.13709 -0.12352 -0.42989
-0.13709 -0.03561 -0.43374
-0.04047 0.11486 -0.44848
-0.05087 0.11486 -0.44950
-0.04131 0.11486 -0.42809
-0.11452 0.13709 -0.26482
-0.08783 0.13709 -0.21225
-0.15932 0.12859 0.09389
-0.15932 0.12560 0.07365
0.15704 0.13199 -0.43145
0.15593 -0.10200 -0.43145
-0.15776 0.13709 0.43738
-0.14436 0.11486 0.19687
-0.15932 0.11840 0.04880
0.11615 0.11486 -0.42379
0.13441 0.11486 0.24174
0.06655 0.13709 -0.41802
0.08764 0.13709 -0.41043
0.12729 -0.07531 -0.43145
0.13840 -0.08174 -0.43145
0.13397 -0.06436 -0.43145
0.15136 -0.12612 -0.43145
0.13124 -0.11323 -0.43145
0.12028 -0.10507 -0.43145
0.13916 -0.09787 -0.43145
-0.00810 0.13709 0.03766
-0.03241 0.13709 0.00599
0.00800 0.13709 0.02129
0.00400 0.13709 0.00796
0.02003 0.13709 0.01865
-0.00898 0.13709 0.00244
-0.14480 0.11486 -0.16941
-0.14097 0.11486 -0.19506
-0.14283 -0.08195 0.40922
-0.14505 -0.04863 0.40922
-0.14600 -0.03989 0.40922
-0.14202 -0.00531 0.40922
0.13709 0.12492 0.10748
-0.08590 0.13709 0.24560
-0.07055 0.13709 0.25180
-0.07748 0.13709 0.24272
-0.05513 0.13709 0.28052
-0.13626 0.13709 -0.36772
-0.11786 0.13709 -0.37451
-0.10021 0.13709 -0.32162
-0.12215 0.13709 -0.32623
-0.11939 0.13709 -0.31196
0.11993 0.03261 0.45368
0.12083 -0.12782 0.45368
0.11832 -0.11960 0.45368
0.11878 -0.00730 0.45368
-0.15932 0.12316 -0.21705
0.15932 -0.12473 -0.43544
0.15932 0.01887 -0.44855
-0.15796 0.11486 -0.34770
0.10775 0.13709 0.13555
0.10136 0.13709 0.18175
0.05833 0.13709 0.11084
0.11237 0.13709 0.12631
0.07997 0.13709 0.15178
0.13217 0.08762 0.40922
0.13319 0.01513 0.40922
0.13709 0.13144 0.11949
0.12441 0.13709 -0.41131
-0.15857 0.11486 0.20237
0.11815 0.13709 -0.28071
0.11522 0.13709 -0.21237
0.13709 -0.04381 0.42543
0.13709 -0.10856 0.42956
0.13709 -0.13041 0.42107
0.13709 -0.09177 0.44520
0.13709 -0.11942 0.41253
0.11351 0.11486 -0.43592
0.09844 0.11486 -0.42830
0.10190 0.11486 -0.41500
0.12049 0.11486 0.30585
0.11528 0.11486 0.29289
-0.08135 0.12186 0.45368
0.13709 0.12276 -0.29148
0.13709 0.13202 -0.25819
0.13709 0.13111 0.10429
-0.15932 0.12789 -0.41681
0.13553 0.11486 -0.28325
-0.13709 -0.05944 0.44388
-0.13709 0.07886 0.45167
0.12541 0.13709 0.06547
0.13124 0.13709 0.08603
0.05881 0.13709 -0.18006
0.08546 0.13709 -0.14204
0.09754 0.13709 -0.15161
0.06715 0.13709 -0.16565
0.10300 0.13709 -0.12839
0.09944 0.13709 -0.19371
-0.08466 0.12701 -0.45368
0.07571 0.13709 0.42342
-0.15932 0.12591 0.23373
-0.10591 0.13709 -0.04922
-0.07595 0.13709 -0.01062
-0.12135 0.13709 -0.03747
-0.07408 0.11486 0.42482
-0.00147 0.13709 -0.26602
0.01933 0.13709 -0.26700
-0.03490 0.13709 -0.30490
0.02489 0.13709 -0.29035
0.00471 0.13709 -0.27252
-0.00461 0.13709 -0.28674
0.13709 0.11935 -0.01149
-0.15688 -0.03550 0.40922
-0.14953 0.10562 0.40922
-0.07044 0.13709 0.41511
-0.08947 0.13709 0.42362
-0.15932 0.13064 -0.27542
-0.01543 0.11486 -0.44657
-0.02049 0.11486 -0.43276
-0.14597 0.13709 -0.27135
0.02750 0.12775 0.45368
-0.14929 0.13709 0.35748
-0.15932 0.11667 -0.33183
-0.15932 0.12066 -0.36763
0.11383 0.13709 0.14687
0.06318 0.13709 0.14043
0.03535 0.13709 0.10324
0.00124 0.13709 -0.17614
0.01163 0.13709 -0.13042
-0.00812 0.13709 -0.18526
0.01731 0.13709 -0.20097
0.11590 0.13709 -0.02595
0.12470 0.13709 -0.05386
-0.14755 0.13709 0.07756
-0.15244 0.11486 -0.38498
-0.14219 0.11486 -0.40531
0.13146 0.11486 -0.09262
-0.13980 0.11486 0.40948
-0.15030 0.11486 0.39758
0.05421 0.13709 -0.43471
0.05716 0.13709 -0.41826
0.13709 0.12497 0.00145
0.13483 0.13709 -0.33382
-0.00472 0.13640 0.45362
0.11934 -0.02351 -0.43145
0.12701 0.02709 -0.43145
0.11841 0.10453 -0.43145
0.11486 0.06511 0.42951
0.11486 0.10623 0.43579
0.11486 -0.09086 0.44532
0.11486 -0.08521 0.45277
0.11486 -0.04329 0.44824
0.10504 0.13709 -0.37286
0.10214 0.13709 -0.32603
0.08496 0.13709 -0.35495
0.06386 0.13709 -0.37139
0.07688 0.13709 -0.36339
-0.14920 0.11486 0.08903
0.11697 0.11486 -0.07557
0.12322 0.11486 -0.01921
0.09429 0.13709 -0.06538
0.06603 0.13709 -0.07264
0.09986 0.13709 -0.04602
0.09190 0.13709 -0.05242
0.13709 0.12042 0.24603
0.13709 0.13259 0.30334
0.03575 0.11486 0.41814
-0.13709 0.11328 0.41911
-0.13709 -0.09939 0.41035
-0.13709 -0.02169 0.41412
-0.15932 0.12181 -0.23513
-0.15932 0.12211 -0.26201
0.12154 0.13709 -0.30554
-0.15199 0.11486 -0.22397
0.13709 0.12474 -0.07915
-0.15932 0.01223 -0.42700
-0.15932 -0.04081 -0.42985
-0.15932 -0.08880 -0.44414
-0.14076 -0.04434 0.45368
-0.13802 -0.12309 0.45368
-0.15932 0.11740 0.07286
-0.15932 0.11642 0.08809
-0.15900 -0.11963 0.40964
-0.06269 0.13709 -0.16505
-0.05623 0.13709 -0.13474
-0.06976 0.13709 -0.18162
-0.10282 0.13709 -0.16794
0.12152 0.11486 0.33762
-0.12300 0.13709 -0.00001
-0.08336 0.13709 -0.01000
-0.11469 0.13709 -0.01777
0.10381 0.13709 -0.38984
0.10174 0.13709 -0.38320
0.06532 0.13709 -0.38362
0.10624 0.13709 -0.33733
0.07878 0.13709 -0.35167
-0.08015 0.13709 -0.18790
-0.06250 0.13709 -0.15559
-0.08526 0.13709 -0.16000
-0.06479 0.13709 -0.17316
0.13709 0.12445 -0.33842
-0.08089 0.13367 -0.45368
-0.06086 0.13709 0.15252
-0.05886 0.13709 0.13297
-0.05391 0.13709 0.19327
-0.09756 0.13709 0.14927
-0.06579 0.13709 0.16481
0.07689 0.13709 -0.25601
0.07286 0.13709 -0.28632
0.08864 0.13709 -0.28073
-0.13982 0.13709 0.21695
0.03185 0.12798 -0.45368
0.07466 0.12942 -0.45368
-0.14047 0.13709 0.00602
-0.15257 0.13709 -0.36989
-0.14059 -0.07776 0.45368
-0.14016 0.06430 0.45368
-0.14654 -0.11576 0.45368
-0.15932 0.12009 -0.02192
-0.14778 0.13709 -0.20795
-0.15748 0.13709 -0.27046
-0.00571 0.13709 -0.40160
0.02188 0.13709 -0.36137
-0.01045 0.13709 -0.37299
-0.00968 0.13709 -0.36362
0.00673 0.13709 -0.36324
0.02752 0.13709 -0.39289
-0.02045 0.13709 -0.38517
-0.02070 0.13709 0.00738
-0.01494 0.13709 0.01890
0.00057 0.13709 0.05573
0.02025 0.13709 0.07598
0.04844 0.13709 0.41975
0.03213 0.13709 0.42689
0.08701 0.13709 0.42240
0.11593 0.11486 0.31966
-0.13907 0.13709 0.42778
-0.15932 0.13142 -0.14472
-0.15932 0.12970 -0.15193
0.06424 0.13709 -0.44190
0.12606 0.13709 0.12392
0.10700 0.13709 0.42470
-0.15198 0.13709 0.02638
-0.14707 0.13709 0.03536
-0.05287 0.13709 -0.08001
-0.01423 0.13709 -0.00272
-0.01553 0.13709 -0.23961
0.01685 0.13709 -0.21284
-0.04490 0.13709 -0.10339
0.00548 0.13709 -0.10686
-0.00882 0.13709 -0.11182
-0.03038 0.13709 -0.11164
0.12448 0.11486 -0.39515
-0.15441 0.13709 0.07250
-0.15932 0.13541 -0.31462
0.13500 0.11486 -0.02868
0.08761 0.13709 0.05009
0.11217 0.13709 0.02246
0.06405 0.13709 0.02388
0.07707 0.13709 0.04697
0.14064 0.11192 -0.45368
0.14794 -0.01213 -0.45368
0.13387 0.12946 -0.45368
0.14786 -0.05386 -0.45368
0.14964 0.06311 -0.45368
0.14374 -0.01738 -0.45368
0.13625 0.03405 -0.45368
0.14795 0.08499 -0.45368
-0.15844 0.13709 -0.42507
-0.14369 -0.09652 -0.40922
-0.14997 -0.01033 -0.40922
0.11669 0.11486 0.21044
0.01510 0.12416 0.45368
0.02564 0.13709 0.33750
0.00313 0.13709 0.31241
0.00199 0.13709 0.34862
-0.01103 0.13709 0.35592
0.13098 0.13709 0.43522
-0.02567 0.13709 -0.41269
-0.14373 0.11486 0.27175
-0.14003 0.11486 0.23423
-0.02995 0.13709 0.18323
-0.04395 0.13709 0.15445
-0.00102 0.13709 0.18104
-0.01880 0.13709 0.14648
-0.04585 0.13709 0.18617
0.12198 0.11486 0.01251
-0.06345 0.13709 -0.11341
-0.13550 0.13709 -0.12818
-0.10314 0.13709 -0.13436
-0.11167 0.13709 -0.13216
-0.09105 0.13709 -0.14071
0.11861 0.11486 -0.37280
0.12042 0.11486 -0.34271
-0.15932 -0.11481 -0.41458
-0.15932 -0.06806 -0.43811
-0.15932 -0.07652 -0.43907
-0.03137 0.13709 -0.44496
0.07567 0.13709 0.39668
0.03386 0.13709 0.36693
0.05112 0.13709 0.37763
0.05696 0.13709 0.38343
0.13663 0.10810 0.40951
0.13709 0.12991 -0.36136
0.15932 0.09817 -0.43222
0.15932 -0.02101 -0.43674
-0.13709 -0.00959 -0.43951
-0.13709 0.09432 -0.43301
-0.13709 -0.00410 -0.43081
-0.13709 -0.08480 -0.44616
-0.13709 0.08232 -0.41853
-0.14182 0.11486 -0.13530
0.13133 0.13709 0.10587
0.15883 -0.13207 -0.45342
-0.14072 0.13709 -0.15300
0.13709 0.12280 0.41898
0.13373 0.13709 -0.05619
-0.14184 0.10000 -0.45368
-0.15393 0.02429 -0.45368
-0.15230 -0.00867 -0.45368
-0.15654 0.11923 -0.45368
-0.13709 0.05806 0.42424
-0.13709 0.07224 0.43488
-0.13709 -0.07957 0.41664
-0.13709 -0.08638 0.41166
-0.13709 0.07248 0.42434
-0.13709 0.01886 0.42371
-0.13709 0.07390 0.44193
0.13384 0.11486 -0.34563
0.12384 0.13709 0.39082
0.11509 0.13709 -0.17415
0.11530 0.13709 -0.12587
0.13709 0.12683 -0.04761
0.11548 0.06407 0.40934
-0.13709 0.01855 0.44222
-0.13709 -0.12933 0.44589
-0.13709 -0.05515 0.43401
-0.13709 -0.11283 0.41724
-0.13709 -0.11562 0.42753
-0.13709 -0.12941 0.41398
-0.13956 0.11486 -0.01197
0.12978 0.11486 -0.00319
0.11877 0.11486 -0.03382
0.12618 0.06563 -0.45368
0.13147 0.13709 0.37117
-0.10434 0.13709 0.15591
-0.10094 0.13709 0.19526
-0.11736 0.13709 0.13744
-0.13146 0.13709 0.12792
0.00639 0.11894 -0.45368
0.12888 0.00414 -0.45368
0.15007 -0.12090 -0.45368
0.12777 -0.13076 -0.45368
0.12468 0.02134 -0.45368
0.12506 -0.00559 -0.45368
0.11909 0.00542 -0.45368
0.11573 0.06819 -0.45368
0.13692 -0.02118 -0.45368
-0.15369 0.11486 -0.37111
-0.15932 -0.05537 0.42260
-0.15932 0.06827 0.41334
-0.15932 -0.04941 0.41821
-0.15932 -0.01765 0.43199
-0.15932 -0.00547 0.42272
-0.15932 -0.11154 0.44098
-0.15932 -0.13348 0.44238
0.13709 0.02629 0.41540
0.13709 -0.00602 0.42970
0.13709 -0.10919 0.41601
0.13709 -0.11737 0.42419
0.13709 -0.03442 0.42566
0.13709 -0.13060 0.41177
0.13709 -0.10343 0.42284
-0.03660 0.11486 -0.41333
0.00782 0.11486 -0.43807
0.00286 0.11486 -0.42194
0.12308 0.13709 -0.26984
-0.07545 0.11486 -0.44423
-0.12808 0.11486 -0.41858
-0.10816 0.13709 0.45029
-0.08383 0.13709 0.43976
-0.09349 0.13709 0.43549
-0.02968 0.13709 0.38870
-0.02566 0.13709 0.34192
-0.04203 0.13709 0.40513
-0.04773 0.13709 0.35278
-0.03158 0.13709 0.35457
-0.09329 0.11873 0.45368
-0.07351 0.13709 -0.10197
-0.09264 0.13709 -0.06931
-0.11597 0.13709 -0.09070
-0.15932 0.02012 -0.45221
-0.15932 0.08211 -0.43448
-0.15932 0.06364 -0.44597
-0.15932 0.08010 -0.44204
-0.15932 0.10521 -0.44651
-0.13730 0.13709 -0.35395
0.11900 0.11486 0.39421
-0.14480 0.09401 0.45368
-0.15426 0.08644 0.45368
-0.14891 -0.01615 0.45368
-0.14638 0.08119 0.45368
0.02976 0.12114 0.45368
-0.13737 0.00602 0.45322
0.06970 0.13709 0.35309
0.09292 0.13709 0.30917
0.10870 0.13709 0.32200
0.11486 0.02043 0.42461
0.11486 0.02300 0.41661
0.11486 -0.11905 0.41102
0.11486 -0.08972 0.43643
0.15932 -0.08316 -0.45011
0.15932 -0.07398 -0.44578
-0.01421 0.11486 -0.41173
-0.00427 0.11486 -0.40978
0.02904 0.11486 -0.44489
-0.15176 0.13709 -0.39741
-0.12572 0.13709 -0.35556
-0.13675 0.13709 -0.34019
-0.08535 0.13709 -0.33410
0.13612 0.11486 0.19448
0.13436 0.11486 0.11370
-0.15932 0.11804 -0.19027
-0.09998 0.13709 -0.42965
0.08523 0.11486 0.44599
-0.14439 0.11486 -0.32994
-0.13726 0.11486 -0.34130
0.09103 0.13154 -0.45368
0.09781 0.13338 -0.45368
-0.14829 -0.12940 0.40922
-0.14902 -0.07141 0.40922
0.03963 0.13709 0.31960
0.09723 0.13709 0.38841
0.03893 0.13709 0.40823
0.04182 0.13709 0.33166
0.07441 0.13709 0.36808
0.13143 0.13709 -0.01797
0.13709 0.12588 -0.04003
0.07362 0.12057 0.45368
-0.11495 0.13709 0.24040
-0.12551 0.13709 0.26651
-0.10634 0.13709 0.27977
-0.08668 0.13709 0.28882
0.13215 0.13709 0.22736
0.13244 0.13709 0.25666
0.13709 0.12192 0.22284
-0.15932 0.01669 0.41283
-0.15932 0.03333 0.41427
-0.15932 -0.04311 0.43081
-0.15932 -0.08791 0.44452
0.13551 0.11486 0.01537
0.13460 0.11486 0.00235
-0.15412 0.11486 0.01222
-0.14726 0.11486 0.02683
-0.00070 0.13709 -0.33671
-0.04557 0.13709 -0.38003
-0.03271 0.13709 -0.32515
-0.05011 0.13709 -0.31832
-0.04054 0.13709 -0.34918
-0.03096 0.13709 -0.37356
0.12607 0.13709 0.05509
0.13236 0.13709 0.07347
-0.15240 0.11486 -0.29698
-0.15886 0.13680 0.15730
-0.15432 0.11486 -0.09421
0.13034 0.11486 0.15184
0.13709 0.13028 -0.27492
0.13709 0.12525 -0.42056
0.12921 0.11486 0.02300
-0.13095 0.13709 0.09365
-0.09375 0.13709 0.08642
-0.07231 0.13709 0.08318
-0.11758 0.13709 0.02587
-0.12765 0.13709 0.02346
-0.13928 -0.12402 -0.40922
-0.15183 -0.11262 -0.40922
0.02208 0.13709 0.03676
0.01147 0.13709 0.06051
0.02940 0.13709 0.04171
-0.06645 0.13709 0.33443
-0.08739 0.13709 0.30826
-0.08264 0.13709 0.33590
-0.06377 0.13709 0.38508
0.12895 0.13709 0.24051
-0.15684 0.11486 -0.20703
0.12208 -0.07766 0.45368
0.11986 -0.09350 0.45368
-0.15932 -0.10059 0.44507
-0.15932 -0.06925 0.42880
-0.15932 -0.13436 0.42497
-0.15932 -0.05149 0.43034
-0.15932 0.03786 0.42139
-0.15932 -0.11153 0.42623
-0.07384 0.11486 -0.41338
-0.12813 0.13709 -0.12240
-0.11860 0.13709 -0.15601
-0.13053 0.13709 -0.17784
-0.13141 0.13709 -0.18483
-0.13135 0.13709 -0.13684
0.08184 0.11486 -0.45135
0.05826 0.11486 -0.42877
0.11648 0.11486 0.15924
0.11805 0.04698 0.45368
0.11933 -0.00074 0.45368
0.11740 -0.05765 0.45368
-0.13709 0.03794 -0.43792
-0.13709 -0.05409 -0.44678
-0.13709 0.01050 -0.44117
-0.13709 0.11080 -0.41815
0.01846 0.13709 0.40959
-0.00262 0.13709 0.38490
-0.05262 0.13709 0.36089
-0.03960 0.13709 0.37769
0.13709 0.12698 0.40703
-0.13790 0.10804 0.40922
0.13308 0.13709 -0.31191
0.12599 0.13709 -0.33610
0.00745 0.13709 0.10466
-0.01471 0.13709 0.10666
-0.00256 0.13709 0.16368
-0.15932 0.12906 -0.31753
0.12849 0.13709 0.27981
-0.13530 0.13709 0.38025
-0.09706 0.13709 0.38417
-0.05607 0.13709 0.40661
-0.12319 0.13709 0.33614
-0.09269 0.13709 0.40430
-0.14949 0.11486 0.22758
-0.15659 0.11486 0.26465
0.09871 0.13709 -0.10554
0.04240 0.13709 -0.12239
0.03316 0.13709 -0.11017
0.06521 0.13709 -0.11312
0.09599 0.13709 -0.11549
0.13041 0.11486 -0.37309
0.12629 0.11486 -0.38404
-0.06827 0.13709 -0.35890
-0.10161 0.13709 -0.37394
-0.09118 0.13709 -0.35473
-0.11562 0.13709 -0.40592
-0.06147 0.13709 -0.34701
-0.13057 0.13709 -0.40574
-0.14960 0.11486 0.38064
-0.13909 0.11486 0.32005
-0.06307 0.13709 0.08100
-0.10005 0.13709 0.02131
0.12315 0.11486 0.05922
0.13709 0.12258 -0.39177
-0.14609 0.13709 0.31094
-0.14479 0.13709 0.33938
-0.12337 0.13709 0.25256
-0.06812 0.13709 0.29287
-0.08694 0.13709 0.27475
0.12003 0.13709 -0.39419
-0.15932 0.11932 0.25333
-0.15932 0.13548 0.16617
-0.15932 0.05688 0.42783
-0.15932 0.08481 0.43932
-0.15932 -0.04868 0.44962
-0.15932 0.01039 0.43489
-0.15932 0.02606 0.43522
0.06973 0.13709 -0.14104
0.06077 0.13709 -0.13922
0.04058 0.13709 -0.19176
0.06820 0.13709 -0.15675
0.05342 0.13709 -0.17218
0.12510 0.13709 -0.06406
0.13248 0.13709 -0.22443
0.13449 0.13709 -0.15579
0.12799 0.13709 -0.15733
0.12205 0.13709 0.35082
-0.01636 0.11486 0.41064
0.00125 0.11486 0.41326
0.01383 0.11486 0.41725
0.06078 0.13709 -0.20630
0.04245 0.13709 -0.22362
0.04390 0.13709 -0.27539
0.13709 0.13017 -0.14447
0.13792 -0.11607 -0.45368
0.13828 -0.04509 -0.45368
0.12405 -0.10473 -0.45368
-0.14680 0.13709 0.04431
-0.13780 0.11486 -0.15543
-0.00678 0.13709 -0.25668
0.02436 0.13709 -0.30423
0.01532 0.13709 -0.24375
-0.03081 0.13709 -0.29368
-0.01121 0.13709 -0.28950
0.13436 0.13709 0.41906
0.06250 0.11486 -0.43480
0.06969 0.11486 -0.43406
0.04622 0.11486 0.43537
0.10028 0.11486 0.44983
0.05153 0.11486 0.44354
0.07435 0.13709 -0.14632
0.08541 0.13709 -0.10418
0.07394 0.13709 -0.10689
0.07895 0.13709 0.27744
0.04038 0.13709 0.25855
0.06449 0.13709 0.27604
0.03136 0.13709 0.25793
