0.05705 0.08337 0.19391
0.13135 0.08337 0.23841
0.14743 0.08337 0.27227
0.05487 0.08337 0.27010
0.17486 0.08760 0.19387
0.11293 0.09090 -0.36249
0.08850 0.09090 -0.38042
-0.00342 -0.06609 -0.23675
0.04350 0.09090 -0.39022
0.00524 0.09090 -0.38155
0.03602 0.09090 -0.38895
-0.01026 0.09090 -0.21326
-0.05463 0.09090 -0.24216
0.01866 0.07799 -0.43044
-0.17500 0.08972 -0.06498
-0.01492 0.02720 -0.17319
-0.13005 0.05979 0.40381
0.02738 0.01410 -0.21288
-0.14863 0.09090 -0.28863
0.16397 0.08337 0.36412
0.16594 0.08337 0.40181
0.16227 0.08337 0.29533
0.17418 0.08337 0.39099
0.16648 0.08337 0.22360
0.17104 0.08337 0.24818
0.16732 0.08337 0.41087
0.15701 0.08337 0.32271
0.17858 0.08337 0.27957
0.16849 0.08337 0.28680
0.16310 0.08337 0.39314
-0.09759 0.09085 -0.00462
0.13022 0.07609 0.10658
-0.00560 -0.02043 -0.17441
0.12431 -0.08592 0.11769
0.12559 -0.08274 -0.19951
-0.02594 0.07799 -0.18945
0.04482 0.09090 0.31508
0.05580 0.09090 0.32570
-0.00229 -0.07556 -0.26761
-0.01191 0.09090 -0.18991
-0.10512 0.08842 -0.39852
0.02674 0.08233 -0.42438
-0.13225 -0.01412 0.38555
-0.14170 -0.04315 0.39496
-0.02583 0.06190 -0.21077
-0.09829 0.09090 0.21758
-0.10882 0.09090 0.22389
-0.07749 0.09090 0.21612
-0.10877 0.09090 0.32467
-0.07253 0.09090 0.19591
-0.10513 0.09090 0.21135
-0.09394 0.09090 0.24380
-0.11621 0.09090 0.16893
-0.09811 0.09090 0.30562
-0.11793 0.09090 0.14103
-0.07916 0.09090 0.18990
-0.07671 0.09090 0.20084
-0.08988 0.09090 0.31817
-0.08185 0.09090 0.30314
-0.08176 0.09090 0.22479
-0.12159 0.09090 0.22022
-0.06123 0.09090 0.22584
-0.11525 0.09090 0.36201
-0.05710 0.09090 0.26839
-0.11843 0.09090 0.32162
-0.07316 0.09090 0.23439
-0.11326 0.09090 0.30379
0.01267 0.08880 0.42900
-0.02471 0.06699 -0.20983
0.07002 0.09090 -0.22710
-0.13250 -0.01832 0.39035
-0.06064 -0.07101 -0.20786
0.14073 0.02425 0.38196
0.01295 -0.07692 -0.22296
-0.02065 -0.07692 -0.21070
-0.02173 -0.07692 -0.22534
-0.15238 0.09090 0.26383
-0.14400 0.09090 0.19377
-0.16650 0.09090 0.13048
-0.15239 0.09090 0.23941
-0.14568 0.09090 0.20977
-0.16090 0.09090 0.28097
-0.15690 0.09090 0.17115
-0.13802 0.09090 0.14279
-0.14641 0.09090 0.14131
-0.15088 0.09090 0.21707
-0.15865 0.09090 0.20987
-0.16745 0.09090 0.36749
-0.15509 0.09090 0.28789
0.06066 0.09090 -0.37289
0.15020 0.09090 -0.35958
0.07934 0.09090 -0.38117
0.21706 0.09089 -0.22148
-0.14163 -0.03530 0.12052
0.00297 0.03733 -0.23180
0.04710 0.09090 -0.20800
-0.02553 0.03231 -0.18255
0.12130 0.08975 0.42831
-0.19657 0.09090 -0.20071
-0.19054 0.09090 -0.21951
0.00321 -0.01355 -0.22388
-0.20273 0.08563 -0.29803
0.03055 0.09090 0.12502
-0.09138 0.09090 0.12936
-0.02934 0.01051 -0.20283
-0.17437 0.08528 0.26813
0.10332 0.09042 -0.00524
0.03952 0.09090 -0.00984
0.04636 0.09090 0.00207
0.09298 0.09090 -0.00540
0.03965 0.09090 -0.00219
0.00599 0.06606 -0.22676
0.07466 0.09090 0.18904
-0.14032 -0.05913 0.11363
0.13077 0.09090 -0.24457
0.14664 0.07799 -0.24334
-0.04656 0.07799 -0.25764
0.02640 0.07799 -0.25564
-0.17143 0.07799 -0.26034
0.20457 0.07799 -0.22519
-0.03888 0.07799 -0.24612
0.12832 0.07799 -0.23655
0.03629 0.07799 -0.23205
0.17776 0.07799 -0.21798
-0.09389 0.07799 -0.25859
0.11958 0.07799 -0.23934
0.13710 0.07799 -0.23294
0.21327 0.07799 -0.22716
-0.01376 0.07799 -0.24946
0.08635 0.07799 -0.24310
-0.06065 0.07799 -0.24532
0.19270 0.07799 -0.22034
-0.04020 0.07799 -0.24006
0.14753 0.07799 -0.25802
-0.03772 0.07799 -0.25692
0.20541 0.07799 -0.21643
0.11822 0.07799 -0.24826
0.06644 0.07799 -0.24058
-0.07870 0.07799 -0.25167
0.20641 0.07799 -0.25122
0.03895 0.07799 -0.26086
0.00942 0.07799 -0.25790
0.18788 0.07799 -0.25034
0.05078 0.07799 -0.26017
-0.13808 -0.00021 0.39598
0.01250 -0.07692 -0.19853
0.02594 -0.07692 -0.20923
0.03136 -0.07692 -0.18217
-0.05067 0.09090 0.20692
0.17586 0.07880 -0.05129
-0.03521 0.09090 -0.22640
-0.14085 0.09050 -0.36988
-0.17738 0.08425 0.32080
-0.04108 0.09090 -0.35793
0.03281 0.09090 -0.34846
-0.02825 0.09090 -0.35035
0.14239 -0.04367 0.12132
0.16295 0.09090 -0.05593
0.17035 0.09090 -0.07771
0.13876 0.09090 -0.07040
-0.14401 0.08320 -0.37378
0.06000 0.07799 -0.04076
-0.07417 0.07799 -0.06129
-0.16814 0.07799 -0.05620
-0.03606 0.07799 -0.05431
-0.02853 0.07799 -0.05707
-0.17237 0.07799 -0.05166
-0.07150 0.07799 -0.04596
-0.13679 0.07799 -0.05181
-0.09500 0.07799 -0.05251
-0.15308 0.07799 -0.06568
-0.06399 0.07799 -0.04086
0.06826 0.07799 -0.04280
-0.07753 0.07799 -0.03701
-0.10128 0.07799 -0.06057
-0.12482 0.07799 -0.07192
0.09282 0.07799 -0.03871
-0.10690 0.09090 -0.16724
-0.11155 0.09090 -0.17059
0.07120 -0.07144 -0.19510
0.07265 0.08577 -0.41360
-0.14681 0.09090 -0.30618
0.14550 0.04739 0.38845
-0.01793 0.07799 -0.01590
-0.05869 0.07799 -0.01171
-0.04528 0.07799 -0.00448
-0.03720 0.07799 -0.00372
-0.15336 0.07799 -0.03259
-0.07665 0.07799 -0.01623
-0.00437 0.07799 -0.00054
-0.13024 0.07799 -0.01171
-0.08166 0.07799 -0.00849
-0.17342 0.09090 -0.08633
-0.15690 0.09090 -0.07868
-0.00592 0.09090 -0.19722
-0.06195 0.09090 -0.00311
-0.06838 0.09090 0.00589
-0.01246 0.09090 0.00296
0.03105 0.09090 0.14831
0.02079 0.09090 0.19081
0.00160 0.09090 0.15577
0.00878 0.09090 0.18867
-0.05545 0.09090 0.13845
-0.01218 0.09090 0.18721
-0.01777 0.09090 0.15757
0.03399 0.09090 0.18087
-0.03312 0.09090 0.19582
-0.01671 0.09090 0.19311
0.02001 0.09090 0.14168
0.05499 0.09090 0.15740
0.00461 0.09090 0.16273
-0.03267 0.09090 0.15799
-0.08327 0.09090 0.15921
-0.01227 0.09090 0.15202
-0.04166 0.09090 0.13381
0.04548 0.09090 0.15865
-0.03492 0.09090 0.14960
0.05292 0.09090 0.13400
-0.00217 0.09090 0.16936
-0.02566 0.09090 0.17062
0.11140 0.07952 0.00257
-0.06863 0.09090 -0.40629
0.03287 0.09090 -0.39949
-0.05360 0.09090 -0.39415
-0.03297 0.09090 -0.39375
-0.06311 0.09090 -0.39627
-0.13082 -0.01560 0.39718
-0.17073 0.08601 -0.05469
-0.01388 -0.05433 -0.21721
0.13844 -0.09090 -0.20101
-0.14612 0.06154 0.38121
0.02531 0.05120 -0.21675
-0.17168 0.09090 -0.13649
-0.19831 0.09090 -0.14501
-0.09374 -0.07465 -0.20786
-0.10557 -0.08436 -0.20778
-0.09973 0.08601 0.42969
0.21427 0.09033 -0.25945
0.13829 0.06416 0.10658
-0.12233 0.07799 -0.16699
-0.03169 0.07799 -0.19207
-0.03787 0.09090 -0.20760
0.16143 0.09090 0.14338
0.16357 0.09090 0.35691
0.15317 0.09090 0.24293
0.14666 0.09090 0.22163
0.14669 0.09090 0.16899
0.16223 0.09090 0.11763
0.14837 0.09090 0.15282
0.15658 0.09090 0.28106
0.16963 0.09090 0.34882
0.16695 0.09090 0.32167
0.16810 0.09090 0.16994
0.14616 0.09090 0.17646
0.14665 0.09090 0.14429
0.05279 0.08044 0.02133
0.07880 -0.06798 -0.20470
-0.13781 0.01878 0.12774
0.02770 0.09090 0.31028
0.14268 -0.06703 0.38945
0.17794 0.08464 0.17277
-0.02245 0.08337 0.41690
0.12013 0.08337 0.39487
-0.01303 0.08337 0.41379
-0.05573 0.08337 0.41431
0.05563 0.08337 0.39932
0.08929 0.08337 0.40147
0.01329 0.08337 0.40154
-0.05812 0.09090 -0.15489
0.05296 0.08078 -0.42220
0.03966 0.09090 0.10174
0.11538 0.09090 0.10694
-0.06769 0.09090 0.11866
-0.05375 0.09090 0.11342
-0.11265 0.09090 0.12079
0.05599 0.09090 0.10535
-0.04782 0.09090 0.11244
0.10556 0.09090 0.09589
0.00442 0.09090 0.11878
0.01788 -0.04510 -0.21162
0.13230 0.09090 0.15522
0.13193 0.09090 0.19034
-0.00378 -0.08853 -0.33278
0.01758 -0.04216 -0.18990
0.08675 0.08332 -0.40828
0.02367 0.07799 -0.18564
-0.03190 0.07990 -0.42903
-0.16244 0.07799 -0.20446
0.14303 -0.08126 0.38507
-0.13540 0.00980 0.11079
-0.17636 0.08464 0.38809
0.01880 0.09090 0.33600
-0.00505 0.09090 0.35671
-0.00827 0.09090 0.31531
0.09174 0.09090 0.36667
-0.02878 0.09090 0.34000
-0.00025 0.09090 0.35450
-0.04513 0.09090 0.35217
-0.03837 0.09090 0.34057
0.02020 0.09090 0.37635
0.07373 0.09090 0.35740
-0.00684 0.09090 0.34665
0.05334 0.09090 0.34920
0.05938 0.09090 0.35960
0.03797 0.09090 0.34229
0.09433 0.09090 0.37927
-0.03360 0.09090 0.33790
0.01020 0.09090 0.35590
-0.01754 0.09090 0.37354
0.06143 0.09090 0.35423
-0.05151 0.09090 0.37476
0.03030 0.09090 0.32966
0.14927 0.07857 0.12889
-0.02831 0.04413 -0.21262
-0.01209 0.09090 -0.36358
-0.06531 -0.07418 -0.20768
-0.12588 0.07010 0.40381
-0.08458 0.08024 0.01281
-0.00524 -0.08934 -0.07856
0.13248 -0.03801 0.39137
-0.01899 0.09090 -0.41766
-0.13994 -0.08231 0.40366
-0.02871 0.08337 0.42807
0.03653 0.08337 0.41922
0.13126 0.08337 0.41942
0.11648 0.08337 0.42814
0.10518 0.08337 0.42856
0.05565 0.08337 0.42516
-0.05606 0.08337 0.42971
-0.01328 0.08337 0.42014
0.02384 0.08337 0.41713
0.04777 0.08337 0.42900
0.02227 0.08337 0.42914
-0.14116 -0.04824 0.11455
0.11146 0.09090 -0.20706
0.09304 0.09090 -0.20662
-0.14796 0.07528 0.12662
-0.05577 0.09090 -0.37878
-0.17228 0.07799 -0.16616
-0.18136 0.07799 -0.19891
-0.16794 0.07799 -0.17021
-0.20558 0.07799 -0.14816
-0.13017 0.07799 -0.17953
-0.20448 0.07799 -0.18591
-0.21998 0.07799 -0.16643
-0.16544 0.07799 -0.16345
-0.15761 0.07799 -0.19818
-0.20185 0.07799 -0.16976
-0.09049 0.07799 -0.18667
-0.07124 0.07799 -0.18178
-0.00378 -0.06972 -0.24932
-0.06156 0.09090 -0.02637
-0.12453 0.09090 -0.03021
-0.06546 0.09090 -0.03153
0.17675 0.08470 0.18720
-0.01124 0.06138 -0.17530
0.10823 0.09090 -0.03065
0.09441 0.09090 -0.02213
0.08714 0.09090 -0.02709
0.07666 -0.06972 -0.19510
-0.17319 0.08872 0.38438
0.19882 0.08105 -0.31154
0.08175 0.07799 -0.18245
-0.00248 -0.07335 -0.30124
-0.04393 0.09090 -0.40135
0.05123 0.09090 -0.39411
-0.00077 0.09090 -0.40111
-0.00915 0.09090 -0.39843
0.20935 0.09090 -0.25100
0.21564 0.09090 -0.22695
-0.02335 0.09090 -0.19526
-0.17175 0.09032 0.15325
-0.21211 0.08904 -0.13174
0.08688 -0.07964 -0.19675
-0.00167 0.09090 -0.12134
-0.00607 0.09090 -0.13943
-0.02307 0.09090 -0.12012
-0.12358 0.09090 -0.12034
0.02481 0.09090 -0.13986
-0.01074 0.09090 -0.12201
-0.04095 0.09090 -0.11611
-0.14150 -0.00929 0.39190
-0.14574 0.06445 0.10658
-0.08855 0.07799 -0.16366
-0.00527 -0.08012 -0.10605
-0.00378 -0.08071 -0.30357
-0.03164 -0.06611 -0.22459
-0.03164 -0.07080 -0.18842
-0.07001 0.09090 -0.22886
-0.02376 0.07387 -0.19684
0.06824 0.08968 0.01080
0.02700 0.03011 -0.21693
0.16606 0.08059 -0.35681
-0.00528 -0.07088 -0.12843
0.06863 0.09090 -0.34599
0.08289 0.09090 -0.33036
-0.03023 0.09090 -0.34134
0.09795 0.09090 -0.33068
-0.06968 0.09090 -0.19373
-0.08079 0.09090 -0.20010
0.00412 -0.08644 -0.06693
-0.01299 0.09090 0.23084
-0.12881 0.03468 0.11000
0.00428 -0.07589 -0.09226
0.04558 0.08476 0.01991
-0.05783 0.09090 0.18171
-0.09115 0.09090 0.15261
0.06549 0.09090 0.14593
0.07030 0.09090 0.13339
-0.05326 0.09090 0.16190
0.00654 0.09090 0.16739
-0.06165 0.09090 0.14818
-0.00459 0.09090 0.13764
-0.02118 0.09090 0.21555
0.02208 0.09090 0.16221
-0.06017 0.09090 0.17007
0.08327 0.09090 0.14108
0.00300 0.09090 0.13525
-0.02502 0.09090 0.18462
-0.06723 0.09090 0.13929
-0.02986 0.09090 0.13836
0.04248 0.09090 0.17830
-0.03752 0.09090 0.18062
-0.01735 0.09090 0.21212
0.09327 0.09090 0.13852
-0.10363 0.09090 -0.36267
0.09614 0.09090 -0.13665
0.04801 0.09090 -0.14908
0.14290 0.09090 -0.12131
0.10494 0.09090 -0.14619
0.13785 0.09090 -0.15120
0.11453 0.09090 -0.15514
-0.13326 0.09090 -0.22373
-0.15445 0.09090 -0.22853
-0.11172 0.09090 -0.22369
-0.14616 0.09090 -0.23349
-0.13642 0.09090 -0.23762
-0.08001 0.09090 -0.23278
0.03108 -0.07692 -0.22023
0.02612 -0.07692 -0.18590
0.00957 -0.07692 -0.17384
0.03026 -0.07692 -0.20470
-0.07074 0.07799 0.01420
0.02153 0.09090 -0.41102
0.05935 0.09090 -0.40806
-0.00388 0.09090 -0.41265
0.02895 0.09090 -0.15629
0.01794 0.09090 -0.37283
-0.12536 0.05986 0.11906
-0.07846 0.08337 0.16931
0.02253 0.08337 0.27309
0.10805 0.08337 0.36222
-0.10127 0.08337 0.15304
0.10693 0.08337 0.34348
0.08133 0.08337 0.32241
-0.01682 0.08337 0.23737
0.16396 0.09090 -0.20805
0.09353 0.09090 -0.23406
0.15475 0.09090 -0.20927
0.09902 0.09090 -0.22717
0.13543 0.09090 -0.22410
0.16158 0.09090 -0.23049
0.13173 0.00831 0.11986
-0.11539 0.08953 -0.39178
-0.02489 0.02854 -0.21959
0.07613 0.09090 -0.21344
0.06221 0.09090 -0.21710
0.02384 0.09090 -0.16020
0.22251 0.08693 -0.22648
-0.04505 0.07799 -0.17889
0.07994 0.09090 -0.35402
0.03256 0.09090 -0.23104
0.07251 0.08183 0.01327
-0.12756 -0.09090 -0.20288
0.13630 -0.01739 0.12269
0.00361 0.09090 -0.00946
0.02955 0.09090 0.00265
0.08092 0.09090 -0.00943
0.07125 0.09090 -0.00027
-0.09410 0.09090 -0.01006
0.12677 0.03008 0.11851
0.08171 0.09090 0.11462
0.02347 0.09090 0.11224
0.12230 0.09090 0.10586
0.02181 0.09090 0.10668
0.02209 0.09090 0.11952
0.13434 0.09090 0.11154
0.10853 0.09090 0.11824
-0.08922 0.09090 0.12180
0.12269 0.09090 0.11675
0.00666 0.09090 -0.38747
-0.07301 0.09090 -0.38738
-0.00504 0.09090 -0.38849
-0.22106 0.08380 -0.15716
-0.13639 0.07799 -0.23103
-0.16489 0.07799 -0.21704
-0.20355 0.07799 -0.23141
-0.19962 0.07799 -0.23700
-0.18545 0.07799 -0.23221
-0.04862 0.07799 -0.22159
-0.16812 0.07799 -0.20911
-0.15901 0.07799 -0.21190
-0.13197 0.07799 -0.22379
-0.18614 0.07799 -0.21221
-0.22524 0.07799 -0.22493
-0.17397 0.07799 -0.24785
-0.13822 0.07799 -0.24218
-0.17784 0.07799 -0.23646
-0.10767 0.07799 -0.21473
-0.03218 0.07799 -0.41865
0.03957 0.07799 -0.40392
-0.10485 0.07799 -0.40350
-0.05448 0.07799 -0.41151
-0.05904 0.07799 -0.40945
-0.17679 0.09090 -0.07878
0.12513 -0.08845 0.39597
-0.19369 0.09090 -0.23588
-0.21089 0.09090 -0.23875
-0.20337 0.09090 -0.24246
0.13903 -0.07759 0.12339
0.00168 -0.09090 -0.07910
-0.12551 0.08464 0.07826
0.13809 -0.02268 0.38892
0.16600 0.09090 -0.25420
-0.00665 0.09090 0.21902
0.00258 0.09090 -0.04018
0.12636 0.09090 0.37747
0.12607 0.09090 0.18653
0.12568 0.09090 0.22025
-0.10403 0.08989 0.08223
0.11652 -0.08105 -0.19510
-0.14796 0.07042 0.12341
0.00109 -0.08909 -0.31339
-0.05103 0.08464 0.07738
0.01718 -0.04717 -0.18854
0.09902 0.08696 0.00062
-0.13825 0.08072 0.10658
0.14746 0.06811 0.10658
0.08778 0.07799 -0.41177
0.04388 0.07799 -0.42295
-0.12580 0.09090 0.18796
-0.12604 0.09090 0.17290
-0.17137 0.08337 0.08438
-0.00065 0.08337 0.31830
-0.08487 0.08337 0.22484
-0.09760 0.08337 0.26221
-0.04339 0.08337 0.21591
-0.14596 0.08337 0.19098
-0.04133 0.08337 0.22654
-0.10142 0.08337 0.19039
0.00878 0.08337 0.30565
-0.17261 0.08337 0.14429
-0.16194 0.08337 0.26589
-0.12628 0.08337 0.23015
-0.07530 0.08337 0.40753
-0.16173 0.08337 0.13385
-0.08702 0.08337 0.17589
-0.10593 0.08337 0.26181
-0.14397 0.08337 0.30250
-0.08893 0.08337 0.19986
0.02513 0.08337 0.31611
0.07659 0.08337 0.38063
-0.09903 0.08337 0.24014
-0.15760 0.08337 0.23221
-0.07140 0.08337 0.26062
-0.11847 0.08337 0.41569
-0.13130 0.08337 0.20355
-0.16178 0.08337 0.21498
-0.14763 0.08337 0.28186
-0.14758 0.08337 0.29636
-0.11110 0.08337 0.25202
-0.10585 0.08337 0.28057
-0.10993 0.08337 0.26763
-0.03383 0.08337 0.22763
-0.15719 0.08337 0.19511
-0.02045 0.08337 0.34389
-0.16399 0.08337 0.34612
-0.05293 0.08337 0.24150
0.03908 0.08337 0.33475
-0.17088 0.08337 0.16537
0.00960 0.08337 0.39016
-0.07318 0.08337 0.21776
-0.12109 0.08337 0.24899
-0.11649 0.08337 0.31448
0.04066 0.08337 0.32221
-0.06386 0.08337 0.34707
-0.17291 0.08337 0.15105
0.02424 0.08337 0.29411
-0.07751 0.08337 0.24570
-0.17311 0.08337 0.23249
-0.13987 0.08337 0.13207
-0.11517 0.08337 0.21245
0.07040 0.08337 0.34970
-0.10139 0.08337 0.35721
-0.06849 0.08337 0.34253
-0.12310 0.08337 0.13914
-0.14252 0.08337 0.27186
-0.11532 0.08337 0.28702
-0.01251 0.08337 0.32362
0.05098 0.08337 0.38461
-0.08665 0.08337 0.26210
-0.03783 0.08337 0.38032
-0.10535 0.08337 0.36945
-0.07262 0.08337 0.30717
-0.12171 0.08337 0.32398
0.03431 0.08337 0.33234
-0.13454 0.08337 0.24970
-0.15290 0.08337 0.34728
0.10169 0.08337 0.35680
-0.08495 0.08337 0.30720
-0.13272 0.08337 0.21058
-0.08700 0.08337 0.39215
0.05508 0.08337 0.36496
-0.00138 0.08337 0.27907
-0.10393 0.08337 0.22338
0.02102 0.08337 0.27925
-0.00711 0.08337 0.35168
-0.14369 0.08337 0.21681
-0.11613 0.08337 0.18711
-0.08131 0.08337 0.32186
-0.15279 0.08337 0.27105
-0.17358 0.08337 0.20150
-0.15300 0.08337 0.30456
-0.06086 0.08337 0.23194
0.02857 0.08337 0.37278
-0.03044 0.08337 0.23505
-0.12510 0.08337 0.34808
-0.02815 0.08337 0.25157
-0.14305 0.08337 0.17118
-0.07325 0.08337 0.36938
0.00989 0.08337 0.34337
-0.04645 0.08337 0.32883
-0.07605 0.08337 0.36228
-0.15712 0.08337 0.39255
0.01877 0.08337 0.37743
-0.13987 0.08337 0.41268
-0.04197 0.08337 0.38647
-0.08807 0.08337 0.18893
0.10154 0.08337 0.37303
-0.11464 0.08337 0.40242
-0.06461 0.08337 0.35935
0.00729 0.08337 0.38284
-0.06123 0.08337 0.33662
0.08819 0.08337 0.36305
-0.14243 0.08337 0.36146
-0.07846 0.08337 0.33483
-0.15507 0.08337 0.11081
-0.10478 0.08337 0.29317
-0.12477 0.08337 0.14454
0.07624 0.09090 -0.16434
0.22450 0.08339 -0.21877
0.01266 0.09090 0.21043
0.17858 0.08464 0.37662
0.13875 -0.05619 0.11233
0.14927 0.05508 0.10911
0.10666 0.09090 -0.35473
-0.02196 0.08347 0.02320
0.00361 0.08959 0.08193
-0.14678 0.09090 -0.24956
-0.07549 0.09090 -0.27024
-0.12227 0.09090 -0.26840
-0.13575 0.09090 -0.28273
-0.11366 0.09090 -0.25611
-0.08847 0.09090 -0.25874
-0.00341 -0.07783 -0.28291
0.14107 -0.02895 0.38979
-0.00510 -0.06236 -0.16928
-0.00770 -0.05644 -0.16928
0.13412 0.09090 -0.04713
0.11451 0.09090 -0.05515
-0.03346 0.09090 -0.24415
-0.05977 0.09086 0.01083
-0.02791 0.09090 -0.07580
0.01265 0.09090 -0.06671
-0.04416 0.09090 -0.07365
0.06150 0.09090 -0.07055
0.08882 0.09090 -0.06765
-0.03367 0.09090 -0.07068
0.20406 0.08024 -0.09309
-0.04190 0.08897 0.01810
-0.01005 0.01731 -0.17200
0.02021 -0.01470 -0.21671
0.04817 0.09090 0.27687
0.08380 0.09090 0.32452
-0.00262 -0.07013 -0.11094
-0.17453 0.08515 0.36778
0.06378 0.09090 -0.05249
0.04350 0.09090 -0.03708
0.05667 0.09090 -0.05375
0.00573 -0.07609 -0.27116
-0.03164 -0.05983 -0.19750
-0.00662 0.09090 -0.01934
0.05480 0.09090 -0.01296
-0.03156 0.09090 -0.01705
0.02356 0.09090 -0.26116
0.14262 0.09090 -0.24696
0.00249 0.09090 -0.25819
0.15405 0.09090 -0.24572
0.03725 -0.07235 -0.19525
-0.13409 0.02577 0.12862
-0.08668 0.09090 0.32912
0.09504 0.07799 -0.02120
0.10959 0.07799 -0.00372
0.03737 0.07799 -0.02650
-0.01443 0.07799 -0.02400
0.06185 0.07799 -0.02606
0.06092 0.07799 -0.01878
0.06688 0.07799 -0.02974
0.10047 0.07799 -0.02910
0.02255 0.07799 -0.01820
-0.03653 0.07799 -0.03428
0.18160 0.08490 -0.06831
0.02448 -0.01814 -0.18838
-0.08502 0.09090 0.16612
0.13473 -0.01077 0.12233
-0.13010 0.04143 0.38487
0.14927 0.06992 0.39045
-0.13378 -0.02955 0.39571
0.17415 0.08931 0.21544
0.02433 -0.00874 -0.20188
-0.03468 0.09090 0.24390
0.12713 0.07799 -0.16797
0.13840 -0.00030 0.39622
0.06245 0.08039 -0.42081
0.01467 -0.02841 -0.21642
0.03159 0.09090 0.19220
-0.08656 0.07799 -0.20638
0.03211 0.09090 -0.10755
0.11031 0.09090 -0.08731
0.12018 0.09090 -0.09331
0.07762 0.09090 -0.10799
-0.13617 0.09090 -0.11508
0.00415 0.09090 -0.11421
0.02370 0.09090 -0.10358
0.04281 0.09090 -0.11126
0.06123 0.09090 -0.10390
0.08059 0.09090 -0.10214
-0.04490 0.09090 -0.10611
-0.11690 0.08499 -0.39428
-0.05962 0.08720 0.08095
-0.16332 0.09090 -0.25535
-0.00212 0.09090 0.20804
0.01414 0.02637 -0.22861
-0.12282 0.09090 -0.23669
-0.14640 0.09090 -0.21878
-0.15842 0.09090 -0.23963
-0.06960 0.09090 -0.23608
-0.16538 0.09090 -0.23181
-0.16537 0.09090 -0.20769
0.06852 0.07799 -0.34487
0.08088 0.07799 -0.36301
0.13177 0.07799 -0.36381
0.14123 0.07799 -0.34129
0.09807 0.07799 -0.33944
0.14351 0.07799 -0.34695
0.08741 0.07799 -0.33572
0.10524 0.07799 -0.36408
0.07812 0.07799 -0.35272
-0.01619 0.07799 -0.35985
0.14468 0.07799 -0.35819
-0.09204 0.07799 -0.35926
0.02483 0.07799 -0.35716
0.15631 0.07799 -0.33807
0.13170 0.07799 -0.34259
0.11904 0.07799 -0.33655
0.19934 0.07799 -0.31811
-0.21106 0.08820 -0.27429
0.05893 0.08476 0.07931
0.03941 0.09090 0.20317
0.00012 -0.07868 -0.11793
-0.22268 0.08973 -0.19529
-0.02248 -0.02369 -0.20183
-0.02454 0.00835 -0.21637
0.03427 0.07896 0.02722
-0.22502 0.08627 -0.20968
-0.12738 0.09090 0.31028
-0.12521 0.09090 0.33246
0.01765 0.09090 0.01599
0.00023 -0.09090 -0.32296
0.14828 0.05462 0.12810
0.22433 0.08313 -0.18131
-0.15203 0.09090 -0.32703
-0.15897 0.09090 -0.34176
-0.10219 0.09090 -0.34762
0.10718 0.09090 0.35724
0.07229 0.09090 0.31109
-0.14718 0.09047 -0.36517
0.04091 0.09090 -0.14046
-0.11104 0.07799 -0.20665
0.09945 0.09090 0.38482
0.08334 0.09090 0.38303
0.07480 0.09090 0.38312
0.14323 0.07799 -0.17175
0.21370 0.07799 -0.16272
0.20394 0.07799 -0.15069
0.22262 0.07799 -0.15058
0.19039 0.07799 -0.15225
0.18431 0.07799 -0.18547
0.11796 0.07799 -0.19560
0.18798 0.07799 -0.15822
0.22464 0.07799 -0.16103
0.13138 0.07799 -0.19976
0.17613 0.07799 -0.16062
0.06709 0.07799 -0.19993
-0.09723 0.09090 0.10462
-0.01973 0.09090 0.09560
-0.02518 0.09090 0.09953
-0.10147 0.09090 0.09432
0.14426 0.09090 0.08673
-0.13112 0.09090 0.12274
-0.10933 0.09090 0.11637
-0.10299 0.09090 0.10735
-0.12515 0.09090 0.10809
-0.08845 0.09090 0.11107
-0.02801 0.09090 0.25464
-0.13886 0.05999 0.10658
0.07683 0.08779 -0.41077
-0.03296 0.09090 -0.03207
-0.01007 0.09090 -0.18440
0.14186 0.00297 0.39454
0.04504 0.09090 -0.19434
-0.15528 0.07799 -0.24985
-0.10627 0.07799 -0.24126
-0.13172 0.07799 -0.24844
-0.03665 0.07799 -0.23269
-0.08420 0.09090 -0.05333
0.03783 0.09090 -0.19983
-0.16178 0.09090 -0.33463
-0.12516 0.09090 -0.34424
-0.15842 0.09090 -0.32502
0.00093 0.09090 -0.21247
-0.19641 0.09090 -0.11191
-0.18530 0.09090 -0.10700
-0.17186 0.09090 -0.10314
0.02302 -0.05433 -0.16944
-0.20494 0.09090 -0.22827
-0.20101 0.09090 -0.25309
-0.14105 -0.02996 0.39307
0.13437 -0.09005 -0.19544
-0.06701 0.09090 0.36218
0.04452 0.09090 0.37585
0.02343 0.09090 0.32101
0.07957 0.09090 0.36231
0.00009 0.09090 0.37336
0.08845 0.09090 0.37328
0.01679 0.09090 0.35612
0.01226 0.09090 0.31093
0.01072 0.09090 0.36200
0.05997 0.09090 0.36938
0.02900 0.09090 0.34050
-0.00281 0.09090 0.32284
-0.01832 0.09090 0.35414
0.06786 0.09090 0.35397
0.00952 0.09090 0.37329
-0.01628 0.09090 0.34033
0.04584 0.09090 0.35822
0.04809 0.09090 0.25491
0.18452 0.09090 -0.09684
0.16889 0.09090 -0.10774
0.20621 0.09090 -0.13587
0.08524 0.09090 -0.15930
0.01150 0.08625 -0.42544
-0.15041 0.07799 -0.09381
0.12856 0.07799 -0.09039
-0.04646 0.07799 -0.09329
-0.17267 0.07799 -0.12153
0.17442 0.07799 -0.08565
0.04076 0.07799 -0.08489
-0.00691 0.07799 -0.11182
-0.13508 0.07799 -0.12316
-0.16670 0.07799 -0.11875
-0.20516 0.07799 -0.12917
-0.18990 0.07799 -0.09084
-0.13593 0.07799 -0.09845
-0.21739 0.07799 -0.12889
-0.17463 0.07799 -0.10752
-0.17389 0.07799 -0.13159
-0.16054 0.07799 -0.09313
-0.12128 0.07799 -0.09731
-0.20209 0.07799 -0.13508
0.08635 0.07799 -0.09413
-0.06655 0.07799 -0.10270
0.03275 0.07799 -0.09462
-0.09593 0.07799 -0.10147
-0.10188 0.08337 0.41728
-0.08969 0.08337 0.27325
-0.12243 0.08337 0.36314
-0.16855 0.08337 0.32036
-0.11767 0.08337 0.34059
-0.02125 0.08337 0.28129
-0.08346 0.08337 0.30093
-0.09107 0.08337 0.34006
0.04146 0.08337 0.36465
0.04645 0.08337 0.37851
-0.12565 0.08337 0.28135
-0.12315 0.08337 0.35572
0.04245 0.08337 0.30853
-0.05052 0.08337 0.31260
0.00589 0.08337 0.39417
0.06432 0.08337 0.37939
-0.07895 0.08337 0.27093
-0.09163 0.08337 0.24215
-0.03388 0.08337 0.39273
0.00008 0.08337 0.38905
-0.08020 0.08337 0.25998
-0.17089 0.08337 0.36368
-0.08384 0.08337 0.33206
-0.06308 0.08337 0.29662
-0.16611 0.08337 0.39107
-0.05485 0.08337 0.35317
-0.09365 0.08337 0.20411
-0.14857 0.08337 0.39748
-0.13420 0.08337 0.14603
-0.09661 0.08337 0.22152
-0.11686 0.08337 0.25802
-0.06946 0.08337 0.24144
-0.14752 0.08337 0.34658
-0.08600 0.08337 0.29048
-0.08526 0.08337 0.24540
-0.03115 0.08337 0.34384
-0.11435 0.08337 0.41892
0.07893 0.08337 0.35177
-0.11936 0.08337 0.37763
-0.11275 0.08337 0.21914
-0.09378 0.08337 0.30341
0.03084 0.08337 0.30808
-0.17166 0.08337 0.34685
-0.16861 0.08337 0.41668
0.02086 0.08337 0.33953
-0.14673 0.08337 0.30941
-0.05073 0.08337 0.24691
-0.11015 0.08337 0.33774
-0.12662 0.08337 0.22352
-0.00972 0.08337 0.27184
-0.17564 0.08337 0.11897
-0.09703 0.08337 0.23217
-0.14885 0.08337 0.12762
-0.14988 0.08337 0.23739
0.06249 0.08337 0.32874
-0.16634 0.08337 0.12997
-0.10349 0.08337 0.25484
-0.09560 0.08337 0.28683
-0.15590 0.08337 0.32297
-0.04533 0.08337 0.40853
-0.01402 0.08337 0.30968
-0.10482 0.08337 0.19979
-0.10575 0.08337 0.39060
-0.09055 0.08337 0.38848
0.00929 0.08337 0.28681
-0.08552 0.08337 0.28503
-0.14322 0.08337 0.25796
-0.10655 0.08337 0.21538
-0.13426 0.08337 0.26680
-0.11596 0.08337 0.28192
-0.04053 0.08337 0.37399
-0.16556 0.08337 0.33186
0.11207 0.08337 0.38084
-0.00064 0.08337 0.25470
-0.16761 0.08337 0.09715
-0.08375 0.08337 0.27535
-0.09237 0.08337 0.21680
-0.07022 0.08337 0.27662
-0.06321 0.08337 0.19731
-0.15515 0.08337 0.36530
-0.16010 0.08337 0.16751
0.01325 0.08337 0.35307
-0.10757 0.08337 0.14888
-0.15722 0.08337 0.31369
-0.15230 0.08337 0.13780
0.00279 0.08337 0.28946
-0.09070 0.08337 0.40029
-0.06398 0.08337 0.32877
-0.17634 0.08337 0.13613
-0.12115 0.08337 0.18203
-0.09467 0.08337 0.37162
-0.01056 0.08337 0.39460
-0.16062 0.08337 0.10723
-0.05012 -0.06949 -0.20786
-0.06947 0.09090 0.32067
0.01765 0.09090 0.22472
0.06581 0.09090 -0.16047
0.02276 0.09090 0.25820
-0.02597 -0.01528 -0.20482
-0.07254 0.09090 -0.37908
-0.08182 0.09090 -0.37018
-0.12633 0.09090 -0.36101
-0.22573 0.08024 -0.15795
-0.02688 0.09090 -0.25168
-0.03134 0.03435 -0.19924
-0.09098 0.09090 -0.16824
-0.05246 0.09090 -0.17853
0.02718 0.09090 -0.21148
-0.07792 0.07799 -0.16539
-0.07969 0.09090 -0.28757
-0.12367 0.09090 -0.29135
-0.00440 0.09090 -0.29080
-0.11525 0.09090 -0.30694
-0.08552 0.09090 -0.29966
0.04478 0.09090 -0.29029
0.02799 0.09090 -0.28614
0.08116 0.09090 -0.04607
0.09760 0.07799 -0.16934
0.18049 0.07799 -0.15043
-0.17782 0.09090 -0.09471
-0.15304 0.09090 -0.08581
-0.14369 -0.01462 0.39662
-0.02720 0.01222 -0.21252
0.19386 0.07933 -0.32675
-0.02599 0.02415 -0.18361
0.07783 -0.07300 -0.20586
0.02680 0.09090 0.19456
0.00188 -0.07619 -0.23168
0.00186 -0.08540 -0.09644
0.02267 -0.05433 -0.22899
-0.12001 0.09090 0.40873
-0.12809 0.09090 0.41212
-0.09636 0.09090 0.40097
0.11294 0.09090 0.38903
-0.10572 0.09090 0.41375
-0.08464 0.09090 0.39608
-0.01785 0.09090 0.39604
-0.12725 0.09090 0.38802
0.00693 0.09090 0.40249
0.17360 0.08991 0.10617
0.06561 0.09090 -0.31877
0.08795 0.09090 -0.30207
-0.03034 0.09090 -0.31638
0.12749 0.09090 -0.29918
0.11073 0.09090 -0.29327
0.06956 0.09090 -0.30150
0.05632 0.09090 -0.29986
0.08882 0.09090 -0.30924
0.01617 0.09090 0.25349
-0.09910 0.07799 -0.23206
-0.22627 0.07799 -0.20713
-0.12593 0.07799 -0.22331
-0.17426 0.07799 -0.23166
-0.07990 0.07799 -0.22417
-0.08828 0.07799 -0.23782
-0.06802 0.07799 -0.23022
-0.14182 0.07799 -0.22775
-0.12407 0.07799 -0.23398
-0.10185 0.07799 -0.21935
-0.17625 0.07799 -0.20718
-0.12874 0.07799 -0.21230
-0.14641 0.01858 0.39423
0.00548 -0.07264 -0.11916
-0.06184 0.07799 -0.21519
-0.13909 0.01284 0.40047
-0.14107 -0.07912 0.38906
0.03183 -0.06961 -0.20572
0.03183 -0.06482 -0.19822
0.09248 0.07799 -0.24241
0.20362 0.07799 -0.23048
0.13506 0.07799 -0.21970
0.03728 0.07799 -0.24136
0.06839 0.07799 -0.23117
0.15850 0.07799 -0.24199
0.08664 0.07799 -0.22523
0.09965 0.07799 -0.21922
-0.19564 0.07799 -0.25984
0.14552 0.07799 -0.21442
-0.02422 0.07799 -0.25512
0.10766 0.07799 -0.23611
-0.07405 0.07799 -0.25374
-0.16595 0.07799 -0.25471
0.02028 0.07799 -0.24421
0.05538 0.07799 -0.24612
0.11721 0.07799 -0.23397
0.19476 0.07799 -0.24041
0.12852 0.07799 -0.21997
0.16886 0.07799 -0.25786
0.02758 0.07799 -0.23609
-0.09864 0.07799 -0.25230
0.17869 0.08422 0.41718
0.02380 0.07799 -0.34044
-0.02575 0.07799 -0.35639
0.04563 0.07799 -0.34042
0.02903 0.07799 -0.36299
-0.08624 0.07799 -0.35889
0.13903 0.07799 -0.35503
0.11436 0.07799 -0.33414
0.06890 0.07799 -0.35339
0.08984 0.07799 -0.34704
0.14929 0.07799 -0.36070
0.18128 0.07799 -0.32992
0.18946 0.07799 -0.32359
-0.01839 0.07799 -0.34767
0.13066 0.07799 -0.35752
0.13950 0.07799 -0.36403
0.21277 0.08083 -0.12288
-0.22782 0.08128 -0.20065
-0.08153 0.08024 -0.41615
0.12130 0.09090 -0.17339
0.10518 0.09090 -0.17598
0.17350 0.08519 -0.05785
0.02077 0.04757 -0.17840
0.00288 0.09090 -0.14634
0.22224 0.08042 -0.25278
-0.07074 0.07799 -0.19657
0.01490 -0.05151 -0.21688
0.10107 0.08478 -0.40215
0.00169 0.08385 0.43323
0.02757 0.02098 -0.21456
-0.00983 0.09090 -0.17894
-0.01522 -0.04835 -0.18568
0.13173 0.08935 -0.02200
-0.02806 0.09090 0.28047
-0.14462 0.06249 0.40381
0.00120 0.07799 -0.41887
0.06769 0.07799 -0.41173
-0.17127 0.09057 0.21843
0.11282 0.07799 -0.16879
0.13057 0.06024 0.10658
0.10343 0.08958 0.42846
0.16852 0.09090 -0.08924
0.12668 0.07079 0.38430
-0.14364 0.01579 0.11189
-0.14990 -0.08824 0.11897
-0.08678 0.09090 0.29876
-0.04465 0.09090 0.22436
-0.05961 0.09090 0.21640
-0.08420 0.09090 0.23961
-0.09368 0.09090 0.17874
-0.06747 0.09090 0.22239
-0.10755 0.09090 0.15480
-0.06803 0.09090 0.23169
-0.06556 0.09090 0.26296
-0.08168 0.09090 0.28357
-0.11233 0.09090 0.31462
-0.10399 0.09090 0.21747
-0.11850 0.09090 0.29960
-0.11725 0.09090 0.34911
-0.12275 0.09090 0.36205
-0.07075 0.09090 0.25184
-0.09988 0.09090 0.27150
-0.09354 0.09090 0.17126
-0.11899 0.09090 0.19786
0.02829 0.08650 0.02165
0.02423 -0.01848 -0.21372
0.11644 0.09090 -0.34820
0.15101 0.09090 -0.32872
-0.16316 0.08732 0.08096
0.06788 0.09090 -0.23611
0.11346 0.09090 -0.23782
0.08890 0.09090 -0.23108
0.11411 0.09090 -0.24289
-0.05235 0.09090 -0.14118
-0.03278 0.09090 -0.14264
-0.11553 0.09090 -0.33584
-0.14631 0.09090 -0.32596
0.01667 -0.00317 -0.18067
-0.01607 0.07799 -0.18289
0.14204 0.03913 0.38284
0.13733 -0.04904 0.38695
-0.02908 -0.05433 -0.22157
0.05034 0.09090 -0.33811
-0.01291 0.09090 -0.33847
0.06216 0.09090 -0.33214
0.11058 0.09090 -0.32729
0.05385 0.09090 -0.33300
0.01705 -0.01988 -0.22179
0.00971 0.09090 -0.37136
0.03821 0.09090 0.30541
-0.06456 0.07799 0.00990
-0.05807 0.07799 0.01257
0.00076 0.07799 0.02121
0.07574 0.07799 -0.20728
0.06701 0.09090 -0.12687
-0.02237 0.09090 -0.13081
0.02969 0.09090 -0.13029
0.01487 0.09090 -0.12256
-0.05402 0.09090 -0.11853
-0.08334 0.09090 -0.12130
-0.01674 0.09090 -0.12174
-0.14415 0.02678 0.38432
0.14927 0.07580 0.11872
0.07383 0.09070 0.42677
-0.12774 0.02091 0.38714
-0.06610 0.09090 0.19055
0.00263 -0.07701 -0.12539
0.16831 0.09090 -0.23080
-0.00935 0.09090 0.01347
0.17991 0.09090 -0.18578
0.17890 0.09090 -0.19188
-0.14633 -0.07984 -0.20746
-0.07508 0.08465 0.43152
-0.18269 0.09090 -0.13674
0.00698 -0.08176 -0.31274
-0.02207 0.09090 -0.15403
0.02760 0.09090 -0.01894
-0.03799 0.09090 -0.01283
0.02620 0.09090 -0.37394
0.04278 0.09090 -0.37994
0.13949 0.09090 -0.16116
0.06340 0.09090 -0.17453
-0.04666 0.07799 -0.34508
0.08587 0.07799 -0.32034
-0.02412 0.07799 -0.33005
-0.08154 0.07799 -0.34160
-0.11237 0.07799 -0.34388
0.15898 0.07799 -0.32096
-0.07276 0.07799 -0.34835
-0.06884 0.07799 -0.32204
0.04476 0.07799 -0.32680
-0.00894 0.07799 -0.32963
-0.17585 0.07799 -0.34727
0.09112 0.07799 -0.32906
0.03770 0.07799 -0.32273
0.02729 0.07799 -0.33270
-0.15170 0.07799 -0.34682
-0.14231 0.07799 -0.32356
-0.08951 0.07799 -0.33851
0.05223 0.07799 -0.33162
0.00209 0.02925 -0.16952
0.14494 -0.08179 -0.20586
0.01097 0.09090 -0.25094
0.11806 0.09090 -0.35785
0.15669 0.09090 -0.08394
0.16292 0.09090 -0.10552
0.13689 0.09090 -0.08326
-0.00029 0.09079 0.01991
0.00489 0.09090 -0.26557
-0.01570 0.09090 -0.26665
0.04410 0.09090 -0.25375
0.06017 -0.07119 -0.20586
-0.10059 0.09090 -0.21975
0.04235 -0.06528 -0.19927
-0.09316 0.09090 0.33426
0.03097 0.02099 -0.20116
0.17453 0.09090 -0.12829
0.15706 0.09090 -0.11617
-0.12929 0.01010 0.11799
-0.12536 0.06737 0.12145
-0.03334 0.09090 -0.20322
-0.05217 0.09090 0.29141
-0.11007 -0.07623 -0.19942
-0.21567 0.09048 -0.24829
-0.03768 0.09090 -0.05512
-0.04110 0.09090 -0.06144
-0.00520 0.09090 -0.05574
0.03213 0.09090 -0.05441
0.01172 0.09090 -0.20293
-0.13262 -0.07685 0.38858
-0.13112 -0.07842 0.39333
-0.14716 0.08023 -0.02644
-0.01864 0.09090 -0.18604
0.01610 0.09090 -0.18065
-0.12241 0.07799 -0.20284
0.01142 0.09090 -0.16216
-0.22546 0.08245 -0.18818
-0.03967 0.08294 -0.42246
-0.01923 -0.05433 -0.18226
0.01146 -0.02877 -0.18269
-0.02602 0.08892 0.42894
0.04057 0.09090 0.25279
-0.03097 0.07799 -0.37296
-0.13996 0.07799 -0.38374
-0.11025 0.07799 -0.38874
-0.02382 0.07799 -0.37302
-0.09355 0.07799 -0.36825
-0.15321 0.07799 -0.36881
-0.04889 0.07799 -0.36790
-0.06009 0.07799 -0.39086
0.02273 0.07799 -0.36878
-0.13996 0.07799 -0.36504
-0.13880 0.07799 -0.37311
-0.10923 0.07799 -0.39982
-0.14783 0.07799 -0.37461
-0.07281 0.09090 0.29946
0.13736 0.09090 -0.09549
0.00254 -0.06654 -0.27008
0.01451 0.04611 -0.17373
-0.14647 0.06639 0.12917
-0.00378 0.09090 -0.23662
-0.13335 -0.00559 0.11994
0.16491 0.09090 0.19469
0.16978 0.09090 0.20613
0.14778 0.09090 0.18233
0.16780 0.09090 0.09128
0.17005 0.09090 0.22840
0.15835 0.09090 0.25373
0.16945 0.09090 0.37324
0.15391 0.09090 0.11189
0.16258 0.09090 0.13190
0.15821 0.09090 0.19845
0.15071 0.09090 0.25554
0.16662 0.09090 0.30567
0.11148 0.07799 -0.17975
0.04760 0.07799 -0.19357
0.08519 0.07799 -0.19985
0.15604 0.07799 -0.19838
0.15160 0.07799 -0.19004
0.04246 0.07799 -0.19775
0.17002 0.07799 -0.17254
0.21388 0.07799 -0.19304
0.22444 0.07799 -0.14487
0.19488 0.07799 -0.19092
0.19986 0.07799 -0.17087
0.21400 0.07799 -0.14930
-0.21278 0.09086 -0.14366
0.03738 0.09090 -0.24912
-0.21751 0.08922 -0.15109
-0.06632 0.09090 -0.07301
-0.03143 0.09090 -0.05498
-0.08301 0.09090 -0.06713
-0.02144 0.09090 -0.06471
0.00593 0.09090 -0.05556
-0.20580 0.08394 -0.11003
-0.13097 0.09003 -0.37883
0.02487 0.09090 0.23488
0.05835 0.07799 -0.20140
0.04048 0.07799 -0.20315
-0.01687 -0.05433 -0.19851
-0.09966 0.09090 -0.16139
-0.07083 0.09090 -0.16129
0.14614 0.09090 -0.29820
0.16874 0.09090 -0.30525
0.21535 0.09088 -0.23547
-0.04434 0.09090 -0.17109
0.10075 0.08337 0.33907
0.06936 0.08337 0.31475
0.07011 0.08337 0.32045
-0.05619 0.08337 0.19403
0.08387 0.08337 0.33770
-0.07129 0.07799 0.00528
-0.00170 0.07799 0.01556
-0.07904 0.07799 0.00300
-0.02860 0.07799 0.00700
-0.01601 0.07799 0.00303
0.20751 0.08024 -0.10339
-0.17330 0.08849 0.25862
-0.18282 0.09090 -0.19727
-0.20816 0.09090 -0.19728
0.14513 0.02765 0.10939
0.15109 0.07799 -0.28036
0.20032 0.07799 -0.29425
0.13571 0.07799 -0.28420
0.18068 0.07799 -0.29813
-0.00477 0.07799 -0.30359
0.17989 0.07799 -0.29177
-0.08897 0.07799 -0.30657
0.13393 0.07799 -0.30684
0.02504 0.07799 -0.31420
0.19359 0.07799 -0.31133
-0.08756 0.07799 -0.31210
0.00875 0.07799 -0.31579
-0.00752 0.07799 -0.31422
0.13567 0.07799 -0.27908
-0.12430 0.07799 -0.31346
0.12555 0.07799 -0.30070
-0.04029 0.07799 -0.30553
0.06365 0.07799 -0.29151
0.06788 0.07799 -0.28873
-0.08072 0.07799 -0.31611
0.17728 0.07799 -0.28647
-0.14109 0.07799 -0.31233
-0.18145 0.07799 -0.08131
-0.00532 0.07799 -0.04107
-0.15716 0.07799 -0.05029
-0.03462 0.07799 -0.04286
-0.04877 0.07799 -0.05722
-0.09464 0.07799 -0.04728
0.01576 0.07799 -0.03963
-0.16154 0.07799 -0.06319
0.02791 0.07799 -0.04322
-0.12518 0.07799 -0.04847
-0.06836 0.07799 -0.05943
0.02129 0.07799 -0.03671
-0.12204 0.07799 -0.04351
0.12754 0.08036 -0.01211
0.09407 0.09090 0.16130
0.12668 0.06799 0.39575
-0.03282 0.08518 0.43034
0.17821 0.08464 0.40468
0.12241 -0.09041 -0.20520
-0.14094 0.07076 0.12917
-0.12946 0.09090 -0.20942
-0.15075 0.09090 -0.20402
-0.17283 0.08933 0.29407
0.03183 -0.05902 -0.18236
-0.13792 0.04963 0.38490
-0.22331 0.08024 -0.25962
0.19694 0.08236 -0.08770
0.01089 0.09090 -0.19734
-0.05769 0.09090 -0.04010
0.02090 -0.04576 -0.19952
-0.06819 0.09090 0.30811
-0.09394 0.09090 -0.35499
0.15936 0.09090 0.33528
0.14826 0.09090 0.35087
0.14789 0.09090 0.29532
0.13915 0.09090 0.36197
0.15157 0.09090 0.27880
0.13746 0.09090 0.22633
0.13867 0.09090 0.26417
0.14383 0.09090 0.31767
0.14104 0.09090 0.27476
-0.17427 0.09090 -0.15412
-0.18270 0.09090 -0.15912
-0.20452 0.09090 -0.15852
0.01881 0.09090 0.23071
-0.00615 0.02726 -0.17012
0.14251 -0.08850 0.10550
-0.14096 -0.04521 0.12148
0.03910 0.09090 -0.22096
0.15709 0.08554 0.42998
-0.17899 0.09090 -0.17784
-0.06420 -0.06858 -0.19711
0.05031 0.07881 -0.42662
0.06099 0.09090 -0.03654
0.10567 0.09090 -0.04511
0.13317 0.09090 0.39834
0.04943 0.09090 0.40211
-0.03734 0.09090 0.41093
0.14246 0.09090 0.41774
0.07229 0.09090 0.39583
0.05725 0.09090 0.41850
0.11882 0.09090 0.41550
0.08834 0.09090 0.42186
0.06459 0.09090 0.40646
0.02389 0.09090 0.41791
0.09782 0.09090 0.40347
0.00912 0.09090 0.41709
-0.04780 0.09090 0.42136
0.04338 0.07799 -0.10729
0.05681 0.07799 -0.10555
0.19099 0.07799 -0.11067
-0.00852 0.07799 -0.12515
0.11982 0.07799 -0.10719
-0.11961 0.07799 -0.13025
0.10996 0.07799 -0.11142
0.18066 0.07799 -0.09654
0.06748 0.07799 -0.12153
0.16878 0.07799 -0.11717
0.17293 0.07799 -0.13741
0.18240 0.07799 -0.11422
0.13590 0.07799 -0.11331
-0.08689 0.07799 -0.13137
0.18540 0.07799 -0.10627
0.12139 0.07799 -0.13515
-0.01040 0.07799 -0.13342
-0.13591 0.07799 -0.13035
0.02585 0.07799 -0.13237
0.11388 0.07799 -0.12956
-0.07023 0.07799 -0.13603
0.20173 0.07799 -0.11713
0.14810 0.07799 -0.12631
-0.20750 0.07799 -0.13845
0.02615 0.07799 -0.11636
0.08301 0.09090 0.35095
-0.17665 0.09090 -0.24814
-0.18766 0.09090 -0.26596
0.13204 0.02639 0.10850
0.17456 0.07799 -0.11879
0.19440 0.07799 -0.10068
0.07594 0.07799 -0.10554
0.21882 0.07799 -0.13318
-0.03993 0.07799 -0.11713
-0.06462 0.07799 -0.12448
0.01730 0.07799 -0.12740
0.14642 0.07799 -0.11935
0.21809 0.07799 -0.12530
0.08200 0.07799 -0.13369
0.06283 0.07799 -0.13701
-0.05959 0.07799 -0.12654
0.02498 0.07799 -0.13778
-0.08107 0.07799 -0.12830
0.10763 0.07799 -0.13954
0.14346 0.07799 -0.10989
0.10510 0.07799 -0.12109
0.06191 0.07799 -0.10832
0.00768 0.07799 -0.13764
0.01653 0.07799 -0.11838
-0.01399 0.07799 -0.14017
0.11257 0.07799 -0.09785
0.09627 0.07799 -0.09843
0.05139 0.09090 0.26792
0.05835 0.09090 -0.19040
0.08175 0.09090 -0.18535
-0.08819 0.09014 0.42786
0.00152 0.09090 -0.16912
-0.00506 -0.07321 -0.10331
0.06868 0.09090 -0.02856
0.09392 0.09090 -0.03605
-0.05367 0.08772 0.01763
0.13593 0.08665 -0.37893
-0.03125 0.02891 -0.20266
-0.17514 0.08480 0.34331
0.02359 -0.00623 -0.19189
0.00118 -0.07235 -0.16928
0.02890 -0.06018 -0.16928
0.16420 0.09090 -0.31318
0.14370 0.09090 -0.31762
0.00547 -0.07342 -0.13651
-0.12109 0.09049 -0.38512
-0.01931 -0.00934 -0.21510
0.07261 0.09090 0.16588
-0.03183 0.09090 0.20959
-0.14052 -0.01090 0.12192
-0.17252 0.09090 -0.30343
-0.14639 0.09090 -0.29932
0.01199 0.09090 -0.09308
-0.06071 0.09090 -0.09859
0.06936 0.09090 -0.08683
-0.12982 0.09090 -0.10079
-0.11039 0.09090 -0.10323
-0.10010 0.09090 -0.08445
0.00527 0.09090 -0.08670
-0.00808 0.09090 -0.08961
-0.11568 0.09090 -0.08804
-0.04410 0.09090 -0.03687
-0.07060 0.08653 -0.41416
-0.01051 0.07799 -0.36709
-0.05218 0.07799 -0.38854
-0.04574 0.07799 -0.37250
-0.01356 0.07799 -0.37429
-0.11246 0.07799 -0.37532
-0.00153 0.07799 -0.38512
-0.06307 0.07799 -0.36553
0.04835 0.07799 -0.37414
0.04660 0.07799 -0.36801
0.00736 0.00547 -0.22836
0.12832 0.04186 0.38977
0.10309 0.09090 0.15528
-0.01972 0.01875 -0.17738
-0.14796 0.07804 0.38250
0.20188 0.09090 -0.17167
0.20902 0.09090 -0.18364
-0.08845 -0.06979 -0.20567
-0.08465 0.07799 -0.35001
-0.12644 0.07799 -0.32926
-0.13549 0.07799 -0.36120
0.02501 0.07799 -0.32792
-0.15415 0.07799 -0.33043
-0.12393 0.07799 -0.34192
-0.02573 0.07799 -0.33552
-0.13386 0.07799 -0.35464
-0.03261 0.07799 -0.32968
-0.06585 0.07799 -0.34225
-0.02740 0.07799 -0.32009
0.01020 0.07799 -0.33136
-0.02135 0.07799 -0.31713
-0.04788 0.07799 -0.32165
0.15026 0.08337 0.39159
-0.08054 0.09090 -0.35560
0.11958 0.09090 0.37998
-0.00429 -0.07946 -0.05590
0.03003 0.09090 0.20171
0.07136 0.09090 0.17182
0.09334 0.08464 0.43282
-0.11080 0.09090 -0.06647
-0.00437 0.09090 0.24343
-0.01295 0.09090 -0.31309
0.01246 0.09090 -0.31922
0.08336 0.09090 -0.31963
-0.01064 0.09090 -0.30863
0.11843 0.09090 -0.31840
0.10682 0.09090 -0.30578
-0.03566 0.09090 -0.31918
0.00038 0.09090 -0.30583
-0.04325 0.08024 -0.42730
-0.00161 0.09090 -0.24181
0.05142 0.09090 -0.25204
0.12668 0.07085 0.40052
-0.10154 0.09090 0.34514
-0.13761 -0.00803 0.38815
-0.15937 0.09090 -0.13274
0.02213 0.07799 -0.21626
-0.16660 0.09090 -0.15179
-0.14162 0.00514 0.11930
0.08004 0.09090 -0.39549
0.07463 0.09090 -0.40101
0.14196 -0.03197 0.11434
-0.08627 0.09090 -0.19703
-0.05737 0.09090 -0.19113
0.00675 -0.07247 -0.24050
-0.07988 0.07799 -0.21405
-0.01174 -0.03223 -0.18352
-0.02109 0.09090 -0.11408
0.11413 0.09090 -0.10244
-0.02625 0.09090 -0.10585
0.13985 0.09090 -0.10961
-0.11131 0.09090 -0.11108
-0.03721 0.09090 -0.11114
-0.06147 0.09090 -0.11531
0.06917 0.09090 -0.09337
0.13048 0.02863 0.38423
-0.13769 0.02444 0.10708
-0.18200 0.09090 -0.31230
-0.16104 0.09090 -0.31928
-0.20382 0.07962 -0.31104
0.13870 0.07799 -0.29255
0.14316 0.07799 -0.27543
0.00061 0.07799 -0.30601
0.15690 0.07799 -0.29477
0.16443 0.07799 -0.27221
-0.15580 0.07799 -0.31585
0.02311 0.07799 -0.30810
0.14716 0.07799 -0.30271
-0.04215 0.07799 -0.29940
-0.19182 0.07799 -0.31583
-0.11249 0.07799 -0.31659
-0.07800 0.07799 -0.30414
-0.09698 0.07799 -0.30681
-0.10764 0.07799 -0.31305
-0.01278 0.07799 -0.30723
-0.16362 0.07799 -0.31656
0.20948 0.07799 -0.26402
0.21863 0.07799 -0.27199
0.10564 0.07799 -0.30416
0.07748 0.07799 -0.30015
-0.14532 -0.08122 0.11802
0.08101 0.07799 0.01254
0.05338 0.07799 0.00579
-0.01543 0.07799 0.00907
-0.00125 0.07799 0.00960
0.04449 0.07799 0.01010
0.05445 0.07799 -0.17401
0.03346 0.08153 0.02246
-0.14129 -0.05527 0.38935
-0.10192 0.09090 -0.01646
-0.08741 0.09090 -0.02892
-0.07850 0.09090 -0.03477
-0.01886 0.09090 -0.04578
0.01124 0.09090 -0.05134
-0.02985 0.09090 -0.04735
-0.22136 0.08933 -0.18110
0.11518 0.09090 -0.33950
0.17752 0.09090 -0.31506
0.00902 -0.05433 -0.21113
-0.03238 0.09090 0.12766
0.01669 0.09090 0.12448
-0.09842 0.09090 0.13009
-0.13851 -0.06470 0.12317
-0.03048 -0.05486 -0.16928
0.01112 0.08941 0.08178
-0.14594 0.02623 0.12391
-0.17738 0.08412 0.34959
0.02645 0.04048 -0.18421
-0.12654 0.04127 0.11747
-0.14618 0.09090 -0.27137
-0.15089 0.09090 -0.26488
-0.04303 0.09090 -0.26031
-0.07426 0.09090 -0.25340
-0.08535 0.09090 -0.26681
0.03665 0.09090 -0.13774
0.07395 0.08557 0.42996
0.15254 0.08337 0.29275
0.08098 0.08337 0.17691
-0.06803 0.08337 0.08737
0.11787 0.08337 0.08202
0.06751 0.08337 0.20542
0.01554 0.08337 0.18693
-0.11746 0.08337 0.11638
0.07566 0.08337 0.14823
0.02770 0.08337 0.21058
0.10362 0.08337 0.21852
0.06627 0.08337 0.14151
0.11944 0.08337 0.24337
0.16806 0.08337 0.16088
-0.08503 0.08337 0.15296
0.09164 0.08337 0.15454
-0.06652 0.08337 0.10801
0.02881 0.08337 0.08274
0.14879 0.08337 0.35479
0.01126 0.08337 0.16238
-0.00317 0.08337 0.12876
-0.00620 0.08337 0.23375
-0.02705 0.08337 0.16183
0.15572 0.08337 0.10454
0.14847 0.08337 0.16759
-0.10531 0.08337 0.13997
0.14732 0.08337 0.22327
0.17383 0.08337 0.08043
0.03730 0.08337 0.21454
0.10597 0.08337 0.27373
0.01765 0.08337 0.14582
0.05562 0.08337 0.27505
0.08928 0.08337 0.21030
0.12163 0.08337 0.10878
0.09694 0.08337 0.12956
0.07562 0.08337 0.18200
0.01290 0.08337 0.13839
0.15539 0.08337 0.13784
0.10760 0.08337 0.24971
0.06723 0.08337 0.21550
0.01739 0.08337 0.23435
0.02312 0.08337 0.17772
-0.08492 0.08337 0.09483
0.03616 0.08337 0.08552
-0.00617 0.08337 0.18489
0.02351 0.08337 0.19574
0.07293 0.08337 0.10209
0.02197 0.08337 0.15456
0.16110 0.08337 0.13960
0.17080 0.08337 0.13685
0.06529 0.08337 0.28309
0.13979 0.08337 0.24299
-0.00116 0.08337 0.11404
0.02771 0.08337 0.13636
0.16638 0.08337 0.18108
0.05974 0.08337 0.21548
-0.02914 0.08337 0.11080
0.04570 0.08337 0.18231
0.11313 0.08337 0.12818
0.15595 0.08337 0.17372
0.00311 0.08337 0.21519
0.14319 0.08337 0.24734
0.01975 0.08337 0.25310
0.12998 0.08337 0.11132
-0.09065 0.08337 0.12990
-0.01954 0.08337 0.09222
0.05486 0.08337 0.20988
0.07184 0.08337 0.30393
0.12379 0.08337 0.15447
0.07103 0.08337 0.16564
0.10063 0.08337 0.18407
0.13004 0.08337 0.25842
0.02932 0.08337 0.17661
0.02021 0.08337 0.19999
0.03248 0.08337 0.16275
-0.00479 0.08337 0.09212
-0.10132 0.08337 0.10808
0.13743 0.08337 0.32718
-0.03467 0.08337 0.09538
0.10303 0.08337 0.23736
0.00487 0.08337 0.22896
0.11659 0.08337 0.09216
0.10483 0.08337 0.29434
0.04307 0.08337 0.19221
0.00947 0.08337 0.24807
-0.11310 0.08337 0.12187
-0.06436 0.08337 0.11727
0.09527 0.08337 0.14721
0.06914 0.08337 0.25661
0.07246 0.08337 0.16032
0.16043 0.08337 0.23069
0.00529 0.08337 0.08414
-0.03082 0.08337 0.16753
0.08288 0.08337 0.08367
0.14341 -0.05120 0.11939
-0.01648 -0.01360 -0.21800
0.13027 0.03618 0.12565
0.07335 0.09090 -0.04601
0.00447 -0.07333 -0.15608
0.15613 0.09090 0.38011
0.13673 0.09090 0.33486
0.13953 0.09090 0.33009
0.13346 0.09090 0.14905
0.15275 0.09090 0.34189
0.13456 0.09090 0.13706
0.14706 0.09090 0.38940
0.12299 0.07799 -0.15900
-0.17040 0.09090 -0.21296
-0.12702 0.07426 0.12917
-0.23223 0.07901 -0.20250
0.08463 0.08838 -0.40706
0.07226 0.09090 0.32189
0.00448 0.08984 -0.42337
0.01627 0.09090 0.24231
0.15872 0.08305 -0.03899
-0.08597 0.09090 0.34203
-0.09423 0.09090 0.35329
-0.03975 -0.06993 -0.20786
-0.11124 0.07830 0.00268
0.13249 0.04785 0.11157
-0.13591 -0.06214 0.39806
0.00502 -0.06771 -0.12756
0.14353 -0.06373 0.11720
-0.13704 0.09090 -0.08884
-0.14121 0.09090 -0.08514
0.05848 0.09090 -0.13760
-0.11889 0.09090 -0.06582
-0.14918 -0.08393 0.38889
0.09248 0.07799 -0.21612
-0.04363 0.07799 -0.23200
-0.09833 0.08813 -0.40161
0.05139 0.08464 0.07879
0.16861 0.08337 0.29183
0.17783 0.08337 0.26418
0.16902 0.08337 0.24058
0.15171 0.08337 0.36154
0.16683 0.08337 0.32913
0.16223 0.08337 0.33599
0.17723 0.08337 0.14022
0.17220 0.08337 0.35317
-0.10690 -0.07897 -0.20786
-0.12590 -0.08749 0.12605
-0.06564 0.09090 0.33293
-0.04480 0.09090 0.31545
0.14041 0.08036 0.40381
0.00491 -0.06727 -0.23168
0.02576 -0.06901 -0.23168
-0.07617 0.08514 0.01084
0.17386 0.09090 -0.11425
0.18051 0.09090 -0.12405
-0.21119 0.07799 -0.29083
-0.15112 0.07799 -0.26594
0.06962 0.07799 -0.27830
-0.02898 0.07799 -0.29361
-0.20353 0.07799 -0.28967
-0.17677 0.07799 -0.29738
-0.07532 0.07799 -0.29130
-0.17177 0.07799 -0.27749
-0.14024 0.07799 -0.27116
-0.19289 0.07799 -0.30510
0.02649 0.07799 -0.27474
-0.15673 0.07799 -0.29106
-0.19936 0.07799 -0.27645
-0.12411 0.07799 -0.30596
-0.16162 0.07799 -0.30584
-0.07130 0.07799 -0.27904
-0.08443 0.07799 -0.27616
-0.15353 0.07799 -0.27767
-0.19795 0.07799 -0.29350
-0.12021 0.07799 -0.29143
-0.07496 0.07799 -0.27322
0.15441 0.07799 -0.26531
-0.05797 0.08722 -0.41884
0.12845 0.09090 -0.17890
0.08266 0.09090 -0.19424
0.12768 0.09090 -0.17298
0.11351 0.09090 -0.19288
0.11232 0.09090 -0.18408
-0.12536 0.05781 0.39430
0.00125 0.09090 0.26878
0.14139 -0.00707 0.12029
0.08284 0.09090 0.17032
0.03655 0.09090 0.20867
0.02959 0.09090 0.24603
0.05625 0.09040 0.42744
-0.11822 0.08337 0.43242
0.15171 0.08337 0.42406
-0.00394 0.08337 0.42473
0.11560 0.08337 0.41625
0.12610 0.08337 0.41848
-0.10401 0.08337 0.42825
-0.12744 0.08337 0.42917
0.10028 0.08337 0.41634
-0.00972 0.08337 0.42372
-0.11698 0.08893 0.42894
0.00574 0.09044 0.02052
-0.10824 0.07799 -0.20132
0.13146 0.09090 0.16764
0.12885 0.09090 0.19761
0.13142 0.09090 0.26124
-0.01739 0.09090 -0.20924
-0.10371 0.09090 -0.33328
-0.07340 0.09090 -0.33983
-0.06642 0.09090 -0.33647
-0.04829 0.09090 -0.32999
-0.02062 0.09090 -0.33648
0.07124 0.09090 -0.32121
-0.01590 0.08935 0.02106
0.03410 0.07799 -0.20187
0.00938 0.02590 -0.23056
0.12850 0.06018 0.12917
0.20056 0.09090 -0.15690
0.21022 0.08024 -0.29110
-0.01474 0.09090 -0.35586
-0.00631 0.09090 -0.35387
0.04449 0.09090 -0.34875
0.13353 0.04547 0.12585
-0.13985 -0.08852 0.13074
0.15083 0.09090 -0.25875
0.04331 0.09090 -0.28062
0.09846 0.09090 -0.26492
0.03079 0.09090 -0.26833
-0.01599 0.09090 -0.27853
-0.04696 0.09090 -0.28257
0.13152 0.09090 -0.28110
-0.06623 0.09090 -0.27719
0.12729 0.09090 -0.26994
0.05266 0.09090 -0.28377
0.00177 0.09090 -0.27150
-0.06284 0.09090 0.32635
-0.10774 0.09090 0.36384
0.14927 0.06710 0.11562
0.13185 -0.08813 0.40438
0.13798 0.01460 0.10894
0.13282 0.09090 -0.31367
0.03838 0.09073 0.01524
0.20901 0.08085 -0.11383
0.06321 0.07799 -0.09269
-0.19848 0.07799 -0.11092
-0.11724 0.07799 -0.12435
-0.00297 0.07799 -0.10348
-0.01214 0.07799 -0.09524
0.13835 0.07799 -0.08888
-0.10256 0.07799 -0.12127
0.03655 0.07799 -0.08800
-0.09219 0.07799 -0.10989
-0.11965 0.07799 -0.11234
0.09847 0.07799 -0.09282
-0.11510 0.07799 -0.11622
-0.15796 0.07799 -0.10313
-0.01353 0.07799 -0.11239
-0.04804 0.07799 -0.09964
-0.14384 0.07799 -0.08567
0.04187 0.07799 -0.09554
-0.20174 0.07799 -0.09179
-0.12579 0.09090 -0.31845
-0.17064 0.09090 -0.19783
-0.13230 0.02521 0.38249
-0.10558 0.09090 -0.06232
-0.10386 0.09090 -0.20247
-0.17332 0.08845 0.40846
