-0.20109 0.18439 -0.41447
0.06857 0.18781 0.30323
0.12208 0.17485 0.06879
0.05312 0.17485 0.08000
0.18727 0.05026 -0.40514
-0.03051 0.18781 -0.11087
-0.15692 0.18781 0.28394
-0.18262 0.17561 0.41447
0.15421 0.18781 -0.34378
-0.17828 0.18781 -0.04779
-0.00624 0.18781 -0.26979
0.14237 0.17485 0.35740
0.12516 0.17485 -0.30901
-0.05740 0.18781 0.02269
-0.19762 0.09119 0.39384
-0.01955 0.17485 0.25055
-0.12078 0.17485 -0.16004
0.20129 -0.07841 0.40313
-0.14281 0.17485 -0.15887
0.05753 0.18781 0.36896
-0.12134 0.17485 -0.26641
-0.16259 -0.03298 -0.36187
-0.17020 0.17485 -0.11356
-0.17392 0.02732 0.36061
0.13209 0.17485 0.34057
-0.01039 0.17485 0.38983
0.19465 0.09734 -0.38780
-0.09109 0.17485 0.33691
0.01843 0.18781 -0.29216
-0.18594 0.18781 0.12655
-0.15699 0.17485 0.19542
-0.04066 0.18781 0.14867
-0.09768 0.18781 -0.33042
0.16048 -0.07964 -0.38802
-0.05054 0.17485 -0.09525
-0.01972 0.18781 -0.40986
0.15086 0.18781 -0.13654
0.19067 -0.06588 -0.38095
-0.19871 0.18781 -0.24210
-0.00707 0.17485 0.13326
0.00256 0.18781 0.07717
-0.14716 0.17485 0.03213
0.16032 0.17485 -0.35891
-0.15699 0.11212 0.38481
0.17418 -0.11250 0.39819
0.06848 0.18781 -0.00138
-0.19697 0.17837 -0.08349
-0.04237 0.18781 0.33606
-0.17861 0.17485 -0.40144
0.15636 0.18781 -0.38030
0.16879 0.16879 -0.35606
-0.11859 0.17485 -0.01743
-0.18061 0.00091 0.36751
-0.12434 0.18781 0.07321
-0.15619 0.18781 0.33710
0.18983 0.18781 0.05459
-0.16580 0.17485 -0.04894
0.14074 0.16890 0.32126
-0.18722 -0.01598 -0.37581
0.16003 -0.11037 0.36443
-0.04332 0.17485 -0.10747
0.03607 0.18781 0.24011
-0.04459 0.18781 0.40790
0.04612 0.17485 0.34886
0.08881 0.18781 -0.11064
-0.19896 -0.04259 -0.39699
-0.10753 0.18781 -0.03527
-0.07851 0.17485 0.08362
0.13775 0.17485 0.16022
-0.15662 0.18366 0.41447
-0.14127 0.16126 -0.36031
0.09189 0.17485 0.10322
-0.19515 0.03594 0.40825
-0.03989 0.17485 0.13041
-0.15056 0.18781 0.00633
-0.16312 0.16071 -0.34756
-0.08661 0.17485 -0.21967
-0.14867 0.01948 0.37585
-0.05413 0.18781 -0.07411
-0.10617 0.18781 0.21110
-0.03214 0.17485 -0.33743
0.14454 0.17485 -0.33004
0.09980 0.17485 0.37222
0.16874 -0.18781 0.37270
0.10608 0.18781 -0.24865
0.20123 0.18121 -0.21568
-0.02003 0.17485 0.05489
-0.12559 0.17485 0.09225
-0.05654 0.17485 0.22754
0.10928 0.17485 0.27345
0.13969 0.18781 -0.04078
-0.08443 0.18781 -0.22703
-0.02957 0.18781 -0.24973
0.03878 0.17485 -0.12401
0.05780 0.17485 -0.14288
-0.19739 0.02546 -0.39333
0.05914 0.18781 -0.33194
-0.05444 0.17485 -0.28838
0.13278 0.18607 0.41447
0.01201 0.18781 -0.03461
-0.11699 0.17485 -0.33459
-0.06309 0.18781 0.08856
-0.03020 0.18781 0.38404
0.16009 -0.13663 -0.36437
-0.14796 0.18781 0.08579
0.04269 0.18781 -0.36846
0.12558 0.18781 -0.21698
0.09659 0.18781 -0.13196
-0.19130 0.08013 -0.40684
-0.00219 0.18781 -0.07079
0.16279 0.02565 -0.36166
-0.00008 0.18781 -0.14396
0.18177 0.17485 0.35475
-0.14007 0.18781 0.10983
-0.02931 0.17485 -0.10244
0.02438 0.17485 0.28431
-0.15950 0.18781 -0.35590
0.10020 0.18781 0.20919
-0.14581 0.18781 -0.11302
-0.15661 -0.07771 -0.38444
0.06013 0.17485 0.13071
0.16141 0.02293 0.38881
-0.13959 0.16308 0.37678
0.16876 0.16560 0.35418
0.20167 0.05675 -0.40432
0.20204 0.18781 0.34607
0.10821 0.17485 0.37654
0.18808 0.17315 0.37705
-0.18366 0.17485 -0.24874
0.02706 0.17485 0.21918
0.00924 0.17485 -0.35544
-0.13827 0.18781 -0.13043
-0.08265 0.18781 0.33047
-0.04280 0.17485 0.24842
0.08980 0.17485 -0.18313
0.04092 0.17485 -0.33072
-0.09351 0.18781 -0.34601
-0.00494 0.18781 0.26919
-0.14021 0.17485 -0.02306
0.16532 -0.07014 -0.35914
-0.15654 0.18781 0.32689
0.10239 0.17485 -0.07300
-0.10086 0.17222 0.38088
-0.12636 0.16503 0.35760
-0.09250 0.18781 0.07750
0.01107 0.17485 0.31336
0.09691 0.18781 -0.37416
-0.11883 0.17028 -0.33136
0.10783 0.18781 -0.12815
0.20298 -0.03073 0.40911
-0.15538 0.18781 0.32088
0.17976 0.17485 0.18828
0.19970 0.18781 0.31825
0.18749 0.16075 0.37620
-0.08024 0.17485 -0.36840
0.08899 0.17961 -0.40607
-0.10961 0.17485 0.33542
0.15394 0.14252 -0.37051
-0.15895 -0.06860 0.36551
-0.15538 0.18781 -0.11684
-0.09327 0.18781 0.20376
0.08494 0.18781 0.10057
0.16368 -0.16769 0.36078
-0.09938 0.17485 -0.02050
0.04620 0.17485 -0.23358
-0.13299 0.17485 0.00803
0.14076 0.18781 0.24464
-0.09243 0.17485 -0.32177
-0.13193 0.18781 0.17430
-0.11166 0.17485 -0.32915
-0.14903 -0.05741 -0.37542
-0.00494 0.18781 0.03678
0.18879 -0.18092 -0.37808
-0.15617 0.14702 0.38403
0.19787 0.17897 0.30601
0.13053 0.18781 0.19118
-0.19934 0.18781 -0.18899
-0.15616 0.01963 -0.36829
-0.12145 0.17485 -0.25820
-0.16770 0.07334 -0.35676
-0.11207 0.17485 -0.21453
0.04797 0.18781 -0.10322
0.16357 0.07986 0.39065
0.09707 0.17485 -0.11118
0.02554 0.18781 0.03350
-0.13273 0.17485 0.08632
0.07042 0.17485 -0.34851
-0.19193 -0.12682 0.40707
-0.02258 0.18781 0.25122
0.13984 0.18781 0.11680
0.08740 0.17485 0.28679
-0.18672 0.17485 0.40967
0.13158 0.17485 -0.27956
-0.11646 0.18781 0.06086
-0.10587 0.18781 0.09177
0.07893 0.18781 0.41025
0.09920 0.17485 -0.38758
0.02222 0.17485 0.02212
0.14652 0.18781 -0.31580
0.05318 0.18781 -0.41229
-0.16382 0.17485 -0.27748
0.10744 0.17485 -0.34602
0.19204 0.02608 0.38316
0.11458 0.16857 -0.34996
0.07550 0.18781 0.26382
-0.00152 0.17485 -0.38849
0.17654 0.17485 -0.38464
-0.15137 -0.08800 -0.37897
0.11014 0.17485 0.35833
0.15277 0.17485 0.18941
0.02327 0.17485 0.20033
-0.18200 0.18781 -0.22645
0.02078 0.18781 0.11223
0.17188 0.15521 -0.35873
-0.12348 0.17485 -0.06519
-0.06138 0.18781 -0.29015
-0.19158 -0.10825 0.40695
-0.17620 0.17485 0.20248
-0.20557 0.18411 0.21225
-0.18143 -0.10511 0.40236
-0.15430 0.13034 -0.38212
0.13653 0.17485 0.24340
-0.18108 0.18781 -0.18444
-0.03456 0.18781 0.16572
0.16632 0.17774 0.41447
-0.12317 0.18781 0.01883
0.18085 0.03305 0.36778
-0.20465 0.17814 -0.35833
0.04207 0.17485 0.01364
-0.13928 0.17485 0.00307
-0.02230 0.18781 0.35399
-0.19649 0.17805 0.08179
-0.13425 0.18781 0.10259
-0.17550 0.18781 0.28294
-0.06607 0.18781 -0.18635
-0.17125 0.08095 -0.39631
0.11479 0.17485 -0.03209
0.16816 0.17485 0.33293
-0.09660 0.18781 0.39930
-0.16148 0.04959 -0.36298
-0.14397 0.15972 -0.37453
-0.02587 0.17485 0.37998
0.03379 0.18781 0.33606
0.02886 0.17485 0.35900
-0.20493 0.18781 0.00489
0.14751 0.17530 0.40655
-0.06677 0.17485 -0.24420
0.10661 0.18781 -0.06176
-0.11170 0.18781 -0.36720
0.04532 0.17485 -0.09312
0.13344 0.18781 0.00872
0.18309 -0.11202 0.40317
-0.19563 0.17748 0.09478
0.09900 0.18781 -0.13693
-0.16487 0.12576 0.35959
0.08056 0.17485 -0.24937
0.14375 0.18781 -0.12339
-0.04403 0.17485 0.18804
0.14111 0.17485 -0.00302
0.14929 0.10374 0.37656
0.17078 0.18781 -0.22141
0.13520 0.18781 -0.00159
0.10512 0.18781 -0.11740
0.00350 0.18781 0.23049
-0.08856 0.18781 -0.05752
-0.16848 -0.13632 -0.39439
0.05173 0.17485 0.26226
0.09913 0.18781 -0.30721
-0.19194 0.18781 -0.41211
0.17172 0.17485 0.38396
-0.16316 -0.14374 0.36130
-0.18989 0.04891 -0.40625
-0.09729 0.18781 -0.04189
0.17276 -0.02389 0.35951
-0.19390 0.18781 -0.00199
0.19377 -0.16754 0.40775
-0.19203 0.17508 0.08731
0.07355 0.18781 -0.35395
-0.14673 0.18781 0.32389
0.15877 0.18781 -0.17529
-0.18566 0.18074 -0.41447
0.19330 0.17592 -0.31161
0.19674 0.17822 -0.09408
0.05391 0.17485 0.25703
-0.17163 -0.00280 -0.35851
-0.02335 0.18781 0.13969
-0.01771 0.17485 -0.16612
0.11980 0.17485 -0.34682
-0.08424 0.18735 0.41447
0.08708 0.17485 0.31367
0.01045 0.17485 -0.06837
0.12519 0.18781 -0.08974
0.05973 0.17485 0.28396
0.19775 0.15525 -0.39414
-0.17973 0.18781 -0.36368
-0.19770 0.18781 0.11593
-0.19744 0.17869 -0.10162
-0.19879 0.01799 -0.40944
-0.07151 0.17485 0.14347
-0.18323 0.18781 0.24719
-0.04324 0.18781 -0.37658
0.15534 0.17485 0.36251
-0.14050 0.18592 -0.41447
-0.14611 0.18781 -0.07009
0.18295 0.17485 0.39432
-0.12915 0.16831 0.33191
-0.20587 0.18781 -0.40588
0.10675 0.18781 -0.02066
0.19099 -0.06798 -0.40672
-0.16306 0.18781 -0.18951
-0.12345 0.17485 0.17447
-0.07358 0.17485 -0.31173
0.19779 0.09114 -0.40913
-0.16284 0.02489 -0.39003
0.07753 0.17485 -0.21238
-0.09993 0.17485 -0.15078
0.16803 -0.01895 -0.35642
0.05957 0.18781 0.00972
0.01689 0.17485 -0.09883
-0.06455 0.17485 -0.28138
0.00522 0.18781 -0.02722
0.17215 0.18781 -0.12384
-0.19649 0.11744 0.39146
-0.08819 0.18781 0.13876
-0.18588 0.04143 -0.37400
0.13789 0.18781 0.13312
0.00927 0.17485 0.08960
-0.15495 -0.10458 0.36951
0.17078 0.16795 -0.31910
0.07405 0.17485 -0.35436
-0.09344 0.17485 -0.14067
-0.15129 -0.18781 0.37652
0.12356 0.17485 0.22347
-0.15432 0.17485 0.37467
0.19269 -0.10677 -0.38424
-0.19358 0.06003 0.38586
-0.11202 0.17025 -0.34074
0.07164 0.17485 0.36872
0.08339 0.17485 0.23906
-0.15678 -0.03832 -0.38460
-0.20723 0.18081 -0.39171
-0.05239 0.18781 0.15491
0.11487 0.17485 -0.24149
-0.09770 0.18781 0.40550
0.19922 0.17987 -0.05218
-0.06903 0.18781 0.32723
-0.14082 0.18781 -0.37875
-0.10399 0.17051 -0.35702
-0.15068 0.18781 -0.17905
-0.11794 0.17485 -0.28779
0.09655 0.18781 -0.19397
-0.20124 -0.00941 -0.40300
-0.09536 0.18781 0.30895
-0.15266 -0.16236 -0.37180
0.17211 0.17485 0.35977
0.17012 0.18781 0.27801
-0.16605 -0.11662 0.35841
-0.16282 0.17485 0.05315
0.01770 0.17485 -0.21996
-0.02127 0.17485 -0.00603
0.08898 0.17485 0.14647
0.00453 0.18781 -0.29533
0.16543 0.17485 0.07683
-0.09373 0.17732 0.40263
0.17078 0.17485 0.23527
0.19087 -0.09924 0.38128
0.19047 0.17485 -0.28346
-0.20083 0.18095 0.03538
-0.18609 0.10565 0.37427
-0.20491 0.18366 -0.11319
-0.17449 0.18781 -0.23381
-0.16156 -0.03338 -0.38894
0.14500 0.15963 -0.36828
-0.15202 0.05877 -0.37244
-0.17883 -0.02352 0.40093
-0.19456 0.01660 0.38764
-0.15041 -0.01520 0.37786
0.18546 0.18781 0.00747
-0.00073 0.17485 -0.35000
-0.16981 0.02622 0.35694
0.00596 0.18781 0.06598
0.08855 0.18781 0.37255
-0.03344 0.18781 0.40635
-0.18091 -0.00113 0.40207
0.13476 0.16209 0.37681
-0.09905 0.18781 0.12215
-0.12548 0.18781 -0.23443
0.18069 0.17485 -0.27760
0.05586 0.17485 -0.16984
0.06339 0.17485 -0.02844
0.11845 0.18781 -0.22181
-0.00382 0.18781 -0.29927
-0.11706 0.18781 -0.06902
-0.06622 0.18781 -0.38290
-0.15987 0.00846 -0.38750
-0.04876 0.18781 0.16020
0.15805 0.18781 0.08981
-0.11025 0.17485 0.08350
0.09741 0.17485 -0.02660
0.17932 0.18781 -0.30553
0.16834 0.17485 -0.30399
0.17712 0.07009 0.39999
0.16559 0.17485 0.29292
0.18167 -0.18781 0.39685
0.18612 0.12623 -0.37431
-0.08246 0.17485 -0.17920
0.17525 -0.11448 0.36189
-0.18441 0.18781 0.06031
0.00218 0.17485 0.10239
0.15043 -0.13973 -0.37403
-0.17315 -0.03094 -0.39755
-0.12015 0.17485 -0.12519
-0.16123 0.17485 0.09047
-0.15569 0.17485 0.33046
0.19714 0.18781 0.21528
-0.16554 -0.08874 0.39217
-0.15272 0.18781 -0.09054
0.06162 0.18781 -0.26543
0.03975 0.17485 0.31196
-0.00971 0.17485 -0.31179
0.01694 0.18781 -0.15817
0.08484 0.18781 0.29540
-0.19517 -0.11915 -0.38876
0.13986 0.18781 0.38469
-0.00969 0.17485 -0.24534
0.18402 0.16148 -0.37157
0.10378 0.18781 -0.23290
0.07371 0.17485 -0.27564
-0.06055 0.17485 -0.08118
-0.09902 0.18781 -0.38716
-0.13186 0.18781 -0.22616
0.20072 0.13384 0.41003
-0.16889 0.18781 0.34575
0.20723 0.17843 -0.40953
-0.17154 0.16956 -0.31285
-0.13245 0.17485 -0.08846
-0.11156 0.17485 -0.28571
0.01279 0.18781 0.15138
-0.04641 0.18781 -0.10690
-0.18945 -0.14521 -0.40606
-0.08490 0.18781 -0.07214
-0.00422 0.18781 0.09339
0.18771 0.17485 0.24230
0.17072 -0.10536 -0.35772
-0.01645 0.18781 -0.28556
0.16015 0.17485 0.34124
-0.15677 0.17485 -0.05471
0.20194 0.16899 0.40517
0.15131 0.17485 0.24930
-0.15125 0.17485 -0.01948
-0.11843 0.17485 0.33982
0.03180 0.18781 0.20307
0.14776 0.17485 0.35213
0.03571 0.18781 -0.08938
-0.06175 0.17485 -0.31561
-0.06575 0.17485 0.20229
-0.00938 0.18781 0.20404
0.08385 0.18781 0.19855
0.00373 0.17485 -0.36490
0.03883 0.18781 0.03488
-0.06236 0.17485 0.16079
0.12360 0.17485 0.05992
-0.14272 0.17485 -0.40213
-0.15025 0.18781 0.13863
0.00454 0.18781 -0.08110
-0.00940 0.18781 0.03302
0.03009 0.17485 0.32502
0.12527 0.17485 -0.28318
-0.14889 0.17485 -0.32526
0.04177 0.17485 -0.26046
-0.12182 0.17485 0.02293
-0.19843 -0.18578 0.39575
-0.04230 0.18781 -0.30077
-0.20366 0.18283 -0.28570
0.16143 0.16248 0.34078
-0.16287 0.18781 0.24136
0.15573 0.17485 0.19871
-0.12555 0.17485 0.11951
-0.17956 0.12511 -0.40133
0.13771 0.17485 -0.37497
0.16400 0.17485 -0.22475
-0.19017 -0.09975 0.38014
0.01772 0.17485 -0.39804
-0.17218 0.16776 0.31991
-0.12410 0.17485 -0.10643
0.02270 0.17485 0.14492
0.10987 0.18781 -0.24274
0.02928 0.17485 -0.21139
0.16780 0.07254 -0.35666
0.05217 0.18781 0.17186
-0.16862 0.16945 0.35554
0.19567 0.18781 0.03333
-0.16956 0.17485 0.20209
0.10258 0.17485 -0.03138
-0.17734 -0.04221 -0.40011
0.17587 0.18781 0.23633
0.10011 0.18781 0.28506
0.20451 0.18340 0.09299
0.00899 0.18781 -0.07099
-0.11912 0.18781 0.26549
-0.11453 0.17485 -0.06446
0.10726 0.18781 -0.37612
0.04561 0.18781 0.19536
-0.20599 0.18781 -0.30111
-0.17163 0.16624 0.32706
-0.00054 0.17485 -0.13104
0.17769 0.17485 0.06523
0.15993 -0.03288 -0.36453
0.05486 0.18781 0.13192
-0.19595 0.17769 0.20192
0.14436 0.18781 0.09890
-0.18061 -0.12034 0.36751
0.09253 0.18781 -0.36663
-0.13749 0.16819 0.32629
0.17135 0.17485 -0.05165
-0.11532 0.18781 0.36964
-0.08733 0.18781 0.14994
0.03081 0.18781 0.30069
0.20318 0.17688 0.35974
0.07856 0.18781 0.37322
-0.03655 0.17485 -0.01021
0.07445 0.17485 -0.33437
0.18732 0.03768 -0.37594
-0.16274 0.17485 -0.36857
0.16768 0.18781 0.37701
-0.15365 0.18781 -0.24847
0.17695 0.17485 -0.13253
-0.01077 0.18781 -0.32137
0.19023 0.17485 0.12725
-0.04951 0.18781 -0.23508
0.06214 0.18781 -0.31250
-0.20572 0.18781 0.22016
0.17874 0.17485 0.28710
-0.12026 0.18781 -0.37393
-0.04347 0.18781 0.04093
-0.05874 0.17485 -0.12695
-0.20048 0.18781 0.15027
-0.16715 0.18781 -0.38794
0.11787 0.17485 0.25002
0.20047 0.18071 0.19498
-0.13741 0.18781 -0.37157
-0.19809 0.17912 0.13717
-0.02614 0.18781 -0.23820
-0.06741 0.17485 -0.26558
-0.17478 0.04135 0.39857
-0.02289 0.18781 -0.03330
-0.00193 0.18781 0.38875
-0.17714 -0.05009 0.40000
0.13753 0.17485 -0.17033
0.20723 0.18641 -0.02847
-0.18148 -0.09222 0.40239
-0.03403 0.18781 -0.20604
-0.18613 0.17485 0.31937
0.18049 0.18781 0.08729
-0.09115 0.17485 -0.29472
0.16294 0.17485 0.08336
0.17526 0.18781 -0.19260
-0.19579 0.07376 -0.39002
0.17783 -0.01399 0.36450
0.15839 0.18781 0.31335
0.02389 0.18781 -0.09135
0.04748 0.17485 0.38601
0.11345 0.18781 0.12125
0.18219 -0.08106 0.36936
-0.03209 0.17485 -0.02936
-0.06316 0.17485 0.32015
0.14421 0.18781 0.00656
0.09555 0.17485 0.39704
0.16115 0.17485 -0.29799
0.03720 0.17539 -0.39973
0.17727 -0.18472 0.40007
-0.17917 0.17295 -0.36592
0.06910 0.17485 0.16821
0.00494 0.17485 0.00799
0.18985 0.17795 -0.41447
0.11619 0.17485 0.05724
-0.15382 0.14900 -0.37064
-0.02881 0.18322 -0.41147
0.12495 0.17485 0.13552
0.19379 0.17625 -0.07241
-0.05020 0.17485 -0.37959
0.15288 0.04845 0.37157
0.00072 0.18781 0.28523
0.17894 0.09615 -0.40099
0.18767 0.17485 -0.00978
-0.19571 0.12787 0.38986
-0.07808 0.17485 0.36636
0.12462 0.17485 -0.31505
-0.12897 0.18781 -0.06986
0.05756 0.18781 0.37548
0.15828 -0.13591 0.38602
-0.20723 0.18761 -0.37280
-0.08774 0.17485 -0.11701
-0.15115 0.18781 0.14616
-0.03274 0.17485 0.26608
-0.04023 0.17485 -0.11967
0.18164 0.18144 -0.41447
0.09349 0.17485 0.01512
0.03805 0.18781 -0.19625
-0.19432 -0.18781 0.39910
0.16150 -0.10560 -0.36296
0.12079 0.16566 -0.37061
-0.15109 0.17485 -0.32998
-0.12160 0.17485 -0.36377
0.16960 0.18781 0.23988
-0.18686 0.18781 0.03890
0.18623 0.17485 -0.14549
-0.17750 0.16365 0.36415
0.09212 0.17485 0.02732
-0.01244 0.17485 -0.22335
0.16666 -0.08046 -0.35780
0.18737 -0.18009 0.37601
0.16013 0.18781 0.11141
0.06052 0.17485 -0.33902
-0.17503 0.17485 -0.19792
-0.14435 0.17988 -0.41247
-0.11607 0.17485 -0.14154
-0.16594 -0.17758 -0.39248
-0.00179 0.17485 0.22327
0.13582 0.18781 0.33832
-0.11779 0.17485 -0.23635
0.07264 0.17485 -0.21690
0.08224 0.17485 0.11699
-0.14417 0.17485 -0.39080
0.08397 0.18781 -0.08507
0.01163 0.18781 0.23069
-0.00146 0.18781 0.33337
-0.04233 0.17485 0.20286
-0.16850 0.08441 -0.35596
0.16821 0.18781 0.06405
-0.12032 0.16975 0.33284
-0.18290 -0.06386 0.37020
0.18880 0.17485 0.18601
-0.19277 0.01902 0.40738
-0.04818 0.18781 -0.40222
-0.12827 0.18781 -0.24469
0.14997 0.02781 -0.37449
0.18514 -0.09544 0.37303
0.09441 0.17485 0.36446
0.16254 0.18781 0.26887
-0.03423 0.18781 0.25494
-0.10326 0.18781 0.14886
-0.19167 -0.15772 -0.38257
-0.18262 0.17485 0.32576
-0.18170 0.18781 -0.40462
-0.18584 0.18781 -0.29949
0.10915 0.17485 0.33449
-0.07342 0.17485 -0.01683
0.04399 0.17485 0.32945
0.19846 0.18781 -0.11789
0.15013 0.18781 0.20893
-0.18206 -0.09208 0.36921
0.17377 0.17485 0.31592
0.09587 0.17485 0.28916
0.17007 0.18781 -0.08955
0.06748 0.18781 0.04472
0.01537 0.18781 0.30945
-0.11593 0.16931 0.34144
0.16432 0.17752 -0.41447
0.15021 0.18781 0.25939
-0.06023 0.18781 0.35232
0.04397 0.18781 0.29602
0.14476 0.18781 -0.29431
-0.02885 0.17485 0.07757
-0.17578 0.13203 0.36239
0.19990 0.06093 0.39934
-0.00818 0.17485 0.07190
-0.12863 0.17485 0.10287
-0.01050 0.17485 -0.33829
0.18318 0.17485 0.25955
0.16034 0.17485 -0.35268
0.07604 0.18781 -0.15671
0.16987 -0.11053 0.39535
-0.20723 0.18617 -0.06050
-0.10161 0.18781 -0.08800
0.18282 0.02765 0.40304
-0.11708 0.17485 -0.38982
-0.16424 -0.18638 -0.39117
0.15959 0.18781 0.24161
0.18370 -0.18781 -0.40066
0.20136 0.01832 0.40332
0.14541 0.16501 0.33602
0.04107 0.17485 -0.03483
-0.10948 0.17485 0.39085
-0.04083 0.18781 -0.01278
0.18824 0.18781 -0.10568
0.07673 0.18781 -0.06621
-0.05823 0.18781 -0.04810
-0.16546 0.11877 0.35900
-0.20723 0.18582 0.24874
0.10239 0.17062 0.36122
0.00927 0.17485 0.19975
-0.17143 0.14642 0.39643
0.04785 0.18781 -0.40532
-0.16424 0.12316 -0.36022
-0.12865 0.17485 0.35235
-0.18633 0.18781 0.09632
-0.15968 0.18781 -0.24828
0.08668 0.18781 0.13609
-0.17876 -0.01422 0.36549
-0.05296 0.18781 -0.35954
0.16777 0.17485 -0.33912
0.15983 -0.16375 0.38747
-0.18469 0.18781 -0.13845
-0.08067 0.17485 -0.01011
0.18525 0.10979 0.37317
-0.17095 0.17485 0.09970
-0.13495 0.17485 0.40118
-0.03863 0.17485 0.17050
-0.18890 0.17485 0.15594
-0.15592 0.17485 -0.35773
-0.18478 0.16839 0.40399
-0.14476 0.18781 -0.19474
0.16786 -0.03625 0.39396
0.14709 0.18781 0.15436
0.19856 -0.10499 0.39605
-0.18049 0.17485 0.28092
0.07694 0.17485 -0.16118
0.16158 0.17485 0.25395
-0.20723 0.18762 -0.12683
-0.14806 0.18781 -0.00959
0.09387 0.18781 0.33059
-0.15464 0.17485 -0.10803
-0.18039 0.09222 -0.36725
0.01621 0.18781 0.26255
0.09922 0.18781 0.40319
-0.03166 0.18781 -0.04688
0.08361 0.18781 -0.34780
0.14415 0.18781 -0.08530
-0.09475 0.17485 0.30013
-0.19048 0.18781 0.15985
0.15158 0.12600 -0.37921
0.17167 -0.01545 0.39659
0.15273 0.17485 0.26044
-0.19080 0.05561 -0.38116
-0.14766 0.17485 0.11846
-0.19776 0.17890 0.11970
-0.08600 0.18781 -0.38280
-0.13287 0.18781 0.12144
0.12680 0.17485 -0.18860
-0.15435 -0.05584 0.37011
-0.19836 0.18781 0.25643
0.10734 0.17485 -0.35676
0.15427 -0.14182 -0.38208
0.04182 0.17485 -0.04047
-0.10390 0.18781 0.08071
0.14743 0.18781 -0.10354
0.05515 0.18781 -0.18471
0.19063 -0.05573 -0.38089
-0.17629 0.18781 -0.08370
-0.19326 -0.07434 0.38527
0.06948 0.18781 -0.12382
-0.08739 0.18781 -0.36778
-0.18012 -0.02230 -0.36693
-0.11712 0.17485 0.38930
-0.07997 0.17485 -0.18831
-0.02389 0.17485 0.07613
0.06343 0.18781 -0.27886
-0.00533 0.17485 0.10195
0.07737 0.17485 0.32367
-0.16096 0.10538 0.36349
-0.10128 0.17485 0.15855
-0.07191 0.18781 0.41000
-0.17507 0.18781 -0.15818
0.00960 0.18781 -0.24425
0.06339 0.18781 0.00588
0.19195 0.18781 -0.11351
-0.17117 -0.16276 0.35811
0.15077 -0.00489 -0.37369
-0.04424 0.17485 -0.01127
0.04178 0.17485 0.38934
-0.10673 0.17485 0.14652
-0.08639 0.17485 -0.28130
-0.20578 0.18424 0.19913
0.04708 0.18781 -0.18096
0.11406 0.18781 -0.36828
-0.18841 0.17485 0.09559
0.15408 0.18781 0.15596
-0.11183 0.18781 0.04860
-0.20231 0.02231 0.41005
0.10500 0.17485 0.25711
-0.20653 0.18474 0.09451
0.18131 0.17485 0.18107
0.19422 -0.07623 0.38702
-0.00433 0.17485 0.30781
-0.19218 0.09966 -0.40716
0.17357 0.17141 0.30567
0.03277 0.17485 -0.09189
-0.08564 0.18781 -0.24066
0.08434 0.18781 0.32664
0.19381 0.17627 -0.10466
0.08345 0.17485 0.02745
-0.14843 0.16473 -0.33572
0.16512 -0.08005 0.39186
-0.15546 0.15402 -0.38332
0.20063 -0.01001 0.40133
-0.09137 0.17485 -0.02810
-0.04649 0.18781 0.33103
0.19568 -0.04164 -0.38981
-0.16343 0.18781 -0.05029
-0.17782 0.04991 -0.36450
-0.19800 0.04791 -0.39473
0.11098 0.17485 -0.08653
-0.01383 0.18781 0.09273
0.11141 0.17485 0.38149
0.17837 0.17485 0.34113
0.17377 0.17485 -0.28566
-0.20200 0.18781 0.12779
-0.18343 0.18781 0.20423
-0.05760 0.18781 -0.09708
-0.18917 0.18781 -0.29256
-0.07925 0.18781 0.21759
0.20086 0.18097 0.12891
-0.17983 0.00901 -0.40148
-0.02008 0.18781 -0.27578
0.15629 0.18781 -0.33672
-0.05488 0.18781 -0.28213
0.13998 0.18781 0.03295
0.16608 -0.15649 -0.35838
0.20071 0.07077 -0.40153
-0.15305 0.06678 -0.38081
0.18829 0.18781 0.31288
-0.16199 0.17485 -0.21773
0.05989 0.18781 -0.30487
-0.05276 0.17485 0.17774
-0.05165 0.17485 0.28528
0.19479 0.13931 -0.40812
0.12652 0.17428 -0.37816
0.04254 0.17485 -0.24554
-0.07333 0.17485 0.26743
-0.00974 0.17485 0.29176
0.20215 -0.11311 0.40585
-0.19305 -0.03825 -0.38489
-0.16362 0.04203 0.36084
-0.18462 -0.13964 0.40391
0.10895 0.17485 0.19602
0.00830 0.18781 0.37568
-0.20205 0.03674 0.40553
-0.01327 0.18781 -0.20900
0.01603 0.17485 -0.30720
-0.11400 0.18781 -0.35342
-0.03626 0.17485 -0.23606
0.20718 0.18781 0.01808
0.15058 -0.06956 0.37806
0.01091 0.17485 -0.27395
-0.09074 0.17485 -0.20342
-0.19640 0.17485 -0.41019
-0.03427 0.18781 0.02161
-0.12326 0.18781 -0.05288
0.09822 0.17485 0.02510
-0.20514 0.18382 0.32831
0.12420 0.17028 -0.32598
0.00849 0.18781 -0.19541
0.01009 0.18781 -0.05230
0.02448 0.18781 0.01661
-0.20459 0.18090 -0.34435
0.01222 0.18781 -0.02361
0.03575 0.17485 -0.18054
0.20442 0.18334 -0.17125
-0.18360 0.17485 0.16991
0.10810 0.17485 0.24782
0.16947 -0.14584 0.35665
-0.18623 0.18781 -0.15787
0.08561 0.17485 -0.37282
-0.15751 0.12172 -0.36695
0.20139 0.18781 0.17028
0.18840 -0.11286 -0.40562
0.14730 0.18781 -0.15678
-0.03882 0.18781 0.22267
-0.18743 -0.08772 -0.37611
0.19149 0.13531 -0.38227
0.08269 0.17485 0.09011
-0.16780 0.17485 -0.30557
-0.16703 0.17485 -0.24366
0.15515 0.15264 0.38300
0.19099 0.18781 -0.12748
0.12359 0.18781 -0.09973
-0.13484 0.17485 -0.35910
-0.02057 0.18781 0.28093
0.13867 0.18781 -0.29792
0.02279 0.17485 0.24059
0.09542 0.18781 -0.08170
-0.06948 0.18781 -0.39036
0.00996 0.18781 0.09579
0.17396 0.17520 0.41433
0.17322 -0.14090 -0.39760
0.11096 0.17485 0.35109
0.15212 0.18781 0.19202
0.15297 0.18781 -0.01918
0.04997 0.18781 0.35115
-0.10728 0.18781 -0.36989
-0.14544 0.18781 0.26822
0.12956 0.17485 -0.08588
0.17095 0.17485 0.20399
0.01461 0.17485 -0.23014
-0.18984 0.18781 0.26647
-0.19321 0.18781 -0.35799
-0.08060 0.18781 0.21096
0.16372 0.18781 -0.30796
-0.06032 0.17485 0.33853
-0.15527 0.02986 -0.38313
-0.08324 0.18781 0.31707
-0.18690 0.03728 -0.40498
0.12067 0.18781 0.26513
-0.17758 0.17485 -0.13060
0.07648 0.18781 -0.40573
-0.17548 0.03951 -0.39899
-0.11477 0.17485 -0.27742
-0.16423 0.17485 0.03094
0.18114 0.18781 0.24507
0.18627 0.17485 0.06042
0.03956 0.18781 0.28814
0.08036 0.17485 -0.20289
-0.18281 0.13957 -0.37010
0.15856 0.11778 -0.38628
0.14977 0.17485 0.18194
-0.02849 0.17485 0.08655
0.03096 0.18781 -0.28624
-0.15229 -0.04972 0.38002
-0.15620 -0.05513 0.38405
-0.15119 0.01370 -0.37327
-0.20045 0.18781 0.06993
-0.03974 0.17485 0.38044
0.02999 0.17485 0.33608
-0.15094 0.18781 -0.34015
0.00487 0.18781 -0.07483
0.12617 0.18781 0.11590
-0.13258 0.17485 -0.34066
0.10403 0.18781 0.06292
-0.18591 0.15599 0.37404
0.02524 0.17485 -0.28677
-0.13102 0.18781 0.19368
-0.00814 0.17485 0.00076
0.20723 0.18777 0.18213
0.13110 0.18781 -0.29294
-0.15949 0.17485 -0.35248
0.02632 0.18781 0.29338
0.10379 0.18781 -0.13359
0.18292 0.16189 -0.40309
-0.17356 0.17485 0.24678
0.01286 0.17485 -0.13532
0.20583 0.18781 -0.16881
-0.16091 -0.18227 0.38838
-0.08722 0.18781 -0.03469
0.02731 0.18781 0.36589
0.18738 0.07442 0.37604
-0.00376 0.17485 0.03788
-0.03602 0.17485 -0.06960
-0.12220 0.17485 -0.35664
0.09584 0.17485 -0.12760
-0.19857 0.10942 0.39606
-0.20699 0.18781 -0.24139
0.04277 0.18781 0.18966
-0.14382 0.18781 0.39237
-0.00708 0.17485 0.16290
0.15966 0.05969 -0.36480
0.17917 0.18781 -0.20763
-0.17581 -0.16101 0.39920
-0.19707 0.17844 0.10075
-0.19889 0.06943 0.39681
0.06073 0.18781 0.17792
0.05734 0.17485 -0.37973
0.11362 0.18781 0.29359
-0.19549 0.17738 0.07019
-0.00109 0.18781 -0.19952
0.08702 0.18781 0.30414
-0.07868 0.18781 0.10141
0.10694 0.17485 0.09482
-0.19793 -0.00616 -0.39457
-0.03376 0.17485 0.36613
0.20100 0.17653 -0.35422
0.17431 0.04762 -0.36099
0.19038 0.17485 -0.20499
0.20064 0.17478 -0.41001
-0.12452 0.18781 0.38685
-0.18659 -0.06647 -0.37492
0.15958 -0.00200 0.38725
-0.17787 0.17485 -0.12419
0.19531 0.17767 -0.41447
-0.08610 0.18781 -0.08195
0.20002 0.18781 -0.09300
0.05342 0.18781 -0.32666
0.01424 0.18781 0.38896
0.19491 -0.05575 0.40816
0.11949 0.18773 -0.41447
-0.19343 0.18781 -0.12480
-0.02639 0.18781 0.20731
0.04580 0.17485 -0.08785
-0.06922 0.17485 -0.11706
0.06158 0.18781 -0.33875
-0.20723 0.18043 0.39345
-0.02546 0.18781 0.00942
0.05003 0.18781 -0.21241
-0.02214 0.18781 -0.40142
-0.03685 0.18781 -0.16449
-0.15349 0.18781 0.30890
-0.08594 0.18781 0.36962
0.15604 0.12460 0.38391
-0.15060 0.09366 -0.37386
0.01421 0.17485 0.27889
0.08612 0.17485 0.00112
-0.08890 0.18781 -0.12020
-0.15590 0.18781 -0.40848
0.18430 0.18781 -0.23682
-0.01500 0.17485 -0.08251
0.11074 0.17485 -0.03741
-0.05075 0.17485 -0.00622
-0.05922 0.18781 0.05363
0.12116 0.16946 0.37873
0.16646 0.05263 -0.35800
0.11915 0.18781 -0.21232
0.20032 -0.11150 0.40047
-0.17436 0.17485 0.19410
-0.16381 0.17485 -0.29375
0.16733 0.00310 -0.39355
0.15548 0.03328 0.38334
0.16443 -0.08932 -0.39132
-0.03332 0.17485 0.25443
0.11160 0.17485 -0.14039
-0.05463 0.18781 -0.28989
0.19540 0.07310 0.38923
-0.19165 0.14414 0.38254
0.17050 -0.11814 0.35753
0.16659 0.17485 0.19809
-0.13393 0.18781 -0.40980
0.12993 0.16716 -0.33720
0.03224 0.17485 -0.16498
0.12826 0.17485 -0.39456
0.15684 -0.09704 0.36761
-0.10031 0.18781 -0.02497
0.13993 0.17485 -0.39425
-0.04395 0.17485 0.03574
0.15029 -0.01795 -0.37772
0.14918 0.18781 -0.36047
-0.19636 0.16551 0.39120
-0.17430 0.17485 -0.38159
-0.19914 -0.05922 -0.39742
0.20299 -0.13181 0.40908
0.19512 -0.01103 -0.38865
-0.09672 0.17485 0.32247
-0.18103 -0.03094 -0.40214
-0.07131 0.18781 0.00334
0.18297 -0.18781 0.38303
0.15900 -0.18781 -0.38339
-0.17883 0.18781 0.29336
-0.18262 0.17485 0.15460
0.17655 0.17485 0.25477
0.14991 0.18781 -0.23903
0.10087 0.17994 -0.40656
-0.17210 0.18781 0.04475
-0.20574 0.18422 -0.06816
-0.17714 -0.13427 0.36377
-0.17343 0.18781 -0.28527
-0.05440 0.17485 -0.28008
-0.18828 0.08927 -0.37734
-0.14038 0.17485 0.15264
-0.15276 -0.13746 -0.37170
-0.10184 0.18781 0.28041
0.11054 0.17485 0.13725
0.17969 0.18781 -0.09818
-0.14786 0.17485 -0.18742
-0.17395 0.12720 -0.36065
0.15704 0.17485 -0.03809
-0.14844 0.17485 0.07034
0.19397 0.16215 -0.40782
0.18506 0.18781 0.34623
0.14500 0.17485 0.29021
0.18974 0.18781 -0.17157
0.10889 0.18781 -0.29805
-0.13135 0.17485 -0.16437
0.12629 0.17485 0.31338
0.13368 0.17485 0.17884
0.05927 0.17485 0.30922
0.18159 -0.11404 -0.40244
-0.15771 0.15853 0.36488
-0.16975 0.18781 0.30307
0.16267 0.18781 -0.10771
0.00943 0.18781 0.04989
0.18823 -0.07184 0.37726
-0.17701 0.17485 -0.24946
0.13692 0.18781 0.12631
0.13825 0.17254 -0.30690
-0.16076 0.17485 -0.06923
-0.11495 0.16850 -0.34980
-0.04849 0.17485 -0.17659
-0.07593 0.17485 -0.17942
0.17886 0.18781 -0.14638
-0.01099 0.18781 -0.04531
-0.14385 0.17152 -0.30874
0.14936 -0.14953 0.37665
0.16127 0.17485 -0.02870
-0.15990 -0.01349 0.36455
-0.07561 0.18781 -0.14280
0.16115 0.17299 0.38859
0.15282 0.17485 0.12246
-0.16570 -0.14466 -0.39230
-0.15524 0.18781 0.03403
-0.10533 0.17845 -0.40431
0.17877 -0.12042 -0.36550
-0.19261 0.18781 0.24384
-0.02800 0.18781 -0.14893
-0.13191 0.18781 0.24588
-0.16487 -0.02477 -0.39166
-0.02828 0.17485 -0.38372
0.04836 0.18781 -0.29605
-0.15486 0.09394 0.36960
0.05246 0.18781 -0.26397
0.19104 0.18781 -0.25299
-0.19016 0.17485 -0.34764
-0.15590 0.17485 -0.36596
-0.15937 0.18781 -0.27092
0.05817 0.17485 -0.00320
0.17345 -0.16985 -0.36017
-0.19389 0.18781 0.00489
0.16832 0.03908 -0.35613
-0.15951 -0.18781 -0.38342
0.06318 0.17869 0.40467
-0.17247 0.18781 0.39691
0.17573 -0.00395 0.36235
-0.13397 0.18781 0.21449
-0.00477 0.17485 -0.26017
0.19308 0.18781 0.37411
0.15354 0.17708 -0.41103
0.07103 0.18781 -0.04088
0.17296 0.18781 -0.36624
-0.13199 0.17485 -0.35078
0.10797 0.17485 -0.21286
0.09609 0.17485 -0.27974
-0.15935 0.17485 0.36554
-0.15645 0.04293 0.38429
0.10526 0.17485 -0.16824
0.03831 0.18781 -0.17851
0.00323 0.17485 0.04228
-0.16302 0.14008 0.36144
0.05421 0.18781 -0.32051
0.12700 0.18781 -0.26997
-0.15023 -0.01157 0.37422
0.18318 0.18781 0.23522
-0.04477 0.17485 -0.27639
-0.10502 0.17485 0.36249
0.17588 0.18781 0.24296
-0.18773 0.17485 0.36764
0.17274 -0.10704 0.35948
-0.04401 0.17485 -0.35071
-0.03352 0.17485 -0.37784
0.17409 0.17485 -0.40032
-0.15187 0.18781 -0.18737
0.08722 0.18781 0.33450
0.14992 0.12246 -0.37454
0.19389 0.18781 0.35392
-0.10899 0.17485 -0.14655
0.16733 -0.18781 0.38790
-0.18018 0.11569 0.36701
0.19619 -0.06950 0.40863
-0.05312 0.18781 -0.22900
0.06818 0.18781 -0.06581
0.07961 0.18781 -0.13765
0.19778 -0.14411 -0.40912
0.19613 -0.13633 -0.40861
-0.13408 0.16226 -0.37145
-0.17178 0.17485 -0.36215
-0.19155 0.17485 -0.25457
-0.17068 0.01108 -0.39591
0.12001 0.17485 -0.27277
0.18822 0.15886 -0.37725
-0.18207 0.18781 0.18325
0.02526 0.18781 0.21990
0.12508 0.18781 -0.27492
-0.19693 0.17835 0.17706
-0.16292 -0.02721 0.36153
0.11009 0.17485 -0.36678
0.02029 0.18781 0.12847
0.18072 0.17485 0.10395
-0.17182 0.17485 0.14995
-0.19544 0.17017 -0.38930
0.12270 0.17485 -0.12747
0.01186 0.17485 -0.20069
0.18570 0.14839 0.40444
0.16817 0.11212 -0.39418
-0.09267 0.18781 -0.39248
-0.16877 0.15704 -0.35604
-0.03958 0.18781 0.10070
-0.13037 0.17485 0.23305
-0.13671 0.17485 0.31265
-0.18923 0.06016 0.37872
-0.16181 0.08049 -0.38915
-0.08434 0.18781 0.28519
0.20202 -0.18470 0.40544
0.13370 0.16723 0.33355
-0.19062 -0.09680 0.40656
-0.13639 0.17485 -0.36408
0.17922 0.12805 -0.36597
-0.08047 0.18781 0.11664
0.20723 0.18569 0.38895
-0.13912 0.17485 0.30416
0.19434 0.18781 0.31383
0.19791 -0.14348 -0.39452
0.02921 0.18781 -0.08625
0.19426 -0.04851 -0.38709
-0.14619 0.17485 0.29890
-0.12319 0.17485 0.37546
-0.10360 0.17485 0.05173
-0.13476 0.18781 0.36852
0.15417 0.18781 -0.27253
-0.20085 0.18096 0.22829
-0.02247 0.17485 0.36652
-0.14166 0.17485 0.36254
-0.13912 0.17485 0.10293
0.20009 -0.01183 0.40984
0.06644 0.17887 -0.40495
-0.09159 0.17485 -0.09279
0.17045 0.18781 0.09730
0.17478 -0.13341 0.36144
-0.15782 -0.13411 -0.38559
0.11378 0.17485 -0.34802
-0.16573 0.05253 -0.39232
-0.16835 0.14113 -0.35610
0.10072 0.18121 0.40845
0.15431 -0.01488 0.37015
-0.12838 0.17485 -0.17489
0.07193 0.18781 -0.10555
-0.05825 0.18781 0.16647
-0.19520 -0.14394 0.38882
0.09686 0.18781 -0.18779
0.00154 0.17485 0.39750
-0.18505 0.18781 -0.34236
0.00900 0.17485 0.07648
-0.00717 0.18781 0.15321
0.14993 0.11405 -0.37453
0.03718 0.17485 0.06245
0.04318 0.17485 -0.22009
-0.11941 0.18781 -0.07475
-0.18414 -0.12250 -0.37173
0.12724 0.17485 0.03612
0.01501 0.18781 -0.32846
0.15175 -0.06815 0.37271
-0.00962 0.17485 0.36572
0.17839 -0.15552 0.36510
0.12332 0.17485 0.25681
-0.20154 0.03367 -0.41024
0.15665 0.18781 -0.09287
0.16731 0.18781 0.33037
0.16248 0.07256 0.36197
0.17764 -0.17565 -0.40027
-0.06470 0.17485 -0.37582
0.12716 0.18781 0.10997
-0.16231 -0.18226 -0.36215
-0.05457 0.18781 -0.16864
0.09602 0.17485 -0.04481
0.20264 0.18216 -0.24186
-0.19619 0.17485 0.40195
-0.16212 -0.05565 0.38941
-0.18085 0.06555 0.40204
0.13457 0.17485 0.39960
0.16738 -0.17806 0.39359
0.15140 0.05351 -0.37900
0.19042 0.17485 -0.33973
0.09751 0.17485 -0.22465
-0.18424 -0.07323 -0.40373
-0.17148 0.17485 -0.01543
0.02544 0.18781 -0.37541
-0.04693 0.18781 -0.16216
-0.12170 0.18781 0.08329
0.10698 0.16917 0.37488
-0.15440 -0.18149 -0.38222
0.17812 0.17485 -0.38970
-0.10668 0.17485 0.18795
0.02353 0.17485 0.13625
-0.06967 0.17485 -0.26010
-0.17767 0.17485 0.11666
-0.07946 0.17485 0.26718
-0.17622 0.18781 -0.19253
-0.18700 0.17485 -0.07043
-0.16433 0.18781 0.07378
0.15884 0.18781 -0.14608
0.17442 -0.14436 -0.36109
0.19496 0.18781 0.29992
-0.09496 0.18781 0.29026
-0.04625 0.17485 0.15601
0.02243 0.17485 0.17654
-0.02798 0.17485 -0.02441
0.15845 -0.02918 0.38618
-0.10742 0.18781 0.25485
-0.18936 -0.08273 0.37890
0.11897 0.18781 -0.23203
0.16402 -0.17528 0.36044
0.02428 0.18781 -0.30601
0.08821 0.17485 0.13859
0.14888 -0.04497 0.37609
-0.20119 0.18781 0.38403
-0.09873 0.18781 0.32455
0.07257 0.17485 0.00589
-0.15633 0.01216 -0.36812
0.15645 0.06863 0.36800
0.19936 -0.01752 0.39792
0.02281 0.18781 0.02785
-0.13148 0.16762 -0.37763
-0.18244 0.17485 -0.07296
0.10755 0.17485 0.29618
-0.01735 0.17485 0.04480
0.19385 -0.17107 0.38635
0.19242 0.17534 0.01547
-0.18388 0.18781 -0.38119
0.11119 0.17485 -0.38094
-0.19749 -0.07850 -0.39354
0.13853 0.17485 0.17178
-0.03073 0.18781 0.18136
0.16107 0.17485 -0.34166
0.00217 0.18781 -0.03148
0.03275 0.17485 0.35451
0.20264 0.09381 0.40978
0.11698 0.18781 -0.06664
-0.15354 0.18781 0.25910
0.02985 0.18781 -0.33653
-0.16589 0.10989 -0.39244
0.05527 0.17485 -0.24537
-0.00848 0.17485 0.19296
0.05543 0.17485 -0.37292
-0.15411 0.17485 0.34862
-0.02138 0.17485 -0.06878
-0.07621 0.17485 -0.05759
0.17255 0.18781 0.13490
0.06232 0.18781 -0.20478
0.17616 0.17485 -0.15901
0.14970 0.17485 0.20887
-0.01428 0.18781 -0.02833
0.00148 0.18781 0.26289
-0.13004 0.18781 0.07448
0.01019 0.18781 -0.06374
0.12989 0.18781 -0.05503
-0.08465 0.18781 0.30967
-0.01388 0.18781 0.00578
0.11784 0.17485 -0.36306
-0.18167 -0.18468 0.40248
0.10190 0.17485 -0.32373
0.15477 0.17181 -0.30485
-0.19818 0.09235 -0.40925
0.16134 0.18781 -0.18525
-0.10204 0.17485 0.01744
-0.15852 0.12772 -0.38624
-0.10740 0.17485 -0.02898
0.20263 -0.13811 0.40740
0.04929 0.18781 0.37851
-0.20632 0.18781 -0.07727
0.17477 0.17485 0.27856
0.19330 0.16612 0.40758
0.08802 0.18781 -0.19612
0.17246 0.17485 0.05392
-0.18776 -0.12085 0.37658
-0.18471 0.18781 0.35725
-0.18171 0.17485 0.09130
0.17002 0.00078 -0.35712
-0.17795 -0.09360 -0.40044
-0.11223 0.18781 0.19017
0.17339 0.18781 0.20978
0.18376 0.00649 0.40349
-0.16910 -0.08226 0.39482
0.18065 -0.02562 0.36756
0.20289 -0.10111 0.40940
-0.09635 0.17345 -0.35518
0.01764 0.18781 -0.34360
0.09618 0.17485 0.11419
0.03496 0.17485 0.02907
-0.17959 -0.17731 0.40135
-0.01532 0.18781 -0.30250
0.10828 0.18781 -0.02675
0.11879 0.17485 -0.25536
0.16845 0.18781 0.29448
-0.04625 0.17485 0.09217
-0.20523 0.18781 -0.30710
-0.06170 0.18781 0.17225
-0.19329 -0.16223 -0.38533
-0.13538 0.17485 0.33600
0.02376 0.17485 -0.31463
0.00208 0.17485 -0.29826
-0.09698 0.17466 0.35283
0.02055 0.17485 0.12527
-0.12838 0.17485 -0.06919
-0.18379 0.17485 -0.12927
0.18970 0.02910 -0.40617
-0.10801 0.17036 0.34750
-0.19507 0.16055 -0.38856
-0.14813 0.17485 -0.30533
0.13548 0.17485 0.14267
0.16510 -0.00306 -0.39184
0.18943 -0.13886 -0.37900
-0.02282 0.18781 -0.19688
0.06055 0.17485 -0.15703
-0.03387 0.18781 0.37163
-0.07459 0.18781 0.05978
-0.13280 0.18781 -0.17319
-0.10592 0.18781 -0.34693
-0.14844 0.17485 0.23528
0.10882 0.18781 0.13071
-0.13056 0.18781 -0.21420
-0.05382 0.17485 -0.31854
0.08560 0.18781 -0.28731
0.00118 0.17485 0.07068
0.09671 0.17485 0.38613
0.07391 0.17485 -0.13728
0.17647 0.00684 0.36306
-0.16550 -0.18278 0.35896
-0.08089 0.17485 -0.20911
-0.17115 0.13120 0.35809
0.19167 0.17485 0.32453
-0.04335 0.18781 0.36353
-0.04285 0.17485 -0.35937
0.02933 0.18781 0.05651
-0.16499 0.18781 0.29340
0.09823 0.18781 -0.17515
-0.11960 0.18781 -0.16691
-0.00014 0.18781 -0.02479
0.19363 -0.10099 0.38594
-0.10146 0.17485 0.38653
-0.13200 0.18781 0.08520
-0.16579 0.17485 0.34207
-0.15554 0.01145 0.38340
-0.01776 0.17485 0.37061
0.07170 0.17485 0.21164
-0.19981 -0.08780 -0.39909
-0.00305 0.18781 0.11920
0.08882 0.18781 -0.41249
0.16868 0.17485 -0.33122
-0.19410 0.01191 -0.38681
0.20158 0.02628 -0.40401
-0.15153 0.01884 -0.37292
-0.10608 0.17485 -0.37389
0.13340 0.17485 -0.32429
0.18178 0.17485 0.05309
0.01426 0.17485 0.36998
0.11477 0.18781 -0.09414
-0.01300 0.17485 -0.28078
0.16945 0.16636 0.39506
-0.11407 0.18781 -0.04296
-0.15928 -0.10318 0.38696
0.11548 0.18781 -0.04065
0.11831 0.18781 0.10710
0.15473 0.18781 0.32475
-0.03178 0.17485 0.14205
0.17804 0.18781 0.20016
0.20101 -0.13892 -0.40237
0.18911 0.17485 0.02897
0.15131 -0.13751 -0.37891
-0.00458 0.17485 0.37343
-0.03117 0.18781 -0.28211
0.07020 0.18781 0.28786
-0.12338 0.18781 -0.34640
0.16244 0.04607 0.36202
0.13173 0.18781 0.38394
0.15291 0.17485 -0.16746
0.06740 0.18781 -0.05004
-0.09679 0.18781 -0.16763
0.04897 0.18781 0.35751
0.10380 0.17485 0.34693
-0.01764 0.18781 0.16175
0.17551 0.12051 -0.36213
0.20515 0.18383 0.23816
-0.03594 0.17485 -0.38277
0.07196 0.17485 -0.04186
-0.15337 0.18781 0.22953
-0.13068 0.17485 0.33861
-0.15122 0.15969 0.35737
-0.17288 -0.18539 -0.35962
0.13608 0.17485 0.09770
-0.20078 0.18091 0.06819
0.18500 0.17485 -0.34281
-0.03911 0.17485 0.14022
0.11978 0.18781 -0.06111
-0.18015 0.18781 0.05357
-0.03820 0.18781 -0.03313
-0.16170 0.18781 -0.22894
-0.12084 0.17485 0.06251
-0.20686 0.18496 -0.04976
-0.19286 0.17563 -0.23367
0.05683 0.18781 0.08511
-0.13684 0.18781 0.35408
-0.04550 0.18781 -0.11427
0.16958 0.17485 -0.37459
-0.09406 0.17485 -0.07179
-0.13706 0.17485 0.13934
-0.04860 0.17485 -0.39843
-0.01793 0.17485 -0.08807
-0.10292 0.17485 -0.36923
-0.19362 0.17614 -0.32354
-0.05928 0.18781 0.00158
-0.00824 0.17485 0.12321
0.18295 -0.18781 -0.37376
-0.09137 0.17485 0.18603
0.18937 0.16141 0.40603
0.20197 0.18781 0.37836
0.20308 0.18244 0.15037
0.15912 -0.07856 0.38681
-0.02868 0.17485 -0.32805
0.02984 0.18781 0.10569
-0.02611 0.17485 -0.10782
0.09888 0.18781 -0.08600
-0.06378 0.18781 -0.13270
-0.00203 0.18781 0.23944
-0.09626 0.18781 -0.08893
-0.20723 0.18615 0.17283
0.07195 0.18781 -0.02160
-0.13834 0.18781 -0.32006
0.03411 0.18781 0.12551
0.03424 0.18781 0.00660
-0.12982 0.18781 -0.32084
-0.03503 0.17880 0.40484
-0.03438 0.17485 0.01861
-0.06935 0.18781 -0.29158
-0.03802 0.18781 0.08681
-0.06064 0.17485 -0.10105
0.17090 -0.08410 -0.39606
-0.03412 0.17485 -0.02124
0.09989 0.17485 0.26746
0.01071 0.17485 -0.21299
-0.13910 0.18781 -0.24353
0.05845 0.17485 0.22724
0.07596 0.17889 0.40497
0.18466 0.18781 -0.34867
0.17184 -0.09885 0.35869
-0.19767 -0.11420 -0.40909
-0.17029 -0.12332 0.39564
-0.14883 -0.18268 0.37604
0.09876 0.18781 -0.05263
0.19646 0.18781 -0.17991
0.19854 0.18781 -0.14233
0.10028 0.17485 -0.26301
-0.18484 -0.00175 0.37265
-0.01893 0.17485 0.17693
-0.06335 0.17611 -0.40082
-0.12194 0.16797 0.34175
-0.20476 0.18356 0.18883
0.06614 0.18781 -0.40761
0.15016 -0.18169 0.37430
-0.00840 0.17485 -0.16565
0.18583 0.18781 -0.05571
-0.13444 0.17485 -0.18696
0.20286 0.00501 0.40813
0.01599 0.17485 0.22546
-0.05357 0.18781 0.22504
0.12928 0.18781 0.09879
0.03766 0.18781 0.37368
0.17769 0.17485 -0.35636
-0.15065 0.17485 0.38732
-0.12141 0.17485 -0.03197
0.06764 0.17485 0.24427
-0.15044 0.17485 0.26170
0.12955 0.17485 -0.29341
-0.17127 -0.16858 0.35820
-0.08739 0.17485 0.15917
-0.01865 0.18781 -0.20015
-0.18434 0.18781 0.27813
0.00536 0.17835 0.40417
0.17932 0.08042 -0.40120
-0.16257 0.13430 0.38980
0.03886 0.18781 -0.11119
0.13296 0.18781 -0.01885
-0.06026 0.17485 0.19492
0.19753 -0.12701 0.40905
0.20105 0.17485 0.37678
0.07206 0.18781 -0.19490
-0.09627 0.17485 -0.39864
0.05502 0.17485 0.16670
-0.11281 0.17485 0.03280
0.15074 0.17485 0.35720
-0.18882 0.00090 0.37813
0.20508 0.17971 0.35192
0.19452 -0.13620 -0.38756
-0.15442 -0.05109 -0.38224
-0.00388 0.18781 0.36551
-0.10504 0.18781 0.30399
-0.07004 0.18781 0.02057
-0.00049 0.17485 -0.07149
0.16414 0.18781 0.16626
-0.20285 0.17485 -0.37405
-0.12523 0.18781 -0.03276
-0.10688 0.17485 -0.34702
-0.17430 -0.00641 0.39827
-0.06035 0.17485 -0.19390
0.05573 0.17485 0.33854
-0.17547 0.13990 0.39899
0.19847 0.17485 0.35808
0.00576 0.18781 0.02377
-0.12716 0.17485 -0.24460
0.20723 0.18499 -0.36858
0.11863 0.18781 -0.00510
0.00622 0.17485 0.31540
-0.18137 0.18781 0.23144
0.19637 -0.08382 -0.40869
-0.07727 0.18781 -0.34093
0.15640 0.18781 0.03251
-0.15623 -0.16764 0.36822
0.18986 -0.18286 0.40624
-0.19842 0.17934 -0.00687
-0.09776 0.17485 -0.23967
-0.05161 0.17485 0.03381
0.15539 0.18781 -0.18882
0.20723 0.18710 0.04666
-0.17682 -0.04577 -0.36343
-0.15862 0.18781 -0.13118
0.01560 0.17485 0.23659
-0.19461 -0.18238 0.38773
-0.13491 0.17485 -0.12546
-0.15382 0.18781 0.37321
0.10873 0.18781 -0.00704
-0.02869 0.17485 0.33653
0.15658 0.18781 0.36633
0.12463 0.17485 0.00603
0.04575 0.17485 -0.29997
-0.17467 -0.11309 -0.39849
0.19346 -0.00604 -0.38563
0.09207 0.17485 -0.08342
0.17642 0.09729 -0.36301
-0.13240 0.17485 -0.24829
0.03769 0.17485 0.13269
-0.13459 0.17485 0.18917
0.12841 0.17485 0.24973
-0.01171 0.17485 0.18594
0.19690 0.05068 0.40885
-0.01748 0.17876 0.40478
-0.15448 0.18781 0.13015
0.12224 0.16528 0.37108
0.17225 -0.02127 -0.35905
0.07787 0.18781 -0.33251
0.05985 0.17485 -0.11395
-0.13217 0.17485 -0.32429
-0.15027 0.05189 0.37419
0.12501 0.17485 0.35628
0.15704 0.18781 -0.22918
-0.18254 0.18781 0.26900
-0.19538 0.18781 0.19340
0.16258 0.17485 -0.04938
-0.16440 0.18781 -0.06865
-0.19730 0.17485 -0.36961
-0.16006 0.18781 0.19051
0.19364 -0.18781 -0.40732
-0.01618 0.17485 -0.00390
-0.00040 0.18781 0.04096
0.20175 0.18781 0.32635
-0.10447 0.17485 -0.09573
-0.19395 0.12216 -0.38653
-0.20083 0.18094 0.11442
0.10010 0.17485 0.18965
-0.15160 0.17485 -0.24488
-0.00941 0.17485 -0.06062
0.10420 0.17485 0.31725
-0.17172 -0.01962 -0.35858
0.02460 0.17485 -0.20612
-0.16272 -0.01337 -0.38993
-0.20132 0.18781 -0.38220
0.20548 0.18781 -0.03705
-0.12802 0.17485 0.22094
-0.19171 -0.15636 0.38263
0.05980 0.17485 0.24492
0.01711 0.18781 0.24740
0.07346 0.17485 0.37595
-0.20723 0.18027 -0.37146
-0.19970 0.10553 -0.39879
0.15679 0.17485 0.21230
0.09508 0.18781 0.34411
-0.14419 0.17485 0.32655
-0.12826 0.17485 0.39381
0.00492 0.17485 0.02841
-0.05422 0.17485 0.30285
0.06607 0.18781 0.11567
0.09164 0.17485 0.19910
0.01454 0.18781 -0.23458
0.03805 0.18781 -0.25066
0.17417 0.05116 -0.39819
0.11563 0.17485 -0.31469
0.18973 0.18781 0.02659
-0.19162 0.01742 -0.38248
0.19427 -0.16776 -0.40793
-0.16940 0.16666 -0.35658
-0.17619 0.01798 0.36279
-0.15593 0.18781 0.01109
-0.08622 0.18781 -0.41035
0.09691 0.17485 -0.26977
-0.14873 0.08369 -0.37592
0.11988 0.18283 -0.41090
0.06026 0.18781 -0.01132
0.20179 0.14811 0.40470
-0.17971 0.14562 0.36649
0.12670 0.17485 -0.17304
0.02591 0.18781 -0.25792
0.19474 0.01962 0.38797
0.12832 0.17485 -0.07582
0.15788 -0.11435 -0.38564
0.20064 0.06271 -0.40135
-0.01318 0.17485 -0.14190
0.14784 0.18781 -0.20705
-0.01359 0.17485 -0.05568
-0.00126 0.18781 -0.39484
-0.07130 0.17485 0.05698
-0.15640 0.17485 -0.08216
0.19749 0.02114 0.39354
0.00985 0.18781 -0.40526
-0.16363 0.17485 0.22878
0.20515 0.18383 0.08046
-0.07286 0.17485 -0.03324
-0.16825 0.08601 -0.39424
-0.04150 0.18781 -0.04928
-0.19920 0.18781 0.21102
-0.15091 0.17485 0.04401
0.06191 0.17485 -0.23376
0.07784 0.18781 -0.32091
-0.07838 0.18781 0.37731
-0.11727 0.17485 0.20057
-0.06244 0.17485 -0.38412
0.16849 0.00712 0.35597
-0.17096 0.18781 0.26469
-0.16243 0.17485 -0.38520
-0.08100 0.17485 0.20726
0.12918 0.16643 0.34239
-0.15633 0.17485 0.29007
0.02517 0.18781 -0.20825
-0.20109 0.18112 -0.32115
-0.09488 0.18781 0.05835
-0.17323 -0.11836 -0.35995
-0.13156 0.17485 0.36494
0.15954 -0.09346 0.38721
0.11102 0.18781 0.36081
0.19783 0.17894 0.26234
-0.02756 0.17485 0.10297
0.18880 0.10814 -0.37809
-0.16220 -0.05773 -0.36226
0.15324 0.18781 -0.08515
0.12122 0.18781 0.38474
0.15405 0.13119 0.37041
-0.00772 0.18781 -0.17322
-0.05289 0.18781 -0.00089
0.05065 0.17485 0.22025
0.02794 0.17485 0.11052
-0.15191 -0.14587 -0.37254
-0.07543 0.18781 -0.15158
0.18210 0.08122 -0.36925
0.16659 0.01180 -0.35787
0.20131 0.18781 0.10608
0.18413 0.18781 0.11335
0.02214 0.17485 -0.15197
0.00540 0.17485 -0.04753
-0.14873 0.10246 -0.37592
0.15312 0.17485 0.15116
-0.04262 0.18781 0.15828
0.17893 -0.05178 0.36567
0.05672 0.18781 0.20784
-0.16119 0.18781 -0.30300
0.16560 0.17485 -0.09501
0.17388 0.07824 0.36057
0.17202 0.18781 -0.29417
0.16137 0.17485 -0.10640
0.11859 0.17111 -0.32664
0.12732 0.16539 0.37807
0.18356 0.04556 -0.37097
-0.10612 0.17485 -0.30507
0.06523 0.18781 0.27252
0.17484 0.17485 0.35148
0.16083 0.18781 -0.29929
-0.15935 0.18781 -0.38208
0.03113 0.18781 -0.27136
0.16149 -0.18781 0.37136
-0.07776 0.18781 0.12387
-0.15403 0.05371 0.38183
0.12966 0.18781 0.27170
-0.11284 0.17485 0.01964
0.13714 0.17485 0.21180
0.17873 0.07364 0.36545
-0.04729 0.18781 0.02054
0.08276 0.18781 -0.17157
-0.04019 0.17485 -0.24076
-0.19310 0.05720 0.40750
0.00260 0.18781 -0.04953
-0.18499 0.18781 -0.04454
0.15413 -0.13329 0.37033
-0.04650 0.18781 0.36846
-0.17622 -0.03930 -0.36281
0.02523 0.18781 0.30672
-0.20627 0.18033 0.35279
-0.17121 0.17864 -0.41447
0.13355 0.18781 -0.25000
0.02899 0.17485 -0.33482
-0.05435 0.17485 -0.00217
-0.15053 -0.07402 -0.37801
0.20723 0.18699 -0.24085
0.08145 0.17485 -0.31307
0.17611 -0.05469 0.39938
0.09933 0.18781 0.19345
0.18676 0.18781 0.20910
-0.04231 0.18781 0.25230
0.14873 0.18781 0.36414
0.01710 0.17485 0.14356
0.18659 -0.07140 -0.37491
0.19462 0.07909 0.38774
-0.05690 0.17485 0.37384
-0.10881 0.17485 0.31481
-0.08498 0.18781 0.12091
0.15528 -0.14623 0.38314
-0.01560 0.18266 -0.41064
-0.15877 0.02525 0.36569
-0.20060 -0.00243 0.41000
-0.20150 -0.04262 0.40377
-0.20108 0.08980 0.41015
0.17935 -0.03597 -0.40121
-0.02186 0.17485 -0.02770
0.20707 0.18511 -0.22593
0.13262 0.18781 -0.03657
-0.01922 0.17485 0.09430
0.10976 0.17485 0.06339
0.08335 0.17485 0.15491
-0.06902 0.17485 0.16914
0.09606 0.18781 0.15459
-0.07042 0.17485 -0.38038
-0.18659 0.00163 -0.40485
0.17883 0.18781 0.41075
-0.13981 0.18781 0.02598
-0.02039 0.18781 -0.05952
-0.02230 0.17485 -0.36757
-0.16178 0.17485 0.35057
0.15304 0.13275 0.38080
-0.16024 0.12065 0.38782
0.15829 0.00253 0.36617
-0.13381 0.17485 0.12678
-0.03453 0.17485 0.22280
-0.10560 0.17485 -0.23121
-0.01370 0.18781 -0.06984
0.15226 0.11813 -0.37998
0.13332 0.17485 0.12963
-0.06718 0.17485 0.29909
0.18378 0.17485 -0.29145
0.15107 -0.10193 0.37339
-0.03241 0.18781 -0.25559
0.15134 0.16168 0.34763
0.05176 0.18781 0.22366
-0.18970 0.18781 -0.39616
0.07823 0.18781 0.12179
0.15661 0.18781 0.22604
-0.18754 0.17485 0.30315
-0.09817 0.17485 0.13507
0.01175 0.18781 0.00524
0.05082 0.18781 0.07406
-0.12554 0.17485 0.12968
-0.15831 -0.04998 0.38604
-0.10143 0.18781 0.36308
0.15876 0.11996 -0.36570
-0.06769 0.17963 0.40609
0.16372 -0.09421 0.39078
-0.07625 0.18781 -0.32716
-0.17594 0.18781 0.10412
-0.15189 0.17485 -0.21757
0.01806 0.17485 -0.16501
-0.12768 0.17485 -0.07720
0.16349 0.08858 0.36097
0.13082 0.18781 -0.20600
-0.16692 0.18781 -0.27188
-0.19809 -0.12342 0.39493
-0.14280 0.18781 -0.40911
0.01134 0.17485 0.25870
-0.08931 0.18781 -0.00310
0.20417 0.18317 -0.04991
-0.13323 0.18781 -0.03006
-0.13887 0.17485 -0.32291
-0.02783 0.17485 -0.25941
-0.14933 0.17485 -0.35417
0.00110 0.18781 -0.22743
0.13747 0.18781 0.16996
-0.05812 0.17485 -0.27136
0.11925 0.17485 0.24338
-0.15316 0.17485 0.40383
-0.20085 -0.06522 -0.40192
-0.16734 0.03362 -0.35711
-0.12253 0.16520 0.37533
0.17320 0.18781 0.11101
-0.15669 0.18781 0.10267
-0.17307 -0.16194 -0.35980
0.03598 0.17485 0.38127
-0.15346 -0.06622 -0.37099
0.07918 0.18781 -0.34279
0.11229 0.17485 -0.23654
-0.15130 0.18781 -0.17057
0.09447 0.17485 0.31343
0.12757 0.17485 -0.22123
-0.01591 0.18781 0.31979
-0.02361 0.18781 -0.33198
-0.04395 0.18781 -0.19967
0.19964 0.00835 -0.40970
0.06855 0.17485 0.09346
0.03000 0.18781 -0.35307
0.03557 0.17485 0.19559
-0.16731 -0.15409 -0.35714
-0.15898 0.18781 -0.20725
0.07676 0.18781 -0.12472
-0.17909 0.10043 0.36584
-0.11889 0.18781 0.23698
-0.18587 0.18781 0.03368
-0.01794 0.17485 0.23665
0.16225 -0.18387 0.38952
0.09389 0.17301 -0.37475
0.04119 0.17485 0.14358
0.09445 0.17421 -0.36489
-0.15733 0.17485 0.13038
0.02813 0.17485 0.11815
0.06878 0.17485 -0.05549
0.16678 0.18781 0.14294
0.10863 0.17485 -0.16205
-0.16495 0.18781 0.18242
-0.17144 0.12045 -0.35834
-0.18689 -0.12873 0.40498
0.16580 0.08167 0.35865
0.01789 0.18781 0.18791
0.06169 0.17485 -0.06928
0.09591 0.17485 -0.01154
