-0.06478 -0.10649 -0.30411
0.22611 -0.04556 -0.30411
0.16972 -0.07967 -0.30411
-0.00306 -0.03125 0.34213
0.07665 -0.03801 -0.37717
0.05854 -0.03801 -0.37846
0.20566 -0.03801 -0.37298
0.05171 -0.03801 -0.35241
0.22809 -0.04068 0.00431
0.22809 -0.04807 0.05725
0.22809 -0.06033 -0.04437
0.22809 -0.05508 0.13048
0.22809 -0.08246 0.07155
0.22809 -0.03925 -0.18166
0.22809 -0.09118 0.14789
0.22809 -0.05110 0.28822
0.22809 -0.05648 0.11772
0.22809 -0.04796 0.27765
0.22809 -0.04150 0.28623
0.22809 -0.04762 -0.13572
0.22809 -0.09097 0.13578
0.22809 -0.05982 -0.02421
0.22809 -0.05520 -0.15823
0.22809 -0.07124 0.26124
0.22809 -0.05694 0.09800
0.27921 -0.03801 -0.13643
0.08619 -0.03801 0.33351
0.01250 -0.03801 0.35686
0.18285 -0.03801 0.31306
0.27275 -0.03801 0.21149
0.25948 -0.03801 0.30076
0.25305 -0.03801 0.16458
0.23210 -0.03801 0.30196
0.28831 -0.03801 0.32297
0.27287 -0.03801 0.19277
0.25570 -0.03801 0.22740
0.28296 -0.03801 0.18698
0.27792 -0.03801 0.21962
-0.19047 0.10924 -0.00760
-0.26184 0.08296 -0.00760
-0.24245 0.09823 -0.00760
-0.17567 0.10565 -0.00760
0.02986 0.07603 0.00523
0.15357 0.07603 0.00355
-0.23824 0.11404 0.35204
-0.24340 0.11404 0.08452
-0.09908 0.11404 0.33109
-0.23827 0.11404 0.15368
-0.03491 0.11404 0.34983
-0.26037 0.11404 0.14430
-0.09955 0.11404 0.36882
-0.20729 0.11404 0.22645
-0.24782 0.11404 0.24802
-0.29124 0.11404 0.23567
-0.28099 0.11404 0.30946
-0.21913 0.11404 0.18043
-0.20642 0.11404 0.33624
-0.14603 0.11404 0.22507
-0.26543 0.11404 0.15954
-0.12575 0.11404 0.28489
-0.12696 0.11404 0.27530
-0.27656 0.11404 0.22965
-0.10978 0.11404 0.33552
-0.16154 0.11404 0.37467
-0.28612 0.11404 0.22466
-0.23446 0.11404 0.18347
-0.13877 0.11404 0.33272
-0.27865 0.11404 0.27404
-0.13907 0.11404 0.24620
-0.23152 0.11404 0.17385
-0.09008 0.11404 0.27897
-0.29617 0.11404 0.14076
-0.22885 0.11404 0.15268
-0.24057 0.11404 0.15858
-0.28728 0.11404 0.16952
-0.24487 0.11404 0.23277
-0.07965 0.11404 0.31696
-0.11707 0.11404 0.26838
-0.14790 0.11404 0.24511
-0.25358 0.11404 0.35760
-0.27590 0.11404 0.37708
-0.14935 0.11404 0.20535
-0.02969 0.11404 0.36270
-0.24071 0.11404 0.36164
-0.25708 0.11404 0.15124
-0.02785 -0.07508 0.30412
-0.22333 -0.11177 0.30412
0.02772 -0.09216 0.30412
-0.22201 -0.04961 0.30412
-0.21599 -0.05433 0.30412
-0.17099 -0.08527 0.30412
-0.01053 -0.09054 0.30412
-0.11394 -0.08397 0.30412
-0.15728 -0.07681 0.30412
-0.17740 -0.10062 0.30412
-0.11826 -0.09931 0.30412
-0.20978 -0.04266 0.30412
0.17585 -0.10537 0.30412
-0.17184 0.11404 -0.12951
-0.07680 0.11404 -0.08534
-0.27752 0.11404 -0.21919
-0.26189 0.11404 -0.24552
-0.29627 0.11404 -0.05996
-0.30254 0.11404 -0.28167
-0.22651 0.11404 -0.02386
-0.25484 0.11404 -0.14618
-0.19573 0.11404 -0.16499
-0.25071 0.11404 -0.23289
-0.08583 0.11404 -0.03136
-0.10130 0.11404 -0.12122
-0.25034 0.11404 -0.13673
-0.09826 0.11404 -0.03149
-0.20891 0.11404 -0.21398
-0.26567 0.11404 -0.31831
-0.18357 0.11404 -0.11448
-0.29401 0.11404 -0.25277
-0.13257 0.11404 -0.04102
-0.19123 0.11404 -0.12367
-0.15572 0.11404 -0.06953
-0.27478 0.11404 -0.33578
-0.13292 0.11404 -0.09145
-0.15928 0.11404 -0.03614
-0.20371 0.11404 -0.17041
-0.28106 0.11404 -0.25678
-0.26010 0.11404 -0.22247
-0.11431 0.11404 -0.00860
-0.28824 0.11404 -0.13753
-0.28752 0.11404 -0.35484
-0.08896 0.11404 -0.01047
-0.28506 0.11404 -0.03725
-0.26032 0.11404 -0.08356
-0.19016 0.11404 -0.01620
-0.24665 0.11404 -0.26328
-0.28608 0.11404 -0.27699
-0.28805 0.11404 -0.01481
-0.28854 0.11404 -0.21942
-0.26900 0.11404 -0.32268
-0.13078 0.11404 -0.04804
-0.25973 0.11404 -0.25639
-0.05600 -0.03801 -0.33970
-0.07379 -0.03801 -0.33560
-0.08418 -0.03801 -0.33530
0.00043 0.03178 0.34213
0.26251 -0.00029 -0.38014
0.27169 0.04078 -0.38014
0.26582 0.09838 -0.38014
0.22435 0.04240 -0.38014
0.12208 0.07793 -0.38014
0.27454 0.07577 -0.38014
0.09136 0.10167 -0.38014
0.12358 0.11100 -0.38014
0.25211 0.10767 -0.38014
0.08792 0.09002 -0.38014
0.29218 0.10760 -0.38014
0.25094 0.08002 -0.38014
0.14491 0.10102 -0.38014
0.17351 0.11347 -0.38014
0.25888 0.09206 -0.38014
0.21774 0.06679 -0.38014
0.19522 0.10567 -0.38014
0.29731 0.06766 -0.38014
0.13220 -0.03801 0.09459
0.06112 -0.03801 -0.09317
0.03744 -0.03801 -0.29769
0.14640 -0.03801 0.09368
0.03809 -0.03801 -0.18561
0.07248 -0.03801 -0.17060
0.19561 -0.03801 -0.03776
0.20998 -0.03801 -0.05102
0.02992 -0.03801 -0.16797
0.12734 -0.03801 -0.18668
0.10619 -0.03801 -0.30313
-0.00496 -0.03801 -0.18977
-0.00455 -0.03801 -0.02865
-0.07237 -0.03801 -0.21740
-0.12229 -0.03801 -0.29110
0.21594 -0.03801 0.00169
0.21949 -0.03801 0.06694
0.04024 -0.03801 -0.09142
0.19036 -0.03801 -0.11650
0.22716 -0.03801 -0.28504
0.15315 -0.03801 0.08878
0.13050 -0.03801 -0.17187
-0.18112 -0.03801 -0.27937
0.17208 -0.03801 0.16637
0.17416 -0.03801 -0.10331
0.06236 -0.03801 -0.21069
0.10696 -0.03801 -0.09809
0.13613 -0.03801 0.11857
0.16484 -0.03801 -0.14393
0.20990 -0.03801 0.27246
0.14504 -0.03801 -0.24394
-0.02914 -0.03801 -0.20753
0.19823 -0.03801 0.09456
0.19335 -0.03801 -0.08701
0.08234 -0.03801 0.02840
0.12257 -0.03801 -0.04337
0.15995 -0.03801 -0.11215
0.07370 -0.03801 -0.12813
0.15385 -0.03801 -0.17781
0.21332 -0.03801 -0.18109
0.18232 -0.03801 -0.00551
-0.12098 -0.03801 -0.23175
0.07125 -0.03801 -0.15871
0.04879 -0.03801 -0.26444
0.08271 -0.03801 -0.26347
0.19374 -0.03801 0.19889
-0.15006 -0.03801 -0.30295
0.01278 -0.03801 -0.10154
0.19204 -0.03801 -0.07811
0.06695 -0.03801 -0.08425
0.00260 -0.03801 -0.17245
0.17591 -0.03801 -0.04840
0.05376 -0.03801 -0.05029
0.20249 -0.03801 -0.08262
0.10769 -0.03801 0.08394
0.04004 -0.03801 -0.27547
0.22412 -0.03801 -0.01119
0.15366 -0.03801 0.03790
-0.02541 -0.03801 -0.30042
-0.15120 -0.03801 -0.25858
-0.13453 -0.03801 -0.21609
-0.01932 -0.03801 -0.10350
0.16872 -0.03801 0.01634
-0.11499 -0.03801 -0.29114
0.11522 -0.03801 0.05970
0.02478 -0.03801 -0.29849
0.08644 -0.03801 0.11262
-0.02537 -0.03801 -0.25662
0.19668 -0.03801 -0.27039
0.19339 -0.03801 0.18547
0.19499 -0.03801 -0.14625
0.22743 -0.03801 -0.19276
0.15166 -0.03801 -0.29721
0.21002 -0.03801 -0.29766
0.12245 -0.03801 -0.28485
-0.02479 -0.03801 -0.28627
0.01023 -0.03801 -0.03438
-0.02349 -0.03801 -0.08041
0.22305 -0.03801 -0.01892
-0.01963 -0.03801 -0.23715
0.19967 -0.03801 -0.19837
0.03422 -0.03801 -0.27390
0.12701 -0.03801 0.00226
-0.03240 -0.03801 -0.15183
-0.08745 -0.03801 -0.24686
-0.13529 -0.03801 -0.20552
-0.16045 -0.03801 -0.26322
0.22737 -0.03801 0.26703
0.16830 -0.03801 -0.16926
-0.17681 -0.03801 -0.23610
0.01028 -0.03801 -0.23153
0.00003 -0.03801 -0.28627
-0.07955 -0.03801 -0.23058
0.19306 -0.03801 0.01057
0.12683 -0.03801 0.16156
0.05413 -0.03801 -0.09092
0.14921 -0.03801 0.01862
-0.04587 -0.03801 -0.18515
0.13554 -0.03801 -0.06154
0.17180 -0.03801 -0.24846
0.18193 -0.03801 -0.18376
0.04649 -0.03801 -0.17153
0.09142 -0.03801 0.10522
0.00760 0.09821 0.24540
0.00760 0.10671 0.24432
0.00760 0.10454 0.12554
0.00760 0.08468 0.28377
0.00760 0.10601 0.31143
0.30411 -0.00523 0.29467
0.30411 0.00679 0.11995
0.30411 0.10240 0.36051
0.30411 0.00224 0.27348
0.30411 0.09192 0.37586
0.30411 -0.01264 0.30283
0.30411 -0.03019 0.33374
0.30411 0.00413 0.20361
0.30411 0.04462 0.32603
0.30411 0.05796 0.33785
0.30411 0.04209 0.37855
0.30411 0.03132 0.31379
0.30411 0.06220 0.26033
0.30411 0.01220 0.25752
0.30411 -0.01102 0.16183
0.30411 0.00595 0.18211
0.30411 0.02066 0.20089
0.30411 -0.03213 0.22345
0.30411 -0.00946 0.33020
0.30411 0.00696 0.19297
0.30411 0.05665 0.29564
-0.02656 0.11404 0.30228
-0.07883 0.11404 0.16380
-0.17337 0.11404 0.08665
-0.14841 0.11404 0.08963
-0.22418 0.11404 0.02584
-0.25803 0.11404 0.03532
-0.10941 0.11404 0.22059
-0.06668 0.11404 0.14470
-0.02664 0.11404 0.17084
-0.09612 0.11404 0.11599
-0.12001 0.11404 0.14012
-0.22476 0.11404 0.01349
-0.01789 0.11404 0.26039
-0.04654 0.11404 0.15273
-0.09329 0.11404 0.13833
-0.07032 0.11404 0.19749
-0.09513 0.11404 0.07633
-0.07283 0.11404 0.02669
-0.05438 0.11404 0.12212
-0.12664 0.11404 0.08667
-0.19936 0.11404 0.03251
-0.14932 0.11404 0.05646
-0.02286 0.11404 0.15606
-0.21697 0.11404 0.11395
-0.04533 0.11404 0.27978
-0.10516 0.11404 0.10282
-0.06086 0.11404 0.22278
-0.20154 0.11404 0.11971
-0.10702 0.11404 0.04514
-0.07765 0.11404 0.18931
-0.10744 0.11404 0.21438
-0.04378 0.11404 0.24265
-0.13133 0.11404 0.21097
-0.13727 0.11404 0.07767
-0.08381 0.11404 0.02501
-0.11937 0.11404 0.19677
-0.12936 0.11404 0.01498
-0.21764 0.11404 0.07082
-0.18361 0.11404 0.15249
-0.23515 0.11404 0.01567
-0.15662 0.11404 0.05817
-0.28547 0.08897 0.00760
-0.29633 0.09284 0.00760
-0.08270 0.11404 0.08333
-0.02723 0.11404 0.06845
-0.08898 0.11404 0.01218
-0.02979 0.11404 0.23674
-0.02639 0.11404 0.10244
-0.01106 0.11404 0.03865
-0.08004 0.11404 0.21738
-0.03884 0.11404 0.22618
-0.14858 0.11404 0.11169
-0.11305 0.11404 0.08495
-0.01176 0.11404 0.02955
-0.09087 0.11404 0.10192
-0.22226 0.11404 0.05756
-0.08186 0.11404 0.24861
-0.14326 0.11404 0.01601
-0.10870 0.11404 0.22690
-0.22278 0.11404 0.10794
-0.00916 0.11404 0.14106
-0.21255 0.11404 0.01222
-0.02547 0.11404 0.19223
-0.01825 0.11404 0.05919
-0.01875 0.11404 0.11064
-0.09355 0.11404 0.12781
-0.26014 0.11404 0.05183
-0.17568 0.11404 0.14597
-0.08678 0.11404 0.06985
-0.05054 0.11404 0.30414
-0.07366 0.11404 0.17687
-0.17462 0.11404 0.05984
-0.04994 0.11404 0.06027
-0.01333 0.11404 0.11339
-0.22933 0.11404 0.04682
-0.01333 0.11404 0.20457
-0.14947 0.11404 0.17833
-0.05154 0.11404 0.22468
-0.08203 0.11404 0.21124
-0.06340 0.11404 0.23317
-0.14630 0.11404 0.04399
-0.04903 0.11404 0.10815
-0.06607 0.11404 0.01616
0.19249 0.07603 0.00612
-0.29976 0.02528 0.38014
-0.27708 -0.00507 0.38014
-0.13385 0.10578 0.38014
-0.11513 0.09074 0.38014
-0.29251 0.00407 0.38014
-0.25556 -0.00611 0.38014
-0.20322 0.05439 0.38014
-0.29464 0.01243 0.38014
-0.25072 0.00528 0.38014
-0.27664 0.05153 0.38014
-0.03591 0.10178 0.38014
-0.21821 0.07507 0.38014
-0.08420 0.11096 0.38014
-0.28468 0.03625 0.38014
-0.24430 0.03990 0.38014
-0.24552 0.04626 0.38014
-0.15902 0.05551 0.38014
-0.08645 0.08381 0.38014
0.17604 0.07603 -0.00170
-0.27852 -0.03801 0.22046
-0.27928 -0.03801 0.23211
-0.28519 -0.03801 0.33658
-0.27827 -0.03801 0.26633
-0.24349 -0.03801 0.25095
-0.26710 -0.03801 0.30685
-0.28886 -0.03801 0.24942
-0.07641 0.11148 -0.00760
-0.20111 0.11156 -0.00760
-0.18065 0.11026 -0.00760
-0.21413 0.09185 -0.00760
-0.26788 0.10574 -0.00760
0.20804 0.10942 -0.00760
0.08417 0.08687 -0.00760
0.23276 0.11032 -0.00760
0.00925 0.10959 -0.00760
0.05859 -0.00679 0.38014
0.03067 0.06942 0.38014
0.09073 0.10776 0.38014
0.12163 0.09577 0.38014
0.18176 0.08266 0.38014
0.16465 0.08046 0.38014
0.20428 0.08605 0.38014
0.12184 0.04704 0.38014
0.08170 0.07769 0.38014
0.03765 -0.01503 0.38014
0.15542 0.07918 0.38014
0.17108 0.09955 0.38014
0.16345 0.10847 0.38014
0.08934 0.05954 0.38014
0.10607 0.02740 0.38014
0.04802 0.03447 0.38014
0.16388 0.06726 0.38014
0.16817 0.06380 0.38014
0.06694 0.08179 -0.00760
0.13334 0.08226 -0.00760
0.19491 0.09431 -0.00760
0.20749 0.07852 -0.00760
-0.00760 0.04775 0.36428
-0.00760 -0.02885 0.35202
0.00760 0.05589 0.35443
0.00760 0.06284 0.35411
-0.22809 -0.04768 -0.21723
-0.22809 -0.05101 -0.16543
-0.22809 -0.07826 -0.18404
-0.22809 -0.07251 -0.30139
-0.22809 -0.05666 -0.06356
-0.22809 -0.05062 0.01441
-0.22809 -0.05417 -0.14622
-0.22809 -0.04955 -0.20391
-0.22809 -0.04600 -0.28776
-0.22809 -0.07309 0.02139
-0.22809 -0.05050 0.18572
-0.22809 -0.05152 -0.26961
-0.22809 -0.05139 0.07182
-0.22809 -0.08531 -0.28603
-0.22809 -0.09601 -0.24224
-0.22809 -0.04463 0.13705
0.00760 0.03636 -0.34534
0.02853 0.11404 0.28206
0.17577 0.11404 0.34173
0.26005 0.11404 0.33899
0.24053 0.11404 0.34460
0.08577 0.11404 0.36799
0.07314 0.11404 0.36116
0.06052 0.11404 0.10427
0.08848 0.11404 0.21441
0.14086 0.11404 0.33381
0.28220 0.11404 0.37776
0.09606 0.11404 0.35853
0.14649 0.11404 0.37367
0.04596 0.11404 0.14297
0.21378 0.11404 0.34963
0.20787 0.11404 0.31801
0.20005 0.11404 0.27913
0.05880 0.11404 0.18390
0.12107 0.11404 0.22877
0.08787 0.11404 0.26568
0.05162 0.11404 0.20851
0.02626 0.11404 0.18585
0.10767 0.11404 0.16434
0.19367 0.11404 0.31852
0.05055 0.11404 0.22307
0.14000 0.11404 0.19554
0.12443 0.11404 0.38000
0.02121 0.11404 0.08989
0.12104 0.11404 0.17402
0.12346 0.11404 0.34257
0.03958 0.11404 0.30985
0.18169 0.11404 0.34642
0.07862 0.11404 0.13024
0.01876 0.11404 0.21805
0.03755 0.11404 0.14285
0.06563 0.11404 0.30507
0.11111 0.11404 0.31445
0.01823 0.11404 0.31747
0.23016 0.11404 0.34344
0.10432 0.11404 0.17666
0.05195 0.11404 0.08414
0.03695 0.11404 0.17477
0.06977 0.11404 0.31618
0.06783 0.11404 0.17546
-0.00761 0.08990 -0.29425
-0.00760 0.10579 -0.16159
-0.00760 0.10585 -0.28625
-0.00760 0.10276 -0.17545
0.07765 -0.08173 0.30412
0.18016 -0.04291 0.30412
0.12061 -0.08564 0.30412
-0.09311 -0.04015 0.30412
0.05170 -0.06811 0.30412
0.12474 -0.08925 0.30412
0.21688 -0.08538 0.30412
0.14053 -0.07774 0.30412
-0.00443 -0.04929 0.30412
0.01536 -0.04125 0.30412
0.09913 -0.08374 0.30412
0.03506 -0.07278 0.30412
0.00616 -0.07240 0.30412
0.12697 -0.09527 0.30412
0.30411 0.10873 -0.14290
0.30411 0.01976 -0.26615
0.30411 0.00505 -0.31313
0.30411 0.04103 -0.28369
0.30411 0.11271 -0.25480
0.30411 0.07487 -0.13602
0.30411 0.10360 -0.30794
0.30411 0.09346 -0.13444
0.30411 0.09370 -0.23942
0.30411 0.05476 -0.37035
0.30411 0.06230 -0.20233
0.30411 0.06336 -0.24764
0.30411 0.08531 -0.20386
0.30411 0.01036 -0.30873
0.30411 0.06055 -0.22286
0.30411 0.05060 -0.25135
0.30411 0.11126 -0.36155
0.30411 0.07804 -0.11703
0.30411 0.06909 -0.12630
0.30411 0.07044 -0.19221
0.30411 0.05933 -0.15736
0.30411 0.04811 -0.36088
-0.00972 0.08067 -0.00760
-0.08753 0.07644 -0.00760
-0.09651 0.09311 -0.00760
-0.06039 0.08088 -0.00760
-0.30411 0.07197 -0.36081
-0.30411 0.07037 -0.37472
-0.30411 0.01281 -0.26685
-0.30411 -0.00410 -0.34878
-0.30411 -0.03325 -0.03350
-0.30411 0.00264 -0.11263
-0.30411 0.02714 -0.26219
-0.30411 -0.01372 -0.24757
-0.30411 0.01308 -0.33800
-0.30411 0.08352 -0.35556
-0.30411 -0.03604 -0.15140
-0.30411 0.07536 -0.34402
-0.30411 -0.03054 -0.22330
-0.30411 -0.00031 -0.26961
-0.30411 0.06022 -0.36775
-0.30411 0.04071 -0.32706
-0.30411 -0.02905 -0.33463
-0.30411 -0.01857 -0.17869
-0.30411 0.04472 -0.34970
-0.30411 -0.03779 -0.25577
-0.30411 0.02880 -0.21078
-0.24535 -0.01709 0.38014
-0.07349 -0.01513 0.38014
-0.02502 0.05734 0.38014
-0.07158 -0.02285 0.38014
-0.01793 0.08952 0.38014
-0.04507 -0.00460 0.38014
-0.13270 0.00121 0.38014
-0.13439 0.00740 0.38014
-0.06162 0.03583 0.38014
-0.15820 0.00539 0.38014
-0.03726 0.05204 0.38014
-0.10876 -0.01520 0.38014
-0.11506 -0.02084 0.38014
-0.17027 -0.00543 0.38014
-0.02042 -0.00559 0.38014
-0.12263 -0.02847 0.38014
-0.02636 -0.03775 0.38014
-0.18848 0.01190 0.38014
0.21145 -0.03801 -0.33364
0.12040 -0.03801 -0.34786
0.19855 -0.03801 -0.31317
0.24024 -0.03801 -0.35022
0.21312 -0.03801 -0.34725
0.09372 -0.03801 -0.34083
0.12666 -0.03801 -0.32982
0.23118 -0.03801 -0.35509
-0.27720 -0.03801 -0.06861
-0.23436 -0.03801 -0.26312
-0.24215 -0.03801 -0.22143
-0.25090 -0.03801 -0.17342
-0.00760 0.09941 0.18872
-0.00760 0.09238 0.30507
-0.00760 0.09178 0.25839
-0.00760 0.11045 0.06920
-0.00760 0.10978 0.34499
-0.00760 0.10460 0.32929
0.09127 0.11404 -0.29947
0.25439 0.11404 -0.37456
0.24130 0.11404 -0.14883
0.09655 0.11404 -0.34938
0.14711 0.11404 -0.25163
0.27046 0.11404 -0.19521
0.24091 0.11404 -0.19345
0.30404 0.11404 -0.17939
0.27128 0.11404 -0.17977
0.18945 0.11404 -0.17042
0.23157 0.11404 -0.15951
0.21118 0.11404 -0.27656
0.16548 0.11404 -0.37305
0.25116 0.11404 -0.13393
0.17319 0.11404 -0.37048
0.27960 0.11404 -0.05599
0.02786 0.11404 -0.36731
0.19560 0.11404 -0.31577
0.22496 0.11404 -0.29544
0.18987 0.11404 -0.21390
0.25998 0.11404 -0.16122
0.25544 0.11404 -0.36623
0.07316 0.11404 -0.32534
0.22436 0.11404 -0.11691
0.16997 0.11404 -0.28578
0.21710 0.11404 -0.20939
0.13712 0.11404 -0.32531
0.27020 0.11404 -0.33577
0.22689 0.11404 -0.30633
0.29481 0.11404 -0.02783
0.15447 0.11404 -0.21884
0.17603 0.11404 -0.23623
0.17187 0.11404 -0.35085
0.26404 0.11404 -0.28994
0.10975 0.11404 -0.28737
0.28880 0.11404 -0.33234
0.19729 0.11404 -0.15851
0.15119 0.11404 -0.25722
0.13330 0.11404 -0.23056
0.22284 0.11404 -0.16799
0.24201 0.11404 -0.25074
0.15943 0.11404 -0.28582
0.19971 0.11404 -0.35789
0.00760 0.08633 0.19249
0.00760 0.09234 0.04941
0.00760 0.09083 0.13418
0.00760 0.09623 0.01453
0.00760 0.09095 0.04205
-0.00760 0.11129 0.22147
-0.00760 0.08801 0.24823
-0.00760 0.10166 0.29727
-0.00760 0.10681 0.09941
0.28435 -0.02732 0.00760
0.22809 -0.09763 -0.07888
0.22809 -0.08046 -0.26191
0.22809 -0.09491 -0.14338
0.22809 -0.07080 -0.10861
0.22809 -0.10722 -0.03221
0.22809 -0.10465 0.04316
0.22809 -0.10292 -0.28898
0.22809 -0.11391 -0.10961
0.22809 -0.05707 -0.28416
0.22809 -0.08980 -0.22994
0.22809 -0.06485 -0.23761
0.22809 -0.10970 0.15544
0.22809 -0.10914 -0.28244
0.22809 -0.05533 -0.25627
0.22809 -0.08695 0.04696
0.22809 -0.08419 -0.06380
0.22809 -0.07008 -0.07855
0.22809 -0.07406 -0.11698
-0.14708 -0.03801 0.19059
-0.22357 -0.03801 -0.21989
0.01027 -0.03801 0.06253
0.05069 -0.03801 0.22603
-0.11886 -0.03801 0.21474
0.03907 -0.03801 0.09286
-0.17074 -0.03801 0.25812
-0.02812 -0.03801 0.01711
0.04294 -0.03801 0.15785
-0.09974 -0.03801 0.17007
0.02380 -0.03801 0.20665
-0.19274 -0.03801 0.12196
-0.03876 -0.03801 0.24739
-0.19685 -0.03801 0.00612
0.01920 -0.03801 0.27027
-0.20021 -0.03801 -0.10201
-0.20762 -0.03801 -0.05874
-0.06411 -0.03801 0.21174
-0.04536 -0.03801 0.24443
-0.17813 -0.03801 0.21297
-0.00876 -0.03801 0.29089
-0.22152 -0.03801 0.07904
-0.20104 -0.03801 0.28931
-0.17252 -0.03801 0.16116
-0.16890 -0.03801 0.10212
-0.21343 -0.03801 -0.12006
0.05106 -0.03801 0.27039
0.17756 -0.03801 0.25521
0.05016 -0.03801 0.08793
-0.21545 -0.03801 0.27258
-0.19796 -0.03801 -0.04123
-0.01301 -0.03801 0.05185
-0.17253 -0.03801 0.00008
-0.03640 -0.03801 0.11520
-0.03924 -0.03801 -0.00982
-0.01604 -0.03801 0.16723
-0.20855 -0.03801 -0.25784
-0.08586 -0.03801 0.03962
-0.08497 -0.03801 0.14161
-0.06019 -0.03801 0.03436
-0.10586 -0.03801 0.15751
-0.05951 -0.03801 -0.05176
-0.01372 -0.03801 0.28431
-0.18155 -0.03801 0.26682
-0.19193 -0.03801 -0.06238
-0.22118 -0.03801 -0.24870
-0.10342 -0.03801 0.10666
0.11152 -0.03801 0.22887
0.16366 -0.03801 0.30199
-0.17334 -0.03801 -0.21235
0.00510 -0.03801 0.20616
-0.10431 -0.03801 0.11908
-0.12253 -0.03801 0.27225
-0.18182 -0.03801 0.25340
-0.07779 -0.03801 -0.03015
0.01355 -0.03801 0.18788
-0.09150 -0.03801 0.07352
-0.05186 -0.03801 0.10457
-0.17620 -0.03801 -0.10523
-0.16963 -0.03801 0.04518
-0.18422 -0.03801 -0.21462
-0.13498 -0.03801 -0.00782
-0.00132 -0.03801 0.13069
-0.18553 -0.03801 -0.03975
-0.14114 -0.03801 0.02612
-0.14549 -0.03801 0.06980
0.02454 -0.03801 0.04385
0.04256 -0.03801 0.10484
-0.08614 -0.03801 0.22019
0.09313 -0.03801 0.28453
-0.08626 -0.03801 0.02340
0.14440 -0.03801 0.20284
-0.13063 -0.03801 -0.02722
0.04994 -0.03801 0.13859
-0.13967 -0.03801 -0.11845
-0.08211 -0.03801 -0.09510
-0.12043 -0.03801 0.06517
-0.06399 -0.03801 0.27456
-0.16778 -0.03801 -0.08430
-0.05401 -0.03801 0.30308
-0.16221 -0.03801 0.20324
-0.06878 -0.03801 0.01240
-0.11870 -0.03801 -0.12020
-0.12420 -0.03801 0.26272
-0.14063 -0.03801 0.13319
-0.15097 -0.03801 -0.07339
0.09965 -0.03801 0.14807
-0.04241 -0.03801 0.10263
0.03784 -0.03801 0.26348
-0.20785 -0.03801 0.11768
0.11291 -0.03801 0.17324
-0.18039 -0.03801 0.22737
-0.05183 -0.03801 0.16727
-0.19675 -0.03801 0.01315
-0.22152 -0.03801 -0.13229
-0.06978 -0.03801 -0.04042
-0.15514 -0.03801 -0.08530
0.10618 -0.03801 0.20082
0.02370 -0.03801 0.17967
-0.16081 -0.03801 0.26259
-0.14633 -0.03801 0.00255
-0.02166 -0.03801 0.24630
0.04377 -0.03801 0.12432
-0.17496 -0.03801 -0.06959
0.07735 -0.03801 0.11036
-0.00742 0.03972 0.34213
0.30411 0.06569 -0.23688
0.30411 -0.03027 -0.36218
0.30411 -0.00679 -0.30713
0.30411 0.06912 -0.13524
0.30411 0.08988 -0.15999
0.30411 0.08982 -0.30782
0.30411 0.07180 -0.26034
0.30411 0.01993 -0.27609
0.30411 0.09058 -0.28587
0.30411 0.04213 -0.20233
0.30411 0.08784 -0.19801
0.30411 0.06093 -0.33559
0.30411 -0.00137 -0.37295
0.30411 0.06763 -0.23014
0.30411 0.05366 -0.30910
0.30411 0.03353 -0.36788
0.30411 0.10068 -0.20207
0.30411 0.05914 -0.31289
0.30411 -0.01297 -0.33667
0.30411 0.09833 -0.33695
0.27921 -0.03801 -0.25520
0.24592 -0.03801 -0.09910
0.23075 -0.03801 0.14077
0.24547 -0.03801 -0.26037
0.24091 -0.03801 -0.27915
0.26928 -0.03801 -0.31476
0.24027 -0.03801 0.12420
0.26680 -0.03801 -0.12211
0.23864 -0.03801 -0.18619
0.23431 -0.03801 0.18695
0.29606 -0.03801 -0.31082
0.25275 -0.03801 -0.05587
0.28092 -0.03801 -0.21191
0.24921 -0.03801 -0.14985
0.25283 -0.03801 -0.13515
0.23941 -0.03801 -0.13868
-0.23555 0.05963 0.38014
-0.26190 0.09350 0.38014
-0.26885 0.07115 0.38014
-0.10356 0.06706 0.38014
-0.24404 0.00050 0.38014
-0.26538 -0.01312 0.38014
-0.21907 0.10650 0.38014
-0.24311 -0.00528 0.38014
-0.15060 0.10940 0.38014
-0.02377 0.11229 0.38014
-0.22859 0.02915 0.38014
-0.22137 0.07950 0.38014
-0.28906 0.07387 0.38014
-0.13453 0.09553 0.38014
-0.19929 0.06909 0.38014
-0.19168 0.02671 0.38014
-0.30404 -0.01846 0.38014
-0.24930 0.08726 0.00760
-0.13987 0.08871 0.00760
-0.25125 0.10019 0.00760
-0.27107 0.08578 0.00760
0.26610 0.00124 0.00139
0.08631 -0.11404 -0.25768
0.11406 -0.11404 0.05873
0.22360 -0.11404 0.23294
-0.04034 -0.11404 -0.16262
0.21566 -0.11404 0.14478
0.08171 -0.11404 0.05805
0.14443 -0.11404 -0.23064
-0.11130 -0.11404 -0.15073
0.03244 -0.11404 -0.01881
0.20239 -0.11404 -0.27011
0.11931 -0.11404 -0.19858
0.08172 -0.11404 0.03081
0.14178 -0.11404 0.12752
-0.00904 -0.11404 -0.05446
-0.13512 -0.11404 -0.22025
0.08797 -0.11404 -0.16082
0.13911 -0.11404 -0.00308
0.08985 -0.11404 -0.05965
0.19016 -0.11404 -0.00145
-0.01412 -0.11404 -0.25238
0.17717 -0.11404 -0.04574
0.08127 -0.11404 -0.26832
-0.09267 -0.11404 -0.23684
0.17247 -0.11404 -0.06939
0.15161 -0.11404 -0.25157
0.09669 -0.11404 -0.15337
-0.10100 -0.11404 -0.15625
0.19286 -0.11404 -0.04006
0.13535 -0.11404 -0.06186
0.18454 -0.11404 -0.30332
0.11189 -0.11404 -0.21942
-0.06308 -0.11404 -0.13342
-0.11189 -0.11404 -0.24656
0.12441 -0.11404 -0.22017
0.13594 -0.11404 0.09849
0.17750 -0.11404 0.15063
0.05705 -0.11404 -0.19854
0.11307 -0.11404 -0.02720
0.01356 -0.11404 -0.21183
-0.08519 -0.11404 -0.25543
0.14622 -0.11404 0.18474
0.21952 -0.11404 0.12092
-0.01917 -0.11404 -0.22211
0.07506 -0.11404 0.01036
0.19843 -0.11404 -0.05632
0.01955 -0.11404 -0.06671
0.18875 -0.11404 0.24555
0.12586 -0.11404 -0.03178
0.08662 -0.11404 0.01349
0.22224 -0.11404 -0.06616
0.01547 -0.11404 -0.25124
0.03411 -0.11404 -0.14219
0.10363 -0.11404 0.12160
-0.02071 -0.11404 -0.10375
0.10390 -0.11404 -0.13380
0.17472 -0.11404 0.05605
0.14635 -0.11404 -0.24508
0.05480 -0.11404 0.02191
0.09515 -0.11404 -0.07556
-0.01356 -0.11404 -0.09099
0.07549 -0.11404 0.00206
0.18132 -0.11404 -0.19069
-0.13439 -0.11404 -0.27636
0.05416 -0.11404 -0.28330
0.18343 -0.11404 -0.07887
0.12603 -0.11404 -0.24527
-0.09568 -0.11404 -0.26056
0.01235 -0.11404 -0.18075
-0.07432 -0.11404 -0.13526
0.16798 -0.11404 0.08059
0.15357 -0.11404 0.15851
0.14239 -0.11404 -0.15077
-0.01685 -0.11404 -0.27609
0.08813 -0.11404 -0.13246
0.06196 -0.11404 -0.11581
0.04524 -0.11404 -0.04436
0.18559 -0.11404 0.11253
0.11239 -0.11404 -0.08045
0.13688 -0.11404 -0.27741
-0.03904 -0.11404 -0.06619
-0.15684 -0.11404 -0.25673
-0.07604 -0.11404 -0.30214
0.20388 -0.11404 -0.09847
0.09787 -0.11404 -0.19364
0.15641 -0.11404 -0.00579
-0.12081 -0.11404 -0.25263
-0.00542 -0.11404 -0.28300
0.17915 -0.11404 -0.25280
-0.12141 -0.11404 -0.16687
0.14289 -0.11404 -0.13133
0.16121 -0.11404 -0.07332
0.09729 -0.11404 -0.23751
0.18633 -0.11404 -0.02811
0.02306 -0.11404 -0.12817
0.00321 -0.11404 -0.24729
-0.04825 -0.11404 -0.26627
0.11646 -0.11404 -0.12521
0.00862 -0.11404 -0.25027
-0.01400 -0.11404 -0.16116
0.05743 -0.11404 0.04074
0.19338 -0.11404 -0.16492
0.12915 -0.11404 0.06735
-0.04010 0.11404 -0.30394
-0.03331 0.11404 -0.24141
-0.09775 0.11404 -0.24099
-0.15970 0.11404 -0.36466
-0.11267 0.11404 -0.33313
-0.12017 0.11404 -0.25094
-0.12177 0.11404 -0.31256
-0.01737 0.11404 -0.07674
-0.04730 0.11404 -0.14882
-0.05353 0.11404 -0.08749
-0.14050 0.11404 -0.31505
-0.15358 0.11404 -0.29760
-0.07287 0.11404 -0.23783
-0.15962 0.11404 -0.28794
-0.05283 0.11404 -0.14929
-0.10308 0.11404 -0.13289
-0.29821 0.11404 -0.37883
-0.13014 0.11404 -0.22493
-0.17341 0.11404 -0.35025
-0.12869 0.11404 -0.19530
-0.17028 0.11404 -0.30706
-0.16055 0.11404 -0.34914
-0.13410 0.11404 -0.25383
-0.24185 0.11404 -0.31152
-0.01743 0.11404 -0.29727
-0.01372 0.11404 -0.34414
-0.21006 0.11404 -0.29998
-0.01569 0.11404 -0.30694
-0.01806 0.11404 -0.32968
-0.03519 0.11404 -0.33058
-0.11073 0.11404 -0.15617
-0.20403 0.11404 -0.27731
-0.11830 0.11404 -0.37593
-0.17259 0.11404 -0.36648
-0.20492 0.11404 -0.25906
-0.09676 0.11404 -0.30443
-0.23417 0.11404 -0.36952
-0.11668 0.11404 -0.25834
-0.13706 0.11404 -0.26063
-0.03284 0.11404 -0.18487
-0.11972 0.11404 -0.33435
-0.17087 0.11404 -0.33217
-0.00761 0.00966 -0.37436
-0.00761 0.06868 -0.37719
-0.25748 -0.03801 -0.07368
0.00760 0.10848 -0.35290
0.00760 0.09472 -0.28673
0.00760 0.10223 -0.32167
0.00760 0.08096 -0.30807
0.00760 0.10457 -0.30836
-0.30411 0.01656 0.05092
-0.30411 0.06920 0.06443
-0.30411 0.00093 0.22134
-0.30411 0.02933 0.20609
-0.30411 -0.00838 0.23613
-0.30411 0.02303 0.08383
-0.30411 0.00071 0.14688
-0.30411 0.00451 0.00993
-0.30411 0.01238 0.14298
-0.30411 -0.03426 0.11826
-0.30411 0.05098 0.14901
-0.30411 -0.01205 0.01008
-0.30411 -0.01700 0.10666
-0.30411 0.05021 0.05020
-0.30411 -0.01285 0.24298
-0.30411 0.01011 0.11256
-0.30411 0.00185 0.21066
-0.30411 0.01930 0.21198
-0.30411 -0.03572 0.24454
-0.30411 -0.01363 0.27476
-0.30411 0.10475 0.01659
-0.30411 -0.02714 0.28577
-0.04206 -0.05727 -0.30411
-0.22752 -0.06242 -0.30411
0.00983 -0.04328 -0.30411
-0.19352 -0.03822 -0.30411
-0.21172 -0.05433 -0.30411
-0.10402 -0.08730 -0.30411
-0.08943 -0.07054 -0.30411
-0.16619 -0.07525 -0.30411
0.12627 -0.04677 -0.30411
-0.19972 -0.05847 -0.30411
0.02809 -0.06167 -0.30411
0.05250 -0.05521 -0.30411
-0.09946 -0.09076 -0.30411
-0.30035 -0.03801 0.00901
-0.29729 -0.03801 0.23650
-0.29705 -0.03801 0.25383
-0.28675 -0.03801 0.08734
-0.29970 -0.03801 0.28279
-0.28158 -0.03801 0.11253
0.00486 0.07603 0.05914
0.00118 0.07603 0.19405
0.00732 0.07603 0.02046
0.00608 0.07603 -0.10959
0.00760 0.08694 -0.06590
0.00760 0.09487 -0.02402
0.00760 0.11253 -0.02236
0.00760 0.09957 -0.06222
0.00760 0.10033 -0.16227
0.02885 -0.03801 0.33767
0.00760 0.10423 0.20102
0.00760 0.09087 0.29550
0.00760 0.10680 0.20719
0.00760 0.09559 0.20687
0.00760 0.09613 0.27035
0.27061 0.02568 -0.00760
0.27858 0.08517 -0.00760
0.02669 -0.03801 -0.37917
0.07789 -0.03801 -0.36479
0.18393 -0.03801 -0.36530
0.00977 0.08203 -0.00760
0.10695 0.10383 -0.00760
0.20405 0.10158 -0.00760
0.03463 0.09967 -0.00760
0.24395 0.10688 -0.00760
0.30411 0.00156 -0.22558
0.30411 -0.02018 -0.27953
0.30411 -0.00702 -0.22041
0.30411 -0.01390 -0.27183
0.30411 -0.00765 -0.16979
0.30411 0.04442 -0.05567
0.30411 0.01539 -0.18872
0.30411 -0.02874 -0.27200
0.30411 0.01553 -0.02256
0.30411 -0.02022 -0.11930
0.30411 0.06787 -0.06067
0.30411 0.04997 -0.07573
0.30411 0.01179 -0.08357
0.30411 0.03079 -0.10424
0.30411 0.02244 -0.17976
0.30411 0.06111 -0.04891
0.30411 0.02687 -0.12691
0.30411 -0.02895 -0.14535
0.30411 0.05477 -0.14982
0.30411 -0.01959 -0.11250
0.30411 -0.03783 -0.07793
0.30411 0.03568 -0.01525
0.02504 -0.03801 -0.16486
-0.03096 -0.03801 -0.24149
0.09546 -0.03801 -0.20394
0.08830 -0.03801 -0.04957
0.15985 -0.03801 -0.02930
0.16752 -0.03801 0.15402
0.22708 -0.03801 0.07912
0.06269 -0.03801 -0.04571
0.19141 -0.03801 -0.24928
0.11780 -0.03801 -0.21876
0.14321 -0.03801 -0.11454
0.21324 -0.03801 -0.05617
-0.00015 -0.03801 -0.25841
0.13234 -0.03801 0.03340
0.01402 -0.03801 -0.10749
0.03823 -0.03801 -0.03369
0.07515 -0.03801 -0.07738
0.12881 -0.03801 0.05046
0.21740 -0.03801 0.04223
0.21355 -0.03801 0.24302
-0.15196 -0.03801 -0.28558
0.22364 -0.03801 -0.25533
-0.00434 -0.03801 -0.17354
0.09202 -0.03801 0.03002
0.05575 -0.03801 -0.11605
0.17969 -0.03801 0.16648
0.17628 -0.03801 0.02294
0.15427 -0.03801 0.03114
-0.12641 -0.03801 -0.26553
0.00342 -0.03801 -0.21359
0.21598 -0.03801 0.23412
0.20220 -0.03801 -0.23035
0.03921 -0.03801 -0.16047
0.07507 -0.03801 -0.06000
-0.02550 -0.03801 -0.21734
-0.08090 -0.03801 -0.24589
-0.09167 -0.03801 -0.29448
0.06912 -0.03801 0.04146
0.16024 -0.03801 -0.27257
0.20963 -0.03801 0.11350
0.04420 -0.03801 -0.22926
0.20186 -0.03801 0.18040
-0.07669 -0.03801 -0.10423
0.22095 -0.03801 -0.28042
0.20306 -0.03801 -0.03657
0.14773 -0.03801 -0.18966
0.11642 -0.03801 0.09114
0.14685 -0.03801 -0.00130
0.18576 -0.03801 0.11541
0.12231 -0.03801 -0.22928
-0.08758 -0.03801 -0.16375
0.03399 -0.03801 -0.24304
0.06035 -0.03801 -0.01284
0.04209 -0.03801 0.01114
0.17768 -0.03801 0.00521
0.20687 -0.03801 0.16024
0.18203 -0.03801 -0.21077
0.03037 -0.03801 -0.17596
0.09582 -0.03801 -0.17209
0.19170 -0.03801 0.24673
0.05219 -0.03801 -0.24292
0.07526 -0.03801 -0.24920
0.04327 -0.03801 -0.29382
0.21867 -0.03801 0.21464
0.03638 -0.03801 -0.00995
0.16987 -0.03801 -0.18829
0.13886 -0.03801 -0.11072
0.10305 -0.03801 0.07111
-0.01141 -0.03801 -0.04206
-0.08361 -0.03801 -0.20895
0.15443 -0.03801 -0.12072
0.12034 -0.03801 0.15528
-0.09330 -0.03801 -0.28075
0.15738 -0.03801 0.13148
-0.05137 -0.03801 -0.10289
0.07769 -0.03801 0.10006
-0.07416 -0.03801 -0.23342
-0.10190 -0.03801 -0.27630
0.07462 -0.03801 -0.15059
-0.03020 -0.03801 -0.09665
0.08000 -0.03801 -0.02625
0.06328 -0.03801 0.00387
0.01707 -0.03801 -0.28316
0.16517 -0.03801 -0.15644
0.14771 -0.03801 -0.02337
0.16257 -0.03801 0.10124
-0.07946 -0.03801 -0.18576
0.00625 -0.03801 -0.14717
-0.05607 -0.03801 -0.20466
0.16328 -0.03801 -0.18133
0.11642 -0.03801 -0.26708
0.09527 -0.03801 -0.21457
0.16474 -0.03801 -0.14934
0.19767 -0.03801 -0.10393
0.08621 -0.03801 -0.12118
-0.05755 -0.03801 -0.23995
-0.15977 -0.03801 -0.29194
0.12358 -0.03801 -0.15292
0.03586 -0.03801 -0.16494
0.19704 -0.03801 0.02256
-0.04665 -0.03801 -0.12506
-0.22723 -0.11404 -0.10006
0.01671 -0.11404 0.02745
-0.18811 -0.11404 0.20258
0.12028 -0.11404 0.24855
0.11446 -0.11404 0.15488
-0.16952 -0.11404 -0.01145
0.02669 -0.11404 0.17378
-0.20569 -0.11404 0.24365
-0.07426 -0.11404 0.02534
0.02995 -0.11404 0.24471
-0.12877 -0.11404 0.21380
-0.18613 -0.11404 -0.07896
-0.15632 -0.11404 -0.09125
0.01814 -0.11404 0.17650
-0.16507 -0.11404 0.23874
0.07646 -0.11404 0.12514
-0.18094 -0.11404 -0.16409
-0.05929 -0.11404 0.13064
-0.20561 -0.11404 -0.05257
-0.21821 -0.11404 0.05494
-0.20973 -0.11404 -0.14730
-0.19604 -0.11404 -0.22506
0.13019 -0.11404 0.24344
-0.06511 -0.11404 0.27078
-0.15431 -0.11404 0.00427
0.03223 -0.11404 0.13834
-0.01180 -0.11404 0.01341
0.13302 -0.11404 0.23377
0.14028 -0.11404 0.22813
0.14776 -0.11404 0.28600
-0.01829 -0.11404 0.14476
0.00159 -0.11404 0.11357
-0.21492 -0.11404 -0.12768
-0.03977 -0.11404 0.19704
0.04579 -0.11404 0.06118
-0.19240 -0.11404 0.04274
-0.16062 -0.11404 -0.05516
-0.02605 -0.11404 0.10923
-0.07370 -0.11404 0.25342
-0.01144 -0.11404 0.08433
-0.01206 -0.11404 0.21410
-0.21199 -0.11404 0.27618
-0.16618 -0.11404 -0.12273
0.06093 -0.11404 0.24516
0.20696 -0.11404 0.29145
-0.20272 -0.11404 -0.21619
-0.07015 -0.11404 0.21133
-0.12666 -0.11404 0.17546
-0.09686 -0.11404 -0.03022
-0.18356 -0.11404 -0.14766
0.11954 -0.11404 0.15958
-0.09811 -0.11404 -0.03862
-0.09507 -0.11404 0.14778
0.10187 -0.11404 0.14291
-0.18107 -0.11404 0.26909
-0.05828 -0.11404 0.03009
-0.14204 -0.11404 -0.15496
-0.12978 -0.11404 0.09385
-0.03944 -0.11404 -0.03426
0.01769 -0.11404 0.14547
-0.18107 -0.11404 -0.04579
-0.19136 -0.11404 0.24226
0.16044 -0.11404 0.22963
-0.21853 -0.11404 -0.11162
0.09425 -0.11404 0.28369
-0.13769 -0.11404 0.02002
-0.07101 -0.11404 0.23521
0.04474 -0.11404 0.23383
-0.02185 -0.11404 0.09979
-0.19628 -0.11404 -0.04127
0.09306 -0.11404 0.18641
-0.19029 -0.11404 0.10039
-0.22192 -0.11404 0.19416
-0.21121 -0.11404 0.05085
-0.08094 -0.11404 0.01958
-0.12738 -0.11404 -0.00580
-0.05185 -0.11404 0.19545
0.09832 -0.11404 0.20718
0.03749 -0.11404 0.14057
-0.21634 -0.11404 0.10928
0.01477 -0.11404 0.04469
-0.09941 -0.11404 -0.05891
-0.12059 -0.11404 0.04678
-0.20333 -0.11404 -0.25143
-0.12575 -0.11404 0.23885
-0.00771 -0.11404 0.27780
-0.04825 -0.11404 0.04287
-0.22681 -0.11404 -0.27594
-0.14725 -0.11404 0.01950
-0.22431 -0.11404 0.27060
-0.21347 -0.11404 -0.22376
-0.17302 -0.11404 -0.19071
-0.21326 -0.11404 0.20403
-0.07395 -0.11404 -0.01771
0.00023 -0.11404 0.20560
-0.21737 -0.11404 0.27728
-0.13588 -0.11404 0.18034
0.01295 -0.11404 0.20035
-0.11943 -0.11404 -0.00759
0.03633 -0.11404 0.17472
-0.09889 -0.11404 0.06723
-0.21755 -0.11404 0.08474
-0.20724 -0.11404 -0.09634
-0.04812 -0.11404 0.23872
-0.11698 -0.11404 0.13734
-0.19843 -0.11404 -0.14986
0.09519 -0.11404 0.22489
0.25982 0.11197 -0.38014
0.29136 0.02117 -0.38014
0.19272 0.06731 -0.38014
0.08955 0.09615 -0.38014
0.17847 0.09731 -0.38014
0.08077 0.10800 -0.38014
0.20869 0.04585 -0.38014
0.29691 0.04859 -0.38014
0.24395 0.06852 -0.38014
0.27335 0.01138 -0.38014
0.27279 0.01839 -0.38014
0.07709 0.11378 -0.38014
0.23519 0.00830 -0.38014
0.29889 0.11271 -0.38014
0.18891 0.08515 -0.38014
0.29968 0.07397 -0.38014
0.00396 0.07603 0.34196
-0.00614 0.07603 0.06737
-0.26707 0.11404 -0.23845
-0.22668 0.11404 -0.01408
-0.29777 0.11404 -0.28834
-0.30197 0.11404 -0.12127
-0.23752 0.11404 -0.03943
-0.11866 0.11404 -0.06076
-0.20720 0.11404 -0.04045
-0.21391 0.11404 -0.25458
-0.21806 0.11404 -0.19357
-0.13861 0.11404 -0.11619
-0.24262 0.11404 -0.01698
-0.06957 0.11404 -0.05989
-0.15303 0.11404 -0.03282
-0.18386 0.11404 -0.14664
-0.20091 0.11404 -0.12073
-0.21745 0.11404 -0.24709
-0.28357 0.11404 -0.15693
-0.25236 0.11404 -0.17689
-0.29617 0.11404 -0.15364
-0.18772 0.11404 -0.16146
-0.19157 0.11404 -0.21578
-0.12995 0.11404 -0.13201
-0.18505 0.11404 -0.06402
-0.28357 0.11404 -0.12845
-0.15214 0.11404 -0.08328
-0.30331 0.11404 -0.02204
-0.10887 0.11404 -0.10527
-0.24315 0.11404 -0.14274
-0.16103 0.11404 -0.07219
-0.23252 0.11404 -0.14888
-0.22907 0.11404 -0.17743
-0.12320 0.11404 -0.00923
-0.24508 0.11404 -0.03041
-0.24280 0.11404 -0.14837
-0.19507 0.11404 -0.23483
-0.21136 0.11404 -0.11205
-0.14773 0.11404 -0.11261
-0.13795 0.11404 -0.10276
-0.26458 0.11404 -0.10240
-0.29086 0.11404 -0.29928
0.26704 0.06070 0.00760
0.26960 0.01226 0.00760
0.30411 0.11111 0.28506
0.30411 0.02305 0.12325
0.30411 0.02275 0.13567
0.30411 0.09981 0.22627
0.30411 0.07311 0.25027
0.30411 0.10176 0.27250
0.30411 0.07056 0.25952
0.30411 0.05918 0.14326
0.30411 0.08449 0.18565
0.30411 0.10478 0.23439
0.30411 0.03974 0.17100
0.30411 0.01279 0.11878
0.30411 0.03750 0.09551
0.30411 0.10019 0.14444
0.30411 0.03234 0.08809
0.30411 0.07899 0.19218
0.30411 0.11389 0.25920
0.30411 0.07546 0.16222
0.30411 -0.00235 0.06440
0.30411 0.10574 0.14743
0.30411 0.10370 0.22164
0.14518 0.09692 0.38014
0.01607 -0.00036 0.38014
0.17900 0.09306 0.38014
0.21946 0.10652 0.38014
0.05056 0.00150 0.38014
0.13485 0.04456 0.38014
0.02456 -0.02797 0.38014
0.10487 0.06509 0.38014
0.04172 0.01146 0.38014
0.04001 0.07021 0.38014
0.15288 0.10023 0.38014
0.11708 0.05294 0.38014
0.06600 0.03698 0.38014
0.19369 0.06249 0.38014
0.01760 -0.01552 0.38014
0.00760 -0.00872 -0.37398
0.28069 0.08504 0.00760
0.29607 0.10026 0.00760
0.04137 -0.03801 0.36042
0.16261 -0.03801 0.32632
0.12421 -0.03801 0.33228
-0.00760 0.11044 -0.14150
-0.00761 0.09792 -0.31923
-0.00760 0.10783 -0.06751
-0.00761 0.07886 -0.32109
-0.30075 0.09339 -0.00760
-0.28104 0.07704 -0.00760
-0.30411 0.11044 0.19564
-0.30411 0.08341 0.19278
-0.30411 0.01011 0.27490
-0.30411 0.07779 0.36703
-0.30411 0.08044 0.09419
-0.30411 0.07130 0.33977
-0.30411 0.02216 0.33780
-0.30411 0.03063 0.23951
-0.30411 0.09831 0.09009
-0.30411 0.10742 0.29921
-0.30411 0.09946 0.27086
-0.30411 0.08407 0.28761
-0.30411 0.08890 0.30868
-0.30411 0.02658 0.25485
-0.30411 0.08841 0.35428
-0.30411 0.08199 0.34020
-0.30411 0.07820 0.28652
-0.30411 0.02718 0.35083
-0.30411 0.10106 0.17152
-0.30411 0.10879 0.32777
-0.30411 0.06067 0.24505
-0.30411 0.08838 0.32764
-0.30282 0.08761 0.00760
-0.29958 0.01077 0.00760
-0.27840 -0.01280 0.00760
0.28233 -0.03801 0.11233
0.29533 -0.03801 0.26481
0.29948 -0.03801 0.09483
0.26897 -0.03801 0.01119
0.28072 -0.03801 0.01604
0.00760 0.09067 -0.25754
0.00760 0.07713 -0.28554
0.00760 0.08808 -0.33450
0.00760 0.08498 -0.21195
0.00760 0.08079 -0.14467
-0.00760 0.02690 0.35475
-0.00760 0.08017 0.35338
0.28915 -0.03801 -0.01209
0.28752 -0.03801 -0.16526
0.30233 -0.03801 -0.02100
0.27917 -0.03801 -0.12794
0.27963 -0.03801 -0.11234
0.27966 -0.03801 -0.06695
0.29582 -0.03801 -0.01873
0.30387 -0.03801 -0.10044
0.28459 -0.03801 -0.12547
0.29501 -0.03801 -0.05641
0.29837 -0.03801 -0.20089
0.04071 0.11404 0.37055
0.26361 0.11404 0.34988
0.09090 0.11404 0.16381
0.11131 0.11404 0.28879
0.07951 0.11404 0.10583
0.13455 0.11404 0.30645
0.13461 0.11404 0.22685
0.09691 0.11404 0.14181
0.29318 0.11404 0.37576
0.22100 0.11404 0.33766
0.08688 0.11404 0.12956
0.08194 0.11404 0.27958
0.11924 0.11404 0.24898
0.20670 0.11404 0.30422
0.22035 0.11404 0.31749
0.04236 0.11404 0.05689
0.28954 0.11404 0.36688
0.09531 0.11404 0.23881
0.28820 0.11404 0.36138
0.10967 0.11404 0.33509
0.19265 0.11404 0.35567
0.05738 0.11404 0.09140
0.10848 0.11404 0.17220
0.15743 0.11404 0.31209
0.16891 0.11404 0.32086
0.01477 0.11404 0.14501
0.01151 0.11404 0.28081
0.06217 0.11404 0.19831
0.06675 0.11404 0.16751
0.09800 0.11404 0.34513
0.09219 0.11404 0.12667
0.08959 0.11404 0.35368
0.04502 0.11404 0.30660
0.24056 0.11404 0.36064
0.06311 0.11404 0.29684
0.14537 0.11404 0.34039
0.11617 0.11404 0.14860
0.02463 0.11404 0.09732
-0.17685 -0.07017 -0.30411
0.02437 -0.05023 -0.30411
-0.12361 -0.07385 -0.30411
-0.20512 -0.04031 -0.30411
-0.08268 -0.05748 -0.30411
-0.00395 -0.05513 -0.30411
-0.08813 -0.04999 -0.30411
-0.11889 -0.04442 -0.30411
0.04877 -0.03922 -0.30411
-0.02422 -0.05150 -0.30411
-0.00640 -0.04347 -0.30411
-0.21916 -0.10909 -0.30411
-0.20001 -0.03801 -0.36632
-0.10402 -0.03801 -0.35499
-0.12873 -0.03801 -0.37976
-0.17957 -0.03801 -0.37932
-0.22399 -0.03801 -0.35178
-0.24506 -0.03801 -0.37900
-0.19870 -0.03801 -0.35914
-0.06139 -0.03801 -0.36619
-0.15378 -0.03801 -0.34515
-0.00760 0.00629 0.35861
-0.00760 -0.03426 0.36386
-0.01659 -0.03801 -0.34105
-0.10377 -0.03801 -0.32797
-0.00760 0.08138 -0.09495
-0.00760 0.09272 -0.07039
-0.00761 0.08779 -0.16081
-0.00761 0.09615 -0.14857
-0.00760 0.10364 -0.02468
0.00733 0.07603 0.30276
-0.00018 0.07603 -0.04578
0.00452 0.07603 -0.16609
-0.00302 0.07603 -0.02176
-0.17578 -0.03801 -0.17920
-0.21514 -0.03801 0.14298
-0.02623 -0.03801 0.06706
-0.12482 -0.03801 0.29807
0.00071 -0.03801 0.07859
-0.19523 -0.03801 0.28270
0.07100 -0.03801 0.27580
0.05900 -0.03801 0.26704
-0.12170 -0.03801 0.20441
0.03072 -0.03801 0.10622
-0.01917 -0.03801 -0.01052
-0.18600 -0.03801 -0.00267
-0.01278 -0.03801 0.16148
-0.04755 -0.03801 0.27691
-0.04230 -0.03801 -0.03296
-0.10239 -0.03801 0.26094
-0.16488 -0.03801 0.17970
-0.12560 -0.03801 0.18164
-0.10565 -0.03801 0.07322
-0.17181 -0.03801 -0.22670
0.01398 -0.03801 0.27423
-0.11292 -0.03801 -0.11074
-0.20654 -0.03801 0.17911
-0.10914 -0.03801 0.02523
0.03767 -0.03801 0.13548
-0.13672 -0.03801 -0.13303
-0.20405 -0.03801 -0.19822
-0.06865 -0.03801 0.24512
-0.16559 -0.03801 0.21235
-0.15221 -0.03801 0.29700
-0.15641 -0.03801 0.16330
0.06400 -0.03801 0.25325
0.04953 -0.03801 0.14561
-0.04604 -0.03801 0.29992
-0.06368 -0.03801 -0.07382
0.06934 -0.03801 0.22138
0.12086 -0.03801 0.22290
0.11808 -0.03801 0.28649
-0.12518 -0.03801 0.23801
0.05712 -0.03801 0.15513
-0.21962 -0.03801 -0.08472
0.07831 -0.03801 0.19129
-0.20433 -0.03801 -0.04854
-0.07950 -0.03801 -0.08479
-0.12051 -0.03801 0.16703
-0.21668 -0.03801 0.29533
-0.06505 -0.03801 0.28941
0.02058 -0.03801 0.22936
0.08264 -0.03801 0.24715
0.08988 -0.03801 0.17103
0.17678 -0.03801 0.24724
-0.18554 -0.03801 0.19913
-0.08908 -0.03801 -0.01590
-0.11831 -0.03801 0.10376
-0.21173 -0.03801 -0.14164
-0.15159 -0.03801 0.13102
-0.14833 -0.03801 0.28338
-0.21843 -0.03801 0.28956
-0.20706 -0.03801 0.29721
-0.11737 -0.03801 0.18706
0.05393 -0.03801 0.20907
-0.21662 -0.03801 -0.16172
-0.03278 -0.03801 0.21753
-0.19464 -0.03801 -0.20611
-0.19476 -0.03801 -0.04927
-0.03317 -0.03801 -0.03290
-0.04278 -0.03801 0.29519
0.06020 -0.03801 0.18996
-0.15051 -0.03801 -0.17544
-0.20215 -0.03801 0.24082
0.12566 -0.03801 0.26005
-0.01257 -0.03801 0.09446
-0.11480 -0.03801 0.07789
0.00725 -0.03801 0.08571
-0.18929 -0.03801 -0.06829
-0.08077 -0.03801 0.00045
0.01119 -0.03801 0.07221
0.11795 -0.03801 0.23783
-0.21371 -0.03801 0.23436
-0.15870 -0.03801 0.27919
-0.11537 -0.03801 0.00963
-0.22700 -0.03801 0.02215
-0.19006 -0.03801 -0.14040
-0.11580 -0.03801 0.05002
-0.20615 -0.03801 -0.07198
-0.11489 -0.03801 0.12232
0.03854 -0.03801 0.15129
-0.07141 -0.03801 0.07599
0.00598 -0.03801 0.29638
-0.16485 -0.03801 0.06124
0.14188 -0.03801 0.25403
-0.12699 -0.03801 -0.05767
-0.16608 -0.03801 -0.17347
0.10599 -0.03801 0.16057
-0.02140 -0.03801 0.01766
-0.06943 -0.03801 0.10310
0.02294 -0.03801 -0.31715
0.01178 -0.03801 -0.31852
0.06480 -0.03801 -0.31375
0.07392 -0.03801 -0.32667
-0.02111 -0.03801 -0.32081
0.20488 -0.03801 -0.30714
0.00247 -0.03801 -0.30856
0.21758 -0.03801 -0.34421
0.16044 -0.03801 -0.36120
0.28064 -0.03801 -0.36273
0.22133 -0.03801 -0.31763
0.23382 -0.03801 -0.34808
0.23297 -0.03801 -0.31233
0.14569 -0.03801 -0.32083
0.19755 -0.03801 -0.33146
0.25133 0.11404 0.19900
0.23178 0.11404 0.11694
0.29958 0.11404 0.15636
0.29056 0.11404 0.09572
0.05504 0.11404 0.02968
0.26185 0.11404 0.18162
0.05400 0.11404 0.05033
0.22357 0.11404 0.16868
0.25755 0.11404 0.09446
0.16561 0.11404 0.12493
0.17525 0.11404 0.05452
0.08463 0.11404 0.04538
0.16313 0.11404 0.17026
0.27091 0.11404 0.28892
0.27507 0.11404 0.22908
0.09906 0.11404 0.03533
0.26150 0.11404 0.16273
0.21818 0.11404 0.09711
0.28179 0.11404 0.24832
0.25226 0.11404 0.30625
0.17438 0.11404 0.13970
0.25521 0.11404 0.16779
0.07216 0.11404 0.07550
0.21195 0.11404 0.05929
0.29614 0.11404 0.29000
0.25406 0.11404 0.28934
0.30071 0.11404 0.17387
0.21996 0.11404 0.04326
0.26866 0.11404 0.07002
0.10301 0.11404 0.05426
0.29522 0.11404 0.13537
0.17015 0.11404 0.13449
0.23733 0.11404 0.12814
0.27839 0.11404 0.25949
0.21906 0.11404 0.14848
0.29700 0.11404 0.14732
0.22954 0.11404 0.07118
0.26713 0.11404 0.27067
0.23013 0.11404 0.22280
0.14888 0.11404 0.16332
0.29612 0.11404 0.11594
0.07078 0.11404 0.04280
0.29472 0.02987 -0.00760
0.30158 0.05718 -0.00760
-0.22809 -0.09551 -0.26495
-0.22809 -0.04008 -0.01541
-0.22809 -0.04728 0.18119
-0.22809 -0.06477 -0.24586
-0.22809 -0.07804 -0.19466
-0.22809 -0.04359 0.02912
-0.22809 -0.06093 0.04745
-0.22809 -0.04060 0.04173
-0.22809 -0.04278 0.15500
-0.22809 -0.04692 -0.14114
-0.22809 -0.04520 0.23777
-0.22809 -0.04364 -0.12886
-0.22809 -0.04263 -0.01030
-0.22809 -0.07984 -0.03093
-0.22809 -0.08918 -0.22186
-0.22809 -0.06245 -0.11886
-0.22809 -0.07634 -0.07355
0.00760 0.10901 -0.28587
0.00760 0.10155 -0.04526
0.00760 0.09470 -0.13388
0.00760 0.11315 -0.13942
0.00760 0.06459 -0.35007
0.00760 0.01588 -0.34765
0.30019 0.08270 -0.00760
0.30269 0.09906 -0.00760
0.00620 -0.03671 0.34213
-0.24341 0.07603 -0.00020
-0.18133 0.07603 0.00339
0.00760 0.07011 0.36637
0.00760 -0.02598 0.37759
0.29302 0.05001 0.00760
0.28697 0.06609 0.00760
-0.00760 0.07910 0.20969
-0.00760 0.08279 0.19703
-0.00760 0.09083 0.03234
-0.00760 0.08085 0.18713
0.00760 -0.03196 0.35596
0.00760 0.01710 0.35833
-0.05829 -0.03801 -0.30913
0.07276 -0.03801 -0.31118
-0.02148 -0.03801 -0.33687
0.00225 -0.03801 -0.33230
-0.07662 -0.03801 -0.32374
-0.05815 -0.03801 -0.32579
0.00760 0.05994 -0.36989
0.00760 0.01660 -0.36095
-0.00403 -0.00510 -0.34213
-0.25864 -0.03801 -0.11284
-0.26597 -0.03801 -0.10971
-0.26175 -0.03801 -0.16920
-0.27813 -0.03801 -0.05811
-0.30411 0.05869 0.35412
-0.30411 0.06832 0.25439
-0.30411 0.10888 0.14859
-0.30411 0.07067 0.28038
-0.30411 0.10801 0.26930
-0.30411 0.10322 0.28100
-0.30411 0.07058 0.17003
-0.30411 0.05540 0.31394
-0.30411 0.00356 0.36884
-0.30411 0.04909 0.29527
-0.30411 0.10774 0.10518
-0.30411 0.07237 0.22188
-0.30411 0.04900 0.20031
-0.30411 0.06986 0.29032
-0.30411 0.09760 0.14116
-0.30411 0.04512 0.37421
-0.30411 0.04813 0.21386
-0.30411 0.07449 0.26603
-0.30411 0.05333 0.30612
-0.30411 0.06557 0.27283
-0.30411 0.08572 0.25432
-0.02267 0.10269 -0.38014
-0.01181 0.09595 -0.38014
-0.08213 0.09926 -0.38014
-0.10176 0.10569 -0.38014
-0.27743 0.10582 -0.38014
-0.12720 0.07211 -0.38014
-0.01770 -0.02921 -0.38014
-0.23263 0.10930 -0.38014
-0.18429 0.08592 -0.38014
-0.02291 0.02635 -0.38014
-0.02340 0.09234 -0.38014
-0.00924 0.04474 -0.38014
-0.12811 0.03015 -0.38014
-0.21857 0.09470 -0.38014
-0.25597 0.10155 -0.38014
-0.19686 0.08563 -0.38014
-0.19512 0.07565 -0.38014
-0.04483 0.08831 -0.38014
0.30411 0.01967 0.34952
0.30411 -0.03180 0.10922
0.30411 -0.02328 0.14349
0.30411 0.00942 0.34727
0.30411 0.04764 0.24571
0.30411 0.01616 0.29303
0.30411 0.02595 0.24093
0.30411 -0.03794 0.13542
0.30411 -0.02415 0.24888
0.30411 0.01099 0.33834
0.30411 0.07250 0.28543
0.30411 -0.01345 0.25626
0.30411 0.02708 0.29603
0.30411 -0.02423 0.12095
0.30411 -0.02866 0.09725
0.30411 -0.02766 0.22681
0.30411 0.06559 0.30947
0.30411 -0.01990 0.18210
0.11050 -0.03801 0.32323
0.03152 0.10058 0.00760
0.03924 0.10908 0.00760
0.02126 0.10351 0.00760
-0.28025 0.02432 -0.00760
-0.27129 -0.01435 -0.00760
-0.13803 0.07603 0.00503
-0.09633 0.07603 0.00641
0.22032 0.10198 0.00760
0.25860 0.10122 0.00760
0.26629 0.08920 0.00760
0.24209 0.08458 0.00760
0.28885 -0.03801 0.11081
0.28474 -0.03801 0.05820
0.28043 -0.03801 0.05379
0.29799 -0.03801 0.28466
-0.00761 0.08001 -0.34722
-0.00761 0.08014 -0.37015
-0.30411 0.05160 0.12860
-0.30411 0.05996 0.08911
-0.30411 -0.02915 0.21332
-0.30411 -0.01620 0.26066
-0.30411 0.03103 0.11624
-0.30411 0.05715 0.03850
-0.30411 0.07204 0.04786
-0.30411 0.00140 0.04562
-0.30411 -0.00332 0.05645
-0.30411 -0.03295 0.05148
-0.30411 0.05204 0.07387
-0.30411 0.03575 0.12473
-0.30411 -0.02066 0.30704
-0.30411 0.00839 0.13824
-0.30411 0.04238 0.09771
-0.30411 -0.02498 0.16158
-0.30411 0.05756 0.01038
-0.30411 -0.00957 0.13783
0.26610 0.04777 0.00456
-0.30411 0.07269 -0.04615
-0.30411 0.02652 -0.10936
-0.30411 0.11035 -0.35652
-0.30411 0.04254 -0.01787
-0.30411 0.07801 -0.03499
-0.30411 0.11224 -0.25104
-0.30411 0.00470 -0.05568
-0.30411 0.03770 -0.03900
-0.30411 0.01174 -0.06809
-0.30411 0.06523 -0.16892
-0.30411 0.07584 -0.11964
-0.30411 0.08064 -0.15983
-0.30411 0.03716 -0.08316
-0.30411 0.10342 -0.08775
-0.30411 0.02107 -0.07169
-0.30411 0.09304 -0.03920
-0.30411 0.08039 -0.01634
-0.30411 0.01961 -0.10335
-0.30411 0.08706 -0.26925
-0.30411 0.05579 -0.12268
-0.30411 0.11243 -0.09836
-0.17348 0.01955 0.38014
-0.03177 0.01864 0.38014
-0.23556 -0.02931 0.38014
-0.03233 0.06854 0.38014
-0.04218 0.08696 0.38014
-0.27035 -0.02861 0.38014
-0.09931 0.03261 0.38014
-0.17776 -0.02958 0.38014
-0.03624 0.09337 0.38014
-0.08621 0.01546 0.38014
-0.16060 -0.00204 0.38014
-0.02071 0.07389 0.38014
-0.14186 0.04175 0.38014
-0.19150 -0.01732 0.38014
-0.22656 -0.08711 0.30412
-0.04791 -0.11118 0.30412
-0.17747 -0.04950 0.30412
0.11992 -0.10544 0.30412
-0.01433 -0.07695 0.30412
0.01881 -0.08517 0.30412
-0.16969 -0.06318 0.30412
-0.08617 -0.07765 0.30412
-0.12274 -0.11025 0.30412
-0.19999 -0.07235 0.30412
0.06681 -0.09312 0.30412
-0.13026 -0.10615 0.30412
0.07118 -0.01320 -0.38014
0.06068 0.01562 -0.38014
0.28850 -0.03057 -0.38014
0.10108 0.04752 -0.38014
0.23988 -0.02349 -0.38014
0.26251 -0.03011 -0.38014
0.21522 -0.03060 -0.38014
0.19310 0.01765 -0.38014
0.17355 -0.03282 -0.38014
0.09991 0.05842 -0.38014
0.07171 0.04814 -0.38014
0.03433 0.01138 -0.38014
0.20851 -0.02528 -0.38014
0.17887 0.00082 -0.38014
0.15056 -0.00204 -0.38014
0.26966 0.11404 0.01247
0.28028 0.11404 0.08832
0.29678 0.11404 0.03373
0.09030 0.11404 0.10442
0.21918 0.11404 0.26389
0.19081 0.11404 0.15120
0.27414 0.11404 0.20169
0.17631 0.11404 0.15118
0.20335 0.11404 0.17270
0.11733 0.11404 0.13546
0.29843 0.11404 0.21871
0.28941 0.11404 0.32054
0.18772 0.11404 0.17130
0.15874 0.11404 0.06299
