0.01239 0.03444 0.01064
0.00297 0.31487 0.01476
-0.08967 -0.31858 0.05784
0.12946 0.30939 0.22687
-0.16949 0.31954 -0.19905
-0.16881 0.31151 -0.21509
0.14991 0.31487 -0.05969
0.04390 0.31487 -0.01299
-0.03287 0.32035 -0.26921
-0.02778 0.32035 -0.26450
-0.00296 -0.17204 -0.01607
-0.00581 0.23914 -0.01530
-0.00389 -0.15782 -0.01582
-0.01339 -0.18770 0.00937
-0.01387 -0.27936 0.00855
-0.01484 0.02550 0.00687
-0.01514 0.10404 0.00636
-0.01498 -0.12558 0.00663
-0.06506 0.30939 0.25462
-0.11167 0.31006 0.24898
-0.07696 -0.31487 -0.04053
0.00468 -0.31487 -0.07481
0.01792 -0.31487 -0.07844
0.01615 0.09713 0.00264
0.01617 0.14555 0.00258
0.01591 -0.06291 0.00354
0.01619 -0.03885 0.00251
0.01613 -0.05055 0.00274
-0.07682 -0.32035 0.05279
0.10657 -0.31672 -0.00988
0.11598 0.31487 0.22252
0.12646 0.31487 0.21914
0.16130 0.31487 0.20590
0.13332 0.31487 0.21353
-0.00283 0.31633 -0.26060
0.09280 -0.32035 0.01145
0.15230 0.30982 -0.22552
0.14290 0.31339 -0.23095
0.21768 0.30939 -0.15411
0.23178 0.30939 -0.12338
-0.11649 0.31487 0.20447
-0.13107 0.31487 0.19883
0.14776 0.31487 0.08921
-0.02652 0.31487 0.17731
0.00896 0.31487 0.17220
-0.03611 0.31487 0.17489
0.09072 0.31487 0.11870
-0.02562 0.31487 0.18403
-0.12830 0.31487 0.21831
-0.11591 0.31487 0.21489
0.08010 0.31487 0.12344
0.00566 0.31487 0.14570
-0.06768 0.31487 0.19581
-0.02607 0.31487 0.19649
0.01932 0.31487 0.15932
0.01477 0.31487 0.15532
-0.10185 0.31487 0.20471
-0.08213 0.31487 0.19992
0.14348 0.31487 0.09361
0.11068 0.31487 0.11555
0.06667 0.31487 0.13208
0.17308 0.31487 0.08312
-0.05171 0.31487 0.18070
0.01190 0.31487 0.14547
0.02133 0.31487 0.14018
-0.11141 0.31487 0.19489
-0.04814 0.31487 0.19718
-0.10639 0.31487 0.21211
-0.02494 0.31487 0.15354
-0.07605 0.31487 0.21061
-0.00301 0.31487 0.14912
0.15180 0.31487 0.09657
0.18940 0.31487 0.07519
0.18502 0.31487 0.06830
-0.01344 0.31487 0.18610
0.07544 0.31487 0.13876
0.06845 0.31487 0.11478
-0.09866 0.31487 0.22016
-0.11192 0.31487 0.22516
0.07965 0.31487 0.11362
0.00924 -0.06839 0.01347
0.00898 -0.14896 0.01362
0.00990 0.26103 0.01309
0.00956 -0.03822 0.01329
0.00968 -0.05710 0.01322
0.04799 0.31487 0.10120
0.13054 0.31487 0.04787
0.25855 0.31487 0.02601
0.22270 0.31487 -0.00009
0.12861 0.31487 0.05566
0.11771 0.31487 0.06776
0.17882 0.31487 0.01347
-0.03624 0.31487 0.15232
0.19438 0.31487 0.04682
0.23434 0.31487 -0.00377
-0.07738 0.31487 0.17127
0.12168 0.31487 0.05828
0.23966 0.31487 -0.01251
0.00398 0.31487 0.13631
0.22922 0.31487 0.04127
0.20153 0.31487 0.02142
-0.04509 0.31487 0.15513
0.14137 0.31487 0.06693
0.15586 0.31487 0.06075
0.24322 0.31487 0.01095
0.23376 0.31487 -0.01534
0.11853 0.31487 0.08491
0.09829 0.31487 0.08324
0.21561 0.31487 0.03023
-0.05263 0.31487 0.16245
0.18873 0.31487 0.03044
0.04368 0.31487 0.11786
0.09792 0.31487 0.06561
0.25611 0.31487 -0.00852
0.17994 0.31487 0.03088
0.23358 0.31487 0.02323
-0.04705 0.31487 0.14868
0.07655 0.31487 0.07451
0.24373 0.31487 -0.02173
0.25614 0.31487 -0.02455
0.09097 0.31487 0.06767
0.08689 0.31487 0.09318
0.08365 0.31487 0.10411
0.24933 0.31487 0.03276
-0.01023 0.31487 0.14213
0.21400 0.31487 0.01189
-0.11194 0.31487 0.18762
-0.00326 -0.14960 0.01599
-0.00448 -0.24240 0.01566
-0.00298 -0.21179 0.01606
-0.00318 -0.10808 0.01601
0.26968 0.31575 -0.04238
0.01512 0.27541 0.00639
0.01395 -0.26137 0.00841
0.01361 -0.17058 0.00899
0.01516 -0.22132 0.00632
0.01462 -0.03570 0.00726
0.07803 0.30939 -0.25645
-0.01355 0.05391 0.00911
-0.01358 0.12777 0.00905
-0.01357 0.06913 0.00907
-0.01324 0.28692 0.00965
0.06462 -0.31487 -0.06702
0.04546 0.31124 -0.25761
-0.00923 -0.07060 0.01348
-0.00950 -0.03989 0.01332
-0.00951 -0.16504 0.01332
-0.00765 -0.25037 0.01439
0.09138 -0.31487 -0.04107
0.13104 0.31487 -0.04488
-0.06452 0.31487 0.06473
0.07611 0.31487 -0.00725
-0.15138 0.31487 0.12442
0.16111 0.31487 -0.05936
0.02038 0.31487 0.01277
0.02309 0.31487 0.02158
-0.04615 0.31487 0.05161
-0.02855 0.31487 0.04570
-0.03617 0.31487 0.04628
0.10577 0.31487 -0.03331
0.01547 0.31487 0.02732
-0.14505 0.31487 0.12223
0.01218 0.31487 0.01499
0.14547 0.31487 -0.04443
0.25013 0.32035 -0.09315
-0.00331 -0.31487 0.06584
0.01675 -0.31487 0.04440
0.03301 -0.31487 0.03937
0.05309 -0.31487 0.03250
-0.00326 -0.31487 0.05531
-0.02627 -0.31487 0.02453
-0.06437 -0.31487 0.02643
-0.05726 -0.31487 0.03288
-0.04605 -0.31487 0.03420
-0.05121 -0.31487 0.03831
-0.06754 -0.31487 0.04396
0.23478 0.31160 -0.11454
0.15913 0.31565 -0.20904
-0.06403 -0.31487 -0.05118
-0.02865 -0.31487 -0.07244
-0.01238 -0.28341 0.01521
-0.16576 0.32035 -0.20304
-0.17140 0.31487 0.10339
-0.10077 0.31487 0.06515
-0.13427 0.31487 0.08577
-0.23155 0.31487 0.11322
-0.17405 0.31487 0.11589
-0.21326 0.31487 0.12018
-0.17729 0.31487 0.13285
-0.19097 0.31487 0.14198
-0.19747 0.31487 0.13013
-0.23210 0.31487 0.10694
-0.20782 0.31487 0.10634
-0.08884 0.31487 0.05427
-0.13170 0.31487 0.06657
-0.08079 0.31487 0.04892
-0.16221 0.31487 0.08853
-0.08401 0.31487 0.06008
-0.11968 0.31487 0.07131
-0.12674 0.31487 0.07315
-0.07355 0.31487 0.04928
-0.18248 0.31487 0.12684
-0.16671 0.31487 0.07762
-0.14675 0.31487 0.09404
-0.12275 0.31487 0.08322
-0.05354 0.31487 0.03866
-0.16276 0.31487 0.10650
-0.17093 0.31487 0.13166
-0.11024 0.31487 0.09348
-0.00234 -0.09250 -0.01623
-0.00379 0.02299 -0.01585
-0.00443 0.27047 -0.01568
-0.00255 -0.02628 -0.01618
-0.00372 -0.01854 -0.01587
-0.00771 0.31487 0.00869
-0.14419 0.31405 -0.23020
-0.09389 0.31487 0.09557
0.09493 0.31487 -0.01125
0.17388 0.31487 -0.00727
0.15221 0.31487 -0.01720
-0.10068 0.31487 0.11334
0.24920 0.31487 -0.07364
0.17478 0.31487 -0.03330
0.13314 0.31487 0.01727
0.18088 0.31487 -0.03384
0.24241 0.31487 -0.09474
0.18651 0.31487 -0.05572
0.04951 0.31487 0.02317
0.11967 0.31487 -0.01513
0.19370 0.31487 -0.06065
0.05205 0.31487 0.04108
0.22404 0.31487 -0.08561
0.16329 0.31487 -0.05236
-0.03410 0.31487 0.06295
0.24530 0.31487 -0.06683
0.19530 0.31487 -0.03500
0.06650 0.31487 0.04580
0.24353 0.31487 -0.03391
0.21331 0.31487 -0.03911
0.10772 0.31487 0.01795
0.14431 0.31487 -0.00116
0.10045 0.31487 -0.01690
-0.00504 0.31487 0.04907
0.23036 0.31487 -0.07385
0.21457 0.31487 -0.07447
-0.00196 0.31487 0.06389
0.00930 0.31487 0.03655
0.04294 0.31487 0.04844
0.21021 0.31487 -0.01615
0.02876 0.31487 0.03260
0.03746 0.31487 0.03116
0.06724 0.31487 0.03144
-0.04221 0.31487 0.08917
0.13869 0.31487 0.00115
0.11013 0.31487 0.00372
0.20258 0.31487 -0.06818
0.14966 0.31487 -0.00964
0.12190 0.31487 -0.00574
0.14491 0.31487 -0.01533
0.22434 0.31487 -0.02063
0.21122 0.31487 -0.02767
0.06143 0.31487 0.01993
0.08387 0.31487 0.03204
-0.13700 0.31487 0.12602
0.08593 0.31487 -0.00442
-0.17627 0.31487 0.14475
0.15900 0.31487 0.00446
0.02347 0.31487 0.05771
0.24870 0.31487 -0.06071
0.13246 0.31487 -0.03656
0.22938 0.31487 -0.08955
-0.07106 -0.30771 -0.02715
-0.07989 -0.31185 -0.03115
-0.08440 -0.31309 -0.02563
0.00767 0.19461 -0.01438
0.00707 -0.02315 -0.01472
0.00661 -0.06881 -0.01499
-0.08229 -0.32035 0.06752
-0.04755 -0.30060 -0.03608
-0.06474 -0.30896 -0.04500
-0.20797 0.31856 0.16057
0.08089 0.31805 -0.24812
0.09365 -0.31487 0.00721
0.01853 -0.28325 0.00487
-0.08462 -0.31513 -0.06610
-0.27146 0.31962 -0.01736
0.02443 -0.29039 0.02602
0.03184 -0.29747 0.04170
0.03145 -0.29563 0.03609
0.04641 -0.30109 0.03910
0.09632 -0.31487 -0.02561
0.10159 0.31487 0.16538
-0.01952 0.31487 0.23754
0.04813 0.31487 0.21054
-0.06722 0.31487 0.22902
-0.05799 0.31487 0.23230
0.03764 0.31487 0.21083
0.08860 0.31487 0.18282
0.13043 0.31487 0.14754
0.14972 0.31487 0.15008
0.04288 0.31487 0.18375
0.13618 0.31487 0.14497
-0.03874 0.31487 0.25468
0.17533 0.31487 0.13163
0.07926 0.31487 0.18568
-0.05306 0.31487 0.24671
0.09067 0.31487 0.17677
0.07049 0.31487 0.18938
0.16201 0.31487 0.14694
0.04678 0.31487 0.20144
0.07222 0.31487 0.17147
-0.00258 0.31487 0.20341
0.09289 0.31487 0.17130
-0.06932 0.31487 0.00514
-0.11845 0.31487 0.01274
-0.02515 -0.29232 0.03163
0.17546 0.32035 -0.20651
-0.03087 -0.32035 -0.09522
-0.01412 -0.32035 -0.10098
-0.25473 0.30939 -0.05943
-0.08401 -0.32035 0.05910
0.05337 -0.32035 -0.08236
-0.11500 0.31443 -0.23452
-0.19460 0.30939 0.18439
-0.01100 -0.31604 0.10657
-0.07551 0.31372 0.26080
-0.09610 0.31013 0.25528
0.14293 0.32035 -0.23073
0.03469 0.31487 0.23663
0.16975 0.31487 0.18053
0.14850 0.31487 0.18911
0.04203 0.31487 0.24027
0.05041 0.31487 0.24534
0.02418 0.31487 0.25682
0.00547 0.31487 0.25236
0.15525 0.31487 0.18675
0.05918 0.31487 0.22421
0.08154 0.31487 0.22400
0.05407 -0.31070 -0.06290
0.04473 -0.30078 -0.03965
0.03923 -0.29665 -0.03165
0.24750 0.30939 -0.10948
-0.00325 -0.32035 -0.09500
-0.01550 -0.01085 -0.00508
-0.01520 0.16728 -0.00619
-0.01585 -0.07607 -0.00379
-0.01529 -0.12673 -0.00586
0.05551 -0.31487 0.07655
0.16621 0.30939 0.20696
0.08320 -0.31487 0.04755
0.03716 -0.31487 -0.00889
-0.04947 -0.31487 0.02942
-0.01916 -0.31487 0.01071
0.00921 -0.31487 0.00014
0.14361 0.30939 0.22931
0.10107 0.30939 0.24852
-0.16133 0.31744 0.22031
-0.03814 0.31487 -0.12962
0.08065 0.31487 -0.21489
-0.05748 0.31487 -0.15020
-0.15010 0.31487 -0.09804
-0.00945 0.31487 -0.14128
0.04484 0.31487 -0.16293
-0.03046 0.31487 -0.15621
-0.10252 0.31487 -0.12232
0.10288 0.31487 -0.21560
0.01371 0.31487 -0.15291
-0.13273 0.31487 -0.09947
0.07176 0.31487 -0.19848
0.10470 0.31487 -0.22459
0.00493 0.31487 -0.16867
-0.13405 0.31487 -0.09007
0.01402 0.31487 -0.15936
0.05964 0.31487 -0.21364
-0.12650 0.31487 -0.11085
0.08760 0.31487 -0.20495
-0.09474 0.31487 -0.12838
0.08872 0.31487 -0.23395
-0.07164 0.31487 -0.13996
-0.02459 0.31487 -0.14846
-0.16615 0.31487 -0.07834
0.05359 0.31487 -0.18965
0.05654 0.31487 -0.20340
-0.01994 0.31487 -0.15393
0.11789 0.31487 -0.20083
-0.01612 0.31487 -0.16606
0.04702 0.31487 -0.20393
0.08450 0.31487 -0.20986
0.03549 0.31487 -0.19323
-0.07895 0.31487 -0.11996
0.03404 0.31487 -0.16753
-0.18054 0.31487 -0.07867
0.07096 0.31487 -0.22517
0.10752 0.31487 -0.04079
0.13794 0.31487 -0.05344
-0.20246 0.31893 -0.18144
-0.09854 -0.32035 -0.04105
0.24728 0.31782 0.11461
0.24874 0.31647 0.07858
0.01496 -0.21323 -0.00666
0.01426 -0.17362 -0.00788
0.01476 -0.04899 -0.00700
0.01474 0.06475 -0.00704
0.01503 0.03266 -0.00655
0.00211 0.06548 -0.01629
0.00035 0.27857 -0.01629
0.00052 -0.03334 -0.01629
0.00185 -0.19686 -0.01629
0.00859 0.30939 0.26900
0.25091 0.30939 -0.08459
0.01533 0.29387 -0.00570
0.01603 0.28580 -0.00311
0.01575 0.08162 -0.00414
0.01545 0.04926 -0.00526
0.02716 0.31487 -0.00845
-0.04801 -0.30387 -0.04655
-0.03412 -0.29597 -0.03457
-0.25170 0.32035 -0.09739
-0.25702 0.32035 -0.08121
-0.01131 -0.28676 0.02498
0.11900 0.31487 0.02982
0.18930 0.31487 -0.00257
-0.09004 0.31487 0.13207
-0.12371 0.31487 0.16139
-0.12251 0.31487 0.17910
-0.18990 0.31487 0.15962
0.04740 0.31487 0.05739
-0.17793 0.31487 0.18936
0.17762 0.31487 0.00063
-0.05733 0.31487 0.10326
-0.00741 0.31487 0.08644
0.00153 0.31487 0.08664
-0.02644 0.31487 0.11002
-0.11380 0.31487 0.15621
0.11416 0.31487 0.03827
0.08494 0.31487 0.04156
0.06328 0.31487 0.06167
-0.13744 0.31487 0.16293
-0.15185 0.31487 0.19270
-0.08873 0.31487 0.16158
-0.13588 0.31487 0.13629
-0.03523 0.31487 0.13527
-0.14600 0.31487 0.18220
-0.12998 0.31487 0.13961
-0.01622 0.31487 0.10040
-0.02034 0.31487 0.11840
-0.14016 0.31487 0.18975
-0.14063 0.31487 0.14049
-0.16711 0.31487 0.16731
-0.13540 0.31487 0.15108
-0.03385 0.31487 0.10186
-0.17947 0.31487 0.17611
-0.08599 0.31487 0.12327
-0.00687 0.31487 0.10428
-0.14314 0.31487 0.15565
-0.00243 0.31487 0.09968
-0.05626 0.31487 0.14065
-0.11526 0.31487 0.13155
-0.06093 0.31487 0.11881
-0.13024 0.31487 0.16374
-0.00866 0.31487 0.09211
0.17521 0.31487 0.00899
0.05053 0.31487 0.07804
-0.12037 0.31487 0.15407
-0.15559 0.31487 0.18776
0.01572 0.31487 0.07686
-0.03680 0.31487 0.11074
-0.22869 0.30939 0.13246
0.18310 0.31861 -0.20080
-0.00307 0.31487 -0.01461
-0.00538 0.04915 0.01542
-0.00392 0.17505 0.01581
-0.00515 -0.02565 0.01548
-0.00626 -0.18814 0.01518
0.14492 0.31487 0.13105
0.04600 0.31487 0.16187
0.14832 0.31487 0.12483
0.18581 0.31487 0.08785
0.18589 0.31487 0.09839
0.22194 0.31487 0.06012
0.19558 0.31487 0.10242
0.23431 0.31487 0.09156
0.20804 0.31487 0.07116
0.12603 0.31487 0.11304
0.09134 0.31487 0.14757
0.11379 0.31487 0.13270
0.11182 0.31487 0.12503
0.05611 0.31487 0.15933
0.17838 0.31487 0.09779
0.12062 0.31487 0.13594
0.16720 0.31487 0.12579
0.21297 0.31487 0.10853
0.20497 0.31487 0.08888
0.05518 0.31487 0.17476
0.11032 0.31487 0.14245
0.17460 0.31487 0.12114
-0.26060 0.31548 0.02600
-0.07255 -0.32035 -0.06944
-0.25500 0.31554 -0.09716
-0.26712 0.32010 -0.05194
-0.08401 -0.32035 0.05151
0.02109 0.30939 -0.26617
-0.23929 0.30939 -0.12758
-0.01481 -0.28195 -0.00693
-0.01441 -0.23737 -0.00761
-0.01510 -0.13789 -0.00643
-0.01505 -0.06661 -0.00651
-0.01449 0.10378 -0.00748
0.13486 0.31487 -0.10173
0.02384 -0.31487 0.09362
0.08447 -0.31705 0.06625
0.26287 0.32035 -0.06084
0.26141 0.32035 -0.04906
-0.26060 0.31335 -0.01644
0.15488 0.32035 -0.21618
0.14019 0.32035 -0.22281
0.08926 -0.32035 -0.04158
0.23356 0.32035 -0.13692
-0.09078 -0.31951 0.01759
-0.06216 -0.32035 -0.07572
0.24699 0.31479 -0.08510
-0.07636 0.31487 0.00573
-0.10344 0.31487 0.00860
-0.16544 0.31487 -0.18890
-0.17827 0.31487 -0.18190
-0.20627 0.31487 -0.16226
0.01140 0.30939 -0.27086
0.04938 -0.31741 0.07811
-0.25215 0.30939 0.08823
0.26574 0.32035 -0.01418
0.10424 -0.31487 0.02180
-0.00588 0.23220 0.01529
-0.00617 0.12122 0.01521
-0.00575 0.03038 0.01532
-0.00409 0.22534 0.01576
0.01818 0.31487 -0.24746
0.06029 0.31487 -0.24297
0.06907 0.31487 -0.24180
0.03282 0.31487 -0.24927
-0.02772 0.31487 -0.21146
0.00221 0.31487 -0.22842
-0.14593 0.31487 -0.15065
-0.01237 0.31487 -0.20170
-0.06412 0.31487 -0.20117
-0.17714 0.31487 -0.13317
-0.04862 0.31487 -0.20671
-0.13094 0.31487 -0.15085
0.05866 0.31487 -0.22677
0.03186 0.31487 -0.23107
0.27146 0.31666 -0.02039
0.27146 0.31425 0.00369
0.01362 -0.06974 -0.00899
0.01469 0.26946 -0.00714
0.01375 0.12372 -0.00875
0.01343 0.02127 -0.00932
0.05734 0.32035 0.25878
-0.06809 0.31590 -0.25155
-0.25019 0.32008 0.07316
0.17556 0.31515 -0.19298
0.05584 0.31949 -0.26607
-0.15417 0.32035 0.22082
-0.12247 0.32035 0.23066
0.09589 -0.31516 -0.04706
0.00662 -0.07476 0.01498
0.00736 0.21237 0.01456
0.00703 -0.08964 0.01475
0.00832 0.12319 0.01401
-0.06656 -0.31487 -0.07516
-0.00150 -0.31487 -0.10040
-0.25726 0.32035 0.05505
-0.25357 0.32035 0.08375
-0.00152 -0.28201 -0.00954
-0.06943 0.32035 0.25303
0.08350 0.31627 0.24742
0.00094 0.07441 0.01629
0.00142 0.19635 0.01629
0.00041 -0.17837 0.01629
0.06292 0.32035 -0.25522
-0.03926 -0.31487 0.04284
-0.03112 -0.31487 0.05038
0.02194 -0.31487 0.02760
-0.01799 -0.31487 0.05011
0.00021 -0.31487 0.04034
-0.06628 -0.31487 0.05794
-0.03997 -0.31929 0.08357
-0.24466 0.32035 0.09714
0.25557 0.31807 -0.05306
-0.03744 0.30939 -0.26424
-0.02762 -0.30435 0.06260
-0.07718 0.30939 0.25224
0.04603 0.31974 0.25746
0.00713 -0.29985 -0.05749
-0.00474 -0.30976 -0.08053
0.00954 -0.30952 -0.07984
0.10657 0.30939 0.24088
-0.24907 0.30954 -0.07734
-0.09847 0.31946 -0.25465
0.12547 0.31777 -0.22847
0.05143 -0.31487 -0.08675
0.01572 0.18258 0.00427
0.01569 0.20173 0.00439
0.01623 -0.10119 0.00235
0.01577 0.21957 0.00406
-0.24101 0.30939 -0.11730
-0.23639 0.30939 -0.11348
-0.03695 -0.31487 0.09631
0.09372 -0.31487 0.04348
0.06621 0.31487 -0.06023
0.12645 0.30971 -0.22791
0.05446 0.31196 -0.26644
0.11617 0.31926 -0.24638
0.02226 -0.29437 0.03898
0.04045 -0.31480 0.08297
0.03810 -0.31213 0.07720
0.03787 -0.30664 0.06276
-0.26811 0.30939 0.02335
-0.00902 0.30939 -0.27008
-0.01658 0.30939 -0.26950
0.12874 0.31842 0.23913
0.00205 -0.31487 0.09651
0.08147 -0.31487 -0.06434
0.01270 -0.14147 -0.01033
0.01079 -0.25141 -0.01224
0.01135 -0.16305 -0.01168
0.01269 -0.14902 -0.01034
-0.08104 -0.32035 -0.04716
0.04679 -0.31827 -0.09605
-0.01841 0.31008 0.27146
-0.00295 0.31387 0.27146
0.04250 -0.31487 0.05816
-0.00696 -0.31487 0.08785
0.04861 -0.31487 0.05268
0.26735 0.32035 0.01779
-0.14535 0.32035 -0.22513
0.24004 0.31024 0.10544
0.02930 0.31487 0.22463
0.06842 0.31487 0.20700
0.17404 0.31487 0.15435
0.14753 0.31487 0.15977
0.19989 0.31487 0.15632
0.19398 0.31487 0.16213
0.22162 0.31487 0.11583
0.14666 0.31487 0.16894
0.13232 0.31487 0.17352
0.22085 0.31487 0.13726
0.15551 0.31487 0.15299
0.11757 0.31487 0.18260
0.01565 0.31487 0.23542
0.13883 0.31487 0.16648
0.16231 0.31487 0.16363
0.10384 0.31487 0.18726
0.10958 0.31487 0.17970
0.22355 0.31122 -0.15572
-0.07454 -0.31487 0.05934
-0.05028 0.31487 -0.00473
-0.04356 -0.31468 -0.08091
-0.04657 -0.31169 -0.07126
-0.16500 0.32035 0.21590
-0.00762 0.03186 -0.01441
-0.00657 -0.03838 -0.01502
-0.00629 -0.17999 -0.01518
-0.00724 0.22001 -0.01463
-0.05543 -0.29893 -0.00012
-0.06583 -0.30342 0.00229
-0.07208 -0.30614 -0.00245
-0.08046 -0.30979 -0.00937
0.00308 -0.23067 -0.01604
0.00250 -0.05020 -0.01619
0.00322 -0.07328 -0.01600
-0.24557 0.31487 -0.07575
-0.16441 0.31487 -0.12473
-0.20022 0.31487 -0.09525
-0.01066 0.31487 -0.18906
-0.23119 0.31487 -0.07639
-0.11397 0.31487 -0.13311
-0.23822 0.31487 -0.09156
-0.19571 0.31487 -0.08729
-0.12260 0.31487 -0.14189
-0.17054 0.31487 -0.12993
-0.13410 0.31487 -0.11079
-0.02305 0.31487 -0.18984
-0.00028 0.31487 -0.18635
-0.19289 0.31487 -0.09461
-0.19350 0.31487 -0.11307
-0.19095 0.31487 -0.08164
-0.16378 0.31487 -0.10816
-0.10245 0.31487 -0.14364
0.01314 0.31487 -0.20341
-0.15062 0.31487 -0.11732
-0.09217 0.31487 -0.15887
0.02169 0.31487 -0.19749
-0.04751 0.31487 -0.16092
-0.11070 0.31487 -0.12505
-0.05470 0.31487 -0.16320
-0.01011 0.31487 -0.19633
-0.03046 0.31487 -0.18583
-0.08193 0.31487 -0.15455
-0.21583 0.31487 -0.07269
-0.25510 0.31487 -0.04132
-0.15416 0.31487 -0.13399
0.19520 0.30939 0.17761
0.21274 0.31586 0.15272
-0.18850 0.31555 0.19540
-0.01623 -0.22336 0.00237
-0.01538 -0.19461 0.00552
-0.01571 -0.07061 0.00430
0.01629 0.21315 -0.00094
0.01629 0.04061 -0.00135
0.10156 -0.31487 0.02788
-0.09023 -0.32035 -0.02726
-0.20987 0.30939 -0.17082
-0.12645 0.31487 0.04069
-0.16483 0.31487 0.06287
-0.18842 0.31487 0.06885
-0.13388 0.31487 0.02789
-0.24087 0.31487 0.05597
-0.11137 0.31487 0.03817
-0.19833 0.31487 0.04388
-0.15321 0.31487 0.05796
-0.10208 0.31487 0.02059
-0.15867 0.31487 0.05195
-0.18148 0.31487 0.05712
-0.23274 0.31487 0.05522
-0.05632 0.31487 0.01132
-0.16183 0.31487 0.04019
-0.13261 0.31487 0.03387
-0.19798 0.31487 0.02770
-0.20009 0.31487 0.06536
-0.22946 0.31487 0.04059
-0.17701 0.31487 0.03820
-0.10865 0.31487 0.02431
-0.11621 0.31487 0.04351
-0.08213 0.31487 0.01409
-0.09114 0.31487 0.02839
-0.15403 0.31487 0.04493
-0.03296 0.31487 0.00715
-0.24079 0.31487 0.06792
-0.08513 0.31487 0.01999
-0.00446 -0.28201 0.00693
0.01753 -0.29658 0.04710
0.06459 -0.32035 0.07373
0.00929 -0.08413 -0.01344
0.00999 0.14497 -0.01304
-0.20869 0.31099 0.15973
-0.03494 0.30939 0.27067
0.26685 0.30939 -0.00415
0.04188 -0.32035 0.09660
-0.21818 0.32025 0.16502
-0.27146 0.31937 0.01148
-0.27146 0.31428 -0.02551
-0.00541 -0.31487 -0.08627
-0.08976 -0.31487 -0.05621
0.13878 0.31487 -0.11028
0.05434 0.31487 -0.05057
0.06707 -0.31487 0.05945
0.05042 -0.31487 0.06594
0.05431 -0.30614 -0.04762
0.06162 -0.31080 -0.05554
0.05914 -0.31315 -0.06582
0.01150 0.16148 -0.01153
0.01028 -0.03270 -0.01275
0.01260 0.27806 -0.01043
0.01056 0.16958 -0.01248
-0.09909 0.31487 0.04927
0.22749 0.30939 0.14258
-0.01256 -0.31554 -0.10657
-0.21813 0.32035 -0.14435
-0.25713 0.31829 0.04725
-0.00944 0.31487 -0.00528
-0.09415 -0.31487 -0.00127
0.07029 0.32035 0.25905
0.16796 0.31487 0.14786
0.09442 0.31487 0.20260
0.03940 0.31487 0.21807
0.12774 0.31487 0.18152
0.11835 0.31487 0.19245
0.22571 0.31487 0.12682
0.21125 0.31487 0.12553
0.08269 0.31487 0.21093
0.08783 0.31487 0.20837
0.21260 0.31487 0.14653
0.17930 0.31487 0.16229
0.07740 0.31487 0.20046
0.21261 0.31487 0.11812
-0.01567 0.31487 0.25237
0.01754 -0.31487 -0.10479
-0.18331 0.32035 -0.19393
0.02492 0.31487 -0.07893
-0.09211 0.31487 -0.01154
0.03513 0.31487 -0.06132
0.11899 0.31487 -0.11937
0.00598 0.31487 -0.03482
-0.17084 0.31487 0.00437
-0.11231 0.31487 -0.02253
0.15985 0.31487 -0.12895
0.03750 0.31487 -0.08747
0.02213 0.31487 -0.04380
-0.09950 0.31487 0.00036
0.08250 0.31487 -0.08908
-0.02582 0.31487 -0.06026
-0.12953 0.31487 0.00558
-0.04686 0.31487 -0.01931
-0.03295 0.31487 -0.02535
-0.21106 0.31487 0.01895
0.01014 0.31487 -0.06189
0.03997 0.31487 -0.05668
-0.14892 0.31487 0.00453
-0.11937 0.31487 -0.00821
-0.09873 0.31487 -0.02003
-0.05263 0.31487 -0.04318
-0.05572 0.31487 -0.03472
0.00021 0.31487 -0.04702
-0.18386 0.31487 0.01722
-0.06159 0.31487 -0.04627
-0.10051 0.31487 -0.03158
0.03782 0.31487 -0.07270
-0.06597 0.31487 -0.00486
0.01548 0.31487 -0.06398
0.05437 0.31487 -0.08069
-0.01938 0.31487 -0.03913
0.04853 0.31487 -0.07388
-0.01432 0.31487 -0.04254
-0.01074 0.31487 -0.04676
-0.02330 0.31487 -0.01301
0.07873 0.31487 -0.07543
0.27146 0.31288 -0.03563
-0.22991 0.31500 -0.14470
0.01073 -0.32035 0.10579
0.26210 0.30939 0.05176
0.25721 0.30939 0.06420
0.16912 0.31626 -0.19943
0.02583 0.31842 -0.27146
-0.16002 0.30940 -0.20852
-0.18133 0.31218 -0.18721
0.01629 -0.16942 -0.00063
0.01629 -0.26871 0.00047
0.01629 0.04616 0.00085
0.01629 -0.14676 0.00103
-0.01549 -0.31487 0.09530
0.00391 0.15679 -0.01581
0.00443 0.31340 -0.01568
0.00411 0.14288 -0.01576
-0.07982 -0.31487 -0.06223
0.07833 -0.31487 0.05912
-0.07589 0.31487 0.01280
-0.17405 0.31487 0.03132
-0.20286 0.31487 0.08268
-0.12587 0.31487 0.03327
-0.11588 0.31487 0.03176
-0.09122 0.31487 0.01202
-0.15887 0.31487 0.03361
-0.12421 0.31487 0.01817
-0.17863 0.31487 0.04596
-0.22257 0.31487 0.06358
-0.12006 0.31487 0.03863
-0.22344 0.31487 0.04431
-0.20283 0.31487 0.07433
-0.25284 0.31487 0.06195
-0.20868 0.31487 0.04773
-0.04011 0.31487 0.01173
-0.10459 0.31487 0.03808
-0.20395 0.31487 0.03210
-0.19138 0.31487 0.05965
-0.21607 0.31487 0.07763
-0.21460 0.31487 0.03455
-0.26161 0.32035 0.03671
-0.01629 -0.08984 -0.00182
-0.01629 -0.24432 0.00108
-0.01629 0.28858 -0.00209
-0.01629 0.05740 -0.00107
-0.01629 -0.26279 0.00037
0.25933 0.30939 0.07609
0.00583 0.22067 0.01530
0.00508 -0.05961 0.01550
-0.15297 0.31822 -0.21260
-0.14644 0.31487 0.20449
0.12252 0.31487 0.10493
0.02126 0.31487 0.15382
0.08627 0.31487 0.12969
-0.07374 0.31487 0.21631
-0.08919 0.31487 0.18577
0.16513 0.31487 0.08617
0.16151 0.31487 0.07574
-0.15081 0.31487 0.20781
0.02477 0.31487 0.16955
0.05871 0.31487 0.13543
-0.07319 0.31487 0.20225
0.11497 0.31487 0.10131
-0.00336 0.31487 0.16230
0.03768 0.31487 0.14838
0.19659 0.31487 0.06624
-0.09501 0.31487 0.23753
0.09472 0.31487 0.10976
-0.06375 0.31487 0.20328
0.03437 0.31487 0.15613
0.02753 0.31487 0.14247
0.02535 0.31487 0.14954
0.05502 0.31487 0.12494
0.01555 0.08982 0.00491
0.01563 0.03429 0.00461
0.01531 0.00332 0.00581
0.08344 -0.32035 0.04307
-0.25465 0.31839 -0.05650
-0.00768 0.31116 0.26060
-0.01499 0.24846 -0.00661
-0.01499 0.05924 -0.00661
0.06277 -0.30610 -0.03529
0.06887 -0.30845 -0.03552
0.05956 -0.30643 -0.04252
-0.00004 0.16202 0.01629
-0.00036 0.05414 0.01629
-0.00054 0.29919 0.01629
-0.00752 -0.28201 -0.00775
0.18896 0.30961 0.19494
0.17287 0.31744 0.21103
0.02065 0.32035 -0.26176
-0.04886 0.31487 0.03062
0.07317 0.32035 -0.26142
-0.14640 0.31119 0.22893
-0.12459 0.31465 0.24152
0.22438 0.31474 0.13256
0.06448 -0.32035 -0.06881
-0.03597 -0.31487 0.06095
-0.05918 -0.31487 0.06399
0.05198 -0.31487 0.01133
-0.05316 -0.31487 0.05994
-0.05041 -0.31487 0.05345
-0.03313 -0.31487 0.04108
-0.08451 -0.31487 0.05824
-0.25566 0.30940 0.05273
-0.11020 0.32035 -0.24259
-0.07468 0.32035 -0.25875
-0.14918 0.30961 -0.22732
0.03529 -0.29485 0.02981
-0.13357 0.31493 0.22380
0.01457 0.15840 -0.00734
0.01420 0.13907 -0.00798
0.01328 -0.08144 -0.00958
-0.11398 0.31487 0.05571
-0.22346 0.31074 -0.15587
-0.26422 0.31573 0.06276
-0.21253 0.31597 0.15308
-0.07146 -0.32035 0.06972
-0.23310 0.30939 0.11941
-0.23565 0.30939 0.12578
-0.00693 -0.08199 -0.01481
-0.00693 0.07396 -0.01481
0.21182 0.31487 -0.10429
0.11660 0.31487 -0.07949
0.22307 0.31487 -0.09527
0.16844 0.31487 -0.10756
0.15846 0.31487 -0.07189
0.20183 0.31487 -0.11562
0.19456 0.31487 -0.14227
0.12713 0.31487 -0.08560
0.20320 0.31487 -0.12943
0.12277 0.31487 -0.05743
0.18890 0.31487 -0.13728
0.13494 0.31487 -0.08659
0.17552 0.31487 -0.09963
0.03120 0.31487 -0.01896
0.15490 0.31487 -0.10079
0.18567 0.31487 -0.10539
0.20736 0.31487 -0.08764
0.22037 0.31487 -0.11189
0.17385 0.31487 -0.12403
0.18351 0.31487 -0.13148
0.14161 0.31487 -0.08594
0.12170 0.31487 -0.06332
0.22521 0.31487 -0.10500
0.26709 0.30939 -0.03691
0.01312 -0.26999 -0.00985
0.01437 0.04147 -0.00769
0.01479 0.16895 -0.00695
-0.05641 -0.32035 0.08236
0.05742 -0.31487 0.04352
0.03608 -0.31487 0.04812
0.02441 -0.31487 0.05291
-0.25610 0.32035 -0.06527
-0.26081 0.32035 -0.04272
-0.01545 -0.04096 0.00525
-0.01548 -0.09506 0.00516
-0.01525 -0.07802 0.00602
-0.01519 0.08159 0.00626
0.15930 0.31487 -0.01669
0.15219 0.31487 -0.04690
0.16265 0.31487 -0.02519
0.07588 0.31487 0.01690
0.05273 0.31487 0.01179
0.13678 0.31487 -0.02185
-0.00972 0.31487 0.07422
-0.01476 0.31487 0.04889
-0.06028 0.31487 0.07567
0.14039 0.31487 -0.03193
-0.02121 0.31487 0.07037
-0.04835 0.31487 0.08173
0.04299 0.31487 0.03056
0.14991 0.31487 -0.02954
0.23697 0.31487 -0.09684
0.06551 0.31487 0.01266
0.17478 0.31487 -0.04924
0.23257 0.31487 -0.08506
0.13763 0.31487 -0.03875
0.11568 0.31487 0.00736
0.21022 0.31487 -0.05936
0.09694 0.31487 0.03344
-0.12147 0.31487 0.11503
0.01701 0.31487 0.06026
0.17575 0.31487 -0.02152
0.15530 0.31487 -0.02385
0.09137 0.31487 0.03399
0.13848 0.31487 -0.01095
0.04700 0.31487 0.01614
-0.09633 0.31487 0.10335
0.02404 0.31487 0.02963
0.12957 0.31487 -0.02261
0.18668 0.31487 -0.03168
0.11592 0.31487 -0.02583
0.08516 0.31487 0.00383
0.05193 0.31487 0.03249
0.07809 0.31487 0.00049
0.01630 0.32035 0.26750
-0.10243 -0.31953 -0.02950
0.01351 0.24816 0.00918
0.01399 0.12160 0.00834
0.01384 0.13389 0.00861
0.01463 0.20696 0.00723
0.04423 0.32035 -0.26600
0.06337 0.31487 -0.20818
0.00380 0.31487 -0.17434
-0.06418 0.31487 -0.12245
0.00730 0.31487 -0.18501
-0.07986 0.31487 -0.13800
0.11284 0.31487 -0.19847
0.04343 0.31487 -0.17940
-0.15253 0.31487 -0.09194
0.09688 0.31487 -0.23123
-0.00715 0.31487 -0.15620
0.11482 0.31487 -0.19077
-0.02459 0.31487 -0.16471
0.04702 0.31487 -0.21149
-0.10173 0.31487 -0.10691
-0.06939 0.31487 -0.12951
0.01593 0.31487 -0.16975
-0.11649 0.31487 -0.10383
-0.22794 0.31487 -0.05204
0.12202 0.31487 -0.20714
-0.00326 0.31487 -0.15077
-0.03574 0.31487 -0.13835
-0.01338 0.31487 -0.15766
-0.11977 0.31487 -0.09389
0.02254 0.31487 -0.16014
-0.03996 0.31487 -0.14524
0.00204 -0.15197 0.01629
0.00153 -0.12191 0.01629
-0.00018 -0.31487 -0.01400
0.02820 -0.31487 -0.03638
-0.04765 -0.31487 0.00113
-0.03778 -0.31487 -0.00463
-0.06573 -0.31487 0.00204
-0.00407 -0.31487 -0.01992
-0.02976 -0.31487 -0.00352
0.00555 -0.31487 -0.02553
0.03538 0.31487 -0.03346
0.07678 -0.31593 -0.07394
0.00417 -0.15911 -0.01575
0.00393 -0.08460 -0.01581
0.00215 0.26393 -0.01629
0.00357 -0.01001 -0.01591
0.00258 -0.31487 -0.09333
0.03559 -0.29337 0.02346
0.07390 -0.30970 0.03281
0.07354 -0.31113 0.03996
-0.01175 -0.31911 -0.09229
0.08357 -0.31487 0.01673
-0.02702 -0.31487 0.07446
-0.04149 -0.31487 0.07309
-0.01301 -0.31487 0.07207
0.02620 -0.31487 0.04558
0.26060 0.31177 0.00954
0.23013 0.32035 -0.14241
0.24754 0.32035 -0.11357
0.25987 0.32035 0.06859
0.25151 0.32035 0.10042
0.19766 0.30939 0.18529
-0.06526 0.32035 0.26165
0.00137 -0.31545 0.10657
0.03818 -0.29881 0.03980
0.05115 -0.30907 0.06032
0.21230 0.31932 0.17160
-0.09630 -0.31487 -0.02817
0.17416 0.32035 -0.19685
0.01348 -0.31487 0.09158
0.00509 0.17426 -0.01550
0.00390 0.22720 -0.01582
0.00059 -0.12137 -0.01629
0.00046 -0.28116 -0.01629
-0.00092 0.04322 -0.01629
-0.00204 0.10625 -0.01629
0.20612 0.30939 0.17352
0.09720 0.31917 0.25499
0.08665 0.32009 0.25782
-0.12228 0.31975 -0.23032
-0.02319 -0.31175 0.08187
-0.01789 -0.29695 0.04780
0.22217 0.30939 -0.14714
-0.22711 0.32035 0.13371
0.14382 0.30939 -0.21809
-0.12123 0.31487 -0.20810
-0.06095 0.31487 -0.22153
-0.01348 0.31487 -0.24250
-0.09916 0.31487 -0.20652
-0.03842 0.31487 -0.23657
-0.10798 0.31487 -0.21179
-0.15384 0.31487 -0.18708
-0.10240 0.31487 -0.21554
-0.00822 0.31487 -0.25120
-0.09310 0.31487 -0.22267
0.00774 0.06752 -0.01434
0.00945 0.24907 -0.01335
0.00758 -0.00591 -0.01443
0.00693 -0.04253 -0.01480
0.22338 0.30939 0.13485
-0.25617 0.30939 0.07513
-0.10152 0.30939 0.24264
0.09900 -0.31487 0.00247
0.20900 0.32035 0.16167
0.05406 0.31487 -0.14877
0.05245 0.31487 -0.16262
-0.02128 0.31487 -0.12189
-0.10245 0.31487 -0.07199
-0.14658 0.31487 -0.03313
-0.00639 0.31487 -0.12645
-0.14303 0.31487 -0.05935
-0.05592 0.31487 -0.11107
-0.13863 0.31487 -0.07187
-0.16261 0.31487 -0.06608
-0.02493 0.31487 -0.10688
-0.10715 0.31487 -0.08049
-0.25576 0.31487 -0.00759
-0.16652 0.31487 -0.05378
0.06459 0.31487 -0.15354
-0.24818 0.31487 0.00792
0.03284 0.31487 -0.14832
-0.23710 0.31487 -0.01503
-0.01729 0.31487 -0.10799
-0.18021 0.31487 -0.06263
-0.07268 0.31487 -0.10337
-0.21512 0.31487 0.00746
-0.18489 0.31487 -0.02909
-0.09473 0.31487 -0.08988
-0.21028 0.31487 0.00287
-0.09817 0.31487 -0.09522
-0.24656 0.31487 0.01345
-0.15475 0.31487 -0.07749
-0.13771 0.31487 -0.06351
-0.15964 0.31487 -0.03999
-0.13365 0.31487 -0.08125
-0.11702 0.31487 -0.06441
-0.20763 0.31487 -0.01044
-0.24725 0.31487 -0.03285
-0.08499 0.31487 -0.10546
-0.11647 0.31487 -0.05327
-0.20178 0.31487 -0.01002
-0.22754 0.31487 -0.04331
-0.23669 0.31487 0.00012
-0.17239 0.31487 -0.05479
-0.00311 0.31487 -0.11830
-0.16208 0.31487 -0.03058
-0.15211 0.31487 -0.04763
-0.24940 0.31487 0.01925
-0.14339 0.31487 -0.04359
-0.01827 -0.31487 -0.07932
-0.06566 -0.31487 -0.04437
-0.01852 -0.31487 -0.05577
-0.05938 -0.31487 -0.04062
-0.00051 -0.31487 -0.07991
0.03175 -0.31487 -0.08580
-0.03952 -0.31487 -0.06199
-0.00359 -0.29689 0.05069
-0.00376 -0.30738 0.07495
-0.10633 0.31487 -0.23293
-0.09644 0.31487 -0.24369
0.00798 -0.28201 0.00630
-0.25857 0.30939 -0.05460
0.26335 0.32035 0.03746
-0.02213 -0.31487 -0.01756
-0.01220 -0.31487 -0.02430
-0.02508 -0.31487 -0.02616
0.03524 -0.31487 -0.04468
0.05537 -0.31487 -0.05486
-0.00852 0.00244 0.01389
-0.00896 0.12781 0.01363
-0.02256 -0.28792 -0.01982
-0.04607 -0.29487 0.00326
-0.01046 0.05768 0.01257
-0.01037 0.15412 0.01266
-0.01086 -0.10485 0.01217
-0.01061 -0.04579 0.01242
-0.01453 -0.14747 0.00741
-0.01416 -0.22533 0.00805
-0.01442 -0.16312 0.00759
-0.01455 -0.14157 0.00737
-0.26021 0.31346 0.07773
-0.25795 0.31061 0.08614
0.24696 0.31072 0.08521
-0.22711 0.31588 0.14955
-0.04489 -0.31487 0.08897
0.01953 0.31487 -0.03180
-0.08289 0.31487 -0.00014
-0.26458 0.32035 0.03145
0.26012 0.31567 -0.07806
0.25634 0.31727 -0.09215
-0.01879 0.31994 0.27146
0.02553 0.31863 0.27146
-0.16806 0.32035 0.20879
-0.18885 0.32035 0.18884
-0.01554 -0.29256 -0.03791
-0.26849 0.32035 -0.04433
-0.02439 -0.28577 0.00549
-0.08514 -0.31370 0.02856
-0.04252 -0.29426 0.01388
-0.00921 -0.08730 -0.01349
-0.00893 0.06723 -0.01365
-0.00981 0.10924 -0.01314
-0.00871 0.09573 -0.01378
-0.00878 -0.17485 -0.01374
0.08921 -0.31487 0.01195
0.05675 -0.31487 0.01938
0.02206 -0.31487 0.03359
-0.02349 -0.31487 0.05776
0.03546 -0.31487 0.02198
0.06622 -0.31487 0.00568
-0.08270 0.31985 -0.25887
-0.17068 0.31487 0.07258
-0.04309 0.31487 0.02403
0.04817 -0.31487 0.04024
0.04049 -0.31487 0.05178
0.01561 -0.10847 0.00467
0.01591 -0.08730 0.00355
0.01531 -0.07361 0.00579
-0.24845 0.32035 -0.11101
0.00146 -0.21088 -0.01629
-0.00094 -0.10635 -0.01629
0.00111 -0.13935 -0.01629
0.19166 0.31469 -0.17689
0.05290 0.31769 -0.25562
-0.02403 -0.30675 0.06963
-0.01251 -0.29866 0.05341
-0.01990 -0.30270 0.06106
0.24244 0.31436 0.12299
0.00965 -0.19041 0.01324
0.00980 0.14897 0.01315
0.00947 -0.14003 0.01334
0.15551 0.31016 0.21113
-0.08355 0.31417 0.24741
0.20971 0.32035 -0.16108
0.06595 -0.31487 0.06878
-0.06044 -0.30518 -0.03510
-0.04360 -0.29822 -0.03195
-0.07628 -0.31383 -0.04761
-0.07320 -0.30970 -0.03404
-0.01146 0.31445 -0.01157
-0.01246 0.22466 -0.01057
-0.01211 0.14860 -0.01092
-0.01051 -0.02163 -0.01252
-0.02303 -0.31487 -0.10319
0.07135 -0.31487 -0.03147
0.05532 -0.31487 -0.04028
0.02601 -0.31487 -0.01286
0.04580 -0.31487 -0.02535
0.02833 -0.31487 -0.02016
0.01663 -0.31487 -0.01486
0.04811 -0.31487 -0.03129
0.03193 0.31487 0.09438
-0.06522 0.31487 0.13312
0.08731 0.31487 0.05841
0.01297 0.31487 0.09639
-0.08288 0.31487 0.13679
-0.16376 0.31487 0.17399
-0.09208 0.31487 0.12601
-0.03187 0.31487 0.09122
0.10293 0.31487 0.03463
-0.14648 0.31487 0.19779
0.20851 0.31487 -0.00454
-0.16919 0.31487 0.15008
-0.14709 0.31487 0.13513
-0.15509 0.31487 0.19802
0.05942 0.31487 0.08156
-0.10547 0.31487 0.13926
-0.13501 0.31487 0.18449
0.01498 0.31487 0.08320
-0.17433 0.31487 0.15331
0.13413 0.31487 0.03643
0.19981 0.31487 -0.00790
-0.00030 0.31487 0.10535
0.07873 0.31487 0.06599
0.05557 0.31487 0.07255
0.13564 0.31487 0.02297
-0.06821 0.31487 0.10976
-0.15702 0.31487 0.14831
-0.06753 0.31487 0.12447
-0.14678 0.31487 0.16020
0.03494 0.31487 0.06359
-0.07260 0.31487 0.15416
0.05926 0.31487 0.05047
-0.11277 0.31487 0.17115
0.13713 0.31487 0.03169
-0.04703 0.31487 0.11092
-0.04799 0.31487 0.10119
-0.10890 0.31487 0.13026
-0.09615 0.31487 0.14680
-0.10038 0.31487 0.16174
-0.12886 0.31487 0.17357
0.04148 0.31487 -0.03786
0.19913 0.31487 -0.15323
-0.03380 -0.29287 0.02435
0.02855 0.31487 0.00153
0.03221 -0.28992 0.01325
0.05835 -0.30058 0.01127
0.06147 -0.30238 0.01564
0.11766 0.31578 0.24552
-0.11652 0.30939 -0.24301
-0.08919 0.30939 -0.25119
-0.15971 0.30939 -0.22060
-0.03897 -0.30374 -0.05443
-0.00485 -0.32035 -0.10375
-0.20483 0.30939 0.17788
-0.01774 0.31487 0.01809
-0.02893 0.31487 0.02112
0.01629 0.15106 -0.00085
0.01629 0.01465 -0.00197
0.22899 0.30939 -0.13883
-0.24820 0.31554 0.11302
-0.04139 -0.32035 0.09074
-0.02142 -0.30704 -0.07098
-0.01421 -0.29473 -0.04347
-0.01848 -0.30084 -0.05692
-0.09426 -0.32035 0.00241
-0.23353 0.32035 -0.13781
-0.08864 0.31062 0.25728
0.06568 0.30939 0.25925
0.04064 0.30939 0.26954
0.25566 0.30940 0.09468
0.23761 0.30939 0.11186
0.24900 0.32035 -0.08623
-0.05735 0.31487 -0.00365
0.13217 0.31564 0.22460
0.23789 0.32035 0.11175
-0.22657 0.31204 -0.12877
-0.09535 0.31487 0.04459
-0.07210 0.31487 0.03633
-0.03930 -0.31487 -0.02462
-0.04065 -0.31487 -0.03038
-0.06617 -0.31487 -0.00881
-0.03315 -0.31487 -0.03386
-0.07749 -0.31487 -0.00411
-0.08588 -0.31487 -0.00990
-0.00365 0.05509 -0.01588
-0.00222 0.25860 -0.01627
-0.00298 -0.04655 -0.01606
-0.00278 0.09444 -0.01612
0.16450 0.32035 0.20746
-0.20010 0.31338 -0.18380
-0.26244 0.31614 0.06937
-0.06061 -0.31507 -0.06984
-0.22921 0.31487 0.09487
-0.01599 -0.19613 -0.00327
-0.01563 -0.16696 -0.00460
-0.01556 -0.15173 -0.00485
-0.05403 -0.32035 0.08847
-0.16149 0.32035 -0.21042
-0.01400 0.18129 0.00832
-0.01437 0.11048 0.00769
-0.01461 0.16142 0.00727
-0.01312 0.24336 0.00984
-0.01428 0.15385 0.00783
-0.19504 0.30939 0.17726
-0.11331 0.32013 -0.23549
-0.01588 0.06912 -0.00367
-0.01599 0.26926 -0.00327
-0.01551 0.28351 -0.00506
0.25079 0.32035 0.09313
0.08250 -0.32035 -0.04169
-0.09890 -0.32035 0.02698
0.15255 0.32035 0.21477
-0.05128 0.31979 -0.25605
0.16166 0.31487 0.19548
0.10815 0.31487 0.22458
0.10801 0.31487 0.21811
0.12708 0.31487 0.21246
0.20361 0.31487 0.16460
-0.23863 0.31660 -0.10789
0.19026 0.32035 0.19065
-0.20564 0.30939 0.17215
-0.20426 0.30939 0.16445
0.00402 0.31487 0.03210
0.09300 0.31487 -0.02251
0.03011 0.31487 0.01582
0.04045 0.31487 0.00182
-0.05471 0.31487 0.06349
0.00474 0.31487 0.02330
0.08742 0.31487 -0.01692
0.06068 0.31487 -0.00532
-0.11068 0.31487 0.10106
-0.04069 0.31487 0.05148
-0.12642 0.31487 0.10645
-0.01666 0.31487 0.03632
0.01395 -0.13288 0.00841
-0.05566 -0.29922 -0.00923
0.08681 -0.31487 -0.03112
0.07891 -0.31487 -0.01846
0.02369 -0.31487 0.00180
0.00987 -0.31487 0.01805
0.00710 0.31487 0.00017
-0.12393 0.31487 0.05226
-0.15373 0.31487 0.06427
-0.00419 -0.21433 -0.01574
-0.00313 -0.22712 -0.01602
-0.20454 0.30939 -0.17225
-0.04777 0.31487 -0.25672
-0.12442 0.31487 -0.22726
-0.07756 0.31487 -0.24642
0.19620 0.30939 -0.18661
-0.11784 0.32035 -0.24453
0.10344 0.31487 -0.08157
0.04589 -0.31564 0.09657
0.03230 -0.32035 -0.09973
0.05531 0.31140 0.25497
-0.22670 0.30939 0.14379
-0.13024 0.31487 -0.18163
-0.16356 0.31487 -0.16992
-0.19129 0.31487 -0.13161
-0.23381 0.31487 -0.11579
-0.09215 0.31487 -0.20433
-0.13905 0.31487 -0.16427
-0.02436 0.31487 -0.22699
-0.08387 0.31487 -0.20638
-0.11008 0.31487 -0.19184
-0.17504 0.31487 -0.17122
-0.11149 0.31487 -0.19857
-0.03736 0.31487 -0.22262
-0.05867 0.31487 -0.21471
-0.14508 0.31487 -0.16810
-0.19854 0.31487 -0.14936
-0.15948 0.31487 -0.15342
-0.01269 0.31487 -0.23675
0.05540 -0.29951 -0.01250
-0.22752 0.31487 0.00187
-0.22033 0.31487 -0.02714
-0.22013 0.31487 -0.04239
-0.04669 0.31487 -0.09748
-0.06851 0.31487 -0.11303
-0.24818 0.31487 -0.01464
-0.01212 0.31487 -0.12561
-0.01189 0.31487 -0.13185
-0.15519 0.31487 -0.06557
-0.01812 0.31487 -0.12810
-0.14205 0.31487 -0.05257
-0.23832 0.31487 -0.02083
-0.20361 0.31487 -0.01715
0.00501 0.31487 -0.14237
-0.07830 0.31487 -0.09564
0.07333 0.31487 -0.15979
-0.07342 0.31487 -0.08398
-0.01016 0.31487 -0.11579
-0.19307 0.31487 -0.04032
0.04055 0.31487 -0.14774
-0.10929 0.31487 -0.08909
0.05801 0.31487 -0.15777
-0.05473 0.31487 -0.09002
-0.08511 0.31487 -0.07468
-0.21033 0.31487 -0.04547
-0.05849 0.31487 -0.08442
-0.15199 0.31487 -0.03700
-0.12487 0.31487 -0.08167
-0.03658 0.31487 -0.10572
-0.10639 0.31487 -0.09488
0.10647 0.32035 -0.25000
0.26206 0.30939 -0.02943
0.02893 -0.30167 0.05460
0.02624 -0.29736 0.04466
-0.01246 -0.25630 0.01058
-0.01007 -0.26985 0.01296
-0.01255 0.08769 0.01048
-0.01218 -0.05650 0.01085
-0.10655 -0.31833 0.01412
0.04214 0.30939 0.26385
0.09675 -0.32035 -0.00101
0.24783 0.30939 0.09894
-0.00262 -0.29976 -0.05738
-0.14656 0.30939 -0.21660
-0.11290 0.30939 -0.23766
0.15794 0.31487 -0.16309
0.16689 0.31487 -0.18177
0.13703 0.31487 -0.16232
0.16299 0.31487 -0.15304
0.03673 0.31487 -0.11672
0.05437 0.31487 -0.13017
0.00074 0.31487 -0.08469
-0.02386 0.31487 -0.09577
0.09632 0.31487 -0.17139
-0.15750 0.31487 -0.01090
0.10141 0.31487 -0.12802
0.11868 0.31487 -0.15047
0.01381 0.31487 -0.11571
-0.00974 0.31487 -0.09003
0.09763 0.31487 -0.15112
-0.17178 0.31487 -0.00990
0.06796 0.31487 -0.10809
0.08842 0.31487 -0.11659
-0.05889 0.31487 -0.06185
0.10330 0.31487 -0.17514
0.06037 0.31487 -0.13439
-0.11680 0.31487 -0.02757
-0.14984 0.31487 -0.02217
-0.00910 0.31487 -0.10262
0.04627 0.31487 -0.11000
0.10813 0.31487 -0.12617
-0.10687 0.31487 -0.03100
-0.12257 0.31487 -0.03795
-0.02277 0.31487 -0.07247
0.05707 0.31487 -0.10083
-0.00513 0.31487 -0.08331
0.16808 0.31487 -0.17561
0.00013 0.31487 -0.10519
0.11467 0.31487 -0.16930
0.13240 0.31487 -0.12951
-0.02099 0.31487 -0.07802
-0.25228 0.31487 0.03082
0.14688 0.31487 -0.14517
0.06663 0.31487 -0.11678
0.06952 0.31487 -0.12743
0.05695 0.31487 -0.10804
-0.13343 0.31487 -0.02468
-0.03409 0.31487 -0.09470
-0.05094 0.31487 -0.06480
0.00837 0.31487 -0.10006
0.00382 0.31487 -0.09070
-0.21524 0.31642 -0.14839
-0.01092 0.31811 0.26060
-0.17126 0.30939 -0.20632
-0.26509 0.30939 0.03649
0.00378 0.31341 -0.27146
-0.00624 -0.29208 0.03933
0.01141 0.26268 -0.01162
0.01007 0.11373 -0.01297
0.01066 0.04625 -0.01238
-0.04205 -0.31677 0.09878
-0.15740 0.31487 -0.00342
0.11321 0.31487 -0.11394
-0.00415 0.31487 -0.02940
-0.10701 0.31487 0.00256
-0.04708 0.31487 -0.02559
0.00651 0.31487 -0.07316
-0.03117 0.31487 -0.03696
-0.17179 0.31487 0.01143
0.01197 0.31487 -0.07721
0.17195 0.31487 -0.14264
-0.17785 0.31487 0.00204
-0.01776 0.31487 -0.04757
0.03201 0.31487 -0.05208
0.10254 0.31487 -0.10801
0.15237 0.31487 -0.13535
-0.19129 0.31487 0.01967
-0.13588 0.31487 0.00595
-0.00783 0.31487 -0.05307
-0.09315 0.31487 0.00162
0.08419 0.31487 -0.07982
-0.03985 0.31487 -0.03247
-0.02021 0.31487 -0.05698
0.02578 0.31487 -0.06662
0.04798 0.31487 -0.06023
0.07004 0.31487 -0.07622
-0.13882 0.31487 -0.00127
0.07145 0.32035 -0.25248
-0.20155 0.31492 -0.16699
0.14945 0.30939 -0.21671
-0.26612 0.30939 0.05488
0.07653 -0.31487 0.00519
0.00345 -0.31487 0.04786
0.06316 -0.31487 0.01125
-0.18842 0.31818 0.18013
-0.19918 0.31120 0.16936
0.09491 -0.32035 0.02167
-0.06046 -0.31680 0.08815
0.25299 0.32035 0.06793
0.00826 -0.28201 -0.00160
0.00667 -0.31487 0.08290
0.16299 0.32035 0.21395
0.10610 -0.31487 0.01133
0.07750 -0.31487 0.07154
-0.19810 0.31621 0.18580
-0.27146 0.31310 -0.00468
-0.27146 0.31058 0.01055
-0.24733 0.31330 0.08382
0.01048 -0.24832 0.01255
0.01183 -0.21283 0.01120
-0.01781 -0.28318 0.00689
-0.01294 0.30939 0.26363
-0.05163 -0.31487 0.09152
0.24143 0.31707 0.10303
-0.05114 -0.29706 0.00518
0.01332 0.08292 0.00950
0.01431 0.19161 0.00778
-0.02542 -0.28756 -0.01424
-0.15511 0.30939 0.21794
0.09444 0.31487 0.22040
0.01342 0.31487 0.25489
0.00988 0.31487 0.24450
0.08334 0.31487 0.21730
0.07005 0.31487 0.23301
0.03714 0.31487 0.25789
0.02794 0.31487 0.24704
0.05562 0.31487 0.23675
0.07909 -0.32035 -0.05342
-0.01359 0.08460 -0.00904
-0.01419 0.07305 -0.00800
-0.01345 -0.03484 -0.00929
-0.01453 0.27658 -0.00741
0.16412 0.32035 -0.21672
0.13056 0.32035 -0.23068
0.23666 0.31418 -0.13300
-0.08730 -0.31631 -0.03057
-0.02839 0.31487 -0.00431
0.17777 0.31081 0.19078
-0.01047 -0.26439 -0.01256
-0.01065 -0.16413 -0.01239
-0.01201 -0.24791 -0.01102
-0.07304 -0.31487 -0.00042
-0.05910 -0.31487 -0.01903
-0.04831 -0.31487 -0.01558
-0.08373 -0.31487 -0.00125
-0.09130 -0.31487 0.00578
0.13890 0.31192 0.23326
-0.00772 -0.05228 -0.01435
-0.00727 -0.15201 -0.01461
-0.00927 0.15373 -0.01346
0.06142 -0.30458 0.03072
0.04246 -0.29574 0.02258
0.04709 -0.29876 0.02848
0.10422 -0.32035 -0.00246
-0.01834 -0.31487 -0.09119
0.21764 0.31114 0.14423
-0.10687 0.32035 0.24469
0.22257 0.32035 -0.15049
0.07626 -0.30796 0.00703
0.03375 -0.28955 -0.00089
0.08306 -0.31091 0.00923
0.08363 -0.31111 -0.00193
0.26636 0.32035 -0.00415
-0.10975 0.31127 0.23755
-0.10471 -0.31487 -0.01297
-0.27146 0.31289 0.03490
-0.08982 -0.31487 -0.02308
0.25341 0.31010 0.10308
-0.10820 0.31487 0.01410
-0.01629 -0.03827 -0.00059
-0.01629 -0.21709 -0.00059
-0.01629 0.21156 -0.00140
-0.01629 0.24130 0.00078
-0.01629 0.19386 -0.00114
0.04234 -0.32035 -0.08523
0.26627 0.30939 0.01250
0.00422 -0.31487 -0.06629
0.05619 -0.31487 -0.07363
0.02103 -0.31487 -0.07366
0.02907 -0.31487 -0.06287
0.00422 -0.01559 0.01573
0.00277 -0.19568 0.01612
0.01962 -0.31487 -0.03375
-0.02091 -0.31487 -0.00578
-0.08292 -0.31487 0.00914
-0.09033 -0.31487 0.01396
-0.08083 -0.31487 0.01882
-0.05454 -0.31487 0.00976
0.01237 -0.31487 -0.02295
0.03343 -0.31487 0.09837
0.02691 -0.31487 -0.10148
0.08817 0.31487 -0.06499
0.04182 0.31487 -0.02826
0.01614 -0.22700 -0.00270
0.01607 -0.02103 -0.00295
0.01627 0.26329 -0.00223
0.01618 0.10314 -0.00255
-0.01080 0.19624 0.01223
-0.01099 0.02256 0.01204
-0.22714 0.31202 0.12778
0.06105 0.30996 0.26467
0.08194 0.30982 0.25908
-0.02763 -0.31487 0.08770
-0.07655 0.31664 0.24928
0.20635 0.30939 -0.16657
0.04369 0.31080 0.25809
0.05623 0.31487 0.11564
-0.03408 0.31487 0.14729
0.26055 0.31487 -0.01278
0.14481 0.31487 0.03785
0.16830 0.31487 0.06836
0.06105 0.31487 0.09187
0.13976 0.31487 0.07321
0.11199 0.31487 0.06669
0.09276 0.31487 0.08142
0.22928 0.31487 0.00163
0.25379 0.31487 -0.02958
0.17069 0.31487 0.03503
0.16383 0.31487 0.04911
0.03856 0.31487 0.10955
0.14591 0.31487 0.07734
0.14549 0.31487 0.04757
0.10447 0.31487 0.06924
0.06864 0.31487 0.09558
0.01596 0.31487 0.11410
0.20363 0.31487 0.03462
-0.01168 0.31487 0.13551
0.09134 0.31487 0.07586
-0.02635 0.31487 0.14315
0.02596 0.31487 0.11231
0.21624 0.31487 0.00476
0.20426 0.31487 0.00950
0.19468 0.31487 0.05528
0.23746 0.31487 0.01606
0.04267 0.31487 0.09655
-0.09898 0.31487 0.18265
-0.00578 0.31487 0.13533
0.24598 0.31487 0.01575
-0.12942 0.31609 0.23873
0.26367 0.30939 -0.04239
0.25740 0.30939 -0.08652
-0.00422 -0.32035 0.10305
0.05786 -0.32035 0.08602
-0.24412 0.31346 -0.09580
0.03264 -0.32035 -0.08805
-0.05603 -0.31711 0.07411
0.08696 0.31487 -0.02881
0.20372 0.32035 0.16652
0.00572 -0.32035 0.10148
-0.23478 0.31995 0.11454
-0.02694 0.31487 -0.08622
0.03272 0.31487 -0.09463
0.19290 0.31487 -0.16020
0.14432 0.31487 -0.19886
-0.05921 0.31487 -0.07717
0.17394 0.31487 -0.15859
0.14281 0.31487 -0.13973
0.13563 0.31487 -0.15565
0.08141 0.31487 -0.11912
-0.01855 0.31487 -0.08783
0.02236 0.31487 -0.12579
0.11904 0.31487 -0.12585
0.15190 0.31487 -0.16627
-0.10569 0.31487 -0.03924
0.02350 0.31487 -0.11311
0.18527 0.31487 -0.16759
0.10068 0.31487 -0.16136
-0.07750 0.31487 -0.05235
-0.08279 0.31487 -0.05492
0.11972 0.31487 -0.17902
-0.19987 0.31487 0.00851
0.17616 0.31487 -0.16863
-0.21820 0.31487 0.01642
0.00575 0.31487 -0.11555
0.01668 0.31487 -0.09969
0.11225 0.31487 -0.13949
-0.12796 0.31487 -0.04036
0.05773 0.31487 -0.11376
-0.00481 0.31487 -0.09750
-0.10385 0.31487 -0.05601
0.04330 0.31487 -0.12886
0.16141 0.31487 -0.18142
-0.03680 0.31487 -0.07944
0.15046 0.31487 -0.17872
-0.08667 0.31487 -0.04465
0.14494 0.31487 -0.16178
0.06278 0.31487 -0.14321
0.04233 0.31487 -0.10440
-0.03506 -0.29016 -0.00498
-0.07200 0.31879 0.26174
-0.21430 0.31487 0.10102
-0.13839 0.31487 0.07662
-0.16155 0.31487 0.07294
-0.06320 0.31487 0.04950
-0.18652 0.31487 0.09295
-0.20697 0.31487 0.11473
-0.14355 0.31487 0.08179
-0.16687 0.31487 0.12601
-0.19437 0.31487 0.09639
-0.12057 0.31487 0.09383
-0.14527 0.31487 0.06761
-0.09044 0.31487 0.07065
-0.19703 0.31487 0.11389
-0.13743 0.31487 0.09266
-0.13931 0.31487 0.09816
-0.22055 0.31487 0.11379
-0.05817 0.31487 0.05319
-0.11936 0.31487 0.06040
-0.09760 0.31487 0.08436
-0.15714 0.31487 0.10478
-0.22174 0.31487 0.13652
-0.07323 0.31487 0.05888
0.26150 0.31003 -0.07290
-0.03369 0.32035 0.26295
-0.01017 0.16877 -0.01286
-0.01081 0.03801 -0.01223
-0.01085 0.05856 -0.01219
-0.01102 0.10365 -0.01202
-0.06501 -0.32014 -0.06551
-0.04693 -0.29572 0.01022
0.19849 0.30939 -0.17823
-0.04717 -0.29537 -0.00317
-0.25433 0.30939 -0.09118
-0.00479 -0.26479 0.01558
-0.00329 -0.02047 0.01598
-0.00340 -0.27842 0.01595
-0.00310 0.11645 0.01603
-0.23960 0.32035 -0.11767
0.06745 -0.31487 -0.07810
0.06969 -0.30508 -0.00323
0.02922 -0.28761 0.00203
0.00830 -0.29055 0.03509
0.00616 -0.29313 0.04180
0.02460 -0.31206 0.08227
0.03482 -0.30199 -0.05204
0.02173 -0.29439 -0.03936
0.03599 -0.31354 -0.08236
0.03446 -0.29899 -0.04419
-0.03051 0.31209 -0.26060
0.00659 -0.30213 0.06290
0.04710 -0.31487 -0.06423
0.04676 -0.31487 -0.04827
0.01522 -0.31487 -0.03935
-0.00404 -0.31487 -0.03240
0.03855 -0.31487 -0.05277
0.01003 0.31560 0.27146
0.00564 -0.29210 -0.03955
-0.14104 0.31064 -0.21949
-0.08823 -0.31487 0.03893
0.03267 0.32035 0.26257
-0.13730 0.31487 0.06236
-0.01553 0.01266 0.00497
-0.01583 0.20994 0.00384
-0.01580 0.26688 0.00397
-0.01536 -0.01663 0.00562
-0.07243 0.31487 -0.21429
-0.17933 0.31487 -0.15396
-0.05416 0.31487 -0.21143
-0.14250 0.31487 -0.17443
-0.08746 0.31487 -0.19082
-0.13596 0.31487 -0.18235
-0.18737 0.31487 -0.14980
-0.09080 0.31487 -0.19649
-0.20597 0.31487 -0.13021
-0.11259 0.31487 -0.17936
-0.22697 0.31487 -0.11030
0.01554 -0.05777 -0.00493
0.01550 0.07554 -0.00507
0.01543 -0.03097 -0.00536
0.07169 -0.32035 -0.07885
-0.22515 0.30939 0.15262
0.18643 0.31804 0.19746
0.17782 0.31886 0.20608
-0.00796 0.26024 0.01421
-0.00944 0.28928 0.01336
0.00352 -0.04261 0.01592
0.00453 0.13258 0.01565
-0.04824 -0.31842 0.07870
-0.01246 -0.21639 0.01057
-0.01150 -0.11309 0.01154
-0.01174 0.04603 0.01130
-0.01246 0.17139 0.01057
0.09433 -0.32035 -0.04581
-0.06896 -0.30522 -0.01319
-0.08089 -0.31487 -0.05609
0.01111 0.10187 0.01192
0.01046 -0.16485 0.01257
0.01031 0.16690 0.01272
0.01034 -0.11693 0.01270
-0.01770 0.32035 0.26136
0.01602 -0.30856 -0.07619
0.01351 -0.29780 -0.05106
0.01544 -0.30159 -0.05962
0.01586 -0.29601 -0.04612
0.13885 0.31616 0.22075
-0.02391 -0.32035 0.10113
0.02365 -0.32035 -0.09492
-0.08740 0.31487 -0.22973
-0.03743 0.31487 -0.24341
0.01146 0.31487 -0.25799
-0.04991 0.31487 -0.22680
-0.03048 0.31487 -0.25154
-0.02760 0.31487 -0.24589
-0.12432 0.31487 -0.19728
0.10280 0.31984 0.24156
0.25209 0.30939 0.07370
0.00295 -0.16128 0.01607
0.00360 0.00233 0.01590
-0.03285 -0.31487 -0.09048
0.01614 -0.12424 -0.00271
0.01610 -0.07670 -0.00286
0.02739 -0.31487 0.09790
0.01300 -0.28593 -0.02179
