-0.02965 -0.27696 0.01890
-0.05708 -0.27696 0.00806
0.00778 -0.21133 -0.02975
0.00783 -0.18067 -0.02974
0.00457 0.27677 -0.03017
0.00307 0.26709 -0.03037
0.08144 -0.28359 0.00471
-0.07966 0.30773 0.15372
0.15251 0.30773 -0.10796
0.27260 0.30773 -0.17178
-0.04117 0.30773 0.21393
0.21215 0.30773 -0.08689
-0.10988 0.30773 0.11760
-0.13604 0.30773 0.16948
0.19387 0.30773 0.04839
0.22631 0.30773 0.00406
0.23986 0.30773 0.01306
0.24790 0.30773 -0.02030
0.19109 0.30773 0.14632
0.29323 0.30773 -0.20478
0.21340 0.30773 0.09666
0.18618 0.30773 -0.14237
0.06200 0.30773 0.07257
-0.03866 0.30773 0.23245
-0.17550 0.30773 0.18638
-0.12120 0.30773 0.16620
-0.18109 0.30773 0.24365
-0.01748 0.30773 0.11392
0.08231 0.30773 0.00564
0.03579 0.30773 0.09360
0.27541 0.30773 -0.18903
0.27383 0.30773 -0.01235
-0.08557 0.30773 0.24004
0.14259 0.30773 0.17958
0.11728 0.30773 -0.03362
0.18973 0.30773 -0.03755
-0.10808 0.30773 0.10757
0.05360 0.30773 0.20642
0.26367 0.30773 -0.03609
-0.19793 0.30773 0.18220
-0.03105 0.30773 0.17453
0.14684 0.30773 0.23469
-0.17153 0.30773 0.19259
-0.06750 0.30773 0.15097
-0.06355 0.30773 0.16634
0.12130 0.30773 -0.04053
0.25538 0.30773 -0.17729
-0.22006 0.30773 0.20023
0.14538 0.30773 -0.02464
-0.09547 0.30773 0.09614
0.03414 0.30773 0.15284
0.04530 0.30773 0.17790
0.23966 0.30773 0.13334
0.17327 0.30773 0.00341
0.10460 0.30773 0.05647
0.23372 0.30773 -0.05699
-0.00662 0.30773 0.09138
-0.11703 0.30773 0.19848
-0.02284 0.30773 0.01993
-0.01250 0.30773 0.20485
-0.17116 0.30773 0.15243
0.21094 0.30773 0.04055
0.04430 0.30773 0.12929
0.24560 0.30773 -0.06896
-0.09092 0.30773 0.12411
0.21196 0.30773 0.01173
0.19482 0.30773 0.17354
0.20155 0.30773 0.13568
-0.13078 0.30773 0.24520
0.07234 0.30773 0.16217
0.26994 0.30773 -0.20510
0.30561 0.30773 0.16616
-0.17379 0.30773 0.17640
-0.16658 0.30773 0.20539
0.29464 0.30773 -0.08732
-0.07284 0.30773 0.09609
0.28293 0.30773 0.14409
0.12222 0.30773 -0.00059
0.18888 0.30773 -0.03174
0.30255 0.30773 -0.00028
0.06413 0.30773 0.19606
0.27940 0.30773 0.14014
0.15482 0.30773 0.20386
0.13140 0.30773 0.22705
-0.20735 0.30773 0.22539
0.11203 0.30773 0.04286
0.10567 0.30773 0.08389
0.12567 0.30773 0.17808
0.28084 0.30773 -0.16825
0.28521 0.30773 0.18208
0.21799 0.30773 -0.00017
-0.15698 0.30773 0.19264
-0.12563 0.30773 0.18569
-0.01943 0.30773 0.15309
0.09012 0.30773 0.14919
0.14065 0.30773 0.00774
0.06120 0.30773 0.11802
0.15983 0.30773 0.15080
0.29779 0.30773 -0.00255
0.29363 0.30773 -0.01434
0.19137 0.30773 0.11857
-0.07162 0.30773 0.08370
0.16574 0.30773 -0.02832
0.04270 0.30773 0.16384
-0.06647 0.30773 0.09499
0.27467 0.30773 -0.19636
0.29660 0.30773 0.13432
0.16471 0.30773 0.14993
0.11533 0.30773 0.21730
0.17850 0.30773 0.07550
-0.02506 0.30773 0.21764
0.28807 0.30773 0.00141
-0.02792 0.30773 0.10421
0.01562 0.30773 0.14773
0.23954 0.30773 0.15913
0.15419 0.30773 0.07905
0.16062 0.30773 -0.12320
0.26544 0.30773 -0.04612
0.19477 0.30773 0.13616
0.27276 0.30773 0.20575
0.20480 0.30773 -0.09653
0.09847 0.30773 0.04883
0.14629 0.30773 0.10904
0.29482 0.30773 0.02872
0.29747 0.30773 -0.13152
0.20516 0.30773 -0.10639
0.11762 0.30773 0.04627
0.21214 0.30773 0.24135
0.30430 0.30773 0.15960
0.06191 0.30773 0.20294
0.02830 0.30773 0.18024
0.21832 0.30773 0.23120
0.08573 0.30773 0.01882
0.29884 0.30773 0.17010
0.01060 0.30773 0.19297
0.20435 0.30773 0.02009
0.10606 0.30773 0.14314
-0.01694 0.30773 0.16267
0.08832 0.30773 -0.02179
0.15416 0.30773 0.13312
0.22561 0.30773 -0.02153
0.24769 0.30773 0.23111
-0.13729 0.30773 0.21987
0.27278 0.30773 -0.04539
0.11237 0.30773 0.01693
-0.14160 0.30773 0.20619
0.16825 0.30773 0.17872
0.08526 0.30773 0.04224
-0.06320 0.30773 0.07569
0.15173 0.30773 -0.05920
-0.07270 0.30773 0.13804
0.30455 0.30773 -0.20505
0.08688 0.30773 0.07561
-0.07288 0.30773 0.12077
0.20210 0.30773 0.10851
0.09762 0.30773 0.05393
0.16970 0.30773 0.22321
-0.03865 0.30773 0.06385
0.14928 0.30773 -0.00094
0.20366 0.30773 -0.04564
0.26195 0.30773 -0.08653
0.14711 0.30773 0.14343
0.17715 0.30773 0.11059
0.16090 0.30773 -0.05830
-0.10485 0.30773 0.12093
-0.01019 0.30773 0.18919
0.22786 0.30773 0.17201
-0.07865 0.30773 0.06957
0.25856 0.30773 0.15363
0.08264 0.30773 -0.03919
0.10264 0.30773 0.11628
0.30669 0.30773 0.09036
0.22313 0.30773 -0.11760
0.26792 0.30773 0.22594
0.30028 0.30773 0.05203
0.26781 0.30773 0.18397
0.21707 0.30773 0.20250
0.29765 0.30773 0.11536
-0.04314 0.30773 0.16917
-0.12121 0.30773 0.13080
0.30245 0.30773 -0.03995
0.10109 0.30773 0.01890
-0.01087 0.30773 0.05916
-0.14808 0.30773 0.17664
0.16677 0.30773 0.09753
0.14124 0.30773 0.18449
0.06944 0.30773 0.00908
0.24256 0.30773 -0.14501
0.20578 0.30773 0.17799
-0.14130 0.30773 0.15657
-0.11979 0.30773 0.17146
0.19449 0.30773 -0.12231
-0.10900 0.30773 0.09783
-0.25480 0.30773 0.20988
0.24812 0.30773 0.00179
0.08557 0.30773 0.06291
-0.05994 0.30773 0.20918
0.15126 0.30773 0.20763
-0.03599 0.30773 0.05186
0.21626 0.30773 0.18662
0.07702 0.30773 0.05235
0.25699 0.30773 -0.05801
0.20385 0.30773 0.01272
0.17120 0.30773 0.21036
0.22149 0.30773 0.23832
0.10996 0.30773 0.09702
0.30326 0.30773 -0.04933
0.22010 0.30773 -0.14940
0.23389 0.30773 0.12300
0.24807 0.30773 -0.08736
-0.04515 0.30773 0.13802
0.28070 0.30773 0.09788
0.13156 0.30773 0.13083
0.18949 0.30773 0.01585
0.03932 0.30773 0.13709
-0.00778 0.30773 0.11342
0.11337 0.30773 0.06047
0.26895 0.30773 0.24306
-0.04504 0.30773 0.05980
0.09641 0.30773 -0.05045
0.27886 0.30773 0.10738
0.05310 0.30773 0.14815
0.12295 0.30773 -0.02852
0.23827 0.30773 0.17913
0.08279 0.30773 0.13374
0.28761 0.30773 -0.04577
0.16176 0.30773 -0.11027
0.08972 0.30773 -0.01370
-0.06186 0.30773 0.23591
-0.05545 0.30773 0.06960
0.07286 0.30773 0.10680
0.21280 0.30773 0.16035
-0.04211 0.30773 0.15193
-0.10702 0.30773 0.17428
0.17580 0.30773 0.02728
0.09780 0.30773 0.13713
0.24526 0.30773 -0.13167
-0.19911 0.30773 0.23470
0.29506 0.30773 0.19467
0.17312 0.30773 -0.12629
0.26619 0.30773 0.23805
0.17140 0.30773 0.06194
0.02387 0.30773 0.16188
0.21500 0.30773 0.04382
0.00113 0.30773 0.04738
0.10088 0.30773 0.20756
0.26543 0.30773 -0.16029
-0.08062 0.30773 0.07927
0.15900 0.30773 0.12171
0.22312 0.30773 -0.05142
0.00440 0.30773 0.07852
0.29251 0.30773 -0.22587
0.18578 0.30773 -0.11425
0.21293 0.30773 -0.13765
0.23157 0.30773 0.09494
-0.05697 0.30773 0.11370
0.11167 0.30773 0.03760
-0.05121 0.30773 0.08596
0.10440 0.30773 0.16385
0.08118 0.30773 0.06419
0.29768 0.30773 0.06549
-0.00736 0.03868 -0.02981
-0.00606 -0.11573 -0.02998
-0.00596 -0.08500 -0.02999
-0.00730 0.08984 -0.02981
-0.02293 -0.27696 -0.06495
0.03064 -0.27696 -0.05965
0.04272 -0.27696 -0.06812
-0.03033 0.19125 -0.00337
-0.03051 0.01783 -0.00201
-0.03070 0.08235 -0.00053
-0.03058 -0.17258 -0.00148
0.19046 0.28559 0.24618
0.01007 0.30142 0.24618
0.18585 0.28563 0.24618
0.12230 0.29244 0.24618
-0.04529 0.29639 0.24618
0.26910 0.28469 0.24618
0.21500 0.29750 0.24618
0.25801 0.29186 0.24618
0.28767 0.30101 0.24618
-0.13181 0.30060 0.24618
-0.14905 0.30282 0.24618
0.05754 0.29749 0.24618
0.20288 0.28792 0.24618
0.05121 0.29672 0.24618
0.02984 0.13907 -0.00712
0.03028 0.22755 -0.00371
0.02987 -0.06562 -0.00686
0.02960 -0.28428 0.00826
-0.03039 0.09169 -0.00290
-0.03043 0.17927 -0.00264
-0.03063 -0.00765 -0.00110
-0.01546 -0.28709 0.02659
0.02702 -0.29063 -0.01448
0.00998 -0.27696 0.04411
-0.01492 -0.27696 0.04213
0.00068 0.01512 0.03068
0.00044 -0.24290 0.03072
0.00531 0.17194 0.03007
0.00046 -0.11307 0.03071
-0.02582 -0.28655 0.07737
-0.02761 -0.12572 0.01308
-0.02772 -0.23016 0.01280
-0.02751 -0.18842 0.01331
-0.02957 0.12415 0.00833
0.12697 0.27696 0.11556
0.21191 0.27696 0.17672
0.12316 0.27696 0.11072
0.05466 -0.29681 -0.06061
-0.00402 0.27696 -0.19990
-0.10390 0.27696 -0.20876
0.17706 0.27696 -0.19686
-0.00409 0.27696 -0.23553
0.09293 0.27696 -0.24283
-0.19195 0.27696 -0.18228
0.03615 0.27696 -0.12097
-0.08395 0.27696 -0.21485
0.00502 0.27696 -0.19125
0.11171 0.27696 -0.22205
-0.05962 0.27696 -0.12581
-0.04168 0.27696 -0.21906
0.03465 0.27696 -0.20370
-0.23406 0.27696 -0.23428
0.08033 0.27696 -0.09188
-0.07697 0.27696 -0.23281
0.11577 0.27696 -0.19370
0.12015 0.27696 -0.12608
0.13901 0.27696 -0.24074
0.12339 0.27696 -0.16272
0.03722 0.27696 -0.23595
0.06948 0.27696 -0.10842
0.15064 0.27696 -0.22638
0.19695 0.27696 -0.21099
0.10295 0.27696 -0.14559
0.15929 0.27696 -0.17608
0.17031 0.27696 -0.16486
-0.01663 0.27696 -0.18400
-0.06129 0.27696 -0.21869
0.16519 0.27696 -0.19237
-0.13876 0.27696 -0.20707
0.01740 0.27696 -0.08152
-0.18078 0.27696 -0.24375
-0.20594 0.27696 -0.18399
0.13004 0.27696 -0.19427
-0.18326 0.27696 -0.21304
-0.06968 0.27696 -0.20573
-0.00390 0.27696 -0.07495
0.25263 0.27696 -0.24086
0.08946 0.27696 -0.15025
0.00862 0.27696 -0.17384
0.19338 0.27696 -0.20080
-0.07967 0.27696 -0.22810
0.27165 0.27696 -0.22739
-0.02972 0.27696 -0.07347
0.04092 0.27696 -0.12692
0.10739 0.27696 -0.16327
-0.00507 0.27696 -0.03524
-0.23778 0.27696 -0.21399
-0.10038 0.27696 -0.16452
-0.12932 0.27696 -0.16936
0.03277 0.27696 -0.11045
-0.05473 0.27696 -0.08475
0.02556 0.27696 -0.21272
-0.02756 0.27696 -0.18459
0.09183 0.27696 -0.11821
-0.07555 0.27696 -0.18028
-0.06255 0.27696 -0.13036
0.06718 0.27696 -0.19607
0.01599 0.27696 -0.16500
0.03583 0.27696 -0.20952
0.18046 0.27696 -0.22030
-0.09163 0.27696 -0.23800
0.15377 0.27696 -0.15696
-0.04365 0.27696 -0.10593
-0.02108 0.27696 -0.09111
-0.01593 0.27696 -0.08799
-0.13400 0.27696 -0.20090
0.11836 0.27696 -0.21762
0.00857 0.27696 -0.13302
-0.13820 0.27696 -0.19284
0.08367 0.27696 -0.19189
0.00403 0.27696 -0.11020
0.22974 0.27696 -0.24596
-0.14683 0.27696 -0.18198
-0.22259 0.27696 -0.23604
0.12792 0.27696 -0.16106
-0.20737 0.27696 -0.19476
-0.16707 0.27696 -0.20108
0.14028 0.27696 -0.22367
-0.11419 0.27696 -0.12323
0.01897 0.27696 -0.18891
-0.00183 0.27696 -0.07067
0.18742 0.27696 -0.23749
-0.07540 0.27696 -0.12462
-0.03578 0.27696 -0.17374
0.12554 0.27696 -0.18370
0.07777 0.27696 -0.17373
0.08375 0.27696 -0.17233
0.02252 0.27696 -0.07314
0.09223 0.27696 -0.22891
0.17036 0.27696 -0.17464
-0.09545 0.27696 -0.15874
-0.20781 0.27696 -0.18921
0.10226 0.27696 -0.13501
0.00993 0.27696 -0.08765
0.02457 0.27696 -0.14982
-0.03549 0.27696 -0.08827
0.19359 0.27696 -0.23411
-0.15821 0.27696 -0.22259
0.03303 0.27696 -0.08996
0.03822 0.27696 -0.15070
0.15637 0.27696 -0.16900
0.05587 0.27696 -0.13864
-0.02733 0.27696 -0.16816
-0.11075 0.27696 -0.16429
0.18593 0.27696 -0.19590
-0.02866 0.27696 -0.10044
0.01358 0.27696 -0.05978
-0.04220 0.27696 -0.15334
-0.05352 0.27696 -0.11925
-0.13959 0.27696 -0.20037
-0.01710 -0.30773 0.04956
-0.04989 -0.30773 0.04823
0.03026 -0.28557 0.00387
-0.01504 -0.23062 -0.02679
-0.01112 -0.07543 -0.02842
-0.01387 -0.10509 -0.02728
-0.01291 -0.15096 -0.02768
0.22220 0.27696 -0.17069
0.05429 0.27696 -0.02806
0.00124 -0.30773 -0.05990
-0.03008 -0.08383 -0.00530
-0.02992 -0.14427 -0.00645
-0.03021 -0.22484 -0.00429
-0.02994 -0.07212 -0.00636
-0.02140 -0.30773 0.07228
-0.08189 -0.28034 -0.00128
-0.30773 0.28867 0.17235
-0.30773 0.28896 0.11098
-0.30773 0.28947 0.15993
-0.30773 0.28421 0.07027
-0.30773 0.27915 -0.08680
-0.30773 0.28889 0.16551
-0.30773 0.28116 0.19669
-0.30773 0.28334 0.11841
-0.30773 0.28187 -0.15239
-0.30773 0.28857 0.11568
-0.30773 0.28343 0.15564
-0.30773 0.28869 0.13988
-0.30773 0.29238 0.05428
0.01292 0.14209 -0.02767
0.01062 0.17067 -0.02862
0.01451 0.26731 -0.02702
0.01442 0.18083 -0.02705
0.04086 -0.30773 0.01804
-0.00059 0.07770 0.03070
-0.00084 0.08297 0.03066
-0.00466 -0.07380 0.03016
-0.00452 -0.09148 0.03018
-0.06572 -0.30773 -0.02542
-0.04004 0.27696 0.20372
0.13932 0.27696 0.23676
-0.03217 0.27696 0.17049
0.08219 0.27696 0.19480
-0.19634 0.27696 0.23320
0.00768 0.27696 0.20020
-0.22571 0.27696 0.21616
-0.08126 0.27696 0.16468
0.07453 0.27696 0.15532
0.07040 0.27696 0.16789
0.21029 0.27696 0.18557
0.12009 0.27696 0.18189
-0.14460 0.27696 0.16455
-0.05440 0.27696 0.23249
0.08871 0.27696 0.12247
-0.05340 0.27696 0.14613
-0.06230 0.27696 0.19202
-0.00185 0.27696 0.05828
-0.03378 0.27696 0.23327
-0.06207 0.27696 0.06302
0.02739 0.27696 0.08711
0.12894 0.27696 0.24534
0.06207 0.27696 0.17926
-0.01387 0.27696 0.24042
-0.13098 0.27696 0.17813
-0.09653 0.27696 0.16806
-0.23914 0.27696 0.20843
-0.03835 0.27696 0.12356
0.02839 0.27696 0.19318
-0.15137 0.27696 0.21362
-0.08039 0.27696 0.19703
0.07112 0.27696 0.19374
-0.20253 0.27696 0.22310
-0.04229 0.27696 0.09068
-0.06015 0.27696 0.24543
0.06310 0.27696 0.16811
-0.05293 0.27696 0.22190
-0.06581 0.27696 0.11415
0.13651 0.27696 0.14807
0.16452 0.27696 0.18943
0.19876 0.27696 0.19232
-0.25826 0.27696 0.21591
0.27706 0.27696 0.23639
-0.27310 0.27696 0.24163
-0.10866 0.27696 0.20291
-0.26396 0.27696 0.22047
0.05244 0.27696 0.07788
-0.04641 0.27696 0.06141
0.04849 0.27696 0.17128
-0.17413 0.27696 0.18655
0.05577 0.27696 0.11845
-0.13271 0.27696 0.14511
-0.00176 0.27696 0.12944
0.06460 0.27696 0.20334
0.10353 0.27696 0.12517
-0.01690 0.27696 0.16082
0.01818 0.27696 0.18649
0.05158 0.27696 0.19936
0.11140 0.27696 0.22973
-0.27847 0.27696 0.24410
0.05623 0.27696 0.12490
0.13392 0.27696 0.16999
-0.06508 0.27696 0.20802
0.02469 0.27696 0.15855
0.01562 0.27696 0.15291
0.08479 0.27696 0.16832
0.17860 0.27696 0.21275
0.17791 0.27696 0.22465
0.09611 0.27696 0.23785
0.11335 0.27696 0.24235
-0.00378 0.27696 0.13840
0.16712 0.27696 0.16668
0.13693 0.27696 0.15901
0.00392 0.27696 0.06602
-0.18356 0.27696 0.18397
-0.19781 0.27696 0.19535
-0.09242 0.27696 0.10259
0.01542 0.27696 0.06132
-0.25707 0.27696 0.23910
-0.02421 0.27696 0.04733
-0.16700 0.27696 0.18715
-0.21289 0.27696 0.19308
-0.08970 0.27696 0.12549
0.15177 0.27696 0.16592
0.14342 0.27696 0.15492
-0.11764 0.27696 0.13895
-0.03153 0.27696 0.12139
0.09379 0.27696 0.19330
0.16584 0.27696 0.19671
0.05143 0.27696 0.14308
-0.12566 0.27696 0.12898
0.08828 0.27696 0.18090
-0.03047 0.27696 0.13524
0.09782 0.27696 0.16574
-0.16895 0.27696 0.18205
0.19402 0.27696 0.17741
-0.21927 0.27696 0.22539
0.22573 0.27696 0.20162
0.13120 0.27696 0.15446
-0.08434 0.27696 0.11103
-0.08433 0.27696 0.19394
-0.05205 0.27696 0.17870
-0.07393 0.27696 0.07785
0.08247 0.27696 0.17476
0.21820 0.27696 0.19995
-0.21766 0.27696 0.20956
-0.10071 0.27696 0.13340
-0.10545 0.27696 0.14409
-0.17615 0.27696 0.20815
0.06563 0.27696 0.08926
0.10149 0.27696 0.18793
0.09450 0.27696 0.23132
0.17329 0.27696 0.21618
-0.03354 0.27696 0.19845
0.30773 0.30082 -0.21415
0.30773 0.28892 -0.14476
0.30773 0.29004 -0.12854
0.30773 0.27871 -0.01614
0.30773 0.30151 -0.19827
0.30773 0.29178 -0.07711
0.30773 0.27938 0.15307
0.30773 0.28315 -0.09993
0.30773 0.27756 -0.20600
0.30773 0.27850 0.20695
0.30773 0.28129 0.13014
0.30773 0.28291 0.05925
0.30773 0.29968 -0.20297
0.30773 0.29184 -0.02206
-0.02687 0.27696 -0.02985
-0.17724 0.27696 -0.14628
-0.09820 0.27696 -0.08417
0.02860 -0.01201 0.01067
0.02965 -0.11797 0.00813
0.02718 0.18796 0.01412
0.02931 0.06221 0.00897
-0.00658 -0.30773 0.08076
-0.03574 -0.27696 -0.06120
0.02485 -0.30773 -0.07402
-0.30773 0.28531 -0.11119
-0.30773 0.28000 0.04229
-0.30773 0.28345 -0.00448
-0.30773 0.28137 0.20492
-0.30773 0.29744 0.15047
-0.30773 0.27955 -0.14736
-0.30773 0.27914 0.16312
-0.30773 0.27808 -0.10816
-0.30773 0.29072 0.21203
-0.30773 0.28552 0.04049
-0.30773 0.28632 -0.05275
-0.30773 0.27837 0.08903
-0.30773 0.30092 0.16749
-0.30773 0.30435 0.21192
0.04337 -0.30773 -0.05673
-0.05774 -0.30773 -0.04577
0.07959 -0.27912 0.01873
0.01046 -0.30773 -0.03697
0.05052 -0.30773 -0.04050
0.02718 0.22334 0.01411
0.02781 0.24462 0.01259
0.02810 0.07104 0.01188
0.02749 0.25663 0.01336
0.00247 0.09625 -0.03045
0.00684 -0.27696 0.06817
-0.00627 0.27035 0.02995
-0.00365 0.25139 0.03029
-0.00651 0.03042 0.02992
-0.01258 0.08225 -0.02781
-0.01116 0.03469 -0.02840
-0.01187 0.24853 -0.02811
-0.00797 0.17355 -0.02972
-0.20899 0.28097 0.24618
0.08115 0.27989 0.24618
0.05872 0.28669 0.24618
0.01071 0.28426 0.24618
-0.21808 0.29307 0.24618
0.18726 0.27882 0.24618
0.05883 0.28135 0.24618
-0.11044 0.29437 0.24618
-0.17008 0.27751 0.24618
-0.25610 0.27988 0.24618
-0.09301 0.29071 0.24618
-0.15104 0.29879 0.24618
-0.25485 0.28512 0.24618
-0.30515 0.29081 0.24618
-0.20383 0.27947 0.24618
-0.01707 0.13273 0.02536
-0.01827 0.24053 0.02444
-0.01967 -0.03491 0.02337
-0.01954 0.27362 0.02346
-0.01935 0.23566 0.02361
-0.01618 -0.27696 0.03037
0.05202 0.27696 -0.06229
0.19602 0.27696 -0.16759
-0.04625 -0.27696 0.05733
0.05531 -0.27696 0.04989
0.02389 0.15707 0.01898
0.02600 0.16912 0.01623
0.02449 0.25300 0.01820
0.02264 0.23524 0.02061
-0.03777 -0.29279 0.07242
-0.15737 0.27696 -0.10995
-0.13218 0.27696 -0.08700
0.07851 -0.30379 -0.02307
0.09840 0.27696 0.09978
0.06322 0.27696 0.07676
0.21374 0.27696 -0.17500
0.02766 0.27696 -0.03381
-0.00434 -0.30773 -0.00246
-0.10507 0.27696 -0.08507
-0.04824 0.27696 -0.03646
-0.26768 0.28897 -0.24618
0.03150 0.30170 -0.24618
-0.13090 0.30435 -0.24618
0.03732 0.29935 -0.24618
0.00508 0.29802 -0.24618
-0.28924 0.29093 -0.24618
-0.14383 0.30164 -0.24618
0.04661 0.30097 -0.24618
-0.29478 0.29767 -0.24618
-0.29590 0.30296 -0.24618
0.22900 0.30598 -0.24618
-0.00536 0.29622 -0.24618
-0.15427 0.30743 -0.24618
-0.18067 0.29098 -0.24618
0.19820 0.30552 -0.24618
-0.25168 0.29657 -0.24618
-0.09746 0.30773 -0.21077
-0.13282 0.30773 0.00919
-0.00339 0.30773 -0.01334
-0.15109 0.30773 0.06634
0.09039 0.30773 -0.22909
0.11281 0.30773 -0.14173
0.08667 0.30773 -0.18622
-0.19807 0.30773 0.01658
0.07890 0.30773 -0.07347
-0.24543 0.30773 -0.23285
-0.23006 0.30773 0.00034
-0.29885 0.30773 0.00735
-0.23858 0.30773 0.09054
-0.27755 0.30773 0.20145
-0.02018 0.30773 -0.09933
-0.26404 0.30773 0.02326
-0.01344 0.30773 -0.22376
-0.21582 0.30773 -0.09674
-0.19031 0.30773 -0.11927
-0.18564 0.30773 0.02722
-0.04071 0.30773 -0.00263
-0.28906 0.30773 0.19136
-0.16414 0.30773 -0.05966
0.04572 0.30773 -0.09740
-0.12513 0.30773 -0.08353
0.02994 0.30773 -0.07355
0.03167 0.30773 -0.12856
-0.20193 0.30773 0.12269
0.02420 0.30773 -0.12674
-0.29446 0.30773 0.07310
-0.27201 0.30773 -0.02905
-0.24800 0.30773 -0.11478
0.24599 0.30773 -0.23337
-0.16276 0.30773 -0.19525
0.07446 0.30773 -0.10588
-0.17835 0.30773 -0.09540
-0.20293 0.30773 0.11257
-0.18252 0.30773 -0.16606
-0.00398 0.30773 -0.22456
0.15328 0.30773 -0.15548
-0.09522 0.30773 0.00338
-0.14307 0.30773 -0.17756
0.21613 0.30773 -0.20261
0.05390 0.30773 -0.10545
0.03474 0.30773 -0.23760
-0.22911 0.30773 -0.16848
0.10323 0.30773 -0.11223
-0.06421 0.30773 -0.01583
0.25576 0.30773 -0.23570
0.06146 0.30773 -0.09215
-0.02765 0.30773 -0.10734
-0.12065 0.30773 0.00548
-0.01009 0.30773 -0.18447
-0.16111 0.30773 -0.23624
-0.01525 0.30773 -0.08021
0.12834 0.30773 -0.22968
-0.25207 0.30773 -0.24090
0.00984 0.30773 -0.01462
-0.23800 0.30773 0.16372
-0.15259 0.30773 -0.07338
-0.10586 0.30773 -0.14533
0.23649 0.30773 -0.20700
-0.23438 0.30773 0.02547
-0.13223 0.30773 -0.21632
0.16203 0.30773 -0.13146
0.07429 0.30773 -0.21008
-0.14246 0.30773 -0.10412
0.02536 0.30773 -0.11355
-0.12663 0.30773 -0.14751
-0.10112 0.30773 -0.19802
-0.12212 0.30773 0.08702
-0.21917 0.30773 -0.02956
0.11736 0.30773 -0.13709
0.07647 0.30773 -0.24566
-0.24955 0.30773 -0.19335
-0.09923 0.30773 -0.23212
-0.20143 0.30773 -0.22781
-0.26429 0.30773 0.14806
-0.30507 0.30773 0.19658
-0.30556 0.30773 0.08181
-0.28930 0.30773 -0.16822
-0.29065 0.30773 0.01104
-0.17825 0.30773 0.08597
-0.15204 0.30773 -0.23466
-0.15430 0.30773 0.10218
-0.29899 0.30773 0.09854
-0.30363 0.30773 0.07779
-0.28517 0.30773 -0.13078
-0.24032 0.30773 0.06411
-0.11632 0.30773 -0.00642
0.28427 0.30773 -0.23836
0.01157 0.30773 -0.02373
-0.09615 0.30773 -0.09701
-0.29224 0.30773 0.00322
0.09014 0.30773 -0.13615
-0.09382 0.30773 -0.11999
0.01994 0.30773 -0.21882
-0.21957 0.30773 -0.07783
-0.25879 0.30773 0.19464
0.15270 0.30773 -0.17419
-0.05070 0.30773 -0.11068
-0.15072 0.30773 0.02211
0.07830 0.30773 -0.19294
-0.22933 0.30773 0.13883
-0.24759 0.30773 -0.14916
-0.12268 0.30773 0.03209
-0.30126 0.30773 -0.13248
-0.25619 0.30773 -0.08734
-0.19385 0.30773 -0.16246
-0.26792 0.30773 -0.14309
0.00247 0.30773 -0.23644
0.08314 0.30773 -0.10225
-0.26714 0.30773 0.08091
-0.21122 0.30773 -0.12655
-0.15528 0.30773 -0.11179
0.01269 0.30773 -0.21227
-0.21384 0.30773 -0.10980
0.13835 0.30773 -0.13639
-0.17953 0.30773 -0.15984
-0.30234 0.30773 -0.21273
0.03672 0.30773 -0.19282
-0.06229 0.30773 -0.20711
-0.27158 0.30773 0.09542
-0.21332 0.30773 0.11989
0.14044 0.30773 -0.21988
-0.13259 0.30773 -0.10781
0.04588 0.30773 -0.18085
-0.27351 0.30773 0.10058
-0.21916 0.30773 0.11636
-0.01303 0.30773 -0.09547
-0.29747 0.30773 -0.20502
-0.26295 0.30773 0.11693
-0.09588 0.30773 -0.22078
-0.29381 0.30773 0.10442
-0.10186 0.30773 0.07776
-0.20656 0.30773 0.03284
0.11590 0.30773 -0.10748
-0.10033 0.30773 0.06483
0.07558 0.30773 -0.23155
-0.15837 0.30773 -0.10207
-0.16726 0.30773 -0.21329
-0.24304 0.30773 -0.24176
-0.12680 0.30773 0.09437
-0.19377 0.30773 -0.15101
0.11236 0.30773 -0.12810
0.11080 0.30773 -0.11652
0.26141 0.30773 -0.23975
-0.19540 0.30773 0.13167
-0.20935 0.30773 -0.01668
-0.07638 0.30773 -0.11404
-0.23976 0.30773 -0.10134
-0.06900 0.30773 -0.20419
0.00897 0.30773 -0.22805
-0.08287 0.30773 -0.02583
-0.06077 0.30773 0.04753
-0.10745 0.30773 -0.10080
-0.03504 0.30773 0.01986
-0.21498 0.30773 -0.06894
-0.12018 0.30773 -0.12500
-0.21296 0.30773 0.05744
-0.12931 0.30773 -0.20767
-0.29517 0.30773 -0.11102
-0.07743 0.30773 -0.12865
0.09224 0.30773 -0.24242
0.01325 0.30773 -0.16147
-0.00359 0.30773 -0.13064
-0.10335 0.30773 -0.15188
-0.13725 0.30773 -0.13492
0.19218 0.30773 -0.20321
-0.01824 0.30773 -0.16945
-0.28189 0.30773 -0.19757
0.09072 0.30773 -0.09417
-0.08434 0.30773 -0.18541
0.10733 0.30773 -0.10698
0.12312 0.30773 -0.20796
0.13631 0.30773 -0.14863
-0.21953 0.30773 -0.23767
0.10224 0.30773 -0.17945
0.00938 0.30773 -0.03680
-0.02385 0.30773 -0.22897
-0.27785 0.30773 0.05591
-0.00798 0.30773 -0.11540
-0.27325 0.30773 -0.12826
0.04742 0.30773 -0.08887
0.04782 0.30773 -0.14998
0.06920 0.30773 -0.07162
-0.21609 0.30773 -0.14716
0.15298 0.30773 -0.18806
-0.13469 0.30773 0.03018
-0.26845 0.30773 0.10224
-0.28398 0.30773 0.02435
-0.21316 0.30773 -0.13114
-0.18235 0.30773 -0.11760
-0.27824 0.30773 -0.08385
-0.26532 0.30773 -0.16583
-0.24446 0.30773 0.01426
0.09068 0.30773 -0.16947
0.23957 0.30773 -0.21864
-0.19862 0.30773 -0.07599
0.13583 0.30773 -0.15992
-0.08236 0.30773 -0.01370
-0.13885 0.30773 -0.14914
-0.15699 0.30773 -0.19351
-0.05013 0.30773 -0.17077
-0.30138 0.30773 -0.05379
0.07787 0.30773 -0.16228
-0.03462 0.30773 -0.16028
-0.24623 0.30773 -0.17232
-0.22818 0.30773 0.15716
-0.23433 0.30773 -0.04790
0.02082 0.30773 -0.17176
-0.03467 0.30773 -0.02639
-0.29951 0.30773 0.10376
-0.29865 0.30773 -0.07968
0.21136 0.30773 -0.17906
-0.25234 0.30773 -0.00394
-0.23358 0.30773 0.11999
-0.10759 0.30773 -0.05521
-0.18797 0.30773 -0.22549
0.10535 0.30773 -0.23643
-0.27927 0.30773 0.07823
0.18645 0.30773 -0.22785
-0.26870 0.30773 0.13143
-0.00664 0.30773 -0.09312
-0.00132 0.30773 -0.16685
-0.03097 0.30773 -0.17957
-0.05691 0.30773 -0.10952
0.06049 0.30773 -0.07743
-0.26760 0.30773 0.12697
0.15308 0.30773 -0.13862
-0.30127 0.30773 0.14038
-0.27678 0.30773 -0.05865
-0.24731 0.30773 -0.20938
-0.03946 0.30773 -0.02620
-0.15310 0.30773 -0.21543
-0.12681 0.30773 0.04854
-0.23851 0.30773 -0.23846
0.15836 0.30773 -0.14943
0.04149 0.30773 -0.10091
0.05603 0.30773 -0.20856
-0.14793 0.30773 0.10278
-0.03471 0.30773 -0.15512
-0.15612 0.30773 -0.15377
-0.07517 0.30773 -0.03861
0.05313 0.30773 -0.18177
-0.20356 0.30773 -0.02016
-0.08077 0.30773 0.04831
-0.29937 0.30773 -0.23607
0.11751 0.30773 -0.12218
-0.10238 0.30773 -0.11984
0.09671 0.30773 -0.11227
0.17794 0.30773 -0.16051
-0.12021 0.30773 -0.23897
-0.16362 0.30773 -0.13825
-0.24557 0.30773 0.16075
-0.15238 0.30773 -0.02146
0.16537 0.30773 -0.15790
0.02129 -0.30773 0.01779
0.03768 -0.30773 0.06434
0.06075 -0.30773 -0.02937
0.00381 -0.29156 0.08156
-0.00817 -0.29844 0.02964
0.08060 -0.30677 -0.01107
-0.03407 -0.27696 -0.00889
-0.02826 0.06038 -0.01149
-0.02875 0.07006 -0.01032
-0.02758 0.18687 -0.01314
-0.02761 0.11110 -0.01308
-0.03004 -0.30773 -0.03646
-0.03507 -0.27696 0.05161
0.04025 -0.27696 0.04500
-0.01574 0.27696 -0.03696
-0.12550 0.27696 -0.11607
0.03540 -0.30773 -0.00114
-0.01646 0.14486 -0.02583
-0.01804 0.05810 -0.02461
-0.01547 0.05071 -0.02659
-0.01615 0.19199 -0.02606
-0.06114 -0.28628 -0.05397
0.03118 -0.27876 -0.07515
-0.00126 -0.12319 -0.03061
-0.00300 0.24430 -0.03038
-0.00087 -0.05059 -0.03066
-0.00701 -0.28346 -0.08114
0.02394 -0.01042 0.01891
0.02304 -0.02445 0.02009
0.02540 -0.17377 0.01702
0.02504 -0.27314 0.01749
0.04962 -0.30180 0.06447
-0.01023 -0.27696 0.07071
0.17936 0.27696 0.15872
-0.17252 0.27696 -0.13393
-0.08512 0.27696 -0.06248
0.01981 -0.06040 -0.02326
0.01975 0.17732 -0.02330
0.01863 0.12070 -0.02416
0.01776 0.23409 -0.02483
0.01499 0.13634 0.02681
0.01191 -0.01580 0.02809
0.01510 -0.02574 0.02677
0.01267 0.00382 0.02778
0.06511 -0.27696 -0.03800
0.03014 -0.30773 0.00577
0.00315 -0.30773 0.00209
0.03108 0.27696 0.03666
0.02124 0.27696 0.02791
0.02967 0.18539 -0.00809
0.02884 0.05475 -0.01010
0.02863 -0.09589 -0.01061
0.02920 -0.10010 -0.00923
0.01996 0.15060 0.02314
0.01954 0.24534 0.02346
0.01872 0.13198 0.02409
0.02014 0.25529 0.02300
0.01165 -0.27696 -0.06372
0.08200 -0.29663 -0.00049
0.19997 0.27696 -0.14555
0.07173 -0.28294 0.03942
0.02462 0.21326 -0.01803
0.02210 0.27513 -0.02132
0.02301 0.14618 -0.02012
0.02269 0.02985 -0.02055
0.00761 -0.12045 0.02977
0.00749 -0.21112 0.02979
0.00742 -0.06435 0.02980
0.00322 -0.12423 0.03035
-0.01149 -0.30608 -0.02827
0.01577 0.21773 0.02636
0.01555 -0.06231 0.02652
0.01546 0.04865 0.02659
0.01545 -0.14076 0.02660
-0.08002 -0.29602 -0.01550
-0.11413 0.27696 -0.06799
-0.08097 -0.29995 0.00829
-0.06131 -0.29636 -0.05375
0.04448 -0.30773 0.03606
-0.04699 -0.27696 0.02343
-0.01240 0.27209 0.02789
-0.01248 0.02098 0.02786
-0.01364 0.14624 0.02737
-0.01114 0.14039 0.02841
0.01423 -0.29420 0.02713
-0.02046 0.15776 -0.02276
0.16606 0.27696 -0.13867
0.13223 0.27696 -0.11258
0.00879 -0.30773 0.00296
0.03384 -0.27696 0.00427
-0.07144 0.27696 -0.01526
-0.22680 0.27696 -0.06151
-0.22202 0.27696 0.15604
-0.22761 0.27696 -0.11504
-0.28829 0.27696 -0.20134
-0.23584 0.27696 0.16909
-0.07248 0.27696 0.01740
-0.30108 0.27696 -0.15615
-0.18665 0.27696 0.10437
-0.30197 0.27696 0.05188
-0.15736 0.27696 0.00827
-0.15180 0.27696 0.05823
-0.28073 0.27696 0.11896
-0.29664 0.27696 0.06197
-0.14136 0.27696 0.11342
-0.28304 0.27696 -0.05664
-0.16641 0.27696 -0.06299
-0.28777 0.27696 0.09769
-0.25218 0.27696 0.12746
-0.16701 0.27696 0.12983
-0.26003 0.27696 -0.04100
-0.13751 0.27696 -0.06282
-0.14508 0.27696 0.03704
-0.19757 0.27696 0.11844
-0.23563 0.27696 -0.00787
-0.30238 0.27696 -0.11348
-0.21661 0.27696 0.01392
-0.15805 0.27696 -0.09725
-0.29152 0.27696 -0.13717
-0.30330 0.27696 -0.12458
-0.17066 0.27696 0.05853
-0.07725 0.27696 -0.00986
-0.25128 0.27696 0.09090
-0.25766 0.27696 0.11232
-0.26828 0.27696 0.06973
-0.16003 0.27696 -0.07991
-0.12145 0.27696 -0.06303
-0.15255 0.27696 -0.02763
-0.10680 0.27696 0.02990
-0.27660 0.27696 0.17962
-0.18945 0.27696 -0.11800
-0.29024 0.27696 0.22912
-0.16183 0.27696 0.00211
-0.15553 0.27696 0.07383
-0.10782 0.27696 0.01914
-0.28803 0.27696 0.18243
-0.19249 0.27696 -0.04060
-0.30152 0.27696 -0.20991
-0.20589 0.27696 0.01104
-0.27421 0.27696 0.08273
-0.24445 0.27696 -0.12835
-0.09315 0.27696 0.04572
-0.29282 0.27696 -0.00900
-0.21495 0.27696 -0.13738
-0.20443 0.27696 -0.12836
-0.27714 0.27696 0.02934
-0.13455 0.27696 -0.07208
-0.20310 0.27696 0.04729
-0.25280 0.27696 -0.11528
-0.26371 0.27696 -0.16838
-0.30188 0.27696 0.16751
-0.24622 0.27696 0.01174
-0.24647 0.27696 0.07218
-0.21044 0.27696 0.06781
-0.24235 0.27696 0.05439
-0.26839 0.27696 -0.16596
-0.13147 0.27696 0.00798
-0.19036 0.27696 -0.08549
-0.27899 0.27696 -0.16029
-0.04798 0.27696 0.01457
-0.04476 0.27696 0.01006
-0.26948 0.27696 0.21131
-0.19332 0.27696 0.08527
-0.30049 0.27696 0.12200
-0.25992 0.27696 -0.13772
-0.21781 0.27696 0.08246
-0.18853 0.27696 -0.05349
-0.25474 0.27696 -0.12294
-0.20992 0.27696 -0.12154
-0.24534 0.27696 0.16830
-0.19837 0.27696 -0.02758
-0.07330 0.27696 0.04970
-0.09973 0.27696 -0.04282
-0.29011 0.27696 -0.22514
-0.25959 0.27696 -0.04633
-0.25729 0.27696 0.01073
-0.26570 0.27696 -0.17368
-0.16763 0.27696 0.03495
-0.14150 0.27696 0.06405
-0.23616 0.27696 0.12617
-0.24538 0.27696 -0.16213
-0.21608 0.27696 0.06048
-0.25747 0.27696 -0.02054
-0.21524 0.27696 -0.11769
-0.29331 0.27696 0.19848
-0.29540 0.27696 -0.09952
-0.28583 0.27696 0.22129
-0.24215 0.27696 -0.03731
-0.23208 0.27696 -0.16695
-0.28106 0.27696 -0.17732
-0.24192 0.27696 -0.05465
-0.24418 0.27696 0.02920
-0.06447 0.27696 -0.01214
-0.21933 0.27696 0.16322
-0.05506 0.27696 0.03834
-0.14660 0.27696 -0.05160
-0.23606 0.27696 0.15310
-0.16572 0.27696 -0.00594
-0.23912 0.27696 0.07899
-0.20930 0.27696 0.13212
-0.25309 0.27696 -0.14350
-0.21875 0.27696 -0.16179
-0.26228 0.27696 -0.15379
-0.22144 0.27696 -0.04918
-0.25349 0.27696 0.20134
-0.25439 0.27696 -0.00359
-0.19806 0.27696 -0.14283
-0.03410 -0.27696 0.07143
-0.03827 -0.27696 -0.00630
0.04524 -0.30773 -0.02161
-0.01638 -0.19564 -0.02588
0.01625 -0.09138 -0.02599
0.01758 -0.13942 -0.02497
-0.02712 -0.12113 -0.01424
-0.02877 -0.20055 -0.01027
-0.02806 -0.24152 -0.01197
-0.02822 -0.17980 -0.01159
-0.00754 -0.27696 -0.03865
-0.06382 -0.27696 -0.04086
0.05124 -0.27696 0.02428
-0.02973 -0.00527 -0.00793
-0.03007 -0.15317 -0.00533
-0.03050 -0.27038 -0.00208
-0.02989 -0.11055 -0.00670
-0.05064 -0.30773 0.01797
0.02859 -0.26122 0.01071
0.02778 0.01869 0.01266
0.02801 -0.05282 0.01211
0.03013 -0.18980 -0.00489
0.03071 -0.23912 -0.00044
0.03038 -0.27206 -0.00297
0.03051 0.09140 -0.00203
0.02545 -0.30540 -0.01695
0.03548 0.27696 0.02183
0.24443 0.27696 0.17081
0.08552 0.27696 -0.02193
0.28690 0.27696 -0.17516
0.26808 0.27696 0.15184
0.23675 0.27696 -0.06052
0.29962 0.27696 -0.09993
0.20819 0.27696 -0.03143
0.24694 0.27696 -0.07707
0.27284 0.27696 -0.10379
0.29146 0.27696 0.16756
0.27259 0.27696 0.18211
0.07512 0.27696 -0.02051
0.21003 0.27696 -0.09546
0.23938 0.27696 -0.14960
0.15229 0.27696 -0.00137
0.25596 0.27696 0.13337
0.07496 0.27696 0.00426
0.17487 0.27696 0.03298
0.20242 0.27696 -0.05538
0.05109 0.27696 0.00903
0.29512 0.27696 0.18090
0.24112 0.27696 0.02021
0.27757 0.27696 -0.17923
0.29109 0.27696 0.14767
0.16357 0.27696 -0.08404
0.17991 0.27696 -0.11950
0.20375 0.27696 -0.00504
0.14639 0.27696 0.04129
0.30106 0.27696 -0.06129
0.21385 0.27696 -0.15011
0.14522 0.27696 -0.08138
0.13757 0.27696 -0.07705
0.29059 0.27696 -0.12427
0.17854 0.27696 0.08920
0.17100 0.27696 -0.09722
0.18925 0.27696 -0.02913
0.26887 0.27696 0.18578
0.25270 0.27696 -0.11877
0.21436 0.27696 -0.08482
0.15201 0.27696 0.01492
0.29291 0.27696 0.01635
0.30102 0.27696 0.11187
0.07615 0.27696 -0.00967
0.11738 0.27696 0.01721
0.22033 0.27696 -0.10184
0.26731 0.27696 -0.15827
0.04076 0.27696 0.00614
0.17290 0.27696 0.04773
0.30064 0.27696 -0.11333
0.29574 0.27696 0.22667
0.12802 0.27696 0.00256
0.28306 0.27696 -0.11030
0.11862 0.27696 -0.05767
0.25753 0.27696 -0.05488
0.25607 0.27696 0.16414
0.23322 0.27696 0.14328
0.28547 0.27696 -0.18193
0.26891 0.27696 0.19456
0.28305 0.27696 0.02513
0.27705 0.27696 -0.20158
0.12186 0.27696 -0.01233
0.29486 0.27696 0.03851
0.07697 0.27696 -0.02750
0.12622 0.27696 0.03011
0.21041 0.27696 0.02446
0.13174 0.27696 0.10726
0.17031 0.27696 0.05512
0.19327 0.27696 0.06334
0.20594 0.27696 0.00938
0.18214 0.27696 0.08617
0.18931 0.27696 -0.00811
0.18603 0.27696 0.08296
0.17847 0.27696 0.02174
0.19125 0.27696 -0.05031
0.27642 0.27696 -0.06681
0.24377 0.27696 -0.12847
0.30767 0.27696 0.10830
0.29713 0.27696 -0.09519
0.17351 0.27696 -0.11853
0.23103 0.27696 0.15842
0.22043 0.27696 0.11082
0.24694 0.27696 -0.05411
0.18638 0.27696 0.12338
0.26816 0.27696 0.07018
0.18200 0.27696 0.07824
0.10927 0.27696 0.03257
0.22926 0.27696 -0.08210
0.16930 0.27696 -0.03602
0.30270 0.27696 -0.05485
0.19804 0.27696 0.00655
0.16461 0.27696 0.07992
0.23211 0.27696 0.14770
0.19260 0.27696 -0.06071
0.15888 0.27696 0.07983
0.15585 0.27696 0.00781
0.29407 0.27696 -0.18789
0.30334 0.27696 0.03987
0.21008 0.27696 -0.05066
0.15800 0.27696 -0.02611
0.18556 0.27696 0.01177
0.27016 0.27696 -0.01021
0.23175 0.27696 0.07759
0.15006 0.27696 0.04543
0.26967 0.27696 0.21006
0.14969 0.27696 0.05900
0.20952 0.27696 -0.04363
0.23776 0.27696 0.17960
0.26014 0.27696 -0.11642
0.30629 0.27696 -0.11346
0.25155 0.27696 0.09851
0.16212 0.27696 0.06509
0.27353 0.27696 -0.11093
0.14299 0.27696 0.08985
0.24876 0.27696 -0.01219
0.29238 0.27696 -0.08389
-0.03979 -0.29023 -0.07158
-0.07360 -0.30314 0.03491
0.07295 -0.27696 -0.00455
0.02369 -0.28058 -0.07825
-0.05466 -0.30773 0.02495
0.00982 0.07437 -0.02896
0.00797 -0.05584 -0.02972
0.00858 0.03936 -0.02947
0.01317 -0.30570 -0.02757
0.02462 -0.28295 0.07787
0.00243 0.18887 0.03045
0.00702 0.21837 0.02985
0.00119 0.21451 0.03062
0.03794 -0.29373 0.07235
-0.07857 -0.28402 -0.02291
-0.07076 -0.27696 -0.03439
0.04566 -0.30773 -0.01544
0.02993 -0.15111 -0.00640
0.03028 0.26198 -0.00374
0.03027 0.24344 -0.00385
0.01386 0.27696 -0.21887
-0.14144 0.27696 -0.18431
0.09186 0.27696 -0.18116
-0.06312 0.27696 -0.17628
0.26417 0.27696 -0.23086
-0.00002 0.27696 -0.04947
-0.10949 0.27696 -0.22163
0.14628 0.27696 -0.21195
0.03323 0.27696 -0.13557
0.03703 0.27696 -0.24452
0.18916 0.27696 -0.16895
-0.22659 0.27696 -0.19761
0.05573 0.27696 -0.20561
-0.22080 0.27696 -0.24057
0.23854 0.27696 -0.24135
-0.06009 0.27696 -0.09977
-0.16028 0.27696 -0.23864
0.23091 0.27696 -0.23457
0.02409 0.27696 -0.13051
-0.17420 0.27696 -0.17124
0.03528 0.27696 -0.07364
0.01515 0.27696 -0.08888
-0.04728 0.27696 -0.16355
-0.17333 0.27696 -0.20453
0.04108 0.27696 -0.12119
-0.09479 0.27696 -0.18400
0.04180 0.27696 -0.09369
-0.20771 0.27696 -0.24372
-0.24611 0.27696 -0.22896
0.01985 0.27696 -0.13614
0.03370 0.27696 -0.16774
-0.05457 0.27696 -0.13903
0.23693 0.27696 -0.23102
-0.06188 0.27696 -0.18930
-0.10879 0.27696 -0.20647
0.03286 0.27696 -0.17333
0.14604 0.27696 -0.15419
-0.13408 0.27696 -0.18749
-0.02134 0.27696 -0.07328
0.11517 0.27696 -0.17369
-0.07877 0.27696 -0.08653
-0.00665 0.27696 -0.15498
-0.16923 0.27696 -0.19341
0.06614 0.27696 -0.17655
-0.13107 0.27696 -0.15077
0.14629 0.27696 -0.22936
-0.26887 0.27696 -0.22896
-0.03414 0.27696 -0.20103
0.11209 0.27696 -0.20370
0.08629 0.27696 -0.14672
0.01562 0.27696 -0.09449
-0.24892 0.27696 -0.23276
-0.00178 0.27696 -0.06346
-0.08398 0.27696 -0.13596
-0.08031 0.27696 -0.11471
0.17678 0.27696 -0.23991
0.22806 0.27696 -0.23936
0.12298 0.27696 -0.14610
-0.01175 0.27696 -0.23373
-0.26316 0.27696 -0.24477
-0.13475 0.27696 -0.21626
0.04261 0.27696 -0.06957
-0.02625 0.27696 -0.21842
-0.12826 0.27696 -0.16320
0.27355 0.27696 -0.24282
0.12383 0.27696 -0.23159
-0.12917 0.27696 -0.21803
-0.02707 0.27696 -0.19162
0.05282 0.27696 -0.12908
-0.05293 0.27696 -0.19057
-0.10446 0.27696 -0.22258
-0.06225 0.27696 -0.10494
0.02645 0.27696 -0.24096
-0.01685 0.27696 -0.17042
0.18639 0.27696 -0.20852
0.16747 0.27696 -0.22190
0.17122 0.27696 -0.20589
-0.20000 0.27696 -0.22947
-0.09304 0.27696 -0.21776
0.16533 0.27696 -0.20311
-0.06503 0.27696 -0.22454
-0.05159 0.27696 -0.18529
-0.02477 0.27696 -0.10750
-0.02000 0.27696 -0.12530
0.25263 0.27696 -0.22906
0.01276 0.27696 -0.04668
0.00619 0.27696 -0.16661
-0.11738 0.27696 -0.16833
-0.01332 0.27696 -0.22260
-0.07301 0.27696 -0.14132
0.24274 0.27696 -0.20493
-0.04729 0.27696 -0.09472
0.04780 0.27696 -0.22326
0.28305 0.27696 -0.23395
0.04306 0.27696 -0.23828
-0.12702 0.27696 -0.20869
0.11861 0.27696 -0.16630
-0.06942 0.27696 -0.19865
0.00220 0.27696 -0.13563
0.23150 0.27696 -0.22171
0.20097 0.27696 -0.24401
0.09406 0.27696 -0.09754
0.16358 0.27696 -0.21361
0.25972 0.27696 -0.24428
-0.01293 -0.30773 0.06678
-0.00278 -0.30773 0.06547
-0.20106 0.30001 -0.24618
-0.12353 0.30660 -0.24618
-0.15230 0.29801 -0.24618
-0.30244 0.28968 -0.24618
0.18924 0.30205 -0.24618
0.01525 0.30075 -0.24618
-0.28851 0.29770 -0.24618
-0.09347 0.28827 -0.24618
-0.20625 0.29298 -0.24618
-0.13949 0.30369 -0.24618
0.11614 0.30731 -0.24618
-0.27945 0.29974 -0.24618
0.02585 0.30561 -0.24618
0.27709 0.30682 -0.24618
0.10426 0.30747 -0.24618
-0.06226 0.30463 -0.24618
-0.24813 0.30616 -0.24618
-0.07816 -0.30773 -0.01510
0.02744 -0.28817 0.01349
-0.02380 0.07267 -0.01910
-0.02526 0.22969 -0.01720
-0.04468 -0.30773 0.00673
0.05213 -0.27696 -0.05646
0.05844 -0.27696 -0.04551
-0.04939 -0.29175 -0.06465
0.03039 -0.30133 0.00290
-0.30773 0.29609 -0.19152
-0.30773 0.30569 -0.17732
-0.30773 0.29963 -0.24094
-0.30773 0.29635 0.02018
-0.30773 0.28569 -0.19458
-0.30773 0.30768 -0.16214
-0.30773 0.28790 -0.12294
-0.30773 0.30547 0.17229
-0.30773 0.29336 -0.02774
-0.30773 0.30100 -0.19767
-0.30773 0.30667 0.20530
-0.30773 0.29355 -0.06017
-0.30773 0.30251 0.13586
0.02859 -0.29758 0.01071
0.04483 0.27696 -0.03363
0.06541 0.27696 -0.05242
-0.06315 0.27696 -0.04347
-0.14495 0.27696 -0.10761
-0.04218 0.27696 -0.02428
-0.01210 -0.27696 0.05560
0.05089 -0.27696 0.04733
-0.01867 -0.30590 0.07960
0.30773 0.29041 -0.21683
0.30773 0.27884 0.19468
0.30773 0.28644 -0.08453
0.30773 0.28058 0.11848
0.30773 0.28216 -0.07536
0.30773 0.28677 -0.00350
0.30773 0.27987 0.16493
0.30773 0.28604 0.04364
0.30773 0.29177 -0.09279
0.30773 0.28032 -0.00516
0.30773 0.27798 0.18501
0.01409 0.07155 0.02719
0.01252 -0.24958 0.02784
0.01345 -0.20704 0.02745
0.06012 -0.29471 0.05529
0.03094 -0.30773 0.05280
0.06532 -0.30773 0.04818
-0.02735 -0.30773 -0.02430
-0.03059 0.11951 0.00141
-0.03021 -0.21000 0.00430
-0.02998 -0.16616 0.00604
-0.03049 -0.03074 0.00213
-0.12148 0.27696 0.10462
-0.09110 0.27696 0.08240
-0.08857 0.27696 0.07794
-0.05979 -0.30773 -0.04155
0.01891 -0.30773 -0.04535
-0.14854 0.27696 -0.10501
-0.04278 0.27696 -0.01443
-0.06008 -0.30285 0.05535
0.26998 0.27696 -0.21841
0.25304 0.27696 -0.20633
0.03468 -0.27696 -0.00639
-0.14359 0.27696 -0.12657
-0.10691 0.27696 -0.09811
0.06909 0.27696 0.07294
0.27345 0.27696 0.22093
0.08173 0.27696 0.07763
-0.02743 -0.06574 -0.01350
-0.02672 -0.27445 -0.01521
-0.02751 -0.25614 -0.01332
0.00476 -0.30773 0.07751
-0.03015 -0.06930 0.00472
-0.03056 -0.13464 0.00165
-0.03037 -0.24666 0.00304
-0.28081 0.30030 0.24618
-0.02806 0.27904 0.24618
-0.30204 0.30475 0.24618
-0.09931 0.28300 0.24618
-0.12870 0.28144 0.24618
-0.17081 0.29574 0.24618
-0.11950 0.28652 0.24618
0.10482 0.28518 0.24618
-0.25937 0.29690 0.24618
-0.21704 0.28701 0.24618
0.02275 0.28131 0.24618
0.03258 0.28758 0.24618
-0.27713 0.28344 0.24618
0.01558 -0.19075 -0.02650
0.01730 0.02170 -0.02518
0.01648 0.05850 -0.02581
0.01704 -0.08243 -0.02538
-0.02162 -0.30773 0.03165
-0.07042 -0.30773 0.02784
-0.04156 -0.30773 -0.06082
0.03060 0.26984 0.00128
0.03009 0.14675 0.00515
0.02996 0.17392 0.00621
0.03060 0.11113 0.00134
0.06981 -0.27806 0.04266
0.19646 0.27696 0.16938
0.04764 -0.30773 0.00637
-0.02731 -0.30773 0.06045
0.03404 -0.30773 0.05848
0.02475 0.14992 0.01786
0.02650 0.20828 0.01558
0.02659 0.13688 0.01546
0.02596 -0.10284 0.01629
-0.02323 -0.00058 -0.01984
-0.02356 0.03755 -0.01941
-0.02397 -0.06574 -0.01888
-0.02440 -0.24541 -0.01832
-0.02667 0.25328 0.01533
-0.02799 0.05047 0.01215
-0.02743 -0.04672 0.01352
-0.02663 -0.27696 -0.05737
-0.05760 -0.27696 -0.05135
-0.15645 0.27696 -0.01704
-0.08318 0.27696 0.06152
-0.29166 0.27696 0.18743
-0.17163 0.27696 -0.03576
-0.15116 0.27696 -0.05500
-0.25280 0.27696 0.01143
-0.27212 0.27696 0.05534
-0.26489 0.27696 0.09467
-0.16013 0.27696 0.08808
-0.24168 0.27696 -0.09262
-0.05348 0.27696 0.03334
-0.25136 0.27696 0.15595
-0.29020 0.27696 0.00114
-0.27289 0.27696 0.03105
-0.17562 0.27696 -0.01042
-0.06561 0.27696 0.05113
-0.11537 0.27696 -0.02860
-0.26015 0.27696 -0.07596
-0.23223 0.27696 -0.06751
-0.29520 0.27696 -0.01968
-0.08425 0.27696 0.04058
-0.17190 0.27696 0.09185
-0.26978 0.27696 -0.17581
-0.26282 0.27696 -0.15971
-0.19531 0.27696 -0.07630
-0.15355 0.27696 -0.07658
-0.22346 0.27696 -0.00040
-0.08880 0.27696 0.03144
-0.29968 0.27696 0.03256
-0.22743 0.27696 0.10340
-0.22650 0.27696 0.03179
-0.28663 0.27696 0.03552
-0.25994 0.27696 0.09094
-0.20388 0.27696 -0.01565
-0.21787 0.27696 0.14598
-0.24710 0.27696 0.11007
-0.25547 0.27696 0.18447
-0.23678 0.27696 -0.02438
-0.26518 0.27696 0.11398
-0.12856 0.27696 0.02505
-0.27550 0.27696 0.04141
-0.23100 0.27696 -0.08262
-0.15482 0.27696 0.02260
-0.21313 0.27696 0.04225
-0.17821 0.27696 0.08924
-0.20018 0.27696 0.08998
-0.26845 0.27696 -0.11046
-0.14153 0.27696 0.08947
-0.27478 0.27696 -0.07555
-0.26718 0.27696 0.13552
-0.26039 0.27696 0.06777
-0.28768 0.27696 -0.18488
-0.23792 0.27696 0.04317
-0.19406 0.27696 -0.00306
-0.26480 0.27696 0.14172
-0.16923 0.27696 -0.10286
-0.11747 0.27696 -0.05022
-0.20854 0.27696 0.01645
-0.09997 0.27696 -0.01559
-0.26326 0.27696 0.03818
-0.24074 0.27696 -0.05938
-0.28152 0.27696 0.12774
-0.29955 0.27696 -0.16374
-0.20546 0.27696 0.05964
-0.20078 0.27696 0.01456
-0.12991 0.27696 0.07221
-0.20124 0.27696 -0.02424
-0.17464 0.27696 0.04415
-0.15379 0.27696 -0.09087
-0.06564 0.27696 0.00121
-0.21128 0.27696 0.05717
-0.08667 0.27696 -0.00863
-0.25806 0.27696 -0.17199
-0.29499 0.27696 -0.04935
-0.19358 0.27696 0.12504
-0.24536 0.27696 0.19417
-0.29918 0.27696 -0.02473
-0.21603 0.27696 -0.06162
-0.25358 0.27696 -0.16174
-0.30369 0.27696 0.21013
-0.28104 0.27696 0.10253
-0.13328 0.27696 0.04014
-0.24625 0.27696 -0.02198
-0.21820 0.27696 -0.03230
-0.06650 0.27696 0.02860
-0.16472 0.27696 0.05611
-0.13999 0.27696 0.02755
-0.14013 0.27696 0.07199
-0.25774 0.27696 0.09681
-0.07667 0.27696 0.01326
-0.11893 0.27696 -0.01647
-0.27653 0.27696 0.14855
-0.15930 0.27696 0.12537
-0.23854 0.27696 -0.10099
-0.30414 0.27696 0.19853
-0.19475 0.27696 0.15056
-0.22059 0.27696 -0.11577
-0.30720 0.27696 0.22662
-0.14389 0.27696 -0.01403
-0.16577 0.27696 0.08570
-0.24584 0.27696 0.03654
-0.23728 0.27696 0.10260
-0.29357 0.27696 0.16011
-0.27302 0.27696 0.01750
-0.23743 0.27696 -0.11807
-0.11081 0.27696 -0.02833
-0.16210 0.27696 -0.05895
-0.11279 0.27696 0.02441
-0.12878 0.27696 0.07783
-0.27369 0.27696 0.08733
-0.28038 0.27696 0.11149
0.00422 -0.30708 -0.08151
0.01012 -0.30773 -0.01119
0.03451 -0.30773 -0.01938
-0.02627 -0.30668 -0.01588
0.02734 0.11646 -0.01372
0.02932 0.25423 -0.00895
0.02484 0.06486 -0.01775
0.02328 -0.15117 -0.01977
0.02502 -0.08158 -0.01751
0.02195 -0.26395 -0.02152
0.04928 -0.27938 -0.06474
-0.01214 -0.27696 0.06098
0.04965 -0.28313 0.06446
0.12771 0.27696 -0.09297
0.15328 0.27696 -0.11486
-0.02537 0.13627 0.01706
-0.02342 0.24447 0.01960
-0.02374 -0.02247 0.01918
-0.02180 -0.21344 0.02170
-0.01285 -0.27696 -0.07127
0.00685 -0.30773 -0.07678
-0.02662 0.11185 0.01542
-0.02650 0.08302 0.01559
-0.02549 0.12544 0.01690
-0.02659 0.06768 0.01546
0.00750 -0.17630 -0.02979
0.00735 0.22605 -0.02981
0.00382 0.21425 -0.03027
-0.30773 0.28347 -0.18011
-0.30773 0.29145 -0.10238
-0.30773 0.29097 -0.04612
-0.30773 0.30764 0.00510
-0.30773 0.29795 0.06849
-0.30773 0.28488 -0.14888
-0.30773 0.29806 -0.05899
-0.30773 0.29574 -0.22219
-0.30773 0.30051 0.02836
-0.30773 0.30741 0.04888
-0.30773 0.29786 0.08368
-0.30773 0.29989 0.10926
-0.30773 0.29537 0.04129
0.02914 -0.18690 0.00938
0.02809 -0.10038 0.01192
0.02776 -0.11718 0.01271
0.02749 0.09559 0.01335
0.07928 -0.29516 -0.02115
-0.01360 -0.08188 -0.02739
-0.01356 0.10646 -0.02741
-0.01285 -0.13999 -0.02770
0.02011 -0.22509 0.02303
0.02025 -0.25230 0.02292
0.02129 0.14430 0.02212
0.01985 0.06190 0.02322
-0.05520 -0.30773 -0.03544
-0.04262 -0.29361 0.06984
-0.02565 0.27696 -0.03627
-0.19038 0.27696 -0.16020
0.01384 0.24553 0.02729
0.01445 0.26909 0.02704
0.01167 0.20096 0.02819
-0.05010 -0.27696 0.00492
-0.01866 0.08423 0.02414
-0.01916 0.14687 0.02376
-0.01941 0.17806 0.02356
-0.02084 -0.18869 0.02247
0.03546 -0.27696 -0.03892
-0.00377 -0.27696 -0.03405
0.02713 -0.13287 -0.01423
0.02797 0.26164 -0.01219
0.02925 0.26948 -0.00912
0.02713 -0.16924 -0.01423
-0.00953 0.12887 0.02908
-0.00930 -0.17226 0.02917
-0.00884 -0.06410 0.02936
-0.01007 -0.10543 0.02885
-0.02337 0.27696 -0.04111
-0.17312 0.27696 -0.15144
-0.02336 -0.27696 0.02052
-0.04511 -0.27696 0.06773
-0.00340 -0.30111 0.08161
0.07091 -0.27696 -0.03585
0.06969 -0.29352 -0.04282
-0.22616 0.27696 -0.17036
-0.03069 -0.27696 -0.01251
0.28024 0.30773 -0.09711
0.30039 0.30773 -0.19311
-0.04754 0.30773 0.24479
-0.10757 0.30773 0.19122
0.05339 0.30773 0.05507
0.16690 0.30773 -0.00240
0.12695 0.30773 0.08485
0.14586 0.30773 0.04955
0.25359 0.30773 -0.07184
-0.23301 0.30773 0.22207
0.21775 0.30773 -0.17352
0.14627 0.30773 -0.06487
0.03922 0.30773 0.15722
0.04016 0.30773 -0.00227
0.27834 0.30773 0.14498
0.16815 0.30773 0.08802
0.01251 0.30773 0.05984
0.04315 0.30773 0.04126
-0.13531 0.30773 0.23638
0.24205 0.30773 0.04251
0.28942 0.30773 0.10517
0.24361 0.30773 -0.02790
0.29090 0.30773 0.21582
0.27452 0.30773 -0.11725
0.11679 0.30773 0.10069
-0.21431 0.30773 0.24495
0.29197 0.30773 -0.09891
0.19271 0.30773 0.08831
0.06284 0.30773 0.01911
0.29470 0.30773 0.22190
0.14809 0.30773 -0.08163
0.01981 0.30773 0.19740
0.22484 0.30773 -0.10189
-0.11403 0.30773 0.14538
0.30544 0.30773 0.05488
0.15696 0.30773 0.11137
0.29395 0.30773 0.16708
0.15293 0.30773 -0.01156
0.02977 0.30773 0.22139
0.26506 0.30773 0.03350
-0.11805 0.30773 0.15644
-0.05894 0.30773 0.13980
0.18959 0.30773 0.08029
0.20387 0.30773 0.21760
0.21933 0.30773 -0.01476
0.12149 0.30773 0.22788
0.14817 0.30773 0.01571
0.09288 0.30773 0.23319
0.21668 0.30773 -0.08090
0.03268 0.30773 0.23915
0.06693 0.30773 -0.01601
-0.03402 0.30773 0.08137
0.30458 0.30773 0.06586
0.06144 0.30773 0.03493
0.14675 0.30773 -0.01629
-0.10341 0.30773 0.22666
0.26987 0.30773 0.21989
0.16666 0.30773 -0.06890
0.03339 0.30773 0.17012
0.20489 0.30773 0.06636
0.25706 0.30773 0.22605
0.00527 0.30773 -0.00311
-0.18528 0.30773 0.20353
0.22315 0.30773 0.19826
0.10835 0.30773 0.21376
-0.08403 0.30773 0.09034
-0.09238 0.30773 0.11331
-0.03002 0.30773 0.05114
0.17913 0.30773 0.17881
-0.02208 0.30773 0.24076
0.02627 0.30773 0.16670
0.12620 0.30773 -0.08108
0.30421 0.30773 -0.06752
-0.13268 0.30773 0.15704
0.20464 0.30773 0.04231
-0.02910 0.30773 0.08969
0.09825 0.30773 0.22379
0.08389 0.30773 0.15197
-0.02397 0.30773 0.12920
0.23042 0.30773 0.15819
-0.16352 0.30773 0.19952
0.16891 0.30773 0.09340
0.10587 0.30773 0.03275
0.04568 0.30773 0.15122
0.06359 0.30773 0.12204
0.17891 0.30773 -0.13637
0.27570 0.30773 -0.21087
-0.15481 0.30773 0.21327
0.23986 0.30773 0.15126
0.02814 0.30773 0.10245
0.11050 0.30773 0.17213
0.07104 0.30773 0.20677
0.14470 0.30773 -0.10419
0.30047 0.30773 0.03298
-0.06429 0.30773 0.24516
0.13448 0.30773 0.07850
-0.10731 0.30773 0.13375
0.01697 0.30773 0.11292
-0.16853 0.30773 0.19753
0.21759 0.30773 0.15898
0.01850 0.30773 0.05751
0.06588 0.30773 0.23441
-0.05608 0.30773 0.08855
0.24094 0.30773 -0.09391
0.30249 0.30773 0.23568
0.30697 0.30773 0.23206
0.26302 0.30773 -0.20691
0.22938 0.30773 0.03105
0.16568 0.30773 0.18599
-0.15436 0.30773 0.13892
-0.15658 0.30773 0.17824
0.08568 0.30773 0.20270
0.13251 0.30773 0.02364
0.06888 0.30773 0.06660
0.25929 0.30773 0.12402
0.25240 0.30773 0.20054
0.28108 0.30773 -0.19953
0.06473 0.30773 0.04959
-0.05986 0.30773 0.05437
0.06061 0.30773 0.23417
0.29566 0.30773 -0.00811
-0.03041 0.30773 0.20469
0.22456 0.30773 0.04701
0.20133 0.30773 -0.06672
0.01334 0.30773 0.07112
0.07499 0.30773 0.23423
0.23983 0.30773 -0.12120
-0.04740 0.30773 0.06845
-0.09830 0.30773 0.20983
0.09762 0.30773 0.02406
-0.20192 0.30773 0.16857
0.06832 0.30773 0.02303
-0.11929 0.30773 0.20467
0.21900 0.30773 0.07825
0.27787 0.30773 0.15958
-0.11591 0.30773 0.24148
0.29873 0.30773 0.19032
0.04017 0.30773 0.08841
-0.25567 0.30773 0.22460
0.05740 0.30773 -0.03543
0.15541 0.30773 0.11749
0.00340 0.30773 0.21877
0.03169 0.30773 0.22737
0.27482 0.30773 0.01703
0.00004 0.30773 0.14635
0.15573 0.30773 -0.11134
0.25787 0.30773 0.17942
0.18892 0.30773 0.02456
0.05359 0.30773 0.05959
0.13045 0.30773 0.06815
0.25321 0.30773 0.03942
-0.05052 0.30773 0.19234
0.21646 0.30773 -0.02873
0.29201 0.30773 0.19012
0.06627 0.30773 0.14366
-0.07509 0.30773 0.10536
0.30365 0.30773 -0.24006
0.18812 0.30773 0.08985
0.20749 0.30773 0.14276
0.16123 0.30773 0.10732
0.03647 0.30773 0.12718
