-0.03811 0.20474 -0.01512
0.09182 0.20474 0.31363
-0.02195 0.20474 0.00806
0.26452 0.19803 -0.17149
0.21947 0.19803 -0.25983
-0.08304 -0.02813 -0.19909
-0.08234 -0.10429 -0.20171
-0.15618 0.19803 0.21806
0.16434 0.20474 -0.11785
0.11514 0.20474 -0.23943
0.24626 0.20474 0.05543
0.19583 0.20474 -0.07605
0.22312 0.20474 0.00584
0.10253 0.20474 -0.25577
0.17725 0.20474 -0.08752
0.08378 0.20474 -0.31093
0.21895 0.20474 -0.01633
0.16430 0.20474 -0.14603
0.14638 0.20474 -0.15792
0.15726 0.20474 -0.17427
0.22801 0.20474 0.01422
0.16754 0.19803 -0.25089
-0.19663 -0.15769 0.15398
-0.19640 0.08030 0.15375
0.17694 0.19803 -0.23264
0.15574 0.19803 -0.29649
0.16501 0.19803 -0.27128
-0.26717 0.19803 0.02370
-0.22277 0.19803 0.10362
-0.12763 -0.04513 -0.18858
-0.12643 -0.08316 -0.18738
-0.26317 0.19803 -0.09247
-0.22392 0.19803 -0.00430
-0.22598 0.19803 0.01504
-0.24150 0.19803 -0.00966
-0.20068 0.19803 0.05169
-0.23417 0.19803 -0.00020
-0.28081 0.19803 -0.06952
-0.05977 0.19803 -0.07103
-0.07907 0.19803 -0.12486
-0.01951 0.19803 0.04497
-0.30034 0.19853 -0.00332
-0.04237 0.19803 -0.32893
0.05314 0.19803 -0.15079
0.10393 0.19803 -0.03945
-0.00270 0.19803 -0.28562
0.01891 0.19803 -0.22394
0.06259 0.19803 -0.13380
0.18153 0.19803 0.14587
-0.00052 0.19803 -0.23641
0.03891 0.19803 -0.17034
0.07598 0.19803 -0.07957
-0.00235 0.19803 -0.24834
0.07626 0.19803 -0.09158
-0.01002 0.19803 -0.30369
0.05930 0.19803 -0.15808
0.22251 0.19803 -0.02360
-0.13922 0.20378 0.31550
-0.00914 0.19803 -0.15447
0.20908 -0.00761 -0.15458
0.20881 0.13970 -0.15359
0.17259 -0.09961 -0.18449
0.17045 0.00098 -0.18325
-0.09513 0.19049 -0.23011
-0.09647 -0.01740 -0.23089
0.20950 0.06390 -0.16049
0.20950 0.13390 -0.16234
0.20950 0.15455 -0.16271
-0.05684 0.20474 -0.15621
0.05638 0.20474 0.11808
0.03782 0.20474 0.04937
0.07596 0.20474 0.16627
-0.00134 0.20474 -0.03003
-0.01180 0.20474 -0.06522
-0.04716 0.20474 -0.15392
-0.06781 0.20474 -0.20308
0.03523 0.20474 0.06391
-0.02110 0.20474 -0.09326
-0.04827 0.20474 -0.13426
-0.03273 0.20474 -0.15823
0.05104 0.20474 0.09073
0.11318 0.20474 0.27099
-0.04258 0.20474 -0.15292
-0.07925 0.20474 -0.29254
-0.06439 0.20474 -0.18471
0.04594 0.20474 0.08120
0.15280 0.19803 -0.21954
-0.22683 0.20474 0.09364
-0.19283 0.20474 0.16997
-0.22139 0.20474 0.07984
-0.19335 0.20474 0.14402
-0.19528 0.20474 0.13856
-0.23625 0.20474 0.04244
-0.16337 0.20474 0.23996
-0.18656 0.20474 0.20141
-0.14819 0.20474 0.25452
-0.17367 0.20474 0.19721
-0.16941 0.20474 0.21444
-0.12994 0.20474 0.29486
0.14752 0.06434 0.20035
0.14802 -0.11919 0.20362
0.14773 -0.14488 0.20173
-0.08443 0.16066 -0.21869
-0.08638 0.18862 -0.22206
0.20154 -0.15802 -0.14069
0.20153 -0.04782 -0.14069
-0.14042 0.19803 -0.22998
-0.13411 -0.14234 -0.19989
-0.08908 0.19803 -0.23609
-0.15915 0.19803 0.14860
-0.15577 0.19803 0.09782
-0.21118 0.19803 -0.04830
-0.23734 0.19803 -0.05326
-0.20943 0.19803 -0.03259
-0.11103 0.19803 0.22195
-0.15656 0.19803 0.10597
-0.19520 0.19803 0.02817
-0.23153 0.19803 -0.05986
-0.21080 0.19803 -0.04328
-0.19875 0.19803 0.00980
-0.24796 0.19803 -0.08414
-0.08576 0.02451 -0.19315
-0.08571 0.17319 -0.19324
0.19103 -0.20474 0.20843
0.18174 0.20474 -0.06694
0.23172 0.20474 0.06143
0.25898 0.20474 0.13980
0.28930 0.20474 0.17079
0.24780 0.20474 0.11172
0.24027 0.20474 0.06265
0.21594 0.20474 0.02116
0.28589 0.20474 0.16674
0.25266 0.20474 0.08962
0.19792 0.20474 0.00026
0.12940 0.20474 -0.17319
0.13742 0.20474 -0.16874
-0.17430 0.20474 0.15477
-0.22713 0.20474 -0.00912
-0.08395 0.20474 0.30187
-0.24607 0.20474 -0.05354
-0.14544 0.20474 0.19591
-0.21597 0.20474 0.01269
-0.21763 0.20474 0.00576
-0.20094 0.20474 0.04437
-0.10426 0.20474 0.27331
-0.12927 0.20474 0.22717
-0.21091 0.20474 0.02139
-0.14304 0.20474 0.18004
-0.13471 0.20474 0.25517
-0.13983 0.20474 0.20247
-0.19312 0.20474 0.06990
-0.19384 0.19803 0.17551
-0.19510 -0.13343 0.15245
-0.19698 -0.08858 0.15433
0.23471 0.19803 0.02701
-0.19275 0.05202 0.19231
-0.19479 0.16546 0.19027
0.11144 0.19803 -0.24726
0.22251 0.20474 0.28036
0.09404 0.20474 0.02911
0.03424 0.20474 -0.12991
0.08502 0.20474 -0.02993
0.14074 0.20474 0.14282
0.01905 0.20474 -0.16631
0.11929 0.20474 0.06769
0.05326 0.20474 -0.08575
0.11145 0.20474 0.07934
0.17099 0.20474 0.25396
0.14382 0.20474 0.19514
0.03919 0.20474 -0.13175
0.17473 0.20474 0.17938
0.05024 0.20474 -0.10290
0.14675 0.20474 0.20858
0.16312 0.20474 0.16652
0.11001 0.20474 0.09992
0.12202 0.20474 0.07348
0.11060 0.20474 0.09444
0.12231 0.20474 0.09165
0.16697 0.20474 0.19771
0.20390 0.20474 0.28139
0.07740 0.20474 -0.03467
0.19642 -0.20474 0.21240
0.18613 -0.04201 0.22199
0.18279 -0.19451 0.22346
0.29197 0.19803 0.10519
0.24153 0.19803 -0.01689
-0.13031 0.11450 -0.19165
-0.13062 -0.07210 -0.19220
-0.26314 0.19803 -0.08009
-0.20206 0.19803 0.07044
-0.27318 0.19803 -0.05394
-0.19062 0.19803 0.08570
-0.26361 0.19803 -0.09876
0.25539 0.19803 0.08097
0.20255 0.03780 -0.17766
0.20155 -0.16789 -0.17867
0.27871 0.19803 -0.14658
0.23476 0.19803 -0.22721
0.28790 0.20474 0.00952
0.23965 0.20474 -0.08793
0.18211 0.20474 -0.21208
0.29254 0.20474 0.03393
0.27603 0.20474 -0.01079
0.24475 0.20474 -0.07077
-0.16384 -0.16086 0.14761
-0.16167 0.06491 0.14886
0.17331 -0.20474 0.17693
0.19620 0.12214 0.18318
0.19280 -0.05451 0.17892
0.15919 0.02133 -0.17189
0.15828 -0.19527 -0.17033
-0.20034 -0.12079 0.18265
-0.20094 -0.14467 0.18160
-0.26059 0.19803 0.08932
-0.22229 0.19803 0.16651
-0.26810 0.19803 0.06488
-0.29465 0.19803 0.00164
-0.25131 0.19803 0.10516
-0.18743 0.19803 0.25407
-0.27932 0.19803 0.01796
-0.08610 -0.20050 -0.19257
-0.08460 0.03324 -0.19516
0.16592 -0.15570 0.22356
0.16599 -0.12585 0.22359
0.16639 0.00721 0.22375
0.10610 0.19803 0.04179
0.12483 0.19803 0.08498
0.04059 0.19803 -0.12233
-0.14977 -0.09660 0.17540
-0.14981 0.09589 0.17557
-0.30613 0.19803 0.12466
-0.28655 0.19803 0.19879
0.19987 -0.04296 0.19062
0.19828 -0.18131 0.18700
-0.14900 0.19803 0.23802
-0.21714 0.20474 0.02427
-0.18637 0.20474 0.07910
-0.10607 0.20474 0.25703
-0.18502 0.20474 0.10410
-0.18181 0.20474 0.11952
-0.12359 0.20474 0.23907
-0.14354 0.20474 0.21865
-0.17117 0.20474 0.13686
-0.19318 0.20474 0.07717
-0.22264 0.20474 -0.00528
-0.17729 0.20474 0.10459
-0.15464 0.20474 0.20333
-0.09106 0.20474 0.28913
0.27187 0.19803 -0.01170
0.26233 0.19803 -0.05257
0.30275 0.19803 0.02897
0.27473 0.19803 0.00102
-0.20283 0.18776 0.17464
-0.20283 0.02091 0.17180
-0.06343 0.19803 -0.03679
0.01269 0.19803 0.15223
-0.29522 0.20474 0.09451
-0.23891 0.20474 0.23774
-0.24873 0.20474 0.22304
-0.25849 0.20474 0.18837
-0.24090 0.20474 0.25490
-0.22587 0.20474 0.27786
0.17763 0.20474 0.16384
0.06674 0.20474 -0.11285
0.18799 0.20474 0.20095
0.07599 0.20474 -0.09953
0.16857 0.20474 0.14807
0.04781 0.20474 -0.17536
0.09458 0.20474 -0.01707
0.20861 0.20474 0.24764
0.08216 0.20474 -0.04907
0.01785 0.20474 -0.22352
0.07126 0.20474 -0.11652
-0.02181 0.20474 -0.27797
-0.02531 0.20474 -0.29379
-0.17021 0.20474 -0.04866
-0.19418 0.20474 -0.18403
-0.20611 0.20474 -0.13955
-0.14505 0.20474 -0.00335
-0.15321 0.20474 -0.04944
-0.07567 0.20474 0.18021
-0.15100 0.20474 -0.03484
-0.21647 0.20474 -0.16716
-0.13696 0.20474 0.01841
-0.22021 0.20474 -0.22465
-0.05392 0.20474 0.23511
-0.07521 0.20474 0.16827
-0.19673 0.20474 -0.16776
-0.16119 0.20474 -0.09084
0.06760 0.19803 0.01133
0.12300 0.19803 0.12775
0.30036 0.20207 -0.07325
-0.13463 0.14603 -0.20184
-0.13389 0.04762 -0.19910
0.18458 0.19803 -0.14718
-0.23880 0.20474 -0.14501
-0.17216 0.20474 -0.01621
-0.16101 0.20474 0.02308
-0.20974 0.20474 -0.08537
-0.22915 0.20474 -0.13059
-0.15227 0.20474 0.03615
-0.16869 0.20474 0.00153
-0.19982 0.20474 -0.05793
-0.13672 0.20474 0.06042
-0.13171 0.20474 0.07765
-0.18078 0.20474 -0.03397
-0.12115 0.20474 0.11420
-0.16565 0.20474 0.00947
-0.18618 0.20474 -0.03641
-0.15088 0.19803 -0.25250
-0.16324 0.19803 -0.27859
0.17254 0.08521 0.22480
0.17192 0.10083 0.22473
-0.12739 -0.10568 -0.18834
-0.12616 -0.18645 -0.18712
-0.12825 -0.11523 -0.18920
-0.10529 0.20474 -0.15931
-0.13365 0.20474 -0.22986
0.05269 0.20474 0.25822
0.01389 0.20474 0.15107
0.00694 0.20474 0.14291
-0.13978 0.20474 -0.19283
-0.15097 0.20474 -0.21989
-0.14400 0.20474 -0.20220
-0.16349 0.20474 -0.28947
-0.16009 0.20474 -0.26610
-0.09504 0.20474 -0.11070
-0.06334 0.20474 -0.04791
-0.14467 0.20474 -0.25008
-0.13780 0.20474 -0.24155
0.04786 0.20474 0.24800
-0.14988 0.20474 -0.23791
-0.08994 0.20474 -0.11617
-0.08815 0.20474 -0.10363
-0.04477 0.19803 -0.12121
-0.08473 0.19803 -0.22451
0.26179 0.19803 -0.14534
0.15629 0.19803 0.10952
0.09227 0.19803 -0.02650
-0.31061 0.20443 0.12815
0.17834 -0.02771 -0.13334
0.17794 0.00415 -0.13345
-0.12184 0.19803 -0.19930
-0.20283 0.00817 0.17280
-0.20283 0.10826 0.17305
-0.26231 0.19803 -0.02532
0.28770 0.19803 0.09448
0.26307 0.19803 0.03786
-0.01058 0.20474 -0.10515
-0.00569 0.20474 -0.08263
-0.10157 0.20474 -0.29701
-0.02942 0.20474 -0.12843
0.06327 0.20474 0.14632
-0.02424 0.20474 -0.09831
0.05173 0.20474 0.08359
0.04584 0.20474 0.08925
0.07031 0.20474 0.14708
-0.09358 0.20474 -0.26342
-0.05799 0.20474 -0.23022
0.11140 0.20474 0.26528
0.00515 0.20474 -0.04644
-0.01561 0.20474 -0.10548
-0.06227 0.20474 -0.20158
-0.13298 0.08151 -0.21785
-0.13267 0.12027 -0.21840
-0.17865 0.19803 -0.26493
0.01613 0.19803 0.17205
-0.16185 0.19803 -0.23757
-0.13084 0.19803 -0.16466
-0.03528 0.19803 0.06088
-0.03941 0.19803 0.05144
-0.14466 0.19803 -0.19145
-0.04524 0.19803 0.03770
0.19217 0.19803 0.18931
0.17446 0.19803 -0.26028
0.17979 0.19803 -0.25036
-0.17271 0.19803 0.05274
-0.15786 0.19803 0.12055
-0.10860 0.19803 0.23768
-0.16632 0.19803 0.09410
-0.08183 0.19803 0.29215
-0.12193 0.19803 0.19032
-0.20425 0.19803 -0.00346
-0.21097 0.19803 -0.03859
-0.25410 0.19803 -0.15865
-0.18641 0.19803 0.02152
-0.25819 0.19803 -0.13243
-0.23985 0.19803 -0.07557
-0.18770 0.19803 0.03787
0.05313 0.19803 -0.31030
0.08525 0.19803 -0.25962
0.03784 0.19803 -0.32146
0.04353 0.19803 -0.31872
0.09703 0.19803 -0.21265
0.09128 0.19803 -0.20814
0.14968 0.19803 -0.11255
0.06160 0.19803 -0.27009
0.10784 0.19803 -0.20862
0.25022 0.19803 0.13679
0.21506 0.19803 0.05691
0.22813 0.19803 0.09506
0.21170 0.19803 0.05227
0.12140 0.19803 -0.17908
0.20012 0.19803 0.03519
0.10955 0.20474 0.20982
-0.04282 0.20474 -0.20533
0.01393 0.20474 -0.06065
-0.05795 0.20474 -0.25271
-0.03146 0.20474 -0.17836
0.08628 0.20474 0.14234
0.09602 0.20474 0.14372
0.08349 0.20474 0.08617
-0.03997 0.20474 -0.21641
0.09052 0.20474 0.10511
0.04026 0.20474 0.03636
0.14612 0.20474 0.26253
0.06793 0.20474 0.08248
0.07550 0.20474 0.07511
0.09856 0.20474 0.22004
0.08438 0.20474 0.11214
0.11438 0.20474 0.22554
-0.02964 0.20474 -0.17096
0.07799 0.20474 0.12666
0.02414 0.20474 -0.01024
0.14819 0.20474 0.28132
0.12108 0.20474 0.26789
0.08616 0.20474 0.12842
0.04799 0.20474 0.05667
0.01282 0.20474 -0.07665
-0.10474 0.19803 -0.24287
0.21340 0.19803 0.27470
0.19677 0.19803 0.28022
0.19605 0.19803 0.26512
0.19203 0.00034 0.17831
0.18918 -0.11038 0.17622
-0.20056 0.19803 0.15476
-0.14667 0.19803 -0.28300
-0.19593 -0.14808 0.18913
-0.19743 0.00644 0.18762
0.19956 -0.05725 0.20625
0.19875 0.13354 0.20831
0.14761 0.03198 0.19573
0.14781 0.12034 0.19391
0.18993 0.19803 0.18069
0.19648 -0.13611 -0.18257
0.19458 -0.16822 -0.18367
-0.08382 -0.09569 -0.21762
-0.08423 0.08185 -0.21833
0.15626 -0.15675 -0.15783
0.15626 -0.17696 -0.15769
0.13745 0.19803 -0.19190
0.20041 -0.18971 0.20264
0.20073 -0.09748 0.19979
-0.20166 0.19171 0.16336
-0.20149 0.10602 0.16272
-0.24162 0.20331 0.27718
0.15715 -0.03372 0.21875
0.15697 0.02978 0.21862
0.29196 0.20193 -0.11140
-0.19320 0.13770 0.15056
-0.19407 -0.04635 0.15142
-0.12299 0.19803 -0.25410
-0.15600 -0.09970 0.15376
-0.15537 -0.02897 0.15439
-0.18906 0.18960 0.19453
-0.18995 0.17536 0.19401
-0.20283 -0.08626 0.16924
-0.18699 0.19594 0.14670
-0.18715 0.10890 0.14678
-0.18727 -0.07175 0.14686
-0.16633 -0.06111 0.14629
-0.16795 0.03625 0.14586
0.15191 -0.16296 0.18346
0.15345 -0.08361 0.18136
0.18285 -0.20262 -0.18631
0.18018 0.09160 -0.18631
0.14447 0.20214 -0.30698
0.21922 0.19803 -0.03159
0.16095 0.19803 0.21346
-0.06344 0.19803 0.30316
-0.05677 0.19803 0.32844
-0.03856 0.19803 0.29318
-0.13332 0.19803 0.14984
-0.11089 0.19803 0.19669
-0.09323 0.19803 0.17650
-0.11856 0.19803 0.17871
-0.09958 0.19803 0.20742
-0.11327 0.19803 0.16746
-0.18872 0.19803 -0.00504
-0.08728 0.19803 0.21852
-0.06737 0.19803 0.25041
-0.04973 0.19803 0.29175
-0.12121 0.19803 0.12139
-0.07402 0.19803 0.29678
-0.12519 0.19803 0.12792
-0.06227 0.19803 0.26693
-0.12666 0.19803 0.10714
-0.15838 0.19803 0.18074
0.16746 0.03236 -0.18152
0.17085 -0.18700 -0.18348
0.19787 0.15874 0.21055
0.19942 -0.09891 0.20659
0.08837 0.20474 -0.32168
0.09149 0.20474 -0.29550
0.09065 0.20474 -0.27891
0.16219 0.20474 -0.16269
0.18326 0.20474 -0.08541
0.19884 0.20474 -0.05256
0.08871 0.20474 -0.28719
0.12977 0.20474 -0.22590
0.14059 0.20474 -0.18938
0.19520 0.20474 -0.06515
0.18488 0.20474 0.08129
0.11142 0.20474 -0.02642
0.21316 0.20474 0.21806
0.24022 0.20474 0.21841
0.15189 0.20474 0.03757
0.05965 0.20474 -0.16445
0.17831 0.20474 0.14137
0.20870 0.20474 0.22112
0.11153 0.20474 -0.05601
0.21029 0.20474 0.18310
0.22705 0.20474 0.18170
0.08192 0.20474 -0.11410
0.08273 0.20474 -0.12333
0.16782 0.20474 0.06007
0.20713 0.20474 0.16122
0.20756 0.20474 0.21386
0.11515 0.20474 -0.04320
0.19512 0.20474 0.10470
0.15776 0.20474 0.06811
0.22292 0.20474 0.18459
0.16391 -0.10817 0.17359
0.16039 0.08793 0.17514
-0.01680 0.20474 0.32042
-0.04927 0.20474 0.20039
-0.09539 0.20474 0.05377
-0.02719 0.20474 0.25216
-0.18365 0.20474 -0.17358
-0.05706 0.20474 0.19648
-0.06446 0.20474 0.19282
-0.09302 0.20474 0.05782
-0.13550 0.20474 -0.04838
-0.07808 0.20474 0.09813
-0.10710 0.20474 0.04451
0.00395 0.20474 0.32819
-0.01780 0.20474 0.31353
-0.01684 0.20474 0.28169
-0.10295 0.20474 0.05605
-0.09041 0.20474 0.04484
-0.00484 0.20474 0.31744
-0.01363 0.20474 0.24626
-0.08470 0.20474 0.09231
-0.08236 0.20474 0.12760
-0.03371 0.20474 0.25624
-0.29544 0.19803 0.05311
-0.28759 0.19803 0.10768
-0.28718 0.19803 0.08811
-0.28966 0.19803 0.07808
-0.29446 0.19803 0.07174
0.20870 0.20474 -0.18208
0.14748 0.20474 -0.30450
0.14828 0.20474 -0.29214
0.16953 0.20474 -0.26402
0.18402 0.20474 -0.21988
0.16398 0.20474 -0.27434
0.24781 0.20474 -0.10301
0.20172 0.20474 -0.18646
-0.16522 0.19803 0.21785
-0.15672 0.19803 0.29577
-0.15353 0.19803 0.28298
-0.14543 0.19803 0.30844
-0.08269 0.08128 -0.20040
-0.08186 0.15886 -0.20353
0.26529 0.20222 -0.19263
-0.13573 0.19803 -0.28729
-0.11231 0.19803 -0.26025
0.10948 0.19993 -0.31895
0.19011 0.05267 -0.18531
0.19079 -0.02870 -0.18513
-0.10974 -0.00532 -0.18045
-0.10936 0.07488 -0.18045
-0.19293 0.05110 0.15028
-0.19599 0.09008 0.15335
-0.05763 0.20474 -0.10906
-0.12285 0.20474 -0.29630
-0.02594 0.20474 -0.05311
-0.06155 0.20474 -0.09910
-0.09561 0.20474 -0.21722
0.01292 0.20474 0.04700
-0.08087 0.20474 -0.21526
0.04671 0.20474 0.13379
0.03980 0.20474 0.09913
-0.04208 0.20474 -0.10351
-0.12519 0.20474 -0.27751
-0.10701 0.20474 -0.26623
0.04441 0.20474 0.11869
-0.09158 0.20474 -0.18055
-0.05051 0.20474 -0.11155
-0.11812 0.20474 -0.29101
-0.07429 0.20474 -0.17907
-0.06235 0.20474 -0.15748
-0.03984 0.20474 -0.07764
0.28077 0.19803 0.05944
0.30163 0.19803 0.08868
-0.11467 0.19803 -0.21538
0.19029 0.19803 0.19704
0.15692 0.09556 -0.16564
0.15653 -0.05047 -0.16420
0.20209 0.19803 -0.16531
0.17750 0.13604 0.22460
0.17684 0.10848 0.22470
-0.23842 0.19803 0.01556
-0.10300 0.10161 -0.18097
-0.10301 0.05464 -0.18097
0.16903 -0.20474 0.19777
0.02485 0.19886 0.33301
-0.16237 -0.03023 0.19396
-0.16209 -0.17983 0.19380
0.16415 0.14367 0.17349
0.16603 -0.14102 0.17267
0.20414 0.19812 -0.27703
0.20132 0.01817 -0.14048
0.20067 0.14474 -0.13983
0.20261 0.19251 -0.14177
-0.14958 0.17340 0.17382
-0.14958 0.19354 0.17306
0.15004 0.19803 0.19156
-0.24379 0.19803 0.07544
-0.11475 0.19803 -0.15977
0.19568 -0.01715 -0.18303
0.19421 0.01019 -0.18388
-0.00181 0.19803 -0.23189
0.11922 0.19803 0.04088
0.11300 0.19803 0.02810
-0.10998 0.19803 0.03207
-0.04342 0.19803 0.17811
-0.05631 0.19803 0.20970
-0.01969 0.19803 0.30708
-0.04394 0.19803 0.21448
-0.11503 0.19803 0.02528
-0.08105 0.19803 0.10799
-0.01409 0.19803 0.22630
-0.02648 0.19803 0.20455
-0.17876 0.19803 -0.16151
-0.02053 0.19803 0.25616
-0.05899 0.19803 0.20116
-0.00918 0.19803 0.25846
-0.04777 0.19803 0.22836
-0.08785 0.19803 0.06569
-0.04625 0.19803 0.17015
-0.11199 0.19803 -0.00191
0.01115 0.19803 0.30686
-0.15230 0.19803 -0.08571
-0.05361 0.19803 0.21964
-0.12094 0.19803 0.01580
-0.13956 0.19803 -0.04782
0.20552 -0.11812 -0.17373
0.20634 -0.01207 -0.17229
-0.08964 -0.02054 -0.18825
-0.08907 -0.12832 -0.18882
-0.19709 0.19803 0.16780
0.11900 0.19803 -0.27739
0.10498 0.19803 -0.27774
0.15284 0.19803 -0.19141
0.20072 0.05606 0.19985
0.20068 0.14970 0.20023
0.20926 -0.12051 -0.16409
0.20856 -0.10245 -0.16672
0.20911 -0.19808 -0.16467
-0.12234 -0.10136 -0.18434
-0.12406 -0.02148 -0.18533
0.26317 0.20474 0.18340
0.20387 0.20474 0.06008
0.24898 0.20474 0.15266
0.07535 0.20474 -0.22914
0.08431 0.20474 -0.19715
0.26366 0.20474 0.22273
0.18706 0.20474 0.04501
0.23346 0.20474 0.14161
0.12123 0.20474 -0.12709
0.06163 0.20474 -0.25976
0.13257 0.20474 -0.08604
0.27326 0.20474 0.20876
0.27711 0.20474 0.21323
0.20121 0.20474 0.08805
-0.12706 0.02204 -0.22613
-0.12546 0.04814 -0.22773
-0.16892 0.20474 -0.11052
-0.13443 0.20474 -0.01241
-0.10038 0.20474 0.09118
-0.21605 0.20474 -0.23226
-0.12594 0.20474 0.04834
-0.18331 0.20474 -0.14586
-0.22687 0.20474 -0.21178
-0.19494 0.20474 -0.10704
-0.12106 0.20474 0.06508
-0.05074 0.20474 0.24831
-0.18650 0.20474 -0.14101
-0.11138 0.20474 0.07252
-0.20098 0.20474 -0.15782
-0.02325 0.19803 -0.18989
0.04355 0.19803 -0.03732
0.17559 -0.16302 0.22489
0.17862 -0.00344 0.22443
-0.09710 0.03669 -0.18289
-0.09693 0.19007 -0.18299
-0.30521 0.20169 0.20564
-0.29747 0.19803 0.13281
-0.31041 0.19803 0.10508
-0.26411 0.19803 0.14007
-0.26675 0.19803 0.15422
-0.28502 0.19803 0.11372
-0.29877 0.19803 0.08218
0.22307 0.19803 -0.09760
-0.11878 0.12166 -0.18228
-0.12095 0.11677 -0.18354
-0.19126 -0.05205 0.14916
-0.18960 -0.11457 0.14820
-0.19214 -0.09292 0.14967
-0.13123 0.15438 -0.19326
-0.13086 0.13530 -0.19261
-0.09978 0.19803 -0.16125
0.21593 0.20474 -0.26649
0.21959 0.20474 -0.25798
0.15646 0.19803 -0.22472
0.24237 0.20474 -0.20397
0.20255 0.19803 -0.24771
0.18405 0.19803 -0.27162
0.26988 0.19803 -0.10278
0.19327 0.19803 -0.26285
0.23497 0.19803 -0.18648
0.24288 0.19803 -0.17506
0.16095 0.01032 -0.14444
0.15930 0.17078 -0.14728
-0.12117 0.19803 0.25464
-0.14233 0.19803 0.19057
-0.07077 0.19803 0.32701
-0.13782 0.19803 0.19793
-0.14374 0.19803 0.18615
0.09311 0.19803 -0.03147
-0.20721 0.19803 0.07851
0.15927 0.09021 -0.17203
0.16104 -0.12175 -0.17510
0.08851 0.19803 -0.29874
0.10899 0.19803 -0.26475
0.10147 0.19803 -0.30281
0.27818 0.20474 -0.10021
0.23888 0.20474 -0.19514
0.27092 0.19832 0.25645
-0.22163 0.19803 0.13194
0.15001 0.19803 0.09537
0.06530 0.19803 -0.08576
-0.11085 -0.19487 -0.23369
-0.10745 -0.08145 -0.23369
0.14594 0.19803 -0.04390
0.19258 0.19803 0.07197
0.10095 0.19803 -0.16065
0.24553 0.19803 0.16646
0.16805 0.19803 -0.01878
0.10699 0.19803 -0.15218
0.11483 0.19803 -0.13140
0.19792 0.19803 0.05570
0.22660 0.19803 0.13040
0.12926 0.19803 -0.08579
0.17818 0.19803 0.03243
0.19351 0.19803 0.02798
-0.17972 0.01831 0.19783
-0.17991 0.02523 0.19778
0.19437 -0.15489 0.21558
0.19758 -0.09679 0.21123
-0.08509 -0.11604 -0.21982
-0.08581 -0.16543 -0.22107
0.22521 0.19803 -0.11654
0.19628 -0.14593 -0.18269
0.19831 -0.11637 -0.18152
0.14495 0.19803 -0.17908
-0.02850 0.19803 0.01004
-0.00072 0.19803 0.08946
0.00207 0.19803 0.09742
-0.19243 0.20474 0.24711
-0.22821 0.20474 0.14625
-0.26021 0.20474 0.06338
-0.27230 0.20474 0.06661
-0.28993 0.20474 0.01550
-0.26239 0.20053 -0.13872
0.26762 0.20474 -0.15858
-0.15146 0.14150 0.16081
-0.15321 -0.13802 0.15779
0.18326 0.19803 -0.20818
0.19588 -0.08495 0.18277
0.19511 -0.13126 0.18181
0.30620 0.19906 -0.03622
0.16325 0.16762 -0.17771
0.16538 0.17263 -0.17983
-0.19779 0.17530 0.18705
-0.19919 0.03515 0.18463
0.11632 0.19803 -0.05228
0.20568 0.19803 0.12780
0.09881 0.19803 -0.09492
0.08596 0.19803 -0.12643
0.15808 0.19803 0.03438
0.03160 0.19803 -0.23424
0.18120 0.19803 0.11452
0.20600 0.19803 0.14475
0.14058 0.19803 0.02935
0.23984 0.19803 0.22288
0.22535 0.19803 0.21292
0.08583 0.19803 -0.11277
0.16304 0.19803 0.03962
0.13435 0.19803 -0.00570
0.16654 0.19803 0.04602
0.11175 0.19803 -0.04452
-0.25695 0.20474 0.26832
0.14781 0.06160 0.19390
-0.02650 0.19803 0.05869
-0.09648 0.20129 0.32495
-0.11574 -0.10353 -0.18146
-0.11268 0.02670 -0.18064
0.18849 0.03473 0.17571
0.18722 0.00734 0.17477
0.18637 -0.19639 0.17439
0.18180 0.11154 0.17261
-0.09669 -0.20474 -0.21270
-0.09038 0.05237 -0.18751
-0.08898 0.11129 -0.18891
-0.15400 0.17968 0.15641
0.08231 0.19803 -0.02153
0.12057 0.19803 0.07664
0.02804 0.19803 -0.15223
-0.08743 0.14665 -0.22368
-0.08823 -0.06503 -0.22448
0.15066 0.04793 0.21098
0.14997 -0.00458 0.20940
-0.30095 0.20306 0.23357
-0.18681 0.13920 0.14659
-0.18833 -0.02616 0.14747
-0.13428 -0.11231 -0.20053
-0.12320 -0.06310 -0.22930
-0.12332 -0.15613 -0.22923
-0.11929 -0.17834 -0.23156
0.17556 0.15266 -0.13409
0.17732 0.13212 -0.13361
0.15710 -0.00744 -0.15303
0.15626 0.00632 -0.15617
-0.27840 0.20474 0.23897
-0.27166 0.20474 0.24786
-0.26977 0.20474 0.25891
0.16703 -0.13910 -0.13809
0.16720 0.13185 -0.13800
0.16777 -0.18988 -0.13767
-0.19054 -0.10749 0.14874
-0.19010 -0.17409 0.14849
0.20793 0.18925 -0.16907
0.20826 -0.03329 -0.16784
0.16890 0.07189 0.17205
0.17302 -0.03998 0.17142
-0.10027 -0.04352 -0.23244
-0.09898 -0.10756 -0.23209
0.19246 0.20474 -0.21235
0.24586 0.20474 -0.08953
0.18843 0.20474 -0.24663
0.23976 0.20474 -0.12953
0.26129 0.20474 -0.07198
-0.21826 0.19929 -0.23092
-0.12902 0.16617 -0.18997
0.20575 0.00106 -0.17332
0.20659 0.19776 -0.17186
0.19697 -0.08556 -0.13708
0.19648 -0.14642 -0.13679
0.19760 -0.07082 -0.13744
0.19618 0.17772 0.18315
0.19339 0.12596 0.17966
-0.09706 0.07047 -0.23122
-0.09598 0.17339 -0.23060
-0.08921 0.19803 0.28813
-0.13262 0.19803 0.23746
-0.10449 0.19803 0.30762
-0.09814 0.19803 0.30115
-0.12276 0.19803 0.29184
-0.16848 0.11247 0.19670
-0.17105 0.10877 0.19739
0.24573 0.19803 -0.06947
-0.09421 -0.10030 -0.22958
-0.09438 -0.06779 -0.22968
0.14355 0.19803 -0.24446
0.11839 0.19803 -0.31262
-0.17461 -0.06826 0.19783
-0.17568 -0.05975 0.19783
0.16389 0.17626 0.22277
-0.07159 0.19803 0.07917
-0.09666 0.19803 0.00847
-0.12248 0.19803 -0.04034
-0.18577 0.19803 -0.21029
-0.09869 0.19803 -0.01868
-0.12175 0.19803 -0.08998
-0.17882 0.19803 -0.24819
-0.10482 0.19803 -0.04060
-0.09034 0.19803 0.03896
-0.07280 0.19803 0.04585
-0.12186 0.19803 -0.06161
-0.16389 0.19803 -0.17043
-0.18577 0.19803 -0.21640
-0.12938 0.19803 -0.10104
-0.19038 0.19803 -0.21284
-0.19620 0.19803 -0.26132
-0.19584 0.19803 -0.23962
-0.08185 0.13505 -0.20540
-0.08185 0.07036 -0.20687
0.21414 0.19803 -0.12223
0.25185 0.19803 -0.01884
0.12300 0.20474 -0.10569
0.22915 0.20474 0.13590
0.21652 0.20474 0.09953
0.18632 0.20474 0.01614
0.25514 0.20474 0.16394
0.07414 0.20474 -0.23470
0.25700 0.20474 0.20917
0.10959 0.20474 -0.14631
0.19830 0.20474 0.05223
0.18430 0.20474 0.04105
0.17568 0.20474 0.00938
0.19051 0.20474 0.06108
0.27835 0.20474 0.21934
0.20225 0.20474 0.04539
-0.23765 0.20474 0.22069
-0.25079 0.20474 0.19597
-0.26562 0.20474 0.15911
-0.27175 0.20474 0.13582
0.15763 0.19803 -0.26298
0.02828 0.20474 -0.07437
0.11389 0.20474 0.12166
0.09800 0.20474 0.08704
-0.01595 0.20474 -0.17110
0.14830 0.20474 0.23037
0.10528 0.20474 0.10283
-0.03811 0.20474 -0.27243
-0.02030 0.20474 -0.24614
-0.04090 0.20474 -0.28377
-0.07787 0.20474 -0.31897
-0.00307 0.20474 -0.14016
-0.03900 0.20474 -0.28936
0.03052 0.20474 -0.10450
0.08013 0.20474 0.04371
0.10888 0.20474 0.12021
0.06707 0.20474 0.00580
-0.02291 0.20474 -0.19043
-0.18314 0.12198 0.19691
0.17638 0.05389 -0.18550
0.17764 0.15523 -0.18584
-0.15270 0.02255 0.15868
-0.15174 0.10564 0.16033
-0.13509 -0.10349 -0.20945
-0.13509 -0.12911 -0.20671
0.17494 0.19803 -0.16871
0.18594 0.15964 -0.13306
0.18413 -0.17452 -0.13306
-0.20077 0.19803 0.14955
0.28395 0.20474 -0.03665
0.26411 0.20474 -0.08716
0.21285 0.20474 -0.20081
0.25789 0.20474 -0.09185
-0.10351 -0.10197 -0.18083
-0.10238 0.02200 -0.18114
-0.14958 -0.18042 0.17128
-0.14958 -0.00814 0.17302
0.16474 0.19803 -0.18010
-0.14462 0.20056 0.31406
-0.09816 0.10434 -0.18228
-0.09411 0.09698 -0.18462
-0.07025 0.20474 0.20783
-0.15542 0.20474 0.01452
-0.15180 0.20474 0.00712
-0.15813 0.20474 -0.00581
-0.19681 0.20474 -0.08219
-0.14527 0.20474 0.04006
-0.20754 0.20474 -0.10811
-0.19486 0.20474 -0.05436
-0.17129 0.20474 0.00961
-0.25086 0.20474 -0.16094
-0.21661 0.20474 -0.12623
-0.22126 0.20474 -0.16265
-0.24696 0.20474 -0.16766
-0.20309 0.20474 -0.07546
-0.19972 0.02711 0.15870
-0.19913 -0.10467 0.15767
-0.08106 0.19803 -0.17503
-0.07229 0.19803 -0.15262
-0.17962 -0.20474 0.16556
0.03411 0.19803 -0.14630
0.12269 0.19803 0.06649
0.12771 0.19803 0.07462
0.18158 -0.13045 -0.18631
0.18024 -0.15779 -0.18631
0.17980 0.00691 0.17203
0.18030 -0.13452 0.17209
0.18023 0.06483 0.17208
-0.20189 -0.20273 0.17819
-0.20162 -0.09896 0.17922
-0.16553 0.19803 0.20524
0.16273 0.02917 -0.14218
0.16453 -0.12783 -0.14038
-0.15567 0.03436 0.15409
-0.15574 0.04591 0.15402
-0.13147 -0.15532 -0.19367
-0.13195 0.02883 -0.19449
-0.19928 -0.02773 0.18449
-0.19867 -0.19483 0.18553
0.16917 -0.04394 -0.18251
0.16713 -0.13110 -0.18133
-0.11071 -0.04101 -0.18045
-0.10810 0.12644 -0.18045
-0.10987 -0.07438 -0.18045
-0.13306 -0.18112 -0.19643
-0.13281 -0.00773 -0.19599
-0.08185 -0.05454 -0.20800
-0.08185 0.17651 -0.20708
-0.09932 0.09263 -0.18196
-0.10064 -0.18050 -0.18160
-0.01488 0.20225 -0.33316
-0.03402 0.19803 -0.08855
-0.16538 0.19803 0.07016
-0.12511 0.19803 0.17181
-0.02785 0.19803 0.31781
-0.13637 0.19803 0.10701
-0.07725 0.19803 0.26571
-0.02969 0.19803 0.32405
-0.07201 0.19803 0.29177
-0.16680 0.19803 0.02297
-0.03527 0.19803 0.31690
-0.15218 0.19803 0.07418
-0.11955 0.19803 0.13140
-0.08969 0.19803 0.25425
-0.06770 0.19803 0.26579
-0.05801 0.19803 0.27674
-0.04099 0.19803 0.31396
-0.13164 0.19803 0.09493
-0.07445 0.19803 0.24644
-0.20221 -0.15940 0.17699
-0.20265 -0.18910 0.17536
-0.14958 0.02352 0.16797
-0.14958 -0.02999 0.17043
0.18076 -0.20193 -0.13306
-0.15512 0.10825 0.18777
-0.15881 -0.13359 0.19146
0.17584 0.19803 0.17770
0.20329 0.19515 -0.17692
0.19929 -0.17321 -0.18093
-0.10124 -0.08540 -0.18144
-0.09925 0.08088 -0.18198
-0.09244 0.12571 -0.18558
-0.09460 -0.12963 -0.18433
0.17284 0.01087 0.22483
0.17394 0.06277 0.22495
0.02834 0.19803 0.06882
0.08612 0.19803 0.20981
-0.13031 0.08052 -0.22248
-0.12991 0.00646 -0.22318
0.04905 0.20424 -0.33094
-0.22818 0.20474 -0.07317
-0.23400 0.20474 -0.05744
-0.24461 0.20474 -0.07525
-0.25083 0.20474 -0.09700
-0.20372 0.20474 0.02465
-0.24621 0.20474 -0.10548
-0.24566 0.20474 -0.09603
-0.12057 0.20474 0.21016
-0.19292 0.20474 0.04723
-0.25561 0.20474 -0.10266
0.20532 -0.05984 -0.14531
0.20462 0.11113 -0.14409
0.19419 0.08925 -0.13548
0.19632 0.03457 -0.13670
0.19798 0.12831 -0.13767
-0.09144 -0.14147 -0.18645
0.17453 -0.07430 0.17145
0.17875 -0.16212 0.17192
0.22223 0.20474 0.08414
0.15211 0.20474 -0.10929
0.11768 0.20474 -0.17037
0.20925 0.20474 0.05372
0.06063 0.20474 -0.28798
0.05867 0.20474 -0.27552
0.13315 0.20474 -0.12340
0.05630 0.20474 -0.28612
0.15512 0.20474 -0.07521
0.14190 0.20474 -0.11847
0.13267 0.20474 -0.13936
0.06402 0.20474 -0.30466
0.14774 0.20474 -0.10668
0.25302 0.19803 0.07443
-0.10892 -0.19364 -0.18045
-0.10807 -0.15180 -0.18045
0.18251 0.00990 -0.13306
0.18081 0.03059 -0.13306
0.29324 0.20474 -0.06467
0.30719 0.20474 -0.02371
0.27123 0.20474 -0.11725
0.18766 0.20474 -0.13978
0.26949 0.20474 0.05103
0.12772 0.20474 -0.27111
0.13688 0.20474 -0.25644
0.25253 0.20474 0.01468
-0.18542 -0.02929 0.19630
-0.18553 0.18446 0.19627
-0.17687 -0.13706 0.19783
-0.17286 -0.01989 0.19783
-0.17653 -0.16456 0.19783
-0.19594 0.20474 0.09934
-0.16404 0.20474 0.19249
-0.27498 0.20474 -0.09694
-0.26799 0.20474 -0.06206
-0.26643 0.20474 -0.05686
-0.27668 0.20474 -0.07415
-0.23438 0.20474 0.02017
-0.24691 0.20474 -0.02442
-0.26905 0.20474 -0.04856
-0.17344 -0.08691 0.14458
-0.17277 0.03412 0.14458
0.19398 0.08853 -0.18402
0.19422 -0.06588 -0.18388
0.19988 0.13958 0.19064
0.19861 -0.07309 0.18773
-0.11062 -0.20474 -0.18409
0.21840 0.19803 -0.25070
0.26504 0.19803 -0.16531
0.17384 0.20474 -0.20017
0.22294 0.20474 -0.08046
0.25262 0.20474 -0.00161
0.24744 0.20474 -0.00484
0.13232 0.20474 -0.30029
-0.24507 0.19803 0.17616
-0.20759 0.19803 0.25843
-0.21394 0.19803 0.25570
-0.18226 0.19803 0.29544
-0.29103 0.19803 0.05195
-0.24056 0.19803 0.18691
-0.20628 0.19803 0.26623
-0.22752 0.19803 0.22303
0.20043 0.18969 0.19414
0.20005 -0.05265 0.19163
-0.12551 0.06990 -0.22767
-0.12845 0.17227 -0.22474
0.20835 0.08793 -0.15189
0.19314 0.10032 -0.13487
0.18995 0.00504 -0.13402
0.18183 -0.20474 -0.15123
-0.21217 0.19803 0.14521
0.20419 0.19803 -0.06322
0.24497 0.19803 0.04669
-0.17746 -0.11321 0.14458
-0.17958 0.15031 0.14458
0.16173 -0.03604 -0.17618
0.16182 -0.12739 -0.17628
0.15297 -0.18971 0.21437
0.15124 -0.06900 0.21220
-0.10938 0.19803 -0.25309
-0.11657 0.19803 -0.30431
-0.12949 0.19803 -0.28563
0.16388 0.13811 -0.17833
0.16539 -0.04379 -0.17984
-0.19911 0.19803 0.08678
0.20502 0.20474 -0.07474
0.12039 0.20474 -0.27802
0.27020 0.20474 0.07851
0.24115 0.20474 0.02392
0.25831 0.20474 0.06116
0.18618 0.20474 -0.13235
0.24234 0.20474 0.01203
0.25309 0.20474 0.05922
0.21146 0.20474 -0.05476
0.27716 0.20474 0.10218
0.28352 0.20474 -0.11088
0.28923 0.20474 -0.08329
-0.20121 0.03220 0.18074
-0.20116 0.16946 0.18092
0.15702 0.01659 -0.16601
-0.15055 -0.08826 0.17834
-0.14987 -0.14657 0.17580
-0.19063 0.19803 0.09716
0.19829 0.19803 -0.13186
0.20499 -0.18771 -0.14474
0.20610 -0.11837 -0.14665
0.20736 0.03266 -0.14885
0.24773 0.19803 -0.05738
-0.10688 0.10809 -0.23369
-0.10652 0.09836 -0.23369
-0.11243 0.00493 -0.23357
-0.11700 0.16795 -0.23234
0.21782 0.20474 -0.07234
0.14873 0.20474 -0.22910
0.15890 0.20474 -0.21019
0.11729 0.20474 -0.30346
0.20438 -0.07602 -0.14367
0.20423 -0.09590 -0.14343
0.15851 -0.17888 -0.17071
0.16100 -0.16845 -0.17504
-0.30424 0.20474 0.04681
-0.22542 0.20474 0.25211
-0.30461 0.20474 0.06573
-0.27834 0.20474 0.12693
0.07291 0.20474 0.00247
0.02119 0.20474 -0.15782
0.06803 0.20474 -0.04350
0.11722 0.20474 0.09313
0.10689 0.20474 0.06918
0.03908 0.20474 -0.10433
0.16153 0.20474 0.20835
0.07278 0.20474 -0.03634
0.12120 0.20474 0.10737
0.02947 0.20474 -0.14142
0.17314 0.20474 0.27301
0.13090 0.20474 0.08528
0.17727 0.20474 0.20319
0.02974 0.20474 -0.15006
0.14005 0.20474 0.13341
0.18101 0.20474 0.19469
0.06375 0.20474 -0.03910
0.16183 0.20474 0.17814
0.18997 0.20474 0.29530
0.01457 0.20474 -0.16120
0.18079 0.20474 0.23322
0.10723 0.20474 0.03413
0.12596 0.20474 0.12698
0.09637 0.20474 0.01753
0.16055 0.20474 0.17131
0.18742 0.17023 0.17492
-0.01241 0.19803 -0.23656
0.10554 0.19803 0.05875
0.04363 0.19803 -0.07634
-0.03898 0.19803 -0.29562
0.05038 0.19803 -0.06122
-0.05036 0.19803 -0.27264
-0.06920 0.19803 -0.31132
-0.02271 0.19803 -0.27023
0.09818 0.19803 0.03322
-0.01426 0.19803 -0.24685
-0.07104 0.19803 -0.30413
0.11368 0.19803 0.06943
0.00318 0.19803 -0.20258
0.11072 0.19803 0.06576
0.18722 0.05495 -0.13329
0.18745 0.00906 -0.13335
-0.12262 -0.03878 -0.18450
-0.12385 -0.16731 -0.18521
0.19460 0.03528 0.21528
0.19458 -0.01957 0.21530
0.14383 0.19803 -0.14530
0.08853 0.19803 -0.28385
0.15784 0.19803 -0.13918
0.21986 0.19803 0.03442
0.10691 0.19803 -0.24485
0.19270 0.19803 -0.02698
0.24107 0.19803 0.09925
0.25071 0.19803 0.12772
0.22180 0.19803 0.06101
0.15213 0.19803 -0.25322
0.00281 0.19803 0.08539
-0.00360 0.19803 0.06870
-0.13515 0.19803 0.08270
-0.17109 0.19803 -0.00767
-0.19186 0.19803 -0.08614
-0.06881 0.19803 0.22456
-0.09830 0.19803 0.16303
-0.19158 0.19803 -0.03061
-0.22318 0.19803 -0.12085
-0.22741 0.19803 -0.17979
-0.24693 0.19803 -0.17490
-0.10276 0.19803 0.12667
-0.16516 0.19803 0.00566
-0.19196 0.19803 -0.03991
-0.10846 0.19803 0.12453
-0.19229 0.19803 -0.08102
0.20775 -0.00947 -0.14965
0.20872 -0.07237 -0.15325
0.26391 0.19803 -0.08696
0.23858 0.19803 -0.14075
0.24409 0.19803 -0.12432
0.17605 0.19803 0.05514
0.00064 0.19803 -0.31526
0.02183 0.19803 -0.31557
0.08879 0.19803 -0.13640
0.12937 0.19803 -0.06873
0.11058 0.19803 -0.11578
0.07456 0.19803 -0.19737
0.24340 0.19803 0.20509
0.03296 0.19803 -0.27619
0.20930 0.19803 0.11600
0.09038 0.19803 -0.16104
0.12688 0.19803 -0.04968
0.04389 0.19803 -0.25067
0.04661 0.19803 -0.22279
0.09598 0.19803 -0.12211
0.10638 0.19803 -0.08936
0.03637 0.19803 -0.29997
-0.15025 0.04143 0.16520
-0.14963 -0.10049 0.16752
-0.22753 0.20089 0.28388
0.15626 -0.05596 -0.15701
0.15626 0.18709 -0.16258
-0.27959 0.19803 -0.03449
-0.24162 0.19803 0.04075
-0.27132 0.19803 0.00657
-0.22509 0.19803 0.08096
-0.24620 0.19803 0.03478
-0.11969 0.05815 -0.23133
-0.12039 0.19111 -0.23093
-0.09849 -0.20474 -0.19604
-0.13734 0.19803 -0.00868
-0.15185 0.19803 -0.02107
-0.17281 0.19803 -0.10313
-0.18958 0.19803 -0.13640
-0.22744 0.19803 -0.18720
-0.19977 0.19803 -0.15754
-0.09730 0.19803 0.12545
-0.17009 0.19803 -0.11551
-0.20485 0.19803 -0.21768
-0.11508 0.19803 0.04855
-0.20406 0.19803 -0.15097
-0.14257 0.19803 0.01383
-0.11167 0.19803 0.06193
-0.06816 0.19803 0.18406
0.17353 -0.00958 0.17135
0.16795 0.19803 -0.14609
0.15626 0.11683 -0.15838
0.15626 0.09211 -0.15850
-0.27842 0.19986 -0.09333
0.15229 -0.14359 0.21351
0.15213 0.09051 0.21332
0.04171 0.20202 -0.33177
-0.08483 -0.12621 -0.19476
0.30317 0.20474 -0.00221
0.24467 0.20474 -0.12470
0.29754 0.20474 -0.01398
-0.19466 0.00937 0.19040
-0.19264 -0.18205 0.19242
0.15829 -0.20474 -0.16352
0.20084 -0.13724 0.19877
0.20086 0.03101 0.19859
0.17525 -0.17817 -0.18520
0.17427 0.07400 -0.18494
0.17392 0.00719 -0.18485
-0.10252 -0.01836 -0.23304
-0.10197 -0.00760 -0.23289
-0.17459 -0.13496 0.14458
-0.17583 -0.20433 0.14458
-0.17368 -0.19221 0.14458
-0.15176 0.16037 0.16029
-0.15459 -0.16789 0.15540
-0.15831 0.15605 0.15145
-0.15669 0.10364 0.15307
-0.09018 0.00510 -0.22643
-0.08963 0.05387 -0.22588
-0.25161 0.20474 0.03285
-0.21868 0.20474 0.13774
-0.21176 0.20474 0.16254
-0.24235 0.20474 0.09981
-0.21330 0.20474 0.15651
-0.24016 0.20474 0.11192
-0.27331 0.20474 0.01257
-0.08185 -0.07501 -0.20530
0.20950 0.05504 -0.15959
0.20950 0.03040 -0.16137
0.20950 -0.05758 -0.16099
-0.22199 0.19803 0.05225
0.19046 0.19803 -0.05183
0.16142 0.19803 -0.09007
0.21876 0.19803 0.04873
0.16080 0.19803 -0.10633
0.11151 0.19803 -0.23699
0.16173 0.19803 -0.09656
0.12795 0.19803 -0.19920
0.20865 0.19803 0.02680
-0.17392 0.17705 0.19783
-0.17803 -0.05571 0.19783
-0.17573 0.04792 0.19783
0.15374 0.11867 0.18097
0.15227 0.19597 0.18296
0.27666 0.20474 -0.12000
0.16816 0.19803 0.20339
-0.30011 0.19803 0.21552
-0.29682 0.19803 0.20998
-0.27803 0.19803 0.23728
-0.10383 0.06542 -0.23339
-0.10126 -0.14135 -0.23270
0.18215 0.14727 -0.13306
0.18053 0.04555 -0.13306
0.24646 0.19803 -0.23014
-0.19918 -0.09591 0.15776
-0.19990 -0.06220 0.15901
0.14162 0.19803 -0.22552
0.23620 0.19803 -0.11855
0.24660 0.19803 -0.09727
0.19255 0.19803 -0.22439
0.28004 0.19803 -0.02202
0.16244 -0.13576 0.17424
-0.27479 0.20474 0.20919
-0.30695 0.20474 0.08720
-0.30734 0.20474 0.08240
-0.16206 0.04012 0.14863
0.19730 0.13745 0.18475
0.19903 0.13523 0.18869
0.01602 0.19803 0.14523
-0.04815 0.19803 -0.02660
-0.05021 0.19803 -0.03918
-0.09475 0.19803 -0.19504
-0.19861 -0.01284 0.18565
-0.19926 0.16401 0.18451
0.27535 0.19803 0.16533
0.23270 0.19803 0.04453
0.19159 0.19803 -0.06053
0.20603 0.19803 -0.01633
0.22898 0.19803 0.02544
0.24562 0.19803 0.09399
0.21168 0.19803 -0.00281
-0.13457 0.15416 -0.21251
-0.13432 -0.02270 -0.21344
-0.13480 -0.06076 -0.21164
0.19199 -0.14746 0.21799
0.19276 -0.17326 0.21737
0.20073 0.14425 0.19609
0.20003 -0.06855 0.19147
-0.29927 0.20474 0.16204
-0.27358 0.20474 0.23130
-0.16505 0.02488 0.14691
-0.16547 -0.12997 0.14666
-0.18112 0.02629 0.14496
-0.18249 0.06725 0.14533
0.28930 0.20151 0.19907
-0.17780 0.09905 0.19783
-0.17368 0.15971 0.19783
0.16672 -0.17496 -0.13828
-0.01019 0.19803 -0.10921
0.09919 0.19803 0.18965
0.15280 0.19803 0.29895
0.05914 0.19803 0.08831
-0.06076 0.19803 -0.26051
0.01504 0.19803 -0.06681
0.07864 0.19803 0.07423
0.16556 0.19803 0.27684
0.02482 0.19803 -0.04626
0.15818 0.19803 0.29313
0.07472 0.19803 0.08225
0.04677 0.19803 0.01658
0.02686 0.19803 0.00140
0.05373 0.19803 0.08202
0.10655 0.19803 0.24004
0.01682 0.19803 -0.03597
0.13289 0.19803 0.23432
0.07902 0.19803 0.13311
0.08329 0.19803 0.07652
0.12409 0.19803 0.18256
0.00873 0.19803 -0.06644
0.15488 0.19803 0.30852
0.12782 0.19803 0.28346
0.10573 0.20474 -0.17524
0.16985 0.20474 -0.05932
0.24019 0.20474 0.11089
0.09373 0.20474 -0.23386
0.11598 0.20474 -0.15436
0.10115 0.20474 -0.18252
0.23705 0.20474 0.11831
0.05672 0.20474 -0.29262
0.08218 0.20474 -0.27992
0.03801 0.20474 -0.32447
0.08405 0.20474 -0.25903
0.23512 0.20474 0.10158
0.15932 0.20474 -0.05255
0.14846 -0.15776 0.19071
0.14878 -0.17545 0.18990
0.14973 -0.02951 0.18746
0.10272 0.20474 0.14261
0.05907 0.20474 0.09414
-0.01231 0.20474 -0.14494
0.05136 0.20474 0.03553
0.04500 0.20474 -0.01452
-0.00614 0.20474 -0.10093
0.05859 0.20474 0.02761
0.12409 0.20474 0.25239
0.03949 0.20474 -0.02629
0.11281 0.20474 0.23594
0.04017 0.20474 0.01869
0.02263 0.20474 -0.01605
-0.00428 0.20474 -0.09256
0.15529 0.20474 0.27292
-0.00770 0.20474 -0.12266
0.07533 0.20474 0.09705
-0.01995 0.20474 -0.14693
0.14849 0.20474 0.28689
0.13257 0.20474 0.29923
0.07069 0.20474 0.11263
0.01483 0.20474 -0.03079
0.12431 0.20474 0.18013
0.15523 -0.02283 0.21719
0.15475 -0.12163 0.21659
0.17600 0.14980 0.17161
0.17654 0.08879 0.17167
-0.11443 -0.01677 -0.23303
-0.11395 -0.03696 -0.23316
-0.05929 0.19803 -0.08522
-0.07049 0.19803 -0.11459
-0.08554 0.19803 -0.16625
0.14800 -0.02847 0.19219
0.14801 -0.09371 0.19213
-0.09220 -0.10025 -0.18572
-0.09469 0.00812 -0.18428
0.27046 0.19803 -0.12596
0.29574 0.19803 -0.08231
0.22687 0.19803 0.23555
0.23158 0.19803 0.24214
0.24619 0.19803 0.25131
0.21835 0.19803 0.21608
-0.15139 0.06252 0.16096
-0.15048 0.09205 0.16433
-0.12191 0.19803 -0.24359
-0.11532 0.14605 -0.18134
-0.11643 0.18483 -0.18164
0.18593 0.08649 -0.18631
0.18302 0.12343 -0.18631
0.18530 0.11129 0.22235
0.18184 -0.17087 0.22387
-0.13455 0.02868 -0.21259
-0.13432 0.05293 -0.21345
0.17641 0.15328 0.22477
0.17941 0.07780 0.22431
0.17709 0.03929 0.22466
0.20091 -0.02109 0.19726
0.20078 -0.07491 0.19642
0.30427 0.19924 0.12868
0.29479 0.19989 -0.10010
0.18642 0.19803 -0.11115
0.16785 0.12390 0.17221
0.17050 -0.16575 0.17181
0.14813 -0.05173 0.19155
0.14810 0.01433 0.19164
0.19776 -0.06313 0.21083
0.19912 -0.16171 0.20737
-0.11581 -0.07308 -0.23266
-0.11464 -0.14210 -0.23298
-0.11804 0.03682 -0.23207
-0.09727 0.20474 0.21061
-0.12466 0.20474 0.12046
-0.13547 0.20474 0.12518
-0.10029 0.20474 0.19264
-0.06704 0.20474 0.32616
-0.07657 0.20474 0.24707
-0.17193 0.20474 0.03218
-0.05359 0.20474 0.27636
-0.23613 0.20474 -0.11894
-0.03706 0.20474 0.32495
-0.10784 0.20474 0.14811
-0.06653 0.20474 0.31563
-0.10221 0.20474 0.22649
-0.03674 0.20474 0.29912
-0.05750 0.20474 0.32099
-0.13314 0.20474 0.13930
-0.08754 -0.02187 -0.22379
-0.08976 -0.08970 -0.22601
-0.08897 0.03275 -0.22522
-0.13412 -0.04457 -0.21418
0.13707 0.19803 -0.21245
0.17418 -0.10812 -0.13446
0.17341 -0.03719 -0.13466
-0.19576 -0.20474 0.16821
0.08879 0.20474 -0.16704
0.13688 0.20474 -0.04396
0.11990 0.20474 -0.09899
0.11664 0.20474 -0.08529
0.12274 0.20474 -0.09220
0.12990 0.20474 -0.04324
0.01451 0.20474 -0.32058
0.10901 0.20474 -0.10207
0.06556 0.20474 -0.21787
0.11799 0.20474 -0.07679
0.03212 0.20474 -0.24754
0.13416 0.20474 -0.04870
0.06272 0.20474 -0.23179
0.04511 0.20474 -0.23500
0.11559 0.20474 -0.11566
-0.17102 0.13844 0.19738
-0.13574 0.19803 -0.27125
-0.16913 -0.17301 0.19687
0.24877 0.20474 -0.01958
0.27187 0.20474 0.04275
0.26822 0.20474 0.03482
0.25455 0.20474 -0.03366
0.23670 0.20474 -0.07026
0.30414 0.20474 0.10234
0.29707 0.20474 0.07838
-0.13509 0.07785 -0.20565
-0.13509 0.19211 -0.20628
0.15764 0.02448 -0.15104
0.15707 0.04901 -0.15315
0.04712 0.19803 0.22046
0.01241 0.19803 0.10971
-0.15123 0.19803 0.18567
0.20058 0.01989 0.19507
0.16268 0.20474 -0.22097
0.14586 0.20474 -0.25555
0.17802 0.20474 -0.18873
-0.01588 0.20474 0.29736
-0.14087 0.20474 -0.05582
-0.00192 0.20474 0.30477
-0.06315 0.20474 0.14894
-0.00246 0.20474 0.30965
-0.11632 0.20474 0.03437
-0.02259 0.20474 0.27532
-0.12910 0.20474 -0.02039
-0.14614 0.20474 -0.08275
-0.04316 0.20474 0.18050
-0.09094 0.20474 0.10076
-0.03719 0.20474 0.27399
-0.03267 0.20474 0.18476
-0.04132 0.20474 0.15952
-0.00977 0.20474 0.23626
-0.01275 0.20474 0.33083
0.01176 0.20474 0.29844
-0.04867 0.20474 0.15943
0.19997 -0.19339 -0.13913
0.20050 -0.14827 -0.13966
-0.15290 0.05280 0.18409
-0.18085 -0.16170 0.14489
-0.18272 -0.16900 0.14539
-0.18604 -0.10203 0.14628
-0.04551 0.19803 -0.10753
0.25884 0.19803 -0.20677
0.10944 0.19803 -0.31448
-0.17148 0.07699 0.14491
-0.16956 -0.14833 0.14542
0.16186 0.17888 -0.14305
0.16637 -0.00419 -0.13855
0.16497 0.06805 -0.13995
-0.13519 0.19803 -0.25319
-0.13897 0.19803 -0.24653
0.00784 0.20474 0.13617
-0.10730 0.20474 -0.10143
-0.03635 0.20474 0.04329
-0.06820 0.20474 -0.04149
-0.12434 0.20474 -0.14375
0.02437 0.20474 0.18071
-0.13211 0.20474 -0.21905
-0.08530 0.20474 -0.06271
-0.02876 0.20474 0.07166
-0.15604 0.20474 -0.27650
-0.10707 0.20474 -0.14198
-0.04728 0.20474 -0.00322
-0.08236 0.20474 -0.07894
-0.07023 0.20474 -0.02632
-0.14414 0.19803 0.03815
-0.19341 0.19803 -0.09588
-0.16848 0.19803 -0.03174
-0.17848 0.19803 -0.02976
-0.20332 0.19803 -0.12062
-0.11145 0.19803 0.13273
-0.14596 0.19803 0.06055
-0.14510 0.19803 0.02380
-0.15195 0.19803 0.01682
-0.18444 0.19803 -0.04138
-0.20987 0.19803 -0.13297
0.26883 0.19803 0.02838
0.24897 0.19803 -0.03477
0.28240 0.19803 0.03618
0.23667 0.19803 -0.06749
-0.17423 0.19803 0.23055
0.22428 0.19803 -0.17211
0.26427 0.19803 -0.07795
0.28091 0.19803 -0.03055
0.30574 0.19803 0.01826
-0.20299 0.19803 0.11659
-0.22909 0.19803 0.05705
-0.16268 -0.15316 0.19414
-0.16149 0.08752 0.19345
0.23506 0.19803 -0.05348
0.21636 0.19803 -0.09588
0.15744 0.02980 -0.15177
0.15760 -0.07548 -0.15118
-0.18028 -0.20474 0.19166
0.22761 0.19803 0.00649
0.20809 -0.12971 -0.16845
0.20933 -0.04052 -0.16385
-0.17750 0.19803 0.24709
0.08706 0.19803 0.05151
-0.15720 0.11224 0.18985
-0.15712 0.13221 0.18977
-0.15719 0.06474 0.18984
0.05649 0.19803 0.00731
-0.07715 0.19803 -0.30919
0.09305 0.19803 0.08632
-0.13016 0.01481 -0.22273
-0.13105 0.16482 -0.22119
0.20384 0.19803 0.29080
0.19333 -0.04428 0.21692
0.19269 0.07829 0.21743
0.18637 -0.04991 0.17439
0.18624 -0.09817 0.17434
0.18941 0.11001 0.22005
0.18966 -0.01211 0.21985
0.25335 0.20474 -0.00710
0.28920 0.20474 0.08952
0.20057 0.20474 -0.14631
0.29400 0.20474 0.05437
0.19231 0.20474 -0.17661
0.29350 0.20474 0.09302
0.26688 0.20474 -0.00321
0.18425 -0.10668 0.17356
0.18347 -0.12186 0.17326
-0.20118 -0.07390 0.16157
-0.20227 -0.15602 0.16563
-0.20122 -0.18736 0.16171
-0.20283 0.07578 0.16946
-0.20283 0.01017 0.16828
0.16417 0.13718 -0.14075
0.16577 0.02183 -0.13915
-0.01800 0.19803 -0.18651
0.08951 0.19803 0.03345
0.10854 0.19803 0.07834
-0.18347 0.14480 0.14559
-0.18102 0.17488 0.14494
0.26213 0.19803 -0.11829
0.26574 0.19803 -0.11372
0.23932 0.19803 -0.16254
0.17814 0.00123 -0.18598
0.17927 -0.12552 -0.18628
0.17671 0.03725 -0.18559
-0.19926 0.17809 0.15789
-0.19130 -0.10196 0.19323
-0.19082 -0.06940 0.19351
-0.19132 0.00796 0.19322
-0.15608 0.20474 0.22758
-0.24158 0.20474 -0.01124
-0.20392 0.20474 0.11140
-0.22682 0.20474 0.03508
-0.21393 0.20474 0.04992
-0.23044 0.20474 0.03161
-0.25266 0.20474 -0.05311
-0.26017 0.20474 -0.05780
-0.25454 0.20474 -0.00395
-0.06862 0.20474 0.23220
-0.12192 0.20474 0.16592
-0.09705 0.20474 0.23435
-0.04874 0.20474 0.32121
-0.16539 0.20474 0.06746
-0.05750 0.20474 0.30327
-0.11542 0.20474 0.19861
-0.16745 0.20474 0.03356
-0.09228 0.20474 0.23286
-0.14206 0.20474 0.12399
-0.13567 0.20474 0.11754
-0.13703 0.20474 0.14375
-0.09764 0.20474 0.22199
-0.10876 0.20474 0.18982
-0.20033 0.20474 -0.04764
-0.06514 0.20474 0.29907
0.20128 -0.18023 -0.17893
0.20304 -0.15940 -0.17717
0.20194 -0.04828 -0.17827
-0.19510 -0.12098 0.18995
-0.19541 -0.01580 0.18965
-0.11979 -0.18286 -0.23127
-0.12433 -0.13785 -0.22865
0.14825 -0.05033 0.20510
0.19647 -0.12969 0.21274
0.19584 -0.11112 0.21360
0.15650 -0.14176 0.17819
0.15479 -0.06089 0.17956
-0.13509 0.07198 -0.20923
-0.13509 -0.16306 -0.20511
0.14877 -0.06460 0.20667
0.14935 -0.17817 0.20798
-0.20140 -0.08618 0.16239
-0.20124 -0.16048 0.16180
0.19421 -0.07442 0.21581
0.19423 0.01631 0.21579
0.16535 0.19803 -0.16051
-0.11191 -0.13249 -0.23369
-0.10643 -0.14743 -0.23369
0.16112 -0.06755 -0.14413
0.16013 0.00560 -0.14585
0.20166 0.10348 -0.17856
0.19924 0.05751 -0.18098
0.20303 0.13757 -0.17718
-0.10562 -0.03217 -0.23369
-0.18299 -0.10633 0.14546
0.15626 -0.16238 -0.15926
0.15626 0.01946 -0.16170
0.18634 -0.20474 -0.16662
-0.16418 0.13004 0.19501
-0.13357 0.19803 -0.23182
0.17627 0.20474 0.09381
0.13580 0.20474 0.00272
0.19203 0.20474 0.18567
0.22399 0.20474 0.21554
0.18311 0.20474 0.15590
0.07228 0.20474 -0.14782
0.22269 0.20474 0.26924
0.12471 0.20474 0.01508
0.06561 0.20474 -0.17064
0.13869 0.20474 -0.00785
0.09655 0.20474 -0.09881
0.12037 0.20474 -0.05456
0.21002 0.20474 0.16873
0.11482 0.20474 -0.05214
0.22657 0.20474 0.25240
0.12641 0.20474 0.00929
0.24216 0.20474 0.23130
0.23861 0.20474 0.24418
0.13268 0.20474 0.01122
0.09931 0.20474 -0.08653
-0.28558 0.19803 0.21219
-0.29445 0.19803 0.19148
-0.26404 0.19803 0.25953
0.15793 0.01075 -0.16941
0.15728 -0.11744 -0.16698
0.17855 0.19803 0.24716
0.19046 -0.18913 -0.13415
-0.18594 0.19803 0.07164
-0.21813 0.19803 -0.00123
-0.12773 0.19803 0.19986
-0.16847 0.02377 0.19670
-0.16646 -0.03314 0.19616
0.19725 0.09929 0.18465
0.19808 0.16632 0.18654
0.19897 0.08720 0.18856
-0.24040 0.19803 0.02590
0.22539 0.20474 -0.25360
0.23622 0.20474 -0.22248
-0.24333 0.20474 0.26283
-0.26716 0.20474 0.19640
-0.28904 0.20474 0.12208
-0.26867 0.20474 0.16332
-0.27475 0.20474 0.19712
-0.25984 0.20474 0.22753
-0.25705 0.20474 0.21375
0.19453 -0.07767 -0.13567
-0.16348 0.20474 0.29647
-0.23199 0.20474 0.06556
-0.25077 0.20474 0.02762
-0.15128 0.20474 0.30910
-0.17632 0.20474 0.26159
-0.18147 0.20474 0.22402
-0.20366 0.20474 0.17931
-0.20506 0.20474 0.12830
-0.19545 0.20474 0.20640
0.20766 -0.05330 -0.14935
-0.09670 -0.20474 -0.20557
0.18211 0.05607 0.22375
0.18329 0.15776 0.22324
-0.16054 0.19803 0.17073
0.20950 -0.10042 -0.15973
0.20950 -0.07058 -0.15774
0.16401 0.19803 0.18072
-0.16481 0.12024 0.14705
-0.16252 0.14300 0.14837
-0.09165 0.19803 -0.12647
-0.20237 0.12260 0.17640
-0.20210 0.04036 0.17743
-0.20169 -0.01265 0.17893
0.16203 0.19803 -0.25799
0.18595 0.05790 0.17423
0.18585 0.16188 0.17419
0.17733 0.04042 -0.13361
0.17383 -0.15394 -0.13455
-0.08235 -0.11872 -0.21244
-0.08223 -0.08078 -0.21200
0.16514 0.08570 0.22326
0.16358 0.01509 0.22265
0.14744 0.16040 0.19729
0.14743 0.17434 0.19739
-0.21348 0.19803 0.01638
-0.06539 0.20474 0.00001
-0.10940 0.20474 -0.08517
0.00427 0.20474 0.18912
0.06904 0.20474 0.30269
-0.05668 0.20474 0.01569
-0.13382 0.20474 -0.14078
0.03877 0.20474 0.31507
-0.00076 0.20474 0.14197
-0.17623 0.20474 -0.25468
0.03595 0.20474 0.28452
-0.01018 0.20474 0.18603
-0.04678 0.20474 0.04122
-0.10049 0.20474 -0.08018
-0.01003 0.20474 0.15948
0.00344 0.20474 0.21321
0.00429 0.20474 0.16783
0.01119 0.20474 0.21411
0.04245 0.20474 0.24488
-0.06392 0.20474 0.02678
-0.02716 0.20474 0.15981
0.03294 0.20474 0.30407
0.05277 0.20474 0.30891
-0.04925 0.20474 0.09190
0.14858 -0.01725 0.20622
0.15013 -0.12409 0.20977
0.16293 -0.03110 -0.17738
0.16594 -0.16220 -0.18040
-0.15114 -0.07884 0.16187
-0.15069 0.17171 0.16357
-0.11594 -0.00408 -0.18151
-0.11783 0.10419 -0.18202
-0.19539 0.19803 0.25675
-0.24079 0.19803 0.15567
-0.21191 0.19803 0.24405
-0.20687 0.19803 0.27481
-0.23740 0.19803 0.19358
-0.24058 0.19803 0.17370
-0.21399 0.19803 0.26626
-0.23438 0.19803 0.18514
