-0.10078 0.32296 0.01950
0.01181 0.25626 -0.03056
-0.15896 0.07915 -0.24108
-0.04795 0.14523 0.04712
0.11604 0.32296 -0.21026
0.20911 0.30083 0.00281
-0.07365 0.27729 0.12115
-0.10639 0.30083 0.09895
-0.14011 0.29829 0.23625
-0.03344 -0.07857 -0.02198
0.27107 0.28782 0.00738
0.03217 0.30083 -0.17716
0.07122 0.30083 0.10290
0.03791 0.30083 -0.19161
0.02125 0.15367 -0.00738
-0.04893 0.23023 0.04881
-0.16866 0.30083 0.20526
-0.13301 -0.24528 0.21321
0.03661 0.32296 -0.04176
-0.14615 -0.23330 -0.24672
-0.13491 0.01652 0.22725
-0.03478 -0.10526 0.02430
0.21540 0.32296 0.03621
-0.04135 -0.00733 0.05447
-0.14083 0.28012 -0.23750
-0.14444 0.24038 0.21423
0.05304 0.05926 0.00738
-0.13180 0.01088 -0.22187
0.01822 0.32296 -0.09558
0.25424 0.25643 -0.00738
0.15128 0.32296 0.18424
0.03102 0.30083 -0.04911
-0.02170 0.17267 -0.03116
0.01931 -0.16936 -0.00738
-0.04110 -0.02463 0.01678
0.01579 0.13743 0.02750
0.27243 -0.07535 0.00738
0.10546 0.30083 -0.10198
-0.12483 0.32296 -0.11859
0.27409 0.24252 0.00027
-0.11125 0.32296 0.10752
0.01786 0.17720 -0.02580
-0.04662 0.24811 0.05143
-0.12948 0.26354 -0.21525
0.13179 0.30083 0.21146
0.02443 0.30083 -0.22476
-0.03430 -0.31382 -0.02348
0.25218 0.01646 0.00738
0.00811 -0.20797 -0.03273
-0.04505 -0.31040 -0.07162
0.03085 0.22360 -0.00738
-0.05945 0.32296 -0.16019
0.26668 -0.06980 0.00738
-0.02770 -0.28580 -0.00998
-0.06371 -0.28580 0.10208
0.05313 0.30083 -0.08816
-0.14681 0.15488 0.21834
-0.04737 0.17572 -0.04612
-0.03765 0.26273 0.02204
-0.13187 0.29124 -0.22199
-0.07924 0.27062 -0.12929
-0.04867 0.30083 -0.25371
-0.03802 0.29466 0.05943
0.14967 0.30083 -0.09833
-0.05404 0.32296 0.02221
0.27409 0.11759 -0.00118
-0.02358 0.32296 0.10570
-0.14840 0.17130 -0.24718
-0.13786 -0.11795 -0.23236
-0.03326 -0.19974 0.02168
-0.03798 0.01754 0.02160
0.04074 0.32296 0.15160
-0.02207 -0.28023 0.03181
-0.04038 0.30083 0.20639
-0.14755 0.24685 -0.21963
-0.14462 0.30083 -0.07920
0.10779 0.30083 0.16273
0.13478 0.32072 -0.22207
0.21105 0.32296 0.13764
-0.02133 -0.03192 0.03052
0.22357 0.30083 -0.07635
-0.02814 0.22970 0.04233
-0.20357 0.30083 -0.07660
-0.14764 -0.06234 -0.24761
-0.02002 0.19058 0.02826
-0.05828 0.32296 0.09584
-0.15225 -0.19831 0.22776
-0.20278 0.30083 -0.14998
-0.16471 0.32296 -0.13069
0.05611 0.30083 0.17826
-0.02203 0.03249 -0.03173
0.27409 -0.08664 -0.00655
-0.06754 0.32296 0.24545
0.01466 0.02299 0.02838
-0.03342 0.22065 0.02196
-0.14311 0.30379 -0.24146
-0.18973 0.30083 0.15060
-0.05527 -0.29988 0.05980
-0.04766 -0.19709 0.04661
-0.01994 0.02099 -0.02811
-0.08256 0.30083 -0.13446
0.16850 0.32296 0.03599
-0.03022 0.30083 -0.03360
-0.13102 0.30083 -0.15091
-0.12978 -0.20675 -0.21836
-0.08204 0.27776 -0.13567
-0.22289 0.30083 0.07169
-0.08397 0.30083 -0.08247
0.09647 0.27180 -0.00738
-0.03869 -0.13018 0.03108
-0.06856 0.32296 0.18539
-0.05639 0.32296 -0.09608
-0.02189 0.24270 0.03150
-0.02308 0.25605 0.03356
0.09480 0.30083 0.12723
0.24959 0.32119 -0.05772
0.12436 0.32296 -0.21263
0.04061 0.32296 0.02941
-0.03659 -0.00206 -0.02342
0.24750 -0.25241 -0.00738
-0.01697 0.27131 -0.00893
0.02476 0.30083 0.22272
0.03005 0.30083 0.05942
-0.08509 0.28505 0.14097
0.10036 0.30083 0.14812
0.20759 0.30083 -0.01505
-0.02042 0.19060 -0.02895
0.01647 0.30083 -0.09879
-0.00566 0.32296 0.10571
0.20100 0.31427 0.15967
-0.03841 0.07506 0.03059
-0.07809 0.30083 0.23748
0.27215 0.30794 -0.00485
-0.04495 0.16379 0.00301
0.02578 -0.18698 0.01295
-0.13769 -0.21661 -0.21051
0.01678 0.00353 0.00390
-0.04872 0.30083 0.19847
-0.14441 -0.02650 -0.24371
-0.01692 0.30083 0.04523
-0.07455 0.30083 -0.17040
-0.04326 -0.23793 0.03899
-0.00922 -0.28580 -0.02504
0.21820 0.30083 0.00204
0.01311 0.32296 0.05833
-0.15796 0.32296 -0.19418
-0.13830 -0.17715 -0.23313
0.11902 0.32296 0.19303
0.05356 0.16295 -0.00738
-0.14278 -0.08433 -0.24088
0.24507 0.22525 0.00738
0.23737 -0.25986 0.00738
0.01679 0.02085 -0.00714
0.02686 0.17328 0.00738
-0.03138 0.02650 -0.01841
-0.23793 0.30083 -0.12041
0.03806 0.10324 0.00738
-0.18831 0.32296 0.02232
-0.13015 0.16006 -0.21901
-0.09288 -0.31027 -0.12494
-0.00466 -0.19987 -0.03640
0.02210 0.16080 -0.02027
0.07268 0.32296 -0.08608
-0.02287 0.30083 0.11571
0.03305 0.32296 0.00633
0.00435 0.27131 -0.01996
0.15157 0.30083 -0.05199
-0.09673 0.30083 -0.17747
-0.03504 0.10365 -0.02476
-0.01067 0.27131 0.01427
0.14497 0.32296 0.20022
0.17308 0.30083 0.07986
-0.01470 0.30083 0.00016
-0.03524 0.13299 0.02510
-0.14036 0.30332 0.23287
0.06789 0.32296 0.05817
0.07689 0.32296 -0.18291
-0.04508 0.22060 -0.00203
0.17320 0.32296 -0.12087
-0.19184 0.30083 -0.06367
-0.01274 -0.28580 0.03598
-0.20455 0.32296 0.11294
-0.02254 -0.08293 -0.03261
-0.09923 0.32296 -0.06357
-0.03226 0.30083 0.06080
0.12034 0.30083 0.01815
0.02649 -0.01261 -0.01122
-0.15690 0.01101 -0.23583
0.04575 0.32296 -0.21788
0.00377 0.31201 0.26403
0.17391 0.30083 -0.17017
-0.15757 -0.07452 0.23699
-0.13872 -0.09926 0.20991
-0.04147 0.30083 -0.05069
0.14637 -0.30777 0.00738
-0.15123 -0.02942 -0.22600
-0.12171 0.32296 -0.16915
-0.09654 0.30083 -0.10565
0.25939 -0.10602 0.00738
-0.13492 0.28470 0.19776
-0.15770 -0.20493 -0.24181
-0.01851 0.07786 -0.02505
0.05670 0.30083 -0.13682
-0.14137 -0.03515 -0.20892
0.26988 0.04016 0.00738
0.00761 -0.01859 -0.03294
0.02604 -0.19126 -0.01233
0.01679 0.16680 0.00229
-0.14487 -0.31532 0.21706
0.23796 -0.11196 -0.00738
0.19018 -0.28805 -0.00738
-0.15061 0.30279 0.24590
-0.14391 0.17143 -0.21333
-0.04510 -0.01496 0.00187
-0.04294 -0.05656 -0.03843
0.01975 -0.03969 -0.00738
0.02556 0.16793 -0.00738
0.02738 0.20712 -0.00807
-0.02953 0.22906 -0.01869
-0.02380 -0.01980 -0.03481
-0.20048 0.30083 0.10260
0.16905 0.32296 0.12292
-0.14022 -0.03554 -0.23645
-0.04748 0.03881 0.04631
0.01679 -0.18005 0.00591
-0.14554 0.17843 -0.21614
0.02270 -0.21208 0.00738
-0.07245 -0.30911 0.11907
0.03065 -0.16310 -0.00738
-0.02886 -0.31444 -0.01908
0.13179 0.32296 0.06525
0.14792 0.32296 -0.08546
-0.04162 -0.27040 0.03615
-0.13178 -0.01339 0.22182
-0.13855 -0.12202 0.21002
-0.13391 -0.22125 0.21270
0.11426 0.30083 0.20451
-0.14738 0.19097 0.24776
-0.20939 0.32296 -0.03167
-0.02427 0.32296 -0.22068
0.09163 0.32296 0.16237
-0.09700 -0.30033 0.16158
-0.04283 0.27243 -0.06776
0.00115 0.30083 0.12081
0.18751 0.30083 0.01642
0.18154 0.27062 0.00090
0.01445 0.16742 0.02854
0.03686 -0.12092 0.00738
0.19153 -0.31532 0.00122
-0.15162 -0.07786 -0.22668
-0.13270 0.15732 -0.21339
-0.26724 0.30083 -0.01389
0.01235 0.30083 -0.08308
-0.12915 0.32296 -0.11203
0.02555 0.00523 -0.01350
0.20186 0.30083 0.05259
-0.02218 -0.02215 0.03199
0.02721 0.12502 0.00938
0.24554 0.10533 0.00738
-0.15320 0.30083 0.06531
-0.13808 0.05060 0.23274
-0.02850 0.27572 0.04294
-0.03741 0.22417 -0.05674
-0.16591 0.31959 0.21115
-0.07809 0.30083 0.18857
0.03176 0.30083 -0.12532
0.25452 -0.03716 0.00738
-0.02691 -0.28580 -0.01621
-0.02210 -0.09627 -0.03186
-0.01459 0.06650 -0.03609
0.26744 0.07931 -0.00738
0.26608 0.19924 0.00738
-0.06673 0.30083 0.24430
-0.13056 0.18011 0.21971
0.21280 0.30083 -0.12004
-0.09886 0.28146 -0.13529
-0.00516 0.30083 0.21150
0.03868 -0.03613 -0.00738
-0.01131 0.30083 -0.08208
-0.02855 -0.08447 -0.04303
-0.03653 0.09733 -0.05686
0.01021 0.30083 0.05812
-0.11558 0.30083 -0.10649
-0.04916 -0.23495 0.04922
-0.03870 -0.08403 -0.02067
-0.05118 0.32296 0.20220
-0.13280 0.26455 -0.22360
-0.07196 0.32296 -0.09040
-0.14387 -0.00493 0.21326
-0.02481 0.30083 0.14855
-0.14765 0.22825 -0.21981
-0.15853 0.05224 0.23864
0.23699 0.17822 -0.00272
0.17480 0.32296 -0.02001
0.08223 0.30083 -0.15682
-0.15958 0.30083 -0.00577
-0.25860 0.32296 0.07470
-0.12979 0.30083 0.16377
-0.00539 0.00945 0.03649
-0.03891 -0.24161 -0.02039
-0.02335 -0.15879 -0.02226
0.17519 0.29733 0.00738
0.04709 0.29447 0.00738
0.02204 0.12122 0.02035
-0.01199 0.30083 0.07417
-0.15657 -0.22779 -0.23524
0.04601 0.28933 0.00738
-0.01659 0.04606 -0.03582
-0.02253 0.04376 0.03260
-0.01838 0.32296 0.13404
0.00574 0.03982 0.03371
-0.02295 -0.17206 -0.02249
-0.15347 0.30083 -0.17636
-0.11568 0.30083 -0.19107
-0.15633 0.32296 -0.12522
0.03075 0.32296 0.20204
-0.01915 -0.23815 -0.03516
-0.09487 0.30083 0.05873
0.13970 0.30083 0.06973
-0.07194 -0.28662 0.11818
-0.01639 -0.22048 0.03585
0.03268 -0.02231 -0.00738
-0.04513 0.18831 0.00167
-0.22132 0.30083 0.02324
-0.09607 0.27062 -0.13156
-0.09742 0.32296 0.16538
-0.00081 0.01659 0.03589
-0.12098 0.30083 -0.14029
-0.14250 -0.16766 0.24039
-0.16426 0.32296 0.01676
0.13815 0.30083 0.16884
-0.12451 0.32296 0.14748
-0.04439 0.27550 0.04096
-0.26679 0.32296 0.04026
-0.04487 0.11058 -0.00361
-0.02806 -0.15947 0.01954
-0.11582 -0.29069 -0.19418
0.01460 -0.28580 0.02325
0.00565 0.30083 0.06939
0.27231 -0.29225 0.00738
-0.25255 0.32296 0.05942
0.25233 0.31746 -0.03692
-0.18183 0.30083 0.16725
-0.03420 -0.14786 0.02330
-0.04802 -0.28580 -0.06893
0.04460 -0.14544 0.00738
0.25929 0.04661 0.00738
-0.01733 -0.07172 0.03573
-0.19580 0.32296 0.13392
-0.07199 0.30083 -0.20599
0.01689 0.18296 -0.02666
0.24702 -0.12507 0.00738
-0.17311 0.30083 0.08407
0.19021 0.30083 0.09469
0.24964 0.05443 0.00738
0.06273 0.30083 0.18522
-0.09135 0.28766 0.15180
0.06053 0.32296 0.24538
-0.14764 0.32296 0.09270
-0.14967 -0.31297 0.22331
0.01679 0.01629 0.00360
-0.01002 0.32296 0.12810
-0.15310 0.30083 0.11111
-0.13647 0.27411 0.22995
0.24233 0.11314 -0.00738
-0.14602 0.32296 -0.14856
-0.14086 0.04440 -0.23756
0.15358 0.30083 0.20616
-0.26784 0.32182 -0.04751
-0.03042 0.32071 -0.26275
-0.15162 -0.12362 -0.22668
0.06810 0.30083 -0.14744
-0.18685 0.30083 0.17819
0.04714 0.32296 0.09022
-0.06321 0.30083 -0.06583
-0.03437 0.19144 0.02359
0.14493 0.30083 -0.20912
-0.11312 0.30083 0.14163
0.02900 0.30083 0.14036
-0.08374 -0.31532 0.12547
-0.02409 -0.06692 -0.02183
0.01907 -0.20045 -0.00738
0.08765 0.32296 0.09297
0.00694 -0.27313 0.03322
0.08030 0.32296 0.12553
0.21842 0.30271 -0.13697
-0.03533 -0.05374 -0.05477
0.08970 0.30083 0.03293
-0.13198 0.00141 0.22217
-0.14222 -0.26059 -0.21040
-0.14092 -0.31532 0.22326
0.01979 -0.23112 0.02328
0.19711 -0.28580 0.00638
0.07849 0.32296 0.16865
0.12009 0.32296 -0.16307
0.01794 -0.05583 -0.02569
-0.00839 0.05780 0.03689
-0.17046 0.32296 -0.19594
-0.06396 0.30083 -0.24212
-0.10287 0.30083 0.04337
-0.05645 0.30083 -0.01109
0.02671 -0.11924 -0.01070
-0.04315 -0.04088 0.03880
0.25458 0.31077 -0.01981
-0.15618 0.32296 0.02306
-0.15301 -0.06286 0.22908
-0.18765 0.32296 -0.02060
0.00987 0.30083 0.04592
-0.14149 -0.07870 0.23865
0.27409 0.17796 -0.00622
-0.04125 -0.11281 0.05453
-0.15210 -0.24097 0.22752
-0.16418 0.30083 0.15084
-0.01956 0.08272 -0.02445
0.05168 0.30083 -0.01717
-0.03004 -0.02083 -0.04561
0.15639 0.30083 0.16155
0.09587 0.30083 -0.19203
0.15862 0.30083 -0.04898
0.22457 0.32296 0.11632
0.11404 0.30083 -0.20828
0.02032 0.03272 0.00738
0.01066 0.21668 -0.03144
-0.14063 0.28552 0.23716
-0.14136 -0.08666 0.20891
-0.15274 -0.13947 -0.22862
0.02635 0.07892 0.00738
0.04813 0.30083 0.02332
-0.12721 0.30083 -0.16140
0.07123 0.28120 0.00738
0.01679 -0.31145 -0.00434
-0.09699 0.30083 -0.07107
-0.02691 0.28745 0.04020
0.18724 0.32296 -0.08387
-0.10740 0.29517 -0.15009
-0.15619 0.32296 -0.16068
-0.02268 -0.05204 -0.03287
-0.01897 -0.11086 0.02479
0.01042 -0.28580 -0.00463
0.02335 0.23987 -0.00738
0.04554 0.30083 -0.01027
-0.03602 -0.09465 -0.05598
-0.00667 -0.15006 0.03666
-0.08188 0.32296 0.21871
-0.05237 0.32296 -0.14515
-0.14551 0.21750 0.24561
-0.03716 -0.30904 0.05795
-0.03402 0.04376 0.05250
0.21732 0.32296 0.12063
0.02431 0.30083 0.08425
0.27026 -0.01995 0.00738
0.02009 -0.14997 0.02289
-0.11524 0.32296 0.15627
-0.06443 0.30083 -0.00463
-0.14768 0.19913 0.21985
0.16562 0.30083 -0.05324
-0.02420 -0.08685 -0.02177
0.03712 -0.27210 0.00738
0.06816 0.32296 0.09464
-0.06067 0.27956 -0.06914
-0.04262 0.24152 -0.01310
-0.07183 0.29349 0.08849
-0.03106 -0.19434 0.01786
-0.04437 -0.26397 0.00739
0.02153 0.30083 0.07578
0.01937 0.13756 0.02384
-0.09945 0.30083 -0.07560
-0.07946 0.32296 -0.21224
-0.04197 0.32296 0.22085
-0.02247 0.21724 0.03250
0.01678 -0.13142 0.00546
0.10283 0.30083 0.18416
-0.02142 -0.11551 -0.03068
-0.03032 -0.17202 -0.04610
-0.04369 0.06223 -0.03974
0.19163 0.30083 0.13195
0.05147 0.32296 -0.09384
-0.13281 0.30083 0.21023
0.06558 0.32296 -0.15140
-0.01768 -0.15176 -0.03568
-0.22910 0.30083 0.00059
0.02341 0.32296 0.15982
-0.01968 -0.11906 0.02438
0.03067 0.30083 0.03442
-0.13859 -0.23533 -0.23362
-0.14285 -0.10753 0.21148
0.23294 0.30427 0.10546
-0.07861 0.32296 0.04903
0.00836 0.32296 -0.13137
0.08297 0.30083 0.00684
-0.05025 -0.30773 0.05110
-0.13666 0.30083 0.03808
-0.22560 0.32296 -0.07526
-0.24295 0.30083 0.08893
-0.04406 0.13857 0.00963
-0.02993 0.26013 0.01846
-0.13394 0.25620 0.21267
-0.12988 0.32296 0.05253
0.05503 0.32296 0.01460
-0.03893 0.01356 0.05587
0.23699 -0.17137 -0.00463
-0.04114 -0.11745 -0.01667
-0.14918 0.20528 0.22245
-0.03539 0.11930 0.02536
0.26777 -0.15257 -0.00738
-0.10033 0.27271 0.13785
-0.10228 0.30083 -0.14481
-0.13248 -0.15990 0.22305
0.01237 0.32296 0.20897
0.05429 0.30577 0.25738
-0.01074 -0.10129 0.03659
0.10740 -0.30196 -0.00738
0.14610 0.30083 -0.16512
-0.00502 -0.22364 -0.03644
0.06723 0.32296 -0.05899
-0.02810 -0.19305 -0.01952
-0.22166 0.32296 -0.05131
0.03690 0.07721 0.00738
-0.04295 0.30083 -0.21145
-0.03066 0.16478 0.01804
-0.08631 0.30083 0.09306
-0.09726 0.32296 0.12908
0.05470 0.32296 0.16045
-0.04396 0.16040 0.00987
-0.04428 0.32296 0.19865
0.01678 -0.16269 -0.00311
-0.14568 0.02127 0.24591
0.01974 0.27840 0.00738
-0.15060 0.04987 0.22492
0.01679 -0.10284 0.00302
0.17849 0.30083 -0.17817
-0.22239 0.30083 -0.14289
-0.15904 -0.20125 0.23952
0.17122 -0.31466 -0.00738
-0.00246 -0.03148 0.03611
-0.13331 0.08071 -0.22447
-0.14934 -0.21497 -0.22272
0.20006 0.32296 0.05503
0.24588 0.01674 0.00738
0.24822 0.02583 -0.00738
-0.14060 0.30083 0.01026
0.05514 0.30083 -0.15004
0.02668 0.30083 -0.06362
-0.02224 -0.08277 0.02290
0.23852 0.18027 0.00738
-0.19018 0.32296 -0.18299
0.03941 -0.29346 0.00738
-0.10753 0.30076 0.15032
0.01679 -0.09750 -0.00598
-0.03984 0.06152 -0.05534
0.01810 0.32296 -0.20718
-0.03896 0.02879 -0.02032
-0.06693 0.32296 -0.08670
-0.04650 -0.25124 0.04460
-0.02887 0.32296 -0.11647
0.03672 -0.31311 0.00738
0.10616 0.32296 0.07335
0.12947 0.30083 0.03195
-0.04697 -0.19178 -0.04543
-0.10947 0.32296 0.18807
-0.15545 -0.19946 -0.23330
-0.04853 0.32296 -0.00296
-0.05753 0.32296 0.16095
0.00462 -0.11664 -0.03418
0.00428 0.30083 -0.20546
0.27409 -0.09773 0.00241
-0.17947 0.30083 -0.01868
-0.14703 0.30083 0.13276
-0.02974 0.32296 -0.03132
-0.18404 0.30083 -0.01485
-0.09059 0.30083 0.01565
-0.27093 0.31173 -0.02402
-0.02912 -0.13590 0.01893
0.25248 -0.24817 -0.00738
0.20369 -0.30117 -0.00738
-0.01871 -0.07277 0.02494
0.05792 0.30083 0.00465
-0.03402 -0.11719 0.05250
-0.21960 0.30083 0.15578
0.18387 0.32296 0.15575
0.27409 -0.28684 -0.00504
0.02700 -0.17033 0.01001
-0.15126 0.02852 0.22605
-0.14241 -0.23628 -0.24024
0.14939 0.30083 0.20906
-0.06328 -0.29796 -0.07368
-0.03084 -0.27077 0.04699
-0.04561 -0.29363 0.07258
-0.00431 0.30083 -0.04368
0.10747 0.32296 0.03351
-0.15687 0.05728 -0.23578
0.05368 0.04368 -0.00269
-0.13669 0.31882 0.23195
-0.05139 0.27062 0.07843
-0.11517 0.32296 0.18765
0.26831 0.10271 -0.00738
0.07251 0.31275 -0.25154
0.23699 -0.10258 -0.00215
-0.09357 0.30370 -0.24982
0.07581 0.32296 -0.22140
0.07715 0.32296 0.14443
0.22856 0.30025 0.00738
-0.07847 0.32296 0.00244
-0.08133 0.30083 0.11005
-0.10731 0.30083 0.11864
0.11397 0.27989 -0.00738
0.04896 0.20556 0.00738
-0.04416 0.01134 -0.00902
-0.18779 0.32296 -0.12673
-0.14344 0.32296 0.16179
-0.14014 -0.20866 -0.23632
0.23699 0.10365 0.00716
-0.13375 -0.31384 0.19572
-0.04399 0.25952 -0.04026
-0.15329 0.18020 0.24435
-0.14624 0.19685 -0.21735
0.11401 0.30083 0.23424
-0.03730 0.25333 0.05681
-0.15471 0.32296 0.15611
0.04080 0.11157 -0.00738
0.09588 0.30083 0.11063
-0.04425 0.32296 -0.23576
0.09711 0.30083 0.06782
-0.12919 -0.17070 0.21734
-0.19059 0.32296 -0.17809
-0.14186 0.20699 -0.20977
0.09387 0.30083 -0.01231
0.09748 0.32296 0.20667
-0.12089 0.30083 0.20170
-0.15722 -0.05320 -0.23638
-0.15959 0.22155 0.24049
-0.02314 0.21241 0.03366
0.02303 -0.00052 -0.00738
-0.01902 0.11021 -0.02653
-0.04602 -0.06028 -0.04377
-0.02365 0.19166 0.03454
-0.12714 -0.31532 -0.19063
0.19846 0.30083 -0.03656
0.04949 0.07962 0.00738
-0.00857 -0.28580 -0.03087
0.07595 0.32296 -0.16900
-0.05330 -0.28842 0.08590
-0.14525 -0.13095 0.21565
-0.14715 0.32296 -0.15457
0.12740 0.30083 0.12060
0.04136 0.30083 0.17588
-0.26955 0.30209 0.03451
-0.04373 -0.14030 -0.05310
-0.14528 -0.14093 -0.24521
0.15302 0.32296 -0.13837
-0.03641 0.00050 0.02713
-0.12371 0.32296 0.02976
-0.03348 0.13620 0.02206
-0.20352 0.32296 -0.17272
-0.14711 -0.23933 0.21886
-0.14640 -0.28438 -0.24715
0.08273 0.30083 -0.03102
-0.15487 -0.13413 -0.24344
-0.13291 -0.18531 0.21327
-0.03367 -0.17965 -0.05189
-0.08025 0.28510 -0.10307
0.08411 0.32296 0.17265
-0.15797 -0.27402 0.24165
-0.16963 0.32296 -0.04854
0.08908 0.30083 0.10758
0.22282 0.30648 0.12987
-0.13439 0.32296 0.22139
0.25426 -0.05935 0.00738
-0.14246 -0.31998 0.24033
-0.13745 0.00839 -0.21065
0.04792 0.29677 -0.00738
-0.02375 -0.03278 -0.02203
-0.14155 -0.06606 -0.20924
-0.15453 0.24466 0.23172
-0.04649 0.12504 -0.05150
-0.15527 0.23548 0.24321
-0.02918 0.02780 0.01889
-0.23926 0.30343 -0.13100
-0.24228 0.32296 0.10728
0.21230 -0.30374 -0.00738
-0.26573 0.31355 0.06350
0.19745 0.32296 0.15717
0.24695 -0.16644 -0.00738
-0.08982 0.30083 0.11263
0.01678 0.06457 -0.00048
-0.09845 0.28831 0.13458
-0.11877 -0.31173 -0.19929
-0.11384 -0.30393 -0.19075
-0.02059 0.17411 0.03456
0.18174 0.32296 -0.15863
0.04995 -0.09199 0.00738
0.09702 0.27852 -0.00738
0.00648 0.17059 -0.03341
-0.08692 0.32296 0.14625
-0.24751 0.30083 0.05947
0.02136 -0.15872 -0.00738
0.11730 -0.29813 -0.00738
0.08822 0.32296 0.02256
-0.07351 0.30083 -0.09874
-0.20536 0.32296 -0.00902
0.00712 -0.07050 0.03314
-0.01235 -0.06726 0.03638
-0.05734 0.29005 0.06338
-0.15708 0.09688 0.24216
0.02112 0.26931 0.00738
-0.13221 0.16380 -0.22257
0.05368 0.24518 -0.00044
0.01647 -0.27848 0.02699
0.01056 0.01122 -0.03152
0.00345 0.21910 0.03466
-0.19825 0.30083 0.01285
-0.26119 0.30083 0.01684
-0.07547 0.30083 0.01158
0.02682 -0.09439 0.00738
-0.12898 -0.02015 0.21699
-0.19327 0.30083 -0.05267
-0.22071 0.32296 -0.05945
-0.11130 0.30083 -0.15905
-0.01871 -0.28449 -0.02599
-0.10743 0.32296 0.07945
0.20448 0.32296 0.00038
-0.04438 -0.17937 0.04093
-0.08616 0.30083 -0.15639
-0.15343 0.07028 -0.24427
0.17263 0.30083 -0.18204
0.14516 0.32296 -0.15469
0.02577 0.08898 -0.01298
-0.15290 -0.23952 0.24458
-0.12302 0.32296 -0.03924
0.15569 0.32296 -0.06229
-0.03103 0.06424 -0.04732
-0.02531 -0.17963 -0.03741
-0.16569 0.32296 0.00849
-0.02340 -0.15037 -0.03412
-0.15293 -0.14456 0.22894
0.11936 0.30083 -0.20683
-0.09409 0.32296 -0.13608
0.08188 0.30083 -0.00326
-0.13886 0.30083 -0.17927
-0.03290 0.19550 0.02104
0.18122 0.32296 -0.13521
-0.16403 0.30083 0.18431
-0.17812 0.30083 0.05690
0.16228 0.30083 0.09924
-0.04419 0.20919 -0.00881
-0.20111 0.30083 0.14666
0.19803 0.32296 -0.08628
-0.09159 0.32296 -0.06221
0.02536 0.32296 0.25583
0.06822 0.32296 0.02124
0.12677 0.32296 0.16048
0.03119 0.32296 0.15152
-0.00492 -0.09163 -0.03643
-0.04360 0.07635 -0.01073
0.01679 -0.05972 -0.00539
0.01678 -0.04380 -0.00129
0.04884 0.32296 0.12475
0.01249 -0.18409 0.03004
-0.14616 -0.11279 0.24673
-0.16037 0.30083 -0.04514
-0.24804 0.30083 -0.09188
0.06953 0.30083 0.17979
-0.14998 -0.09267 -0.22384
-0.05154 0.30083 -0.20430
-0.15921 0.11186 -0.24094
0.10304 0.32296 0.07972
-0.03437 0.12844 -0.05311
0.22784 0.30083 0.11205
-0.02568 0.25748 0.03807
-0.02834 -0.31532 0.04220
-0.03578 0.16645 -0.05556
-0.14449 -0.29578 -0.24384
-0.24853 0.32296 0.10444
0.10679 0.32296 -0.06920
-0.15638 0.32296 0.19248
0.00795 -0.04855 0.03280
0.10869 0.30083 0.22774
-0.03438 -0.07793 0.05313
-0.08615 0.30083 0.14603
0.05801 0.30083 0.12405
0.12346 0.32296 0.07074
-0.15922 0.32296 -0.20959
0.20961 0.30083 0.01716
-0.04055 -0.27410 0.01809
-0.00141 -0.22802 0.03597
-0.14232 0.32296 -0.11446
-0.07011 0.32296 0.23144
-0.00162 0.30083 -0.05128
0.01023 0.32296 0.06303
-0.04199 0.22854 0.01462
-0.23141 0.30083 -0.06663
0.06918 0.30083 -0.11823
0.23699 0.00788 0.00608
0.01720 0.32296 -0.16679
-0.13154 0.00879 -0.21406
0.07403 0.30083 0.04878
0.24094 0.31247 0.08613
-0.05326 0.30083 -0.03702
-0.14988 -0.02964 -0.24632
-0.00499 0.32296 -0.01961
-0.14621 -0.01302 -0.24682
-0.02006 -0.08221 0.02833
0.00263 0.30083 0.11100
-0.01687 0.30083 0.14794
-0.06629 0.32296 -0.21962
0.11943 0.32296 0.10404
-0.15070 -0.07597 -0.24585
0.22947 0.32296 -0.00749
-0.07348 0.27807 -0.12084
0.09518 0.32296 -0.15177
-0.04703 -0.08322 0.05119
-0.08192 0.30083 -0.25283
0.11187 0.32296 0.06797
0.02315 0.06244 -0.00738
0.16847 0.30083 -0.09698
-0.03423 0.28469 -0.02336
-0.08531 0.32296 0.24640
-0.22121 0.31587 -0.15536
0.00262 0.27131 -0.02896
0.02691 0.26186 -0.01021
-0.10911 0.30083 -0.11578
-0.02656 -0.02980 0.03958
-0.05129 0.27215 -0.08242
0.00663 0.30385 0.26366
-0.14022 -0.00591 -0.20905
-0.11556 0.28964 -0.19373
-0.19495 0.32296 -0.04803
0.00258 0.06864 0.03502
-0.03660 -0.08276 -0.02745
0.04964 -0.03107 -0.00738
-0.02593 0.32296 -0.21297
-0.00193 0.26208 0.03604
-0.15354 -0.32296 -0.23567
-0.23552 0.30647 0.13672
-0.04228 0.11587 0.01391
-0.04462 0.32296 -0.14291
-0.03387 0.30083 0.02899
0.24654 -0.18240 0.00738
-0.21973 0.30083 -0.10929
-0.01698 0.32296 -0.03010
0.27409 -0.03988 -0.00731
0.27409 0.05342 -0.00502
-0.14486 -0.12288 0.21496
-0.02581 0.32296 0.08746
-0.18083 0.32296 0.17587
-0.12618 0.32296 -0.06085
-0.04093 -0.06451 -0.01717
0.02009 0.18513 -0.02289
-0.04360 -0.19331 0.03958
-0.15041 -0.08713 0.24602
0.15612 0.30083 -0.03751
0.00830 -0.20728 0.03266
0.13053 0.30083 0.02198
0.27409 -0.06743 0.00187
-0.23352 0.30083 0.11488
0.25574 0.30375 -0.01101
0.27409 0.12469 -0.00611
-0.02977 0.07664 -0.01855
-0.13055 -0.28477 -0.21463
-0.03739 -0.27595 0.02882
0.19324 0.30083 -0.13811
-0.14582 0.32296 -0.13206
-0.14042 -0.02817 -0.23680
0.03242 0.32296 -0.07628
-0.14715 -0.04280 0.21893
-0.04481 -0.07685 -0.04168
-0.14725 -0.16470 0.24784
-0.03064 0.30083 -0.17947
-0.06782 -0.29226 -0.11104
-0.26441 0.30397 0.07028
-0.07999 0.28883 -0.13212
-0.04249 -0.09729 0.01342
-0.08665 -0.31532 -0.14316
-0.10169 0.27062 0.14202
-0.24810 0.32296 -0.10067
0.21232 0.30083 0.03930
0.01058 0.32296 0.23143
-0.08185 0.30083 0.08267
-0.00876 -0.06180 -0.03685
0.04000 0.32296 0.21666
0.05513 0.32296 -0.24699
-0.01830 0.06920 0.02517
-0.05427 0.30083 0.20329
0.12741 0.30083 0.09732
-0.01129 0.32296 -0.14465
0.03892 0.17510 0.00738
0.18744 -0.28643 0.00738
-0.04389 0.08502 0.04008
0.01926 0.30083 0.11912
-0.02275 -0.30822 -0.02261
0.23699 -0.27770 0.00705
-0.15246 -0.27432 -0.24483
0.05368 -0.17937 0.00537
-0.02770 0.30083 0.10725
-0.21921 0.32296 0.01749
0.24021 0.05324 -0.00738
-0.11524 0.29401 0.16366
-0.00560 0.19474 -0.03652
-0.03077 0.01230 -0.04688
0.02133 0.19722 -0.02127
-0.02449 0.06101 0.03600
0.18232 0.32296 0.06008
0.11855 0.27524 0.00738
-0.15768 0.32296 0.03487
0.27330 -0.24022 -0.00738
-0.22298 0.30856 -0.15306
-0.07450 0.30083 0.00233
0.04373 0.30083 0.22254
-0.11664 -0.31010 -0.16609
0.06348 0.32296 -0.06933
-0.14176 -0.30121 0.20961
-0.10601 0.32296 -0.04508
0.02800 0.30083 -0.10881
-0.04366 0.23826 0.03969
0.13991 0.27062 0.00446
0.04539 0.17001 -0.00738
0.08215 0.32296 -0.04428
-0.02126 0.16366 0.02347
-0.15724 -0.10909 -0.23641
-0.15419 0.30083 0.18950
0.23699 -0.03127 0.00137
0.01679 0.06704 -0.00477
0.05341 0.29867 -0.00738
-0.03763 0.18977 -0.02924
0.02183 -0.20736 0.00738
0.01678 0.14210 -0.00244
-0.02000 -0.02432 -0.03481
0.04715 0.18515 -0.00738
-0.16065 0.32296 -0.06032
-0.15661 0.23231 0.23533
0.18402 0.32296 0.08695
-0.19401 0.32296 -0.03409
0.10976 0.32296 -0.12734
-0.04101 0.02514 0.03509
-0.14481 -0.26651 -0.21488
-0.13397 -0.30651 0.22562
-0.12785 0.32296 -0.15868
-0.03967 0.10781 0.01941
0.05802 0.30083 0.02260
-0.12849 0.01315 0.21582
-0.04138 0.06354 0.05445
-0.04852 -0.11504 -0.05033
-0.19833 0.32296 -0.16611
-0.06829 0.29912 0.11186
-0.07535 -0.28580 0.09663
-0.02551 0.00484 0.03776
-0.05791 0.32296 -0.24870
-0.14552 0.32296 -0.07408
-0.03183 -0.07882 -0.04871
0.01647 -0.28417 -0.02698
0.12287 0.30083 0.16931
-0.25908 0.31284 0.08314
-0.09010 0.29511 -0.12011
0.24601 -0.23072 -0.00738
0.17018 0.32296 -0.16899
-0.15357 0.09486 -0.23006
0.22495 0.32296 0.05163
0.24380 -0.00111 0.00738
0.17489 0.32296 0.00733
-0.10750 0.32296 -0.05673
0.02746 -0.02421 -0.00744
-0.01323 0.32296 0.20522
-0.04167 -0.00887 -0.01539
-0.09181 0.27171 -0.12308
-0.11891 0.27413 0.17003
0.02111 0.04568 -0.00738
-0.02227 -0.19730 0.03215
0.01939 -0.13503 -0.02380
-0.04650 0.05393 0.05150
0.26384 0.30314 0.00738
0.17312 0.32296 0.06139
0.25461 0.08652 -0.00738
0.01983 -0.09011 0.02323
-0.15715 0.08110 0.23626
-0.16865 0.32296 0.08031
-0.04503 -0.12681 0.00243
-0.15255 0.28428 -0.22830
0.01480 0.30083 -0.05817
0.01678 0.02965 -0.00287
0.01678 0.18441 -0.00070
-0.04455 0.22394 -0.00602
0.24888 -0.02600 0.00738
0.18236 0.32296 -0.06575
-0.06218 0.27062 -0.08699
-0.03965 0.22080 -0.01942
-0.12661 0.32296 0.09672
0.02777 -0.25873 0.00738
-0.04245 0.14215 -0.01352
-0.05250 -0.29632 -0.08452
-0.03977 -0.01371 -0.01928
-0.01932 -0.21991 0.02459
-0.06499 0.30083 0.08197
-0.11879 -0.28580 0.17892
0.02416 0.13931 -0.01686
-0.00814 -0.08030 -0.03685
0.25011 0.31898 0.05377
-0.02512 0.30083 -0.01075
0.01085 0.32296 0.04092
0.08010 0.32296 0.02692
0.25302 0.31570 0.03167
-0.04079 0.07138 0.01752
-0.08400 0.29297 0.13906
-0.08689 0.30083 0.15503
-0.01840 -0.13537 -0.02545
-0.23417 0.32296 0.05783
-0.02107 -0.28580 0.03403
0.22867 -0.30155 -0.00738
0.00834 0.19704 0.03264
0.02406 0.15269 -0.01711
-0.13455 0.14359 0.22663
-0.06371 -0.28847 -0.10393
-0.03349 -0.12179 0.05158
-0.05233 -0.29036 -0.05470
-0.14094 0.32296 0.21296
0.01062 0.32296 0.24851
0.27409 0.14532 0.00108
-0.03382 0.02069 -0.02265
-0.14676 -0.01650 -0.21826
-0.17579 0.30083 -0.11579
0.19371 0.32296 -0.02695
-0.04383 -0.05069 -0.03998
-0.15032 0.32296 -0.06228
0.07340 0.30083 -0.15389
-0.15360 0.28076 0.24418
0.15884 0.29886 -0.00738
-0.16928 0.32296 -0.08096
0.21678 0.30083 -0.03910
-0.07069 -0.29417 -0.08650
-0.15266 0.32296 0.15171
-0.14571 -0.12707 0.24596
0.18168 0.32296 -0.10078
0.09961 0.30083 0.19735
0.01679 0.23449 -0.00580
0.03243 0.20722 -0.00738
0.01029 -0.17560 0.03172
-0.05982 0.32296 -0.02280
-0.04431 0.25473 -0.05276
0.13032 0.30083 0.15771
0.07351 0.30083 0.07148
0.00057 0.30083 -0.13132
-0.04874 0.32296 -0.02607
-0.14928 -0.26957 -0.24667
0.01724 0.27442 0.00738
0.17133 0.29702 -0.00738
0.07284 -0.31532 0.00456
0.08845 0.30083 -0.03088
-0.20225 0.32296 0.05081
0.01871 -0.23516 -0.00738
-0.14815 -0.10229 0.24732
-0.14372 0.25176 -0.24252
-0.14295 -0.11635 0.24118
0.18289 0.30083 -0.15719
-0.03945 -0.11763 0.01968
0.10759 0.30083 0.21575
-0.15605 -0.24370 -0.23435
0.12829 0.31088 0.22705
-0.04945 -0.29209 0.04972
-0.10338 -0.29992 -0.17265
0.05368 -0.19176 -0.00213
-0.14215 -0.28511 0.21027
-0.08450 0.32296 0.16075
0.04136 0.30111 -0.25909
-0.04872 -0.02543 0.05022
-0.01929 -0.18353 0.02460
-0.00965 0.32296 0.06097
-0.01243 0.13206 -0.03637
-0.09564 0.28275 -0.15923
-0.14641 -0.06375 0.24716
-0.11891 0.27376 0.19954
-0.14331 -0.31532 -0.21643
-0.11076 -0.31379 0.15590
-0.17414 0.30083 0.19965
-0.13841 -0.06807 0.23331
-0.04254 -0.11834 0.03775
0.02725 -0.00443 0.00905
0.19796 0.30083 0.11087
0.14485 0.30083 0.15567
0.05368 0.07745 0.00736
-0.04011 -0.19669 -0.03354
-0.02478 -0.21241 0.02144
-0.04185 0.12397 0.05418
-0.11321 0.27062 0.17600
0.26790 -0.05712 -0.00738
-0.15844 -0.24853 0.23849
-0.15320 0.20821 -0.22941
-0.04458 -0.19140 -0.04127
0.12214 0.32296 -0.06695
-0.02785 0.05537 0.04182
-0.08302 0.30083 0.09847
-0.15396 -0.19390 -0.24397
-0.13852 0.32296 -0.02459
-0.05178 0.32296 -0.07032
0.23786 0.32296 0.03782
-0.01888 0.30083 -0.05157
0.26663 -0.16399 0.00738
-0.02988 -0.02751 -0.04533
0.01679 -0.06963 0.00695
0.27409 0.18607 -0.00191
-0.19888 0.30083 0.05350
0.16631 0.32296 -0.11635
0.05994 0.30083 -0.19957
-0.03175 -0.25754 -0.04858
-0.14596 0.30083 -0.14228
-0.08798 -0.29555 0.11646
-0.01869 -0.10519 0.02595
0.19685 0.30083 0.13320
-0.08710 0.31231 0.25249
-0.03219 0.04638 -0.01983
0.01288 -0.04124 0.02974
0.01679 -0.02181 -0.00597
-0.02100 0.05460 -0.02995
0.10916 0.32296 -0.22223
-0.05737 0.30083 0.22584
0.20382 0.30587 0.15600
0.12374 0.32296 0.09436
0.03921 0.30083 -0.06021
0.00613 -0.10296 -0.03355
0.18509 0.27062 -0.00386
-0.04557 0.24211 -0.04300
-0.05798 0.32296 -0.14050
0.26278 -0.20494 -0.00738
-0.10282 0.27062 -0.15988
0.01179 0.30083 -0.12683
-0.03080 -0.25390 -0.01796
-0.08247 -0.28711 0.10691
-0.16951 0.30083 -0.15756
-0.10858 0.30083 0.16906
-0.04258 -0.30717 -0.06733
-0.03583 0.02649 0.05565
-0.06940 0.32296 0.00282
-0.04616 0.03334 0.05169
-0.12435 -0.30644 -0.20897
-0.26533 0.30618 -0.06658
-0.03949 -0.24968 0.01964
0.26345 0.12455 0.00738
-0.03178 -0.08979 0.01911
0.11410 0.32296 0.15433
-0.13558 -0.18394 -0.22841
-0.14514 0.32296 -0.10493
-0.22117 0.32296 -0.15485
0.08233 0.32296 -0.19258
0.05662 0.30083 -0.12908
-0.18671 0.30083 -0.19270
-0.15561 -0.21834 0.23359
-0.03062 0.13537 -0.04661
-0.03955 -0.02840 -0.01956
0.00770 0.32296 0.16531
-0.03010 -0.21649 -0.01836
0.15982 0.30083 -0.08240
0.21070 0.31704 0.14703
-0.12937 -0.27805 -0.21765
0.07880 0.32296 -0.03390
-0.16383 0.30083 -0.16882
0.22766 0.28723 0.00738
-0.15016 0.30794 -0.23186
0.21088 0.32296 -0.03061
-0.01842 0.21775 -0.02511
-0.02302 0.23418 -0.03356
0.15466 -0.28580 -0.00620
0.12701 0.32296 -0.02019
-0.22664 0.30083 -0.07082
0.01678 -0.18039 -0.00302
-0.21564 0.32296 -0.09142
-0.03495 -0.28931 0.02460
-0.04292 -0.11461 -0.01237
-0.03422 0.27131 0.00670
-0.00130 0.25855 -0.03595
-0.14408 -0.08922 0.24313
-0.03392 -0.21137 0.05234
0.04002 0.30083 0.07974
0.01974 -0.28343 -0.00738
0.25497 0.29014 0.00738
0.16001 0.30083 0.01620
0.10823 0.32296 0.01295
0.09789 0.30083 -0.00588
-0.01944 0.30083 -0.02975
-0.15693 0.05572 0.23587
0.25361 0.31187 0.02721
-0.07068 0.30933 -0.25745
-0.04153 0.12304 0.03600
-0.02613 -0.30687 -0.03884
-0.01352 -0.07453 0.03623
0.03416 -0.05683 -0.00738
-0.02135 -0.20279 -0.03055
0.03145 0.30083 -0.01904
-0.11538 0.32296 -0.16444
-0.01780 0.30083 0.03709
0.19569 0.30083 0.04156
-0.04313 0.07578 -0.05344
-0.03425 0.32296 0.02554
-0.07562 0.30083 -0.20112
0.01722 -0.03251 0.02641
0.01679 0.21460 -0.00152
-0.07150 -0.31532 -0.09551
-0.02967 -0.03251 0.04497
0.00394 0.32296 0.09266
0.02660 -0.18551 -0.00738
-0.07541 -0.29648 0.09467
-0.07745 0.30083 0.12241
-0.03134 0.30083 0.08267
0.02724 0.14503 -0.00915
-0.02537 0.16406 -0.02110
0.26094 -0.17764 -0.00738
0.01818 0.21616 0.02538
-0.01867 0.30083 -0.00987
-0.03261 0.08695 -0.02055
-0.10842 0.32296 0.12148
-0.13745 0.28464 0.23165
-0.22866 0.32296 0.02872
-0.10795 0.32296 0.06189
0.09279 0.30083 0.07610
0.26712 0.27013 -0.00738
-0.02729 -0.01237 -0.01999
-0.02143 0.23126 -0.02337
-0.06186 0.30083 0.14209
0.10629 0.30083 -0.14730
-0.06351 0.32296 0.09567
0.06803 0.30083 -0.00431
-0.02845 -0.08813 0.04285
-0.00422 -0.23341 0.03634
0.02332 0.12847 -0.01868
0.03441 0.30083 0.05032
0.11748 0.32296 -0.17053
-0.11739 0.32296 0.02801
0.04127 0.32296 -0.16355
0.26853 -0.22187 -0.00738
-0.15388 0.16881 0.23059
-0.03335 -0.01649 0.02182
0.02194 -0.24181 -0.00738
-0.03278 -0.14395 -0.02084
-0.04524 -0.06013 0.00079
-0.12230 0.30083 -0.20040
-0.15650 0.29878 0.24250
-0.00158 0.32296 0.13433
-0.12540 0.31056 -0.23663
-0.01958 -0.06678 0.02750
-0.04068 0.23376 -0.03453
0.25008 -0.10883 0.00738
-0.18382 0.30083 0.03322
-0.12327 -0.31532 -0.18173
-0.08208 0.27245 -0.13575
0.02232 0.11636 -0.01999
-0.13888 0.24144 0.23412
-0.12949 -0.02909 0.21525
-0.04399 0.27781 -0.04025
0.15924 0.32296 0.10125
-0.03113 -0.08803 -0.01798
0.23352 0.32296 -0.03842
0.19851 -0.31442 -0.00738
-0.03351 0.26069 0.05162
-0.03765 -0.23462 0.02204
0.06373 0.32296 0.03812
-0.02030 0.32296 -0.12718
0.03351 0.30083 -0.25658
-0.03601 -0.31239 -0.05595
-0.10463 0.28608 -0.14529
0.04310 0.32296 0.19153
-0.21988 0.32296 -0.07112
-0.03681 0.21959 -0.02313
-0.00056 -0.25114 -0.03586
0.23297 0.30083 0.07577
0.02571 0.14796 -0.01310
-0.20245 0.32296 0.06532
0.05368 -0.20595 0.00218
-0.14469 -0.30328 0.24419
0.00512 -0.23343 0.03397
-0.02178 0.08611 0.03131
-0.01974 0.28505 0.02434
0.21031 0.32296 -0.10997
0.06800 -0.30863 -0.00738
-0.26497 0.30083 -0.04604
-0.14404 -0.25789 0.21354
-0.04203 0.30083 -0.09164
0.03389 0.30083 -0.23907
-0.04799 -0.30374 0.07670
0.13405 0.32296 -0.18652
0.00960 0.15298 0.03211
-0.03282 0.27131 0.02091
0.02043 -0.22628 0.00738
-0.04107 -0.17497 0.03520
-0.25831 0.30083 -0.06705
-0.00222 -0.28580 0.00983
0.10994 0.30083 -0.04113
-0.13831 0.25904 -0.21015
0.02659 0.32296 -0.05741
0.01874 0.26813 0.02465
0.25304 0.12093 0.00738
-0.07573 -0.30890 0.09524
-0.02115 0.13140 -0.03022
0.12246 0.30083 -0.06506
-0.07114 0.30083 -0.00242
0.27409 0.28979 0.00103
0.23782 -0.08428 -0.00738
-0.15221 0.02000 0.22770
-0.14371 0.32296 -0.00461
-0.01425 -0.18735 -0.03613
-0.12905 -0.00458 0.21710
-0.02510 0.05772 0.02125
0.21411 0.28064 0.00738
-0.02965 0.18039 0.04494
0.15963 0.32296 0.16679
-0.02134 0.02512 0.02342
-0.04827 -0.20264 0.05048
-0.03905 0.23990 0.05580
0.23699 -0.26626 0.00638
-0.21542 0.30083 0.00030
-0.04576 -0.01063 -0.04332
-0.23134 0.32296 0.11440
-0.03952 0.28368 -0.06204
-0.08692 0.29391 -0.11462
0.02674 0.12061 -0.01063
-0.13239 0.32296 0.08371
-0.01236 0.32296 0.13371
0.23699 0.21613 0.00160
-0.20430 0.30083 0.09427
-0.02323 0.30083 0.25354
0.02479 0.08579 0.01533
-0.04788 -0.22050 -0.04699
0.22380 0.32296 -0.10665
-0.03958 0.08456 -0.05549
-0.01838 0.12544 -0.03548
-0.03797 -0.11995 -0.02162
-0.21984 0.32296 -0.13934
-0.24011 0.32296 0.00918
-0.14494 -0.21636 0.24462
0.04457 0.30083 -0.12296
0.13786 -0.28992 -0.00738
0.25427 0.31094 0.02222
0.25646 -0.23643 -0.00738
-0.13479 0.23197 0.21219
-0.14482 -0.21182 -0.21490
0.08979 -0.31374 -0.00738
-0.05087 0.32296 -0.15898
-0.07198 -0.29578 0.11825
-0.02319 0.03782 -0.03375
-0.07434 0.32296 0.14849
-0.14458 -0.13447 -0.21448
-0.20996 0.30083 -0.10741
-0.03045 0.32296 -0.05745
-0.03777 -0.15134 0.02188
0.01144 0.26484 -0.03084
-0.05861 0.30083 0.10934
0.20009 0.32296 -0.03023
-0.00058 0.32296 0.14808
-0.01388 0.32296 0.16408
-0.02805 -0.14389 0.04217
-0.18386 0.32296 -0.00449
-0.02370 0.20385 -0.02206
0.08722 0.32296 -0.21345
-0.14433 -0.09572 0.21405
0.06374 0.31836 -0.25517
-0.09357 0.32296 -0.11694
0.05687 0.27253 0.00738
-0.18660 0.30083 0.01907
0.08742 0.30083 -0.17821
0.04467 -0.02826 0.00738
-0.04928 0.32296 -0.04974
0.00101 0.18412 0.03565
-0.13476 0.00087 -0.21220
0.26596 -0.29149 0.00738
0.13228 0.30083 0.07902
0.24094 -0.05423 -0.00738
-0.14091 0.30083 0.10365
-0.01825 0.30083 -0.12983
0.00119 0.32296 0.04129
-0.13827 -0.12374 0.23307
-0.01464 0.30083 0.25908
0.10484 0.32296 -0.21489
-0.13477 -0.29632 0.19749
0.09192 0.30083 0.02144
0.00043 0.15938 -0.03573
-0.14000 0.15932 0.23606
-0.05359 0.30083 0.07656
0.02550 -0.21671 0.00738
-0.04599 0.27425 -0.04372
-0.21985 0.30083 -0.14813
0.23455 0.32296 0.01733
0.27274 0.26632 0.00738
-0.01876 0.21909 0.03532
0.01253 -0.28580 0.00775
0.03415 0.19483 -0.00738
0.21637 0.27062 -0.00420
-0.11457 0.32296 -0.15442
0.03775 0.32296 -0.07239
-0.03293 0.30083 -0.02099
-0.19530 0.30083 0.07841
-0.15655 0.11372 0.24247
-0.08080 0.31697 -0.25510
-0.05557 -0.28941 -0.06031
-0.15440 0.25613 -0.23149
0.24762 0.06113 -0.00738
0.23699 0.13673 -0.00234
-0.07406 0.32296 -0.20112
-0.06697 0.32296 -0.10342
-0.05380 0.31008 0.25967
0.02180 -0.31396 0.00738
-0.19259 0.31088 -0.19068
-0.15347 0.25032 -0.22989
0.01960 -0.14600 0.00738
-0.11466 0.32296 -0.05163
0.02378 0.14467 0.00738
-0.15847 -0.14721 -0.23854
0.17127 0.30083 0.00460
-0.04262 0.09877 0.01311
-0.06021 0.29463 -0.06834
-0.15840 -0.09868 -0.23841
-0.02515 0.03744 0.03715
-0.13164 0.10716 -0.21400
0.25228 -0.09574 0.00738
0.03396 -0.02447 0.00738
-0.00530 0.16952 -0.03648
0.02132 0.12006 0.00738
0.03863 0.21798 0.00738
0.00181 0.30083 0.21639
-0.01399 0.32296 -0.17244
-0.13772 0.13868 0.23211
0.01679 -0.29756 0.00017
-0.04660 0.00610 -0.04478
-0.04456 -0.13134 0.04125
0.10349 0.30170 -0.23870
-0.04426 0.02154 -0.00825
0.24646 -0.18008 -0.00738
0.09196 0.32296 0.21933
0.04493 -0.19624 0.00738
0.03772 -0.10963 0.00738
-0.04881 -0.13155 -0.05016
-0.14356 0.16351 -0.21271
0.26475 -0.28271 0.00738
0.04177 -0.02711 -0.00738
-0.04200 0.19608 0.01459
-0.13579 0.11418 0.22877
-0.01479 0.32296 0.10091
0.06056 0.32296 0.18850
0.02732 0.09697 -0.00738
-0.03167 -0.09746 -0.01892
-0.03481 -0.09907 0.02435
0.12646 0.30083 -0.17667
0.27043 -0.07857 -0.00738
-0.02163 0.10563 0.03104
0.02729 0.32296 0.17738
-0.07103 0.30083 0.23351
-0.22852 0.30083 -0.13722
-0.06874 -0.30465 0.11264
0.22731 0.30083 0.08986
-0.04007 0.18475 0.03347
0.01273 0.08249 0.02985
-0.08974 0.27452 -0.11950
0.07422 0.30083 0.04147
0.00009 0.32296 -0.03207
0.10712 0.32296 0.22960
-0.14692 -0.24159 -0.21853
0.05368 0.01276 0.00681
0.27409 -0.28576 -0.00000
0.06963 0.30083 -0.09752
0.10929 0.30083 -0.20590
0.27409 -0.13444 0.00072
-0.16617 0.30083 -0.20941
-0.15251 0.06470 -0.24481
-0.13086 -0.31356 0.22024
-0.02805 0.03778 -0.01955
0.25845 -0.10140 -0.00738
0.11142 0.32296 0.05189
-0.13919 0.24921 0.23467
-0.04463 0.16589 -0.04137
-0.15591 0.04409 0.24284
-0.03175 0.32296 -0.08387
-0.13311 0.32296 -0.22783
0.14231 0.30083 0.08984
-0.07233 0.32296 -0.00233
-0.04891 0.32296 0.04665
-0.12111 0.29840 0.17383
0.09656 0.32296 0.21496
-0.04160 -0.22728 0.03611
-0.06202 0.27307 0.07148
-0.11933 -0.31532 -0.18802
0.03661 0.26131 0.00738
-0.02322 0.05153 0.03381
0.23699 0.20696 0.00596
0.23699 -0.13517 -0.00127
-0.02797 0.06877 0.01959
0.15716 0.30083 -0.05730
0.23259 0.31566 -0.10630
0.06473 0.32296 0.09855
-0.01918 -0.25356 -0.02467
-0.12846 -0.27008 0.21609
-0.14949 -0.14314 0.22299
0.26470 0.04497 -0.00738
-0.23081 0.32296 0.02259
0.05451 0.30083 0.04784
0.02263 -0.05763 -0.00738
-0.14710 0.13793 -0.24793
0.14640 0.30083 0.04781
-0.13041 -0.24481 -0.21945
-0.01947 0.10471 -0.02730
-0.06915 0.32296 -0.06376
-0.05563 0.30083 0.08888
0.19037 0.32296 -0.01512
0.05240 0.17738 0.00738
-0.10116 -0.31532 -0.14020
-0.12447 0.30083 0.18806
0.08069 0.32296 0.16372
-0.19287 0.32296 0.14917
-0.11970 0.30083 -0.21951
-0.02395 -0.20641 0.02191
0.27409 0.14116 0.00529
0.13955 0.30083 -0.14755
-0.17566 0.30083 -0.07575
0.02610 0.15209 0.01216
0.26388 -0.27168 0.00738
0.14055 0.32296 0.19276
0.27409 -0.31705 0.00031
-0.04628 0.14691 -0.04422
-0.03189 -0.00045 0.04881
0.17676 0.32296 -0.00782
0.05343 -0.04326 0.00738
-0.03118 0.28238 0.04759
-0.12226 -0.31218 -0.20534
-0.03933 0.30083 -0.07344
-0.04369 -0.08440 -0.05312
-0.09124 -0.28580 0.13331
-0.03637 0.16659 0.02371
-0.05585 0.27062 -0.06439
0.00617 0.30083 0.24912
0.04316 0.09990 -0.00738
-0.21819 0.30083 0.10122
-0.01949 -0.09326 -0.02734
-0.24194 0.30083 -0.10958
-0.15303 0.09098 0.22912
0.11424 0.30083 -0.01786
0.05368 0.03628 0.00380
-0.02069 0.30806 0.26403
-0.15390 0.08936 -0.23063
-0.04908 -0.15432 0.04907
0.01664 -0.15687 -0.02685
-0.04450 -0.28250 -0.00647
-0.01166 0.27131 -0.02194
-0.19188 0.32296 0.18766
0.18005 0.30083 -0.09775
0.04390 0.01898 0.00738
0.10861 0.31658 0.23658
0.17713 0.32296 -0.08896
-0.12948 0.30083 -0.13700
-0.08542 0.32296 -0.02069
-0.12798 -0.30033 -0.21525
0.14642 0.27062 -0.00448
0.27409 -0.07986 0.00691
-0.09644 0.30083 0.19466
0.15669 0.32296 0.10988
-0.17387 0.32296 -0.16226
-0.15155 0.32296 0.07742
0.11561 -0.29348 0.00738
-0.12982 0.31238 -0.23480
-0.08890 -0.31532 0.14652
0.19403 0.32296 0.13140
-0.04488 -0.15223 -0.00358
-0.24917 0.30083 0.09915
-0.01835 -0.09220 -0.03549
0.06199 0.32296 -0.05429
-0.01950 0.04094 0.02448
-0.10415 -0.31532 0.14457
-0.04744 0.25237 -0.04623
0.01822 -0.00415 -0.00738
-0.08183 0.32296 -0.01095
0.10415 0.30083 0.21159
-0.01953 0.24624 -0.02446
-0.14853 0.13845 0.22132
-0.06186 0.30083 -0.10794
0.27409 0.04404 0.00075
0.27409 -0.22903 0.00336
0.04542 0.03794 0.00738
0.08466 -0.28580 0.00500
-0.00298 -0.01856 0.03617
-0.13730 -0.14304 -0.21074
0.06456 0.32296 -0.22012
0.02655 -0.23847 -0.01108
0.07416 0.30083 0.15794
0.02645 0.30083 0.01695
-0.19390 0.30083 -0.12401
-0.13774 -0.22273 -0.21048
0.02099 0.06498 0.02173
-0.10339 0.30083 0.11200
0.17991 0.30083 0.00799
-0.07581 0.30083 0.13819
-0.13328 -0.09214 0.21306
-0.03714 0.05986 -0.02269
-0.21054 0.30083 -0.16866
-0.06160 0.32296 0.07751
0.01944 -0.20619 -0.00738
0.11485 0.30083 -0.07573
-0.13185 0.27766 -0.22195
-0.13579 -0.15818 -0.21161
0.17786 0.32296 0.15277
-0.00766 0.30083 -0.17122
-0.02343 0.30083 0.12289
-0.17939 0.30083 0.06201
-0.09670 -0.31297 -0.13154
0.02539 0.30083 -0.11658
0.19878 0.27668 -0.00738
0.18799 0.32296 -0.14227
-0.24770 0.30083 0.05223
-0.04501 -0.29455 -0.07154
0.07475 0.32296 -0.15282
-0.06236 0.30083 -0.14532
-0.02246 0.15227 0.03379
-0.14369 -0.15864 0.21294
-0.13445 -0.07226 -0.21238
0.17097 0.32296 -0.18760
0.12259 0.30083 0.23030
-0.14510 0.30083 0.13727
-0.14772 0.30083 -0.03343
-0.06871 0.30083 0.22340
-0.15454 -0.01399 0.23174
-0.13625 0.30083 -0.09127
-0.00373 0.32296 0.22630
-0.05095 -0.31532 0.06474
-0.02295 0.32296 -0.25030
-0.04230 -0.21894 -0.01388
0.01679 -0.15511 0.00612
-0.13669 0.27730 0.20082
-0.05591 0.27808 0.09042
-0.00401 0.30083 -0.06766
-0.01765 -0.28580 -0.00685
0.22334 0.30083 0.05533
-0.13417 0.32296 -0.06543
-0.04211 0.09256 0.05403
0.05961 -0.31499 0.00738
0.03946 0.13562 -0.00738
0.01679 0.25076 0.00709
0.12271 0.27062 -0.00720
-0.25726 0.30083 -0.08663
-0.03927 0.05177 0.05567
-0.13510 -0.31532 -0.19815
0.05368 0.19991 0.00613
-0.08501 0.30083 -0.11711
0.22638 0.32296 -0.01503
0.04235 -0.21134 0.00738
-0.01931 0.01290 -0.02702
0.08606 0.32296 0.20088
0.09994 0.32296 -0.10072
0.23769 0.14946 0.00738
0.23797 0.10158 -0.00738
0.22827 0.31195 0.11673
-0.04771 0.09924 0.05080
0.02638 -0.03478 0.00738
0.03515 -0.15558 -0.00738
0.01679 -0.22354 0.00346
-0.00223 0.03967 0.03608
-0.13791 -0.15869 0.21038
-0.12237 0.32296 -0.22587
0.03669 -0.12948 0.00738
-0.13484 0.13601 -0.22713
0.00277 0.02586 0.03494
0.17953 0.30342 -0.18765
-0.13191 0.26458 0.21385
0.01998 0.17147 -0.00738
-0.14322 0.25737 0.21214
-0.02183 0.14841 0.02314
0.06939 0.30083 -0.18717
-0.00360 0.27131 -0.00126
0.01842 0.19274 -0.02507
0.03908 0.32296 -0.01570
0.22503 0.32296 -0.09615
-0.02622 0.17143 0.03899
0.04508 -0.28387 -0.00738
-0.02963 0.30083 0.04387
0.05513 0.30083 0.25483
-0.04467 -0.18963 -0.00517
0.02410 0.32296 -0.08441
0.02360 0.32296 -0.21085
0.03593 0.30083 -0.20694
-0.12956 0.19731 0.21520
0.14683 0.30083 -0.03615
-0.09989 0.28322 -0.16660
0.08798 0.32296 0.14938
-0.20951 0.32296 -0.03684
-0.00361 -0.18657 0.03626
-0.14953 0.06472 0.24653
0.02634 -0.24386 0.01160
-0.03629 -0.13397 0.02381
-0.11970 -0.31262 0.20091
0.05368 -0.10920 0.00084
-0.01788 -0.28580 0.01814
0.15664 -0.30608 0.00738
-0.14707 0.00716 -0.21879
0.15285 0.30083 0.05005
-0.06325 -0.31486 -0.07362
-0.02045 -0.13159 0.02901
-0.04322 -0.19780 -0.03893
0.11336 0.30927 -0.23461
0.14366 0.30083 0.13964
0.04185 -0.23548 -0.00738
-0.15673 -0.00388 -0.23552
0.08183 0.30083 -0.08469
-0.13654 0.29922 0.23007
0.04669 0.30083 0.21098
-0.13578 0.30083 -0.12933
-0.00129 -0.22726 -0.03595
-0.13216 -0.07773 0.22248
-0.24177 0.31391 -0.12495
0.14869 0.32296 -0.17850
0.17601 0.30083 -0.08132
-0.01045 -0.04183 -0.03663
-0.04364 0.18993 -0.03965
0.05280 -0.15227 -0.00738
0.02256 -0.25362 -0.00738
0.18261 0.30083 0.07635
-0.03445 -0.22510 -0.02373
-0.13032 0.06277 0.21929
0.22809 0.32296 0.07678
-0.03733 0.03893 0.02245
0.02514 0.25704 -0.00738
0.08618 0.28604 -0.00738
0.17619 0.32296 0.04032
-0.02434 -0.26110 0.03573
-0.03066 0.12009 0.04669
-0.15956 -0.26485 -0.24073
0.10832 0.30083 -0.17086
-0.26363 0.32296 0.00857
0.22473 0.32296 -0.06812
0.02743 0.14776 0.00738
-0.15057 -0.24601 -0.24592
-0.20499 0.30083 0.16359
-0.02857 -0.23999 0.04306
-0.02093 0.19437 -0.02366
0.09686 0.30083 -0.05054
-0.04221 0.01440 0.03717
0.23788 -0.21077 0.00738
-0.17536 0.32296 -0.13242
0.06878 -0.30089 -0.00738
0.02016 0.14940 0.00738
-0.00904 0.30083 0.08032
-0.09934 0.30083 -0.04386
-0.08478 0.32296 0.13169
0.25453 -0.04708 -0.00738
0.12080 0.32296 0.00986
-0.12529 -0.28580 -0.19162
-0.07739 0.30083 0.15066
0.17127 0.30083 -0.03748
0.10383 0.30083 0.05955
-0.20468 0.32296 -0.05134
-0.14829 0.11125 0.22090
0.02364 0.23283 0.01811
-0.00175 0.30083 -0.18785
-0.04096 0.18250 -0.01710
-0.14279 0.28748 -0.21138
0.04175 -0.13375 -0.00738
0.22991 0.32296 -0.10466
0.11495 0.30083 0.11506
0.02174 0.30083 -0.11040
-0.04438 0.01815 0.00737
-0.06620 0.30083 -0.02770
-0.13333 -0.21459 -0.22451
-0.06367 0.29865 -0.10386
0.21049 0.30083 0.10450
0.23699 0.16900 -0.00024
-0.08759 0.30083 -0.08937
0.02550 -0.12799 -0.00738
0.01353 -0.19418 -0.02924
0.03182 0.25088 0.00738
0.01678 0.10139 -0.00438
-0.13617 -0.21262 -0.22943
0.02178 -0.08270 0.02069
-0.20919 0.32296 0.00199
-0.22576 0.32296 0.03752
-0.07905 -0.31234 0.10099
-0.21685 0.32296 0.08523
-0.15203 -0.17979 0.24508
-0.02880 -0.00601 -0.04347
-0.10626 0.27871 -0.17763
0.18696 0.32296 0.08141
0.02140 -0.28580 -0.01294
-0.01894 -0.27448 0.02639
0.01179 0.11272 0.03057
-0.15759 0.13248 0.23702
-0.18363 0.30083 -0.14690
-0.22941 0.32296 0.14111
-0.14730 0.01766 0.21920
0.02809 0.32296 -0.22774
0.08657 0.32296 -0.17224
0.10143 0.32296 -0.19999
-0.04062 0.30083 0.16692
-0.15757 0.06466 -0.23699
-0.02266 0.13315 -0.02266
0.15061 0.32296 -0.19123
-0.03610 -0.14093 0.05612
0.01679 -0.00865 0.00654
0.26182 0.11109 -0.00738
-0.03274 -0.15365 0.02077
-0.04522 0.15800 -0.00094
-0.04124 0.14480 0.01644
-0.05969 0.32296 -0.13181
-0.04478 -0.21521 0.00429
0.03007 0.13963 -0.00738
-0.07414 -0.31104 -0.09248
-0.09185 0.32296 0.04379
0.01832 0.01880 0.02520
0.01839 0.18924 0.00738
-0.14497 0.32296 0.11715
0.25580 -0.23434 0.00738
-0.02021 0.32296 0.10907
-0.15595 -0.16109 0.24282
0.27235 0.00472 0.00738
0.02135 -0.17865 -0.00738
0.05218 -0.13886 0.00738
0.05180 -0.19279 -0.00738
-0.14165 0.32296 -0.10932
-0.13619 -0.26013 0.22947
-0.04326 -0.13585 0.03900
0.08417 0.27566 0.00738
-0.12576 -0.29237 0.21141
0.19439 0.32296 -0.03254
0.10369 0.30083 -0.13000
0.06822 0.32296 -0.09404
-0.13315 0.30083 0.21523
-0.00473 0.08287 -0.03641
-0.03634 -0.22224 -0.05652
0.10793 0.30083 -0.18175
-0.06373 0.32296 -0.14753
-0.01767 0.32296 0.06176
-0.13497 -0.05047 0.22736
-0.05261 0.32296 0.16587
0.02512 0.16270 0.00738
-0.13600 -0.15025 0.22915
-0.04127 0.05617 0.01635
-0.13226 0.06324 -0.21364
0.14151 -0.30655 0.00738
-0.14339 0.32296 0.08863
0.02269 -0.07815 0.00738
-0.01129 0.32296 0.09051
0.16288 0.32296 -0.17905
-0.09143 0.32296 -0.03718
-0.04789 0.01459 -0.04701
0.01606 0.30083 0.11090
-0.20065 0.32296 -0.14130
0.11356 0.30083 -0.16230
0.14814 0.32296 0.08643
-0.07032 -0.28580 0.10956
-0.08994 0.32296 0.19125
0.08765 0.30083 -0.05040
0.01967 0.32296 -0.12500
0.06653 0.30083 -0.08090
0.18418 0.32296 -0.11870
0.13115 0.32296 0.05129
0.23699 -0.06464 -0.00113
-0.24607 0.32296 0.04272
-0.01905 0.16855 0.02658
0.07041 0.29686 0.00738
0.13001 -0.31532 -0.00426
-0.03481 0.27671 0.02436
-0.13082 0.30083 -0.18957
0.01502 0.32296 0.08331
0.00859 -0.01170 -0.03254
-0.02942 0.09049 0.01875
-0.03483 0.24782 0.05390
-0.06525 0.32296 -0.11379
0.08517 0.30083 -0.23031
-0.14574 0.08888 -0.24601
0.23139 -0.29170 0.00738
0.26071 0.05661 -0.00738
-0.14451 0.32296 0.03350
-0.08037 0.30083 -0.19632
-0.06354 -0.29911 0.07412
-0.05566 -0.29304 -0.08998
-0.01136 0.14040 0.03651
-0.14070 0.32296 0.16683
-0.17780 0.30083 0.01722
-0.12401 -0.28580 -0.20422
-0.03454 -0.02153 -0.02389
-0.20461 0.31710 0.17699
0.27248 -0.10059 -0.00738
0.14619 0.30083 0.10782
-0.13111 0.30083 0.13178
-0.13904 -0.10295 -0.23441
-0.18234 0.30083 0.13739
0.12496 -0.28580 0.00378
-0.14152 0.08882 -0.20919
0.05475 0.30083 0.16776
0.24019 0.20584 -0.00738
-0.14891 -0.13609 0.22198
0.14357 0.32296 0.09232
0.02906 0.23913 -0.00738
-0.04015 0.32296 0.20656
0.02122 0.22931 0.00738
0.08826 0.32296 -0.16125
-0.14818 0.32296 -0.02920
0.20135 0.30083 -0.06594
-0.04854 0.08951 0.05032
-0.03827 0.30083 0.11188
-0.02286 -0.11491 0.02254
0.02877 0.30083 -0.05921
-0.14716 0.05951 -0.24789
