-0.19330 0.18019 -0.00141
0.29302 0.19621 0.10131
0.03265 0.20634 0.15837
-0.28354 0.20634 -0.00616
-0.19330 0.18903 0.10397
0.18026 -0.03680 -0.22991
-0.13328 0.20634 0.27227
-0.19100 -0.08522 0.23103
0.23523 0.20634 -0.17917
0.01110 0.20634 -0.17278
0.02998 0.20634 -0.03677
0.03891 0.20634 -0.07313
-0.17977 0.17912 0.23103
-0.14790 0.20634 -0.16910
0.06220 0.16698 0.22427
-0.03894 0.20634 0.00849
-0.24599 0.20634 0.04807
-0.03111 0.20634 -0.05545
-0.18655 0.19027 -0.06610
0.13005 0.20634 -0.15171
0.12696 0.20634 -0.05677
0.04064 0.20634 0.05602
-0.03553 0.17612 -0.24092
-0.02415 0.20634 -0.26365
-0.06440 0.20634 0.12276
-0.14450 0.20634 -0.22047
0.19341 0.08678 0.21752
-0.09613 0.19645 0.28577
-0.18655 0.17949 -0.17219
-0.18655 0.16309 0.08118
-0.19330 0.16633 0.03670
0.04866 0.16738 0.23103
-0.05255 0.20236 0.29817
0.02930 0.20634 0.00555
0.00405 0.19337 0.22427
0.23864 0.19621 0.01457
-0.17979 -0.11287 -0.23267
0.27909 0.20317 0.11962
-0.29994 0.20634 -0.04971
0.18701 0.17510 -0.20905
-0.17979 -0.20088 0.22725
0.22137 0.20634 0.21198
0.11805 0.20634 0.13486
-0.21505 0.19942 0.23996
0.18026 -0.16855 0.22307
-0.19330 0.06948 -0.23362
-0.17979 -0.07237 0.21950
0.03414 0.20634 0.20595
-0.20471 0.20634 0.12964
0.29204 0.19621 -0.12730
0.03748 0.17474 -0.23417
-0.03522 0.20634 -0.08807
-0.15899 0.16476 -0.24092
0.12339 0.20634 -0.12925
-0.19088 0.19753 -0.02521
0.22515 0.20625 -0.12920
0.17567 0.20634 0.26779
-0.12890 0.20634 -0.15238
0.19356 -0.06743 -0.22741
0.10914 0.20634 0.02289
-0.25534 0.20634 -0.06463
-0.07307 0.20634 -0.07780
-0.18104 -0.18880 -0.24092
-0.18744 -0.14432 -0.24092
0.21744 0.20634 -0.10645
-0.27964 0.20634 0.06264
-0.17663 0.19621 0.01209
-0.04589 0.20634 -0.04612
0.19377 0.17699 -0.00270
-0.18736 0.20011 0.23887
-0.19330 0.16423 0.00150
0.04457 0.17758 -0.24092
0.13483 0.18935 0.22427
-0.17342 0.20634 -0.02720
0.18701 0.19375 0.02340
0.11127 0.20634 0.07462
0.04467 0.20634 0.25355
0.23327 0.20634 -0.19815
0.19377 0.18832 0.17596
-0.01316 0.20634 -0.04261
0.18701 0.17094 0.08136
0.28433 0.19621 -0.01877
0.22093 0.20634 0.19213
-0.09814 0.20596 0.24373
-0.18756 0.20634 -0.03257
-0.12112 0.20634 0.27441
0.17567 0.20634 -0.16783
0.10555 0.20634 -0.22868
-0.02869 0.17824 -0.24092
0.23547 0.20634 -0.08399
0.19265 -0.19602 0.21752
-0.25846 0.19621 0.19289
-0.19330 -0.05152 -0.23736
-0.00239 0.20307 -0.30124
-0.15229 0.20634 0.21664
0.19377 0.16923 -0.22249
-0.11022 0.20634 -0.21136
0.27856 0.20634 -0.14473
-0.08860 0.20634 -0.12870
-0.32095 0.20131 -0.03371
-0.21999 0.20567 0.06007
-0.02463 0.20634 -0.16659
0.09423 0.20634 -0.11274
-0.18542 -0.03289 -0.24092
-0.15050 0.20634 -0.26385
-0.19158 -0.14359 0.21752
-0.21622 0.20634 -0.09872
-0.23539 0.19621 -0.01419
-0.18655 0.17801 0.15049
0.03059 0.20634 0.02158
0.13118 0.20634 -0.22445
-0.18197 0.12376 -0.24092
-0.28505 0.20634 -0.11275
-0.16961 0.20634 -0.26996
0.22839 0.20634 0.06811
-0.19330 0.02887 -0.22853
-0.07678 0.20634 -0.13584
0.16456 0.17469 0.22427
0.27674 0.20634 0.02456
0.05941 0.20634 0.06138
-0.19330 0.04055 0.22990
0.05397 0.20634 -0.25344
0.18701 0.16431 -0.05089
-0.16905 0.19820 0.24982
0.11986 0.20634 0.23780
-0.18057 0.20634 0.11344
0.16792 0.20634 0.22351
-0.19330 0.19168 0.19929
0.19127 0.16244 -0.06667
0.09986 0.20634 0.02002
-0.16554 0.20634 -0.19630
-0.19330 0.12818 -0.23897
0.20687 0.20634 -0.01523
-0.08999 0.20634 -0.21908
-0.18473 -0.12925 0.21752
-0.02990 0.19621 0.30085
0.22280 0.19621 0.20601
-0.20530 0.20634 -0.08137
0.07131 0.20634 -0.28582
0.18669 0.19998 -0.26288
-0.17979 -0.17076 0.21920
0.10664 0.19893 0.30462
-0.19525 0.20634 0.17809
0.07140 0.20634 -0.21008
0.10765 0.20634 -0.28054
0.17072 0.20634 0.18872
-0.17979 -0.17813 -0.23546
-0.28836 0.19843 0.08820
-0.07616 0.20634 -0.02717
0.18538 -0.18635 -0.24092
-0.15951 0.18376 0.23103
0.18320 -0.14007 0.21752
0.24826 0.19621 0.20281
-0.19319 0.16244 -0.09915
-0.31062 0.19994 -0.08281
0.20648 0.20634 0.07799
0.11017 0.16308 0.22427
0.18701 0.19306 0.06947
0.18026 -0.04893 0.22909
0.16263 0.19934 0.25415
0.15839 0.20634 -0.13472
0.29517 0.19988 -0.06112
0.19377 0.17350 -0.03917
-0.16424 0.20583 0.01532
-0.19414 0.20634 -0.21514
-0.25652 0.20634 -0.08876
0.06026 0.20634 -0.30565
0.19377 0.19473 0.08102
0.06437 0.20634 0.29753
-0.13356 0.20634 0.18382
0.12728 0.20634 0.14107
0.18072 0.20634 -0.16656
0.07857 0.20634 -0.19154
0.05673 0.20634 0.25375
-0.17979 -0.07628 -0.23681
-0.17544 0.20634 -0.21129
-0.17979 -0.10426 -0.23594
0.29199 0.19621 0.13764
-0.10884 0.17078 0.22427
0.17627 0.19438 0.22427
-0.15109 0.16344 0.22427
0.03856 0.20634 0.11539
0.14304 0.16244 0.22861
-0.05761 0.20591 0.03163
0.15408 0.20634 0.04588
0.17980 0.20634 0.10239
0.00614 0.20634 -0.22236
-0.11282 0.20527 -0.30306
-0.20494 0.20634 -0.16898
0.19377 0.19525 -0.18302
0.11685 0.20634 0.24492
0.19976 0.20402 0.22581
0.25393 0.19879 -0.16303
-0.29126 0.20634 0.01914
0.12883 0.19978 0.01532
0.02564 0.19621 -0.01673
0.03045 0.20634 0.10005
0.04096 0.20634 -0.16354
0.08592 0.19621 -0.30074
-0.12241 0.20634 -0.07459
0.12620 0.20634 0.09530
0.30767 0.19621 0.00683
0.02261 0.20576 -0.11658
0.01549 0.20522 0.30144
0.13783 0.20634 0.05698
0.07134 0.20634 -0.23270
0.12363 0.20634 -0.07550
-0.19330 0.19188 -0.20459
-0.15263 0.20634 0.28310
0.20966 0.20634 -0.09090
0.01299 0.20634 -0.10235
0.10247 0.19621 0.29630
-0.04475 0.19621 -0.31414
-0.23271 0.20634 0.13297
0.01925 0.20634 0.26798
0.19187 0.07543 -0.24092
-0.14439 0.17545 0.22427
0.19377 -0.04633 0.21765
-0.10566 0.20634 -0.25444
-0.17856 0.20634 0.00997
-0.22929 0.19974 -0.19716
0.24461 0.20634 -0.20883
0.18026 -0.19782 -0.23029
0.15412 0.20634 -0.22559
-0.23951 0.20634 0.13100
0.08904 0.18844 0.22427
-0.11916 0.17216 0.23103
0.02793 0.20634 0.26157
0.10998 0.16260 -0.23417
0.19353 0.20634 -0.16978
0.19377 -0.18368 0.22543
-0.23945 0.20634 -0.01923
0.18026 0.13575 -0.22953
-0.13306 0.20538 -0.02521
-0.19292 0.16297 -0.22741
0.23655 0.19621 -0.18974
0.05393 0.20634 0.13224
0.15315 0.20634 0.21675
-0.18655 0.16484 -0.20715
0.27695 0.20634 0.12910
-0.18655 0.17152 0.17826
0.19377 0.16714 0.13263
0.08387 0.20567 -0.14667
0.13344 0.19621 0.00305
-0.13935 0.20567 -0.13217
-0.27182 0.20634 -0.04683
0.11568 0.20634 -0.20625
0.02331 0.20567 0.05490
0.24082 0.19931 0.18410
0.19377 0.13456 0.22350
0.30419 0.20634 -0.10062
0.09936 0.20105 -0.30592
-0.18655 0.16654 -0.01714
-0.13342 0.20322 -0.29361
-0.12432 0.20634 -0.05466
0.01805 0.20357 -0.02521
0.19377 0.07024 -0.23004
-0.02565 0.19621 -0.31801
0.15445 0.20634 -0.09511
-0.25228 0.20634 -0.06081
0.12723 0.20634 -0.16410
0.18640 0.20634 0.13127
-0.19386 0.19621 -0.00677
0.22791 0.20569 0.01532
-0.12300 0.20634 -0.19676
0.21127 0.20634 -0.20304
-0.12842 0.20634 -0.02822
0.12585 0.16873 0.22427
-0.18655 0.16522 -0.10676
-0.27140 0.20634 -0.03697
-0.02692 0.20634 -0.14758
0.19377 -0.08585 -0.23592
-0.06858 0.20634 0.05384
0.29392 0.19621 0.12012
0.18026 -0.09289 0.22986
-0.03465 0.20634 0.29042
0.09593 0.20634 -0.27088
0.15349 0.19621 -0.01636
-0.15627 0.20634 -0.15380
0.18701 0.18772 0.08002
0.08804 0.19621 0.00641
0.04370 0.20583 0.02784
-0.19330 0.09189 0.22924
0.13499 0.20634 0.23757
-0.18944 0.14313 -0.22741
0.29383 0.19847 -0.06645
0.09448 0.20614 0.01599
0.18026 -0.05723 -0.24012
-0.18415 0.20634 0.13402
-0.18050 -0.08779 -0.22741
0.32189 0.20406 -0.02724
0.11970 0.17730 0.22427
0.14039 0.18375 -0.23417
0.19377 0.19173 -0.10669
0.15161 0.19781 0.01532
-0.11167 0.20634 0.21863
0.14862 0.20634 -0.26860
-0.19330 0.16698 0.13524
0.18701 0.17043 0.17761
-0.19766 0.20634 -0.14688
0.14747 0.20634 -0.18935
-0.18655 0.16715 -0.15001
0.08977 0.20634 0.17398
-0.11575 0.20634 -0.13119
-0.18655 0.18021 -0.21064
0.28329 0.19621 0.01201
0.19193 0.06176 -0.22741
-0.02470 0.18161 0.22427
-0.05252 0.20634 -0.25139
-0.17205 0.20634 0.01353
0.23880 0.19621 0.19977
0.01399 0.20634 -0.27350
0.18026 -0.11533 -0.23345
0.02882 0.20634 0.14481
0.16837 0.19713 0.01532
-0.00274 0.19579 -0.24092
-0.25430 0.19957 -0.20103
0.08426 0.18678 0.22427
0.00662 0.19621 -0.30825
-0.18907 -0.11938 0.23103
0.08192 0.19621 -0.00370
-0.18424 0.14117 -0.22741
-0.19330 0.18300 0.19163
-0.26603 0.20634 0.08794
0.19377 0.14031 0.22228
-0.30265 0.20505 -0.11085
-0.23304 0.19796 -0.02521
0.19426 0.20634 0.24791
0.11073 0.20634 0.10176
0.06852 0.20634 0.10503
0.19617 0.20634 -0.05829
0.08200 0.20634 0.22737
0.05549 0.19621 0.00538
-0.19165 0.17356 0.23103
-0.19330 0.18744 -0.24009
0.09602 0.20634 -0.24065
0.18026 -0.01830 0.22828
0.12949 0.20634 0.04414
-0.18435 -0.13790 0.21752
0.19750 0.20634 -0.21302
0.23096 0.20634 -0.15447
0.19377 0.11019 0.22330
0.08995 0.18824 -0.24092
0.18701 0.19306 -0.12267
-0.12935 0.20634 -0.05495
0.10314 0.20613 0.04655
0.18896 0.20634 -0.00762
-0.05689 0.20604 -0.20899
-0.17979 0.16776 0.22781
-0.27079 0.20109 0.17439
0.19377 -0.19776 0.22646
-0.20065 0.20634 -0.17742
0.04411 0.16294 -0.23417
-0.28412 0.20634 0.14399
-0.10985 0.20634 0.00303
0.06250 0.20634 -0.26452
0.15877 0.19621 -0.00872
0.28012 0.20634 -0.03642
0.02542 0.20634 -0.24293
0.07961 0.20634 -0.17171
-0.18655 0.18877 -0.17449
0.18035 -0.19304 -0.22741
0.03703 0.19621 -0.00876
-0.18060 0.20634 -0.03474
0.17712 0.20634 0.07229
0.27935 0.19621 0.14591
0.24013 0.20634 0.06267
-0.04094 0.16903 -0.24092
0.14287 0.20634 -0.13246
-0.17979 0.09425 -0.23892
0.15369 0.20634 -0.11978
0.07625 0.19703 0.01532
0.19374 -0.10961 0.21752
-0.13332 0.20634 -0.27590
-0.00368 0.20634 -0.22272
-0.18655 0.18747 -0.00056
0.09867 0.19301 -0.23417
-0.19330 0.03997 -0.23102
-0.05855 0.20634 -0.30569
0.23675 0.20634 0.12612
-0.08068 0.20634 -0.00425
-0.06917 0.17413 -0.23417
-0.19330 -0.18923 0.22319
0.24969 0.20275 -0.17064
-0.03082 0.20634 0.21498
-0.18655 0.19106 0.09033
-0.18655 0.18954 0.04463
0.04130 0.20255 -0.30057
0.18701 0.17094 0.10771
0.30571 0.20634 -0.08135
-0.18165 -0.00723 0.23103
-0.18655 0.18885 0.05683
-0.08116 0.19072 0.22427
-0.18217 0.05333 -0.22741
0.30946 0.19621 -0.08201
-0.10130 0.18863 0.23103
-0.20366 0.20634 -0.03149
0.22151 0.20128 -0.20419
-0.16934 0.19621 0.26960
0.00318 0.20602 0.12606
-0.18580 0.11349 -0.22741
0.11214 0.20634 -0.03661
0.06244 0.20634 -0.24159
0.17993 0.20634 0.14293
-0.17979 -0.01895 -0.23603
-0.07127 0.20634 -0.12013
0.23902 0.19621 -0.19508
-0.01665 0.20634 0.03045
0.19377 0.16629 0.00115
0.18701 0.17692 0.12679
-0.16741 0.20634 0.18056
0.03519 0.17581 0.23103
-0.06467 0.20634 -0.01316
0.12334 0.18446 -0.24092
0.19024 -0.04224 -0.24092
0.04994 0.20634 -0.22317
0.23076 0.20634 -0.16339
0.26174 0.20634 0.06389
0.19377 0.02379 0.22709
-0.19044 0.04319 0.21752
0.18971 0.20634 -0.23500
-0.16028 0.20575 0.12625
-0.17111 0.19621 0.00294
-0.19152 0.20056 0.25999
0.00499 0.20634 -0.22897
0.15587 0.20634 -0.08678
-0.30767 0.19621 0.05914
-0.09741 0.20626 -0.20452
0.02491 0.20634 0.02415
-0.10618 0.20634 -0.08661
0.10977 0.20634 0.21005
-0.10282 0.20634 0.00412
0.14964 0.20634 0.07156
0.19293 0.14416 0.21752
0.05055 0.20634 -0.07298
-0.17396 0.16780 0.23103
-0.00059 0.20634 0.07145
-0.31945 0.20634 0.01874
0.28905 0.20634 0.06029
0.04373 0.20634 0.17385
-0.18655 0.18503 0.17566
-0.10030 0.20634 0.26982
0.19377 0.19209 0.19931
-0.18688 0.08989 -0.24092
0.19377 0.17178 0.21360
0.13982 0.19621 -0.01863
0.20539 0.20567 0.11714
-0.19330 0.11517 -0.23719
0.04498 0.20634 0.19074
0.13632 0.20634 0.13714
-0.29519 0.20634 0.02632
-0.22330 0.20634 -0.12246
-0.30560 0.19621 0.07498
0.07448 0.20634 0.02527
0.02346 0.17318 0.23103
0.17780 0.20634 -0.03793
-0.19330 0.06230 -0.22744
0.21685 0.20634 0.20211
-0.04983 0.20634 -0.21814
-0.19330 0.17133 -0.00238
-0.30207 0.20634 -0.08925
-0.10828 0.20634 0.19625
0.21633 0.20634 -0.03322
0.01025 0.20634 0.04872
-0.19330 0.19367 -0.12221
-0.15820 0.20567 -0.08731
0.14521 0.20569 0.13595
-0.29173 0.20634 0.11543
0.19377 -0.08380 0.22285
0.03459 0.19621 -0.01809
-0.19330 -0.18131 0.22804
0.25960 0.20634 -0.00434
-0.09482 0.20634 0.01894
-0.11559 0.20634 0.02150
0.03084 0.20634 -0.30432
0.21651 0.19621 0.23280
0.18026 -0.15284 -0.23675
-0.02642 0.19002 -0.24092
0.11578 0.20634 0.19040
-0.08170 0.20634 0.09500
-0.17019 0.20634 -0.01718
-0.20642 0.20634 0.15918
-0.19330 -0.14015 -0.23560
0.18701 0.17916 0.17587
0.19211 0.09665 0.21752
-0.25715 0.19621 0.16552
0.18701 0.18979 -0.06783
-0.03274 0.19621 -0.30588
0.18701 0.18399 0.13845
-0.28188 0.19621 -0.02406
0.21570 0.20634 -0.14744
-0.03571 0.20634 -0.11852
0.18026 0.16742 0.22275
0.19377 0.16694 0.08368
0.18026 0.05964 -0.22753
0.11432 0.18658 0.22427
0.25851 0.20634 -0.06298
0.10831 0.20634 0.18907
0.18026 -0.13848 0.22138
-0.23068 0.19621 -0.20975
-0.30307 0.19621 -0.09656
-0.29443 0.20243 -0.13393
0.04395 0.20567 -0.21904
-0.05949 0.20634 -0.17825
0.08897 0.20634 0.11840
0.18194 0.08057 -0.24092
-0.18980 0.18158 -0.24092
0.19377 0.19242 0.07483
0.29975 0.20401 0.01532
0.19377 0.16433 -0.12746
0.10175 0.18058 -0.23417
-0.32122 0.20634 0.03874
-0.19286 0.01022 -0.24092
-0.19296 0.00152 0.23103
-0.25809 0.20634 0.11656
-0.11064 0.17608 -0.24092
-0.14725 0.20634 -0.00984
-0.18655 0.19378 0.03610
0.05696 0.20134 0.31711
-0.16831 0.20634 0.13628
0.19763 0.19621 0.24695
0.18265 0.19621 -0.26173
-0.15405 0.19723 -0.28212
-0.12463 0.18636 0.22427
-0.17402 0.19621 -0.01829
-0.06307 0.20634 0.19620
-0.32188 0.20142 0.02667
0.10287 0.20634 0.03816
0.01872 0.20634 0.12614
0.07302 0.19621 0.00027
0.22889 0.20318 0.22578
0.13358 0.16942 -0.24092
-0.07732 0.20567 -0.12579
0.20927 0.20634 -0.12015
0.01515 0.20634 0.08052
-0.17678 0.19621 -0.01151
0.13498 0.20634 -0.10403
0.17303 0.20634 -0.05775
0.06388 0.18506 0.22427
-0.18655 0.17048 0.14095
0.04339 0.20567 0.15788
0.12912 0.19883 0.27281
0.11849 0.20634 -0.11228
0.17055 0.20634 -0.07161
0.11724 0.20634 0.21886
-0.09356 0.20634 -0.16633
-0.18432 0.01300 -0.24092
-0.22685 0.20634 0.20773
-0.21707 0.19621 -0.00464
0.07075 0.20634 0.19666
-0.01955 0.20634 -0.15308
-0.06335 0.20634 0.28803
0.00436 0.20634 0.03689
-0.03663 0.20608 -0.04854
-0.11452 0.20634 -0.04719
-0.00677 0.20634 -0.17988
0.19301 0.08057 -0.24092
-0.19330 0.17602 -0.18743
-0.00440 0.20634 0.29351
0.28952 0.20634 0.13229
-0.04323 0.20634 -0.10416
-0.19258 0.16244 -0.13269
-0.11030 0.19621 -0.29817
0.00774 0.20336 -0.01607
-0.00821 0.20625 0.01599
-0.07655 0.16244 -0.23711
-0.06480 0.20634 -0.23969
0.20953 0.20634 0.21093
-0.19291 0.20634 0.16412
-0.26266 0.20634 -0.11460
-0.17979 0.12550 0.22643
-0.19330 0.16282 -0.16241
0.14592 0.20295 -0.02521
-0.01376 0.20634 0.05741
-0.30852 0.19621 0.06993
-0.17979 0.17892 -0.22827
-0.17979 0.05631 0.22201
-0.21828 0.20634 0.11544
-0.19330 0.18134 0.11513
0.27737 0.19976 0.12298
0.22941 0.20634 -0.09764
-0.31907 0.19885 0.04916
-0.04027 0.20634 0.06803
0.18644 0.18676 0.21752
-0.20411 0.20214 0.25124
0.00178 0.20634 -0.20622
0.19377 0.12141 0.22359
0.03857 0.16551 0.23103
-0.19426 0.19621 0.24848
-0.03723 0.19621 -0.30188
-0.19465 0.20634 0.08507
0.19377 -0.17769 -0.23610
-0.26482 0.20634 0.01774
-0.22528 0.20634 0.06934
-0.14959 0.18296 0.22427
0.27613 0.20634 -0.11052
0.17519 0.20634 -0.02069
-0.07264 0.20634 0.00949
-0.06635 0.20634 0.01604
0.19377 0.09804 -0.23504
0.11631 0.20634 -0.04400
0.19377 0.18520 -0.24056
0.06646 0.20634 0.23864
0.13589 0.20634 -0.23641
-0.18206 -0.18531 0.21752
0.20746 0.20411 0.21834
0.03813 0.20087 0.32185
-0.17979 -0.04730 -0.23161
0.06721 0.20634 -0.12285
-0.18006 0.20634 -0.06488
0.16498 0.20634 0.00598
-0.22871 0.20634 -0.02742
0.18026 0.18824 -0.23792
-0.19330 0.13021 0.21983
0.11876 0.20634 -0.10130
0.32139 0.20458 0.00490
0.18377 -0.08422 0.21752
-0.06719 0.20634 0.24715
0.12320 0.20634 0.02140
-0.30513 0.20634 0.00536
0.18794 0.19621 0.00780
-0.23472 0.19621 0.00265
-0.01080 0.20634 0.19704
0.18026 0.01299 -0.23595
0.28075 0.20634 0.04409
0.07905 0.20634 -0.18141
0.02926 0.20634 -0.26551
-0.08326 0.16265 0.23103
0.08133 0.19621 0.30003
0.19377 0.07819 0.22537
-0.21645 0.20634 0.13880
-0.04668 0.20634 -0.05916
0.27144 0.20634 -0.13415
0.01225 0.20634 -0.25446
0.16665 0.16504 0.22427
-0.05910 0.20063 -0.29568
-0.19330 0.06363 0.22143
-0.01942 0.20634 -0.09954
0.18349 -0.02395 -0.22741
-0.25289 0.20634 -0.04480
-0.17979 -0.16525 0.22962
-0.02346 0.20634 0.02939
0.10905 0.20013 -0.30316
-0.05860 0.20567 0.26308
-0.01236 0.20634 0.21162
0.22204 0.20634 -0.20047
-0.10858 0.19621 -0.00131
-0.19081 0.16244 -0.01963
-0.09232 0.19621 0.01034
0.19377 0.18558 -0.13913
-0.08848 0.18787 -0.23417
0.28083 0.20634 0.13702
-0.29879 0.19621 0.07372
0.29947 0.19621 0.00267
0.20096 0.20520 -0.22538
-0.18655 0.18691 0.15666
-0.17979 0.06032 -0.23618
-0.14910 0.17052 0.22427
-0.01237 0.20634 -0.22388
-0.21971 0.20586 0.14914
-0.05127 0.20634 -0.19547
0.18970 -0.04110 0.23103
-0.19059 -0.16527 -0.22741
0.18511 0.20567 -0.02974
0.00808 0.20634 -0.06321
0.10112 0.20634 0.10819
0.07814 0.20634 0.25428
0.08085 0.20634 0.07032
0.00225 0.20567 0.03001
0.24405 0.20634 0.18147
-0.04144 0.20634 0.08484
-0.17367 0.17485 0.23103
0.18103 0.20634 -0.23276
-0.12990 0.20634 -0.07601
0.19377 0.18812 0.07146
-0.02216 0.20634 -0.19693
0.18875 -0.05788 -0.22741
-0.28788 0.20634 0.07275
0.00824 0.16244 0.23072
-0.02819 0.20634 0.25816
0.18701 0.18033 -0.14520
0.13558 0.20634 0.06695
0.18590 0.20567 -0.11506
-0.30601 0.19621 -0.03487
0.19189 -0.10391 -0.24092
-0.30113 0.20634 -0.04349
-0.26953 0.20634 0.12773
0.02789 0.20208 0.30163
-0.04226 0.20634 -0.17022
-0.14069 0.19702 0.26678
-0.23972 0.20567 -0.10865
0.18810 0.20634 -0.20272
0.05199 0.20634 -0.11527
-0.11971 0.20567 0.18866
-0.18610 0.11632 -0.24092
0.04485 0.20634 -0.03528
0.16608 0.20567 -0.24896
-0.18655 0.16645 -0.11862
-0.29683 0.20634 0.03596
-0.01679 0.20567 -0.29698
-0.12345 0.20634 0.13515
-0.22419 0.20215 -0.23034
0.10917 0.20634 0.26529
-0.08081 0.20634 -0.16906
-0.11424 0.18516 -0.24092
0.10465 0.17415 -0.23417
-0.18655 0.17610 -0.17683
-0.02015 0.19092 -0.24092
-0.18798 0.03350 0.21752
-0.06218 0.20634 -0.26898
-0.17979 0.05246 -0.23940
0.14847 0.20422 -0.28573
0.18813 -0.05270 -0.22741
0.12456 0.20567 0.21979
-0.17979 -0.08785 0.22225
0.19992 0.20634 0.08288
0.06427 0.20567 -0.19602
-0.17599 0.20357 -0.26990
-0.12114 0.20634 0.21227
-0.23119 0.20319 0.19420
0.18701 0.18388 0.03883
-0.05051 0.20634 -0.13437
0.12539 0.20634 0.03763
-0.16876 0.20490 0.24999
0.03096 0.20634 0.09521
-0.09057 0.20634 0.15373
-0.30061 0.20303 -0.03881
0.05796 0.20634 0.00109
-0.09018 0.16744 -0.24092
0.18702 0.16244 0.13828
-0.32104 0.20058 -0.02798
-0.09361 0.20634 0.24929
0.00297 0.19621 0.31118
0.07750 0.18291 -0.23417
0.18026 0.11478 -0.22977
0.07635 0.20634 -0.26161
-0.08784 0.20634 -0.07020
0.18653 -0.20170 0.23103
-0.08726 0.19322 -0.24092
-0.09949 0.20589 0.17381
-0.09497 0.20634 -0.12233
-0.18938 0.20634 0.07083
-0.17979 -0.04060 -0.22831
0.18926 0.16244 -0.16440
-0.19330 0.17035 -0.15861
-0.09002 0.20634 0.24003
-0.19097 0.16244 0.11477
0.19495 0.20580 0.25869
-0.18655 0.19068 0.01225
0.18701 0.16418 -0.01284
0.30002 0.19621 0.08683
0.28973 0.20560 -0.08275
0.12833 0.20634 0.28950
0.05409 0.20634 -0.07666
-0.12281 0.20634 0.12296
0.09060 0.20634 0.23459
-0.04619 0.20634 0.27791
0.13938 0.16456 0.22427
0.04576 0.19621 -0.01267
0.19636 0.20634 0.14941
-0.14046 0.20634 0.00843
-0.16603 0.20634 -0.06757
-0.27039 0.20500 -0.17413
0.01217 0.20634 0.01743
-0.19748 0.20634 -0.00210
0.20048 0.20634 0.25299
0.22682 0.20110 0.19956
-0.00713 0.20634 0.27772
0.00729 0.20634 -0.20863
0.19377 0.18179 -0.08339
0.18490 0.20567 0.11198
-0.28259 0.20634 0.00488
-0.02508 0.20634 -0.12581
-0.17979 0.07728 -0.23209
0.23262 0.19912 0.01532
-0.16655 0.20634 -0.16982
-0.18200 0.20634 -0.02515
0.19632 0.19755 0.25736
0.04964 0.20634 -0.06175
0.11827 0.20634 0.22759
-0.19308 0.16244 0.04188
-0.00163 0.17680 0.23103
0.17834 0.20634 0.24252
0.05612 0.20634 -0.01127
0.11803 0.19621 0.27981
0.30500 0.19621 -0.10057
0.18026 -0.19857 -0.23968
-0.18797 -0.03898 -0.24092
-0.20905 0.20634 0.23494
-0.06178 0.20634 0.13850
-0.29999 0.20634 0.10816
-0.19176 0.11688 -0.22741
-0.11345 0.20634 0.25405
0.18701 0.16258 0.03643
-0.23717 0.20634 -0.16497
-0.29161 0.20144 -0.02521
0.00814 0.20246 -0.32134
-0.16438 0.19276 -0.24092
-0.01084 0.20634 0.09849
0.03538 0.20634 -0.22341
0.05156 0.20634 0.07953
-0.26554 0.20634 -0.08890
0.18602 0.07825 0.21752
-0.21869 0.20634 -0.00612
-0.03885 0.20634 -0.11392
0.02279 0.20567 -0.19617
0.21769 0.20634 0.22556
-0.19330 0.18381 -0.09047
0.18026 0.02802 0.22303
0.23737 0.20634 0.14037
-0.27073 0.19621 0.16360
0.20620 0.20634 0.18545
-0.29086 0.20634 -0.11101
-0.23187 0.20634 0.04371
0.18701 0.17112 -0.04940
0.31945 0.20555 -0.04768
0.17380 0.19621 0.26987
-0.15750 0.20634 -0.26765
0.10487 0.20567 -0.16287
-0.17786 0.20634 -0.21659
0.18026 -0.02690 0.22884
-0.18927 0.16244 0.05543
-0.25967 0.19925 -0.15258
0.30044 0.20634 -0.04890
0.23988 0.20634 -0.08689
0.14366 0.20592 0.22096
0.29729 0.19621 -0.08094
-0.21369 0.20567 0.21169
0.17608 0.20634 0.19435
0.18701 0.19041 -0.01593
-0.15028 0.20384 -0.02521
-0.14938 0.20634 0.10969
0.02420 0.20634 0.20287
0.23525 0.20634 0.06598
-0.18655 0.19220 -0.22154
0.21363 0.19948 0.21235
-0.12450 0.16876 -0.24092
-0.29289 0.20634 -0.00574
-0.18188 0.20634 -0.08701
0.19377 0.19604 -0.11516
0.19292 0.04622 -0.24092
-0.29711 0.20634 0.00104
0.06397 0.20592 0.12099
-0.27511 0.20634 0.15705
0.28070 0.20146 -0.15660
-0.24120 0.19621 -0.00408
-0.05315 0.17543 0.23103
0.19377 0.17121 0.01478
-0.25514 0.20634 -0.01242
0.16493 0.20567 -0.20455
0.28825 0.20634 -0.04910
-0.02493 0.20634 -0.07925
-0.03984 0.20634 0.10682
-0.17979 0.00041 -0.23382
0.18701 0.16637 -0.11811
0.13615 0.19621 0.01475
-0.07788 0.20567 -0.21282
-0.17979 -0.13138 0.22487
0.24043 0.19969 -0.18468
-0.15803 0.20111 0.01532
-0.05934 0.20634 -0.06421
0.14671 0.20634 0.26762
0.18292 0.09916 -0.24092
0.29508 0.20634 0.09515
0.19895 0.20634 -0.10496
0.14954 0.20634 -0.01206
0.09234 0.17308 -0.24092
0.05377 0.20634 -0.15304
0.00210 0.16749 0.23103
-0.24714 0.19621 -0.01237
0.02450 0.20634 0.08912
-0.04308 0.17872 -0.24092
0.18496 0.04386 -0.22741
-0.04919 0.20634 -0.28083
-0.14128 0.20634 -0.20017
0.21268 0.20634 0.15351
0.21745 0.20102 -0.23748
0.01844 0.19621 0.00157
0.07171 0.20634 0.24470
-0.06325 0.19675 0.31619
-0.16827 0.20634 -0.07644
-0.19330 0.16476 -0.00547
0.09292 0.20634 -0.07568
0.24807 0.20634 0.10998
0.18701 0.16872 -0.09739
-0.09315 0.19687 -0.02521
-0.26204 0.19621 -0.17963
0.26513 0.20634 -0.02338
-0.16669 0.20634 -0.22122
-0.20977 0.19621 0.23713
0.06793 0.20634 0.01006
0.18596 0.16559 0.23103
0.24487 0.20567 0.04110
-0.11943 0.20634 -0.02688
-0.01708 0.20586 0.24569
-0.18655 0.17603 0.09042
0.18701 0.16454 -0.14582
-0.11715 0.20634 0.20669
-0.00125 0.20634 0.04930
0.09137 0.17895 0.22427
-0.19330 0.19078 -0.13805
-0.10464 0.19292 0.23103
-0.18655 0.16690 -0.02624
0.18092 0.18105 0.23103
0.07874 0.20634 -0.02184
-0.14366 0.19621 -0.26933
0.18026 -0.17085 -0.23628
-0.18655 0.16954 0.07905
0.04880 0.17421 -0.23417
0.19377 0.18783 0.17101
0.09762 0.16527 -0.24092
-0.12297 0.20634 0.06521
0.02270 0.20567 0.04856
-0.18301 0.20488 0.01532
-0.03799 0.20567 0.19972
0.18026 0.01986 0.23023
-0.06959 0.19621 0.29734
-0.07328 0.19383 0.23103
0.08122 0.20567 -0.28953
0.27403 0.20248 0.16804
-0.19330 -0.19311 -0.23215
0.06769 0.20634 0.08129
-0.09395 0.19513 -0.24092
-0.13715 0.20634 0.13085
0.05631 0.20634 -0.27904
0.16609 0.20612 -0.03434
-0.19945 0.20590 0.10855
-0.16739 0.20634 -0.08592
0.29771 0.20634 -0.12102
-0.08157 0.18240 -0.23417
-0.04012 0.20634 -0.23802
-0.18027 0.20567 0.22878
0.19377 0.16518 0.22911
0.18026 0.16012 0.22045
0.08366 0.20634 0.00632
-0.29100 0.20264 0.13811
-0.18282 -0.15677 0.23103
-0.15326 0.20634 0.03369
0.16145 0.20634 0.18899
-0.03365 0.20634 0.03075
-0.04270 0.19993 0.30055
0.06478 0.20627 -0.05776
-0.14062 0.19621 0.28855
0.09183 0.17802 0.23103
-0.18097 0.20634 -0.24802
-0.27931 0.19621 0.15125
-0.05801 0.20567 0.13170
-0.05970 0.20634 -0.20100
-0.19330 0.19389 -0.08736
0.19377 0.17323 -0.05145
0.20717 0.20634 0.02755
-0.14492 0.20634 0.19926
0.09974 0.20634 -0.19633
-0.14574 0.16244 -0.24077
-0.30478 0.20634 0.04415
0.18786 0.20634 -0.10900
-0.10244 0.20634 -0.15388
0.19377 0.17183 0.09581
0.10082 0.20634 0.09727
-0.04801 0.20634 -0.03791
-0.18662 0.20634 0.18559
-0.18215 0.20634 0.00235
-0.30371 0.20634 0.03052
0.29075 0.19621 0.09566
-0.19330 0.17337 0.19782
0.06478 0.20585 -0.22891
0.10921 0.19068 -0.24092
0.10284 0.20634 -0.27125
-0.21930 0.20567 -0.17642
0.18415 0.20567 0.20407
-0.20062 0.20567 0.13968
-0.08769 0.19774 -0.30939
-0.17214 0.20634 -0.14396
-0.19330 -0.00007 0.22578
-0.31034 0.20265 0.08388
-0.30469 0.19942 0.10637
-0.11632 0.20634 -0.20091
0.06172 0.20634 0.03865
-0.13019 0.20634 -0.25678
-0.26645 0.20634 0.13542
-0.18655 0.16331 0.11860
0.19115 0.00736 0.23103
0.12670 0.19303 -0.23417
-0.19096 0.16244 -0.17103
-0.17979 -0.00251 -0.24064
0.19377 0.05960 0.22065
-0.05204 0.20634 -0.26323
0.09835 0.20634 0.12530
-0.13321 0.19621 0.00779
0.18701 0.16819 -0.04302
-0.18535 0.20031 -0.02521
-0.06548 0.20634 -0.29737
-0.09925 0.20567 0.14403
0.18591 0.03037 -0.24092
-0.02723 0.20634 0.23675
-0.13270 0.20634 -0.15661
-0.27159 0.20634 -0.15668
0.27402 0.20634 0.08884
-0.12535 0.19621 0.01312
0.21278 0.19819 -0.24230
-0.22751 0.19621 -0.01111
-0.31251 0.20634 0.03871
-0.11591 0.19621 -0.00760
0.30899 0.20634 0.07848
0.30961 0.19621 -0.00125
0.04648 0.20634 -0.01405
0.04806 0.16244 0.22675
0.15546 0.20634 0.25109
-0.18739 0.19621 -0.26247
0.18738 0.16244 -0.07046
0.19268 0.16244 -0.05112
-0.18655 0.17205 0.20171
-0.04828 0.20634 0.05456
0.09126 0.20634 0.29506
0.19125 0.02386 -0.22741
-0.17089 0.16244 0.22683
0.25670 0.19621 0.15988
0.18701 0.17822 -0.19863
-0.27802 0.20634 0.09530
0.23117 0.20634 0.21365
-0.13484 0.20634 0.16828
-0.23568 0.20634 0.09074
-0.27177 0.19621 -0.15710
-0.06505 0.20634 0.03017
-0.15899 0.20567 -0.12429
0.23232 0.20634 -0.17378
-0.04305 0.19621 0.31831
0.15267 0.19561 0.22427
0.12405 0.19329 0.23103
0.05684 0.20634 0.11413
-0.05422 0.20634 0.30684
0.05253 0.19621 -0.00612
0.19377 0.19107 -0.15241
0.02606 0.20634 0.24291
0.03595 0.20634 -0.12960
0.08250 0.20634 -0.20777
0.13506 0.20634 -0.19051
-0.05980 0.20634 0.07174
-0.17460 0.20634 0.23883
-0.19310 0.15206 0.21752
0.18407 0.18272 -0.24092
0.18204 0.11936 -0.24092
-0.02602 0.20634 0.19072
0.19377 0.18720 0.01669
-0.19330 -0.17204 -0.23742
-0.13913 0.20567 -0.04189
0.19712 0.20030 0.22836
0.19377 0.19518 -0.04788
0.00818 0.20634 0.10074
-0.19330 0.17035 0.15593
0.25993 0.20634 -0.08629
0.09890 0.20634 -0.30410
0.19377 -0.02257 -0.23239
-0.13791 0.20634 -0.08651
0.19377 0.17462 0.14234
0.12635 0.20634 -0.00048
-0.27753 0.19927 -0.12271
-0.11443 0.19621 -0.02090
-0.06613 0.20526 0.31537
0.07960 0.20634 -0.29501
0.14144 0.19621 0.27557
0.18239 -0.05660 0.21752
-0.19330 0.18109 -0.05963
-0.18279 0.15845 -0.24092
-0.00288 0.19982 -0.01805
0.16224 0.16244 -0.23770
-0.31112 0.19621 0.00867
0.20352 0.20634 -0.16452
0.12096 0.20634 -0.29812
0.20217 0.20634 0.14006
0.20183 0.19621 -0.23057
-0.00563 0.16244 0.22945
-0.22577 0.19621 0.22692
-0.08964 0.16970 0.22427
-0.18655 0.18479 -0.07138
0.10252 0.20634 0.24114
0.06844 0.20634 0.30275
-0.03211 0.20634 -0.21964
0.14978 0.20634 0.18457
-0.08577 0.20634 -0.08018
0.17833 0.20634 -0.09285
0.11273 0.17708 -0.23417
-0.00772 0.20634 -0.13753
-0.01925 0.20634 -0.10545
-0.02974 0.20634 0.24876
-0.14877 0.20634 0.13141
0.30068 0.19723 0.03380
0.17859 0.20634 -0.01412
-0.10295 0.20634 0.02502
0.19377 0.12215 0.22848
-0.17979 -0.18443 0.22338
0.27780 0.20634 0.15684
0.21373 0.20634 -0.18572
-0.08918 0.20634 0.04942
0.26824 0.19621 0.15471
0.19377 0.16968 -0.11285
0.19191 -0.17002 0.21752
0.19377 0.18862 -0.00111
-0.17979 -0.14843 0.22825
0.19377 0.16556 0.02760
-0.18655 0.16794 0.03522
-0.12938 0.19352 -0.24092
-0.27993 0.20634 0.06865
0.00314 0.20634 -0.30986
0.09665 0.20634 -0.09074
0.19060 0.20634 -0.13619
0.18850 0.11157 -0.24092
0.24758 0.20634 0.15319
0.11732 0.20634 -0.13976
-0.15408 0.20634 -0.17717
0.30057 0.19858 0.04126
0.28309 0.20567 0.10160
-0.14241 0.16244 0.22737
0.02878 0.20634 -0.05634
0.03383 0.20634 -0.15069
-0.12603 0.20634 0.01395
0.23112 0.19621 -0.00742
0.10493 0.20567 -0.17075
-0.00969 0.20634 -0.26411
-0.05394 0.20634 -0.31492
0.26148 0.19621 0.00686
0.05849 0.20634 0.31380
0.30456 0.20634 -0.01453
0.07020 0.20634 -0.03447
0.27284 0.19621 -0.00872
-0.18655 0.19386 0.06245
-0.10961 0.17193 0.23103
0.18344 0.20634 0.18787
-0.09054 0.20634 0.02903
-0.16594 0.19621 -0.26450
-0.05295 0.20634 0.12137
0.09258 0.16244 0.22976
-0.29074 0.19621 -0.12924
0.13456 0.16657 0.23103
0.03122 0.20634 -0.17938
0.01623 0.20634 -0.24401
0.10559 0.20634 -0.10175
-0.04015 0.20634 0.30931
-0.18150 0.18709 -0.24092
0.11675 0.19621 0.00692
0.08745 0.20634 -0.23073
0.00458 0.20634 0.20877
0.03353 0.18695 0.22427
0.19377 -0.13628 0.22464
0.16386 0.20567 0.11074
-0.24133 0.20633 0.08078
0.00312 0.19621 0.32088
-0.18655 0.18385 0.19978
-0.28032 0.20499 0.11564
0.28700 0.19648 0.14635
-0.21575 0.20634 0.08801
-0.18184 0.20634 -0.04158
-0.27550 0.19621 0.15554
-0.16063 0.20045 0.27846
-0.18655 0.18782 0.07189
0.29524 0.20634 -0.09997
0.09603 0.20634 -0.27766
0.18461 -0.09519 0.23103
0.16627 0.20276 -0.27509
0.18971 0.16244 0.14466
-0.18976 0.05816 -0.22741
-0.19330 -0.19869 0.23021
0.25585 0.19621 0.19664
-0.18764 0.11785 0.21752
-0.18655 0.19130 0.10671
-0.13794 0.20603 -0.15332
-0.19971 0.20634 -0.00919
0.15477 0.20634 -0.00539
-0.28101 0.20634 -0.05211
-0.18619 -0.06737 0.23103
0.27121 0.20634 0.08047
0.17522 0.18735 0.22427
0.18026 0.18517 -0.23214
0.15878 0.18525 -0.23417
-0.17979 -0.05172 -0.22883
-0.10847 0.20634 -0.15124
0.09503 0.20634 -0.14070
0.16709 0.20634 -0.22183
0.02164 0.20634 0.20739
-0.13079 0.20075 -0.02521
-0.03463 0.20634 -0.16931
-0.06737 0.20634 0.12739
0.07914 0.20612 0.01599
0.11301 0.20634 -0.12930
0.01338 0.20634 0.27457
-0.18488 -0.06855 -0.22741
-0.18655 0.16911 -0.09220
-0.01502 0.20634 0.16014
0.18967 0.20634 -0.12428
-0.16577 0.17041 0.22427
-0.20251 0.19910 0.01532
0.18549 0.20567 -0.14820
0.18701 0.16980 0.02830
0.15328 0.19621 0.26287
0.00360 0.19621 -0.02485
0.04853 0.20634 0.17819
-0.25920 0.20634 0.08241
0.05689 0.20634 0.12739
0.04923 0.20567 0.29797
0.14070 0.19621 0.00285
-0.01559 0.19621 0.30973
0.18567 -0.09112 -0.22741
-0.11001 0.20634 0.16942
-0.07395 0.20634 0.14103
-0.18145 0.19621 0.01009
0.04854 0.20634 -0.30689
-0.08021 0.20634 0.02743
-0.08196 0.20634 -0.11958
0.18741 -0.00958 -0.24092
-0.19422 0.20161 -0.25940
0.18584 0.20634 -0.01837
-0.32043 0.19621 -0.04048
-0.18749 0.02036 0.21752
0.00283 0.20567 -0.07080
0.16841 0.20634 0.10825
-0.18033 0.06287 0.21752
-0.09254 0.20634 0.21508
0.10591 0.16244 -0.23998
0.02363 0.20634 0.06639
-0.25710 0.20634 0.13634
-0.12055 0.19455 0.23103
-0.07274 0.17823 0.22427
-0.19330 -0.07184 0.22661
-0.26736 0.19621 -0.15411
-0.22529 0.19621 0.21040
0.26133 0.19621 -0.15918
0.05076 0.20634 -0.20648
0.18701 0.18112 -0.01453
-0.17979 -0.13433 -0.23729
0.15232 0.20634 0.23842
-0.19330 0.16539 0.22781
-0.28744 0.19621 -0.00447
-0.29402 0.20634 -0.05289
-0.15056 0.19621 0.27200
-0.18811 0.20634 0.21873
0.19774 0.19621 -0.01420
0.19195 -0.07662 0.23103
-0.19243 0.20634 -0.22202
0.22672 0.20634 0.19092
-0.09830 0.20567 -0.22735
-0.01699 0.20634 0.16510
0.05793 0.19621 -0.00680
-0.16790 0.19621 0.25872
0.21497 0.20634 0.08260
-0.08483 0.20409 0.01532
0.00181 0.19721 0.30123
0.12430 0.20567 -0.13780
-0.19330 0.16539 0.17173
-0.11371 0.20634 -0.15923
0.18148 -0.05955 0.23103
-0.14744 0.18279 0.23103
0.02209 0.20612 0.16331
-0.03294 0.20634 0.13181
0.01113 0.20634 0.13848
0.05015 0.20634 -0.14280
-0.18217 0.13055 0.23103
0.11301 0.19673 0.28179
-0.13018 0.17825 0.22427
-0.07816 0.19621 0.29434
-0.19330 0.19362 0.09776
-0.11782 0.20634 0.22086
-0.19104 0.19621 0.22081
-0.09489 0.20634 0.30124
0.10357 0.20621 -0.26361
-0.07867 0.20567 -0.03633
0.18701 0.18327 -0.00271
-0.20892 0.20634 0.04511
0.20047 0.20634 -0.19494
-0.31462 0.19621 -0.02364
-0.08260 0.20634 0.27629
-0.19330 0.18454 -0.09721
-0.19136 -0.20634 0.22066
-0.02025 0.20634 0.05604
-0.18293 0.19621 0.22676
0.14829 0.18479 -0.23417
-0.00903 0.20634 0.01029
-0.25471 0.20634 0.02901
0.19377 0.16252 -0.01441
0.25127 0.19621 -0.00296
-0.06119 0.19621 -0.29777
-0.06462 0.16712 -0.24092
-0.22266 0.20634 0.21155
-0.19330 0.16785 -0.21584
-0.18352 -0.02980 -0.22741
-0.27004 0.20634 0.07795
0.04034 0.20634 -0.15632
-0.15017 0.20634 0.17912
0.16669 0.20634 -0.23812
-0.28443 0.20634 -0.12965
-0.24055 0.20567 0.02286
0.22375 0.20634 -0.11404
-0.18004 -0.06829 -0.24092
-0.14868 0.20634 0.27974
-0.00394 0.20634 0.10806
0.18789 -0.04771 -0.24092
0.02528 0.18977 0.22427
0.05452 0.20634 -0.18604
-0.05445 0.20634 0.06247
0.25389 0.20634 0.12408
-0.18343 0.07262 0.21752
-0.01287 0.20634 0.08132
-0.12594 0.16244 -0.23803
-0.01569 0.20634 -0.04961
0.18026 -0.00617 -0.24006
-0.03879 0.16545 0.22427
0.00827 0.17409 -0.24092
0.18701 0.18402 0.11811
0.20442 0.20147 0.01532
-0.23009 0.20634 -0.13963
-0.18734 0.19621 -0.25458
-0.18655 0.19573 -0.20877
0.13722 0.20634 0.08956
0.21887 0.20619 0.20727
-0.18800 -0.11281 0.23103
-0.09538 0.20634 -0.27556
-0.00000 0.20634 -0.26233
0.19377 0.18619 0.12510
-0.21351 0.20634 -0.00266
0.07859 0.20634 0.20047
-0.08060 0.19621 0.31048
-0.04210 0.17945 0.23103
0.19377 0.18938 -0.11780
0.18465 0.11632 0.21752
0.29445 0.19621 0.08337
0.18475 -0.12012 0.23103
-0.02895 0.20634 -0.24859
-0.03222 0.20634 -0.16329
-0.25257 0.20634 0.18711
0.28121 0.20616 0.11216
0.00170 0.20530 -0.02521
0.28312 0.20028 -0.10903
0.25661 0.20634 0.08040
0.17778 0.20634 -0.05012
0.18344 0.20634 -0.05703
-0.19330 0.17256 0.00264
-0.12867 0.18587 0.23103
-0.18882 -0.04050 -0.22741
-0.16326 0.20634 0.04811
0.05033 0.17189 0.22427
-0.14916 0.20634 0.08000
0.18026 0.06622 0.22302
-0.17979 -0.03936 -0.23419
-0.17979 0.12114 -0.23530
-0.11140 0.20634 0.01780
-0.18655 0.16891 0.02862
-0.00690 0.20632 0.32136
-0.12027 0.16244 0.22510
0.14175 0.18036 -0.24092
-0.19330 -0.04656 0.22026
-0.08719 0.20634 0.04306
-0.10299 0.20634 -0.26431
-0.02063 0.17652 0.22427
0.14335 0.20634 -0.26783
0.07534 0.17549 0.22427
0.11704 0.20634 -0.18921
-0.18089 0.15455 0.23103
0.18802 -0.20119 0.21752
0.19939 0.19621 0.01187
-0.09990 0.16384 -0.24092
-0.19330 0.18115 0.13529
-0.01402 0.20634 -0.17996
0.07841 0.20634 0.31149
0.17584 0.20634 0.00952
0.01252 0.20634 0.03039
0.19377 0.16620 0.15531
-0.25775 0.20634 -0.14920
0.06196 0.17423 -0.24092
-0.19330 0.18412 -0.06577
0.01962 0.20634 -0.09771
-0.03627 0.20634 0.27037
-0.19330 0.19067 0.08595
0.31639 0.19868 0.06254
0.15610 0.20634 0.11292
0.18730 0.18663 0.23103
-0.30433 0.19621 0.09025
-0.07841 0.20634 0.29188
-0.01614 0.19621 -0.01445
-0.01723 0.20567 0.13334
0.17053 0.19776 -0.02521
0.30530 0.20089 -0.10393
-0.23264 0.20634 0.15056
0.31833 0.19621 0.03899
-0.29019 0.20634 0.05860
-0.05775 0.20567 -0.14905
-0.29808 0.19621 -0.07698
0.02019 0.20634 0.07480
-0.31600 0.19621 0.02830
-0.16906 0.16914 -0.24092
-0.19255 -0.19185 0.23103
-0.26159 0.20584 0.04145
-0.11427 0.16244 0.22971
0.04232 0.17918 0.22427
-0.17979 0.01624 0.23049
0.30646 0.19621 -0.03948
0.05815 0.20634 0.21669
-0.18884 0.16244 0.18382
-0.31624 0.19621 -0.06069
0.23527 0.19621 0.19346
0.22853 0.20634 -0.10271
-0.26529 0.19621 -0.01235
-0.00194 0.19621 -0.30744
0.18641 -0.06737 -0.24092
0.04166 0.17453 0.23103
-0.11768 0.20586 -0.12434
-0.19330 0.17855 -0.08795
0.18819 0.16244 -0.05903
-0.19330 0.19588 -0.13048
0.00843 0.19621 -0.31887
-0.05917 0.16773 0.23103
-0.05410 0.16877 -0.24092
0.15221 0.20565 0.25996
-0.29964 0.20634 -0.02293
-0.00161 0.20634 -0.16520
0.06639 0.19621 0.00246
-0.30688 0.20634 -0.01637
0.11010 0.20634 -0.14496
0.07248 0.20634 0.13754
0.00608 0.20634 0.08997
-0.04804 0.20634 -0.14154
0.27364 0.20634 0.10700
0.06206 0.16649 0.23103
-0.19658 0.20634 0.11381
0.14810 0.20634 -0.24603
-0.06629 0.19621 0.00102
-0.09992 0.20634 0.18621
0.19362 -0.19441 -0.24092
-0.03107 0.16269 -0.24092
-0.19330 0.02279 0.21826
-0.21552 0.20634 -0.11349
0.13662 0.20634 0.10382
-0.30523 0.20634 -0.00936
0.14317 0.19621 0.00973
-0.06087 0.20634 0.16673
0.18701 0.19405 0.01706
-0.19330 0.19194 -0.09863
-0.18655 0.16536 -0.13025
-0.10846 0.18891 -0.23417
0.13826 0.16828 -0.23417
0.30103 0.20634 -0.10997
-0.11528 0.20634 -0.02297
0.19377 0.17521 -0.20768
-0.29340 0.20340 0.06817
0.16127 0.20186 0.01532
-0.00978 0.20634 0.14435
-0.19330 -0.18445 0.22076
-0.15148 0.17837 0.23103
0.21223 0.19750 -0.02521
-0.05896 0.20577 0.14468
0.18245 -0.07581 -0.22741
0.04680 0.18322 0.23103
0.25862 0.20634 -0.11829
0.18701 0.17698 0.08726
-0.23127 0.20634 -0.11079
0.28334 0.20634 0.01015
0.14292 0.16618 -0.23417
0.19196 0.19621 -0.01117
0.18172 -0.16283 -0.22741
-0.19330 -0.05739 -0.23381
-0.09482 0.19277 0.22427
0.04313 0.20567 0.11111
-0.00241 0.20634 -0.12464
0.24542 0.20630 -0.16763
0.28195 0.20330 -0.02521
0.01294 0.20634 0.08760
-0.23784 0.20634 0.11737
0.25104 0.20634 -0.15239
0.19377 0.18728 -0.09626
0.09904 0.20634 0.15110
0.03445 0.20634 0.00011
-0.05099 0.20634 0.21844
-0.02298 0.20634 0.00917
0.22936 0.20634 -0.20244
0.19377 -0.09708 -0.23343
-0.04372 0.20634 -0.03159
-0.21537 0.19621 -0.21631
-0.10376 0.19621 0.28540
0.08504 0.20634 -0.19574
0.10663 0.20634 -0.02299
-0.05607 0.17830 0.22427
0.19377 -0.02704 0.22785
0.30955 0.20634 0.06660
0.19377 -0.10885 -0.23929
-0.10533 0.19621 0.29560
0.15644 0.20634 -0.07051
0.27237 0.19621 0.13756
0.10394 0.20567 0.12035
-0.09092 0.20634 0.09771
-0.18295 0.06460 0.23103
-0.24292 0.20634 -0.18165
-0.17499 0.20634 0.02838
-0.27772 0.20634 -0.11541
0.18701 0.17365 -0.05672
0.16391 0.20567 0.14425
0.26311 0.19621 -0.00745
0.18712 0.11249 0.23103
0.19272 0.11008 -0.22741
0.26359 0.19621 -0.17341
0.01263 0.20634 -0.20205
-0.26430 0.19905 -0.02521
0.18701 0.19565 0.16820
-0.18566 0.20634 -0.10695
0.02679 0.18388 -0.23417
0.19170 0.16244 -0.22371
0.19064 0.19621 -0.24145
0.04509 0.20634 0.00886
0.27529 0.20171 -0.12467
0.19377 0.15022 -0.23491
0.16491 0.20567 0.07923
0.19376 0.19740 -0.25865
0.26139 0.20626 0.14801
-0.15166 0.19621 0.00482
-0.17374 0.20634 -0.18313
-0.08345 0.20634 -0.20831
-0.08010 0.20634 -0.26734
-0.18655 0.16725 0.16606
-0.18033 0.20567 0.18168
0.08332 0.20613 -0.06098
0.19266 -0.11059 0.23103
-0.29336 0.19621 0.12042
-0.22287 0.20634 -0.14371
-0.18389 0.14951 -0.24092
0.31564 0.20634 0.01775
0.14662 0.20634 -0.09347
-0.07237 0.20634 -0.08659
0.19285 -0.04888 0.23103
-0.11198 0.20634 0.05554
-0.07668 0.20133 0.31237
0.18026 0.17649 -0.23483
-0.10327 0.20634 0.06893
0.19377 0.17994 0.16409
0.08042 0.20634 -0.21716
0.19003 -0.01878 -0.24092
-0.01902 0.20634 -0.01338
-0.07338 0.20634 0.03331
0.04838 0.20634 -0.18777
0.23647 0.19621 -0.20666
-0.09466 0.19621 -0.00879
0.13079 0.18368 0.23103
-0.19190 0.16244 0.19681
-0.30487 0.19621 -0.00153
0.09901 0.20634 -0.00625
-0.19330 0.19462 -0.09351
0.14378 0.20634 -0.01540
0.07773 0.20634 -0.06389
0.12157 0.20634 0.11741
0.15163 0.17793 0.23103
0.19377 -0.17513 0.22336
0.14110 0.19438 0.22427
0.18207 -0.05452 0.23103
-0.04012 0.20634 0.02254
0.04633 0.20212 -0.32075
0.19724 0.20634 -0.24056
0.17035 0.20634 -0.17146
0.03814 0.20634 0.14391
0.05751 0.19621 0.01241
-0.00644 0.20634 0.25549
-0.16274 0.19978 -0.02521
-0.02053 0.20634 0.31538
-0.23950 0.20159 -0.18630
0.09846 0.20634 0.20019
0.12892 0.20634 0.07304
-0.08886 0.20634 0.20053
0.32075 0.20016 0.04659
0.08420 0.20567 -0.09255
0.23072 0.20634 0.15221
-0.24396 0.20634 0.12333
-0.18724 0.18841 0.23103
0.17547 0.17335 -0.24092
-0.18655 0.16261 0.11180
0.20810 0.20634 -0.03233
0.09690 0.19621 0.29639
0.30698 0.20634 0.03566
-0.30080 0.20175 -0.02583
-0.09392 0.20634 -0.13624
-0.19283 -0.11507 0.23103
0.11473 0.20634 -0.19496
-0.09876 0.20567 -0.09804
-0.19330 0.16769 0.21467
-0.19330 0.17449 -0.06049
0.18749 -0.18852 0.23103
-0.18530 0.10525 -0.22741
-0.19200 -0.14744 -0.22741
0.19377 0.16681 0.04953
0.24276 0.20634 -0.11839
0.29970 0.20281 0.12122
-0.12235 0.20634 -0.22825
-0.20870 0.20634 0.24008
0.27517 0.19621 -0.01461
0.17847 0.20634 -0.15431
-0.18513 0.06556 0.21752
0.30305 0.20634 0.02138
0.19377 -0.05152 -0.22806
0.00685 0.20634 0.27459
-0.01242 0.20634 -0.15005
0.04354 0.20567 -0.08734
-0.19330 0.19293 -0.21049
0.21079 0.20634 -0.10754
-0.19290 0.09493 0.21752
-0.13519 0.20634 0.19583
0.06928 0.20634 0.18788
0.07864 0.20634 0.23600
0.13680 0.16266 -0.23417
-0.18405 -0.17934 0.21752
0.00174 0.17950 0.22427
0.07818 0.18972 -0.23417
0.14967 0.19621 0.27587
0.10151 0.20634 -0.06546
0.18701 0.17384 -0.08040
-0.03973 0.20634 -0.01656
0.18701 0.18421 -0.02130
0.26261 0.20634 -0.09536
0.24568 0.20634 0.18690
-0.10858 0.20634 0.25507
0.18178 -0.02380 -0.24092
-0.25265 0.19621 0.01367
0.18273 0.01794 0.21752
0.12833 0.20634 -0.09351
-0.08996 0.19388 -0.23417
-0.00430 0.16912 -0.23417
0.12051 0.16830 -0.23417
-0.17883 0.19621 -0.01754
-0.19330 -0.13165 0.22354
-0.04578 0.20634 0.01284
0.06605 0.20634 0.27728
0.13830 0.19841 0.26770
-0.25093 0.20634 0.02306
-0.28357 0.20634 -0.01805
-0.12785 0.18054 0.23103
-0.17846 0.19792 -0.02521
-0.18967 0.20578 -0.23451
0.18815 0.08889 0.21752
-0.06292 0.20634 -0.10976
0.25178 0.20634 -0.17467
-0.16641 0.20634 -0.14704
0.18026 -0.13335 0.22984
-0.20218 0.20634 -0.16062
0.25635 0.20634 -0.01588
0.01283 0.20634 0.20171
-0.12401 0.18354 -0.24092
-0.13247 0.20634 -0.20161
-0.15290 0.20634 0.14836
-0.05689 0.20567 -0.11079
-0.27959 0.20634 -0.03055
0.04127 0.20634 0.29464
0.27370 0.20634 0.06809
0.29476 0.20329 0.06452
0.11099 0.20634 -0.25506
-0.24161 0.19621 0.19693
0.18909 0.16244 0.18462
-0.18913 0.08279 -0.24092
0.15217 0.20634 0.01518
-0.25100 0.19945 0.20288
-0.04608 0.20634 0.17566
-0.18655 0.17103 0.15842
-0.18189 0.19621 -0.25227
-0.07088 0.19621 -0.01703
0.16451 0.20634 -0.26499
0.16465 0.20567 -0.03902
0.12319 0.20634 0.29909
0.29132 0.19805 0.07662
-0.11743 0.20634 0.15922
0.01620 0.20634 -0.13635
0.08194 0.20634 0.09145
0.08618 0.20634 0.07930
0.19144 0.20634 -0.15971
-0.14041 0.20634 0.17338
0.03770 0.20634 -0.24978
0.05703 0.16244 0.22995
-0.19330 0.16601 0.04666
-0.15009 0.20634 -0.00491
0.30235 0.20634 -0.00729
-0.30527 0.19621 -0.05172
0.15669 0.20344 0.01532
0.19377 0.16732 0.06570
-0.20879 0.20634 -0.15812
-0.11780 0.19621 0.28305
0.18026 -0.05760 -0.22761
-0.25302 0.20634 0.19788
0.09600 0.20634 -0.06712
0.07944 0.20634 0.14605
0.16374 0.20578 0.18012
0.22389 0.20634 -0.04577
-0.19330 -0.19921 0.22275
-0.22070 0.20634 0.22553
-0.23549 0.20634 -0.12206
-0.07017 0.19584 -0.23417
-0.00356 0.17984 0.22427
0.24559 0.19621 -0.18007
0.07495 0.20634 -0.05669
0.18701 0.16698 0.12640
0.00531 0.20634 -0.15363
-0.20430 0.20634 0.09174
0.02960 0.19747 0.01532
0.11988 0.19621 0.00163
-0.02080 0.20149 0.01532
-0.03235 0.20634 0.31193
-0.20184 0.19621 -0.23132
0.13948 0.20076 -0.02521
-0.14206 0.20634 0.13443
0.19377 0.16264 0.03444
0.14657 0.20634 0.28529
-0.04198 0.17082 -0.23417
0.24187 0.20634 -0.00056
0.18026 0.05205 -0.23923
-0.20984 0.20634 -0.05643
0.19141 0.14627 -0.22741
-0.09998 0.16857 0.22427
0.22111 0.19621 -0.22186
-0.16574 0.20634 -0.00366
-0.08228 0.20634 -0.16070
-0.17479 0.20634 -0.11162
0.02527 0.20634 -0.30936
0.19314 0.08495 -0.22741
-0.18655 0.17347 -0.07086
-0.03447 0.18350 0.23103
0.19114 -0.12179 -0.24092
0.18701 0.17760 0.19095
0.15610 0.20634 0.13347
0.24078 0.20634 0.09156
0.25416 0.20634 0.07111
-0.11009 0.20634 -0.09947
0.19377 -0.17165 -0.23221
-0.19330 -0.12192 -0.23355
0.08924 0.19972 0.28810
0.18503 0.20567 -0.22329
-0.19330 0.19251 -0.01605
0.15799 0.20634 0.17769
0.31919 0.19621 0.00999
0.26071 0.20634 -0.02721
0.16365 0.17140 -0.24092
-0.04905 0.20634 0.15372
0.18813 -0.14453 -0.22741
0.18026 -0.03177 -0.24019
0.16183 0.20634 -0.27652
-0.18619 -0.05187 0.23103
-0.19330 0.17482 -0.19760
0.17136 0.20634 0.14051
-0.22064 0.20634 -0.13714
-0.08855 0.20634 -0.30760
-0.04402 0.20634 -0.05287
0.18728 0.20634 0.24148
0.18701 0.18799 -0.06317
0.12516 0.20381 -0.02521
-0.10888 0.20634 0.29064
0.18701 0.18560 0.01285
0.05432 0.20634 0.28753
-0.18655 0.18809 -0.21505
0.07792 0.20634 0.28831
-0.19298 0.15462 -0.24092
0.18026 0.17006 0.21774
-0.30913 0.20634 -0.03281
0.16442 0.19621 -0.00329
0.19377 0.17965 0.22740
0.30327 0.20634 0.00738
0.18074 0.20634 -0.22608
0.18485 -0.14290 0.23103
-0.30938 0.20634 -0.06652
0.09942 0.20634 0.10338
0.19209 0.15318 0.23103
0.18486 0.16088 0.21752
-0.02937 0.20634 -0.11564
0.10449 0.20621 0.18599
0.19536 0.20634 -0.16384
-0.08440 0.20634 0.16676
0.18701 0.18813 -0.19927
-0.19330 0.18774 0.05212
-0.17979 -0.20163 -0.23188
0.21888 0.20525 0.23548
-0.17979 0.05970 0.22673
-0.06325 0.20634 0.02030
0.08190 0.20257 0.31084
-0.01194 0.20634 0.24112
0.18453 -0.10786 0.21752
0.17330 0.20634 0.12404
-0.09765 0.20634 0.04083
0.16242 0.17029 -0.23417
-0.02278 0.20634 0.16740
0.19377 0.06576 -0.23962
-0.15892 0.20601 0.21676
-0.19330 0.17096 -0.16764
0.18026 -0.18226 -0.23889
0.08399 0.20108 0.01532
-0.04319 0.19152 -0.23417
-0.09896 0.20608 -0.11052
-0.07313 0.20634 -0.22868
-0.02717 0.20634 -0.01902
-0.04859 0.19621 0.30075
0.12868 0.19710 0.29625
0.29717 0.20634 -0.05536
0.09493 0.16733 0.23103
-0.20271 0.20634 -0.11626
-0.21888 0.20634 -0.23148
-0.03233 0.20634 0.04036
0.18588 -0.11099 -0.22741
-0.06558 0.20634 -0.09290
-0.17313 0.20634 0.02315
0.18484 0.17641 0.23103
-0.18260 -0.09308 -0.22741
-0.24078 0.20634 0.18982
0.14516 0.20567 0.15068
0.19377 0.18925 -0.05222
0.13824 0.20634 0.07652
0.19377 -0.16484 -0.23148
0.10293 0.16991 0.23103
-0.21528 0.20336 0.01532
0.27392 0.19621 -0.00344
0.14779 0.20634 -0.07933
-0.26695 0.19621 0.15748
0.19377 0.17399 0.10352
0.13981 0.20634 -0.03445
-0.07109 0.20634 -0.17583
0.08423 0.20625 0.14442
-0.01553 0.20569 -0.32171
0.06842 0.20634 -0.13897
0.17625 0.20634 0.26022
0.18806 0.08183 -0.22741
-0.15345 0.20634 0.06119
-0.18181 0.20634 0.19049
-0.09702 0.20435 0.28552
0.13087 0.20619 0.29504
-0.10462 0.19621 -0.00634
-0.00144 0.20634 0.19761
0.05492 0.18480 -0.23417
0.19377 0.19150 0.12303
0.06206 0.20634 0.19062
0.26090 0.20082 0.15052
-0.16730 0.20634 0.02861
-0.02122 0.20634 -0.31553
-0.07139 0.19621 -0.30701
0.05917 0.18979 -0.23417
0.16297 0.20634 0.25107
0.20489 0.20582 -0.05019
-0.19330 -0.20297 -0.23402
0.03445 0.19621 -0.30886
0.15336 0.20634 -0.13311
-0.15547 0.19927 0.25794
0.00109 0.19014 -0.23417
0.11851 0.20567 -0.02550
-0.13162 0.20634 0.04372
-0.19330 0.19258 0.16086
-0.03691 0.20634 0.13915
0.23828 0.20634 -0.11493
