-0.15011 -0.07548 -0.32297
-0.20174 0.07512 -0.32297
-0.19700 0.06416 -0.32297
0.16587 0.06560 -0.33423
-0.17221 0.24904 -0.31669
0.19190 -0.03806 -0.30624
0.15235 -0.03352 -0.30624
0.17725 -0.04610 -0.30624
0.11984 -0.00378 -0.30624
0.20657 -0.04718 -0.30624
0.18707 0.01408 -0.30624
-0.14352 -0.25514 0.29452
0.11476 -0.22934 -0.29598
0.12175 0.02327 0.30604
0.11940 0.04416 0.30604
-0.14212 0.20102 -0.30624
-0.10149 0.21115 -0.30624
-0.12554 0.22440 -0.30624
-0.16705 0.24547 -0.30624
-0.05841 0.24577 0.00010
0.25069 0.11497 -0.31950
0.10008 0.03025 -0.31275
0.16607 -0.24260 0.29452
0.19875 -0.26549 0.29452
-0.10046 -0.23093 0.29505
-0.20336 -0.16339 -0.32297
-0.18453 0.00641 -0.32297
-0.14391 -0.12115 -0.32297
-0.21228 0.00265 -0.32297
-0.21163 -0.22481 -0.32297
-0.21091 -0.15266 -0.32297
-0.12309 -0.17709 -0.32297
-0.13353 -0.19890 -0.32297
-0.14037 -0.13623 -0.32297
-0.18551 0.04778 -0.32297
-0.17106 -0.13302 -0.32297
-0.21329 0.08570 -0.32297
-0.17692 -0.11695 -0.32297
-0.12293 -0.15023 -0.32297
-0.19811 0.05312 -0.32297
-0.21090 0.05611 -0.32297
0.11040 0.06760 0.01719
0.11321 0.06691 0.29675
0.25069 0.11074 0.30806
-0.21388 0.25361 0.20666
-0.21388 0.25535 0.17829
0.20409 -0.25807 -0.29453
0.17373 -0.26753 -0.29453
-0.11307 -0.21845 -0.30624
0.24087 0.02940 -0.32297
-0.09467 -0.22658 -0.31722
0.17920 0.05188 -0.32054
-0.00939 0.23167 -0.15893
-0.05699 0.19063 -0.19017
-0.02423 0.21888 -0.13017
-0.00890 0.23209 -0.01620
-0.05490 0.19243 -0.30185
-0.08096 0.16997 -0.29281
-0.04624 0.19990 -0.22587
-0.02761 0.21597 -0.17837
-0.06272 0.18569 -0.30495
-0.00902 0.23200 -0.07754
-0.00767 0.23315 -0.14543
-0.01787 0.22436 -0.28995
-0.00893 0.23207 -0.05884
-0.01267 0.22884 -0.13038
-0.01657 -0.21778 -0.13841
0.24743 0.23179 -0.30955
-0.16849 0.25477 0.10233
0.18678 0.05188 -0.31430
-0.14776 -0.22734 0.29839
0.10008 -0.09826 0.30619
0.10008 -0.20253 0.31707
-0.23711 -0.22807 0.29722
0.09021 -0.23582 0.29452
-0.21388 -0.04551 0.31458
-0.21388 -0.11904 0.31662
-0.21388 -0.15421 0.31217
0.21009 -0.01834 -0.30624
-0.12453 0.15228 0.21688
-0.11248 0.15228 0.01009
-0.11401 0.15228 0.12654
-0.13943 0.15228 0.16361
-0.17947 0.15228 0.01939
-0.12436 0.15228 0.05069
-0.16753 0.15228 0.09824
-0.18205 0.15228 0.08333
-0.14758 0.15228 0.11372
-0.16127 0.15228 0.02714
-0.13272 0.15228 0.07236
-0.15254 0.15228 0.06734
-0.10927 0.15228 0.05271
-0.13780 0.15228 0.15734
0.23461 0.23126 -0.13122
0.02145 0.21794 -0.30624
-0.20159 0.25766 0.31466
-0.21388 0.17711 -0.00189
0.19731 0.04950 0.30604
0.10077 0.02055 0.30604
0.08915 0.05188 -0.33397
-0.16157 0.19835 0.30624
-0.19531 0.20395 0.30624
-0.16393 0.15512 0.30624
-0.12964 0.15441 0.30624
0.15236 -0.23018 0.29541
-0.09673 0.11364 -0.32125
0.15007 -0.05365 0.32297
0.18513 -0.13597 0.32297
0.11079 -0.00492 0.32297
0.12596 -0.03665 0.32297
-0.05809 0.23906 0.31298
0.24213 -0.22895 0.33289
-0.21388 0.21709 -0.13915
-0.21388 0.21731 -0.06297
-0.21388 0.23003 -0.10731
-0.21388 0.23726 -0.20682
-0.21388 0.18131 -0.04553
-0.21388 0.21987 -0.18027
-0.21388 0.17801 -0.01251
-0.21388 0.18409 -0.04019
0.22586 -0.27009 0.32043
0.23872 -0.27009 0.32722
0.14237 0.06348 -0.23216
-0.02594 -0.24747 -0.33470
-0.17965 -0.24873 -0.33470
0.24354 0.03712 -0.32297
0.25069 0.20365 -0.22117
0.25069 0.21658 -0.06302
0.25069 0.22081 -0.30508
0.25069 0.20823 -0.27262
0.25069 0.22140 -0.10346
0.25069 0.21655 0.14376
0.25069 0.21736 0.13039
0.25069 0.21542 -0.27188
0.25069 0.21535 -0.18245
0.25069 0.20315 -0.30566
0.25069 0.20876 -0.10254
-0.13019 0.23499 -0.32297
-0.11788 0.23772 -0.32297
-0.10077 0.22760 -0.32297
0.00988 -0.22658 0.30275
-0.17346 0.25520 -0.07164
-0.17771 0.25557 -0.12269
-0.17547 0.25538 -0.19551
-0.14924 0.11787 -0.32297
-0.12626 0.11419 -0.32297
-0.11787 0.10069 -0.32297
-0.12604 0.17297 -0.32297
0.05839 -0.24337 0.33468
-0.21990 0.21779 -0.15129
-0.21990 0.15894 0.06153
-0.21990 0.19115 -0.27308
-0.21990 0.22546 -0.24486
-0.21990 0.15727 0.01764
-0.21990 0.25600 -0.29156
-0.21990 0.18053 -0.31489
-0.21990 0.15754 -0.18413
-0.21990 0.17970 -0.08708
-0.21990 0.25480 -0.28034
-0.21990 0.18260 0.02142
-0.21990 0.22821 -0.29872
-0.21990 0.23964 -0.30321
-0.21990 0.22026 -0.30139
-0.21990 0.18152 -0.13683
-0.21990 0.18768 0.01246
-0.21990 0.16441 -0.10927
-0.21990 0.17002 -0.26247
-0.21990 0.15477 -0.02112
-0.21990 0.16668 -0.19388
-0.21990 0.18529 -0.21792
-0.21990 0.22463 -0.22894
-0.21990 0.15318 0.15733
-0.21990 0.24025 -0.18336
-0.21990 0.15649 0.19940
-0.21990 0.17045 0.03430
-0.21990 0.15973 -0.29841
-0.21990 0.17333 -0.18972
-0.21990 0.14240 0.10405
-0.18901 0.25051 0.11465
-0.13157 -0.24942 0.29452
-0.16510 0.25447 0.13088
-0.03385 0.22877 -0.32297
-0.20868 0.25223 -0.24411
-0.10995 0.04885 0.30624
-0.14582 -0.00935 0.30624
-0.12153 -0.03137 0.30624
-0.12556 -0.05317 0.30624
-0.16181 0.01825 0.30624
-0.10902 -0.00777 0.30624
-0.13043 -0.08541 0.30624
-0.10757 -0.00183 0.30624
-0.16882 0.08162 0.30624
-0.14467 0.02074 0.30624
-0.12173 -0.08986 0.30624
-0.11189 -0.04969 0.30624
-0.11508 -0.02184 0.30624
-0.01885 -0.21377 0.11799
-0.25102 -0.24830 -0.31592
0.09739 0.05188 0.32662
0.21606 0.02500 -0.30624
0.19126 0.05188 -0.19978
0.17014 0.05188 0.01543
0.14592 0.05188 0.20403
0.20697 0.05188 0.02128
0.14406 0.05188 0.25994
0.16920 0.05188 0.02789
0.19743 0.05188 0.18334
0.20362 0.05188 -0.16871
0.19939 0.05188 0.09304
0.16154 0.05188 -0.02338
0.14443 0.05188 0.08225
0.16176 0.05188 0.07248
0.18290 0.05188 0.22537
0.20062 0.05188 0.23371
0.18517 0.05188 0.14550
0.16701 0.05188 -0.07447
0.19924 0.05188 -0.07521
0.12922 0.05188 0.24148
0.16589 0.05188 0.10143
0.15704 0.05188 0.02740
0.18916 0.05188 0.25401
0.19178 0.05188 0.26253
0.15499 0.05188 0.07028
0.20217 0.05188 0.22690
0.08181 0.04415 0.31549
-0.06807 0.17313 0.02149
-0.05001 0.18870 0.13737
-0.08146 0.16158 -0.01360
-0.05717 0.18252 0.27133
-0.05378 0.18544 0.24155
-0.08162 0.16144 0.26821
-0.08594 0.15772 -0.10905
-0.09367 0.15105 -0.16369
-0.02550 0.20983 0.17278
-0.06597 0.17494 0.12615
-0.08537 0.15821 0.19037
-0.00249 0.22967 0.28487
-0.09067 0.15364 0.18334
-0.00155 0.23048 0.29795
-0.04188 0.19571 0.14887
-0.03437 0.20218 0.19965
-0.08866 0.15538 0.22436
-0.02798 0.20769 0.19604
-0.04784 0.19057 0.16244
-0.04050 0.19690 0.09138
-0.09287 0.15174 -0.21787
-0.09425 0.15056 0.22251
-0.08746 0.15641 -0.00923
-0.08958 0.15458 -0.03983
-0.03766 0.19935 0.16631
-0.08751 0.15636 0.19988
-0.08222 0.16093 -0.14686
-0.02103 0.21369 0.29675
-0.06597 0.17494 0.00341
-0.09404 0.15074 -0.01538
-0.09577 0.15720 0.25488
-0.03852 0.20656 0.22352
-0.04300 0.20269 0.27141
-0.04037 0.20496 0.28868
-0.04212 0.20345 0.29712
-0.09955 0.15394 0.01029
-0.09851 0.15483 0.06614
-0.09270 0.15984 0.06833
-0.06027 0.18780 0.15110
-0.03398 0.21047 0.25053
-0.08484 0.16662 0.13386
-0.03347 0.21091 0.23409
-0.08188 0.16917 0.21540
-0.04699 0.19926 0.29856
-0.00986 0.23069 0.32297
-0.05285 0.21338 -0.32297
-0.05519 0.16401 0.32297
0.21686 -0.03760 -0.32297
0.10008 -0.10631 -0.31970
0.22061 -0.04940 0.32297
-0.21388 0.16170 0.00476
-0.21388 0.20075 0.03431
-0.21388 0.21086 0.02447
-0.21388 0.19526 0.09074
-0.21388 0.19520 0.00736
-0.21388 0.20385 0.01245
-0.21388 0.22936 0.18143
-0.21388 0.22176 0.05574
-0.11060 0.20045 0.00301
-0.15577 0.18366 0.00301
-0.18385 0.18127 0.00301
-0.13882 0.20329 0.00301
0.20718 -0.07219 0.30834
-0.01678 -0.21695 0.05873
-0.15825 0.24926 -0.25060
0.10781 0.05188 0.30759
-0.20907 0.16092 -0.30624
-0.18603 0.17620 -0.30624
-0.20920 0.22457 -0.30624
-0.19327 0.22662 -0.30624
-0.15054 0.17263 -0.30624
-0.09673 -0.01798 -0.31571
-0.09673 -0.05164 -0.32186
0.14531 -0.26005 0.29455
-0.13927 -0.26005 0.31497
-0.11988 -0.26005 0.31732
-0.03514 -0.26005 0.30295
0.20718 0.06178 -0.01994
0.20718 0.05675 -0.13913
0.20718 0.05911 -0.25168
0.10263 0.06497 0.33502
0.15674 0.05188 -0.21957
0.11677 0.05188 -0.13150
0.10784 0.05188 0.17376
0.10281 0.05188 -0.12824
0.12960 0.05188 0.01389
0.14495 0.05188 -0.05909
0.10906 0.05188 -0.29451
0.19268 0.05188 -0.30266
0.14282 0.05188 -0.19745
0.16309 0.05188 -0.22703
0.13728 0.05188 -0.15863
0.10773 0.05188 -0.04938
0.14658 0.05188 0.03548
0.10053 0.05188 -0.14390
0.10952 0.05188 0.09712
0.14169 0.05188 -0.25366
0.13621 0.05188 0.06962
0.11885 0.05188 -0.00267
0.13189 0.05188 -0.06008
0.14393 0.05188 -0.06945
0.16030 0.05188 -0.29293
0.12505 0.05188 -0.20782
0.18529 0.05188 -0.29404
0.13073 0.05188 -0.28720
-0.00580 0.23448 -0.31913
-0.18189 0.25594 0.25078
-0.16593 -0.27009 0.32999
-0.17508 -0.27009 0.33191
-0.15057 0.21411 0.30624
-0.14840 0.23842 0.30624
-0.13153 0.24351 0.30624
-0.03965 -0.23840 0.33468
-0.08348 -0.26005 -0.29511
-0.02741 -0.26005 -0.30515
0.13673 -0.26005 -0.31593
0.01847 -0.26005 -0.31616
0.25102 -0.25289 -0.32192
0.15484 -0.26248 -0.29943
0.14957 0.06368 0.29974
-0.19045 0.25064 -0.06723
-0.21388 0.16423 0.26715
-0.21388 0.19309 0.21441
-0.21388 0.16048 0.24559
-0.21388 0.18583 0.18806
-0.21388 0.16773 0.20781
-0.21388 0.15985 0.27814
-0.21388 0.24323 0.30307
-0.21388 0.17750 0.13227
-0.21388 0.17690 0.27870
-0.24074 -0.26807 -0.33470
-0.23064 -0.24688 -0.33470
-0.11896 0.16437 -0.00301
0.24546 0.23302 0.22262
0.04229 -0.23869 0.29452
0.10008 -0.05121 0.31351
0.25069 0.11293 0.31663
-0.21388 0.09224 -0.31328
-0.21388 -0.10720 -0.31784
-0.02732 0.23712 0.12426
0.20545 -0.17095 -0.32297
0.17520 -0.10973 -0.32297
0.14144 -0.06459 -0.32297
0.17405 -0.07002 -0.32297
-0.16883 0.24875 -0.01299
0.07916 0.05188 0.17755
-0.19955 0.25144 0.09785
-0.19589 0.25111 -0.13226
-0.09336 0.24264 0.19551
-0.08627 0.24205 0.21677
-0.10797 0.24386 0.24403
-0.14678 0.24710 0.08113
-0.06084 0.23992 0.07211
-0.13844 0.24640 0.09180
-0.14909 0.24729 0.12893
-0.11274 0.24426 0.09114
-0.14740 0.24715 0.07280
-0.10003 0.24319 0.14237
-0.13140 0.24581 0.10119
-0.15719 0.24797 0.04691
-0.13330 0.24597 0.12070
-0.07634 0.24122 0.02941
-0.06774 0.24050 0.10508
0.00009 0.23483 0.02458
-0.11576 0.24451 0.23534
-0.11370 0.24434 0.03346
-0.09101 0.24244 0.14236
-0.06942 0.24064 0.12876
-0.14807 0.24721 0.14708
-0.10662 0.24375 0.18211
-0.13240 0.24590 0.20093
-0.03882 0.23808 0.12759
0.20520 0.05188 -0.21054
0.17259 0.05188 0.14253
0.15524 0.05188 0.29914
0.14426 0.05188 0.09277
0.20414 0.05188 0.21059
0.20148 0.05188 -0.05320
0.13528 0.05188 0.25778
0.16256 0.05188 -0.04803
0.19178 0.05188 0.07491
0.16514 0.05188 0.01141
0.15224 0.05188 0.11943
0.20116 0.05188 -0.26788
0.20696 0.05188 -0.29807
0.17571 0.05188 0.29796
0.13657 0.05188 0.21550
0.15287 0.05188 0.22064
0.11822 0.05188 0.26103
0.19960 0.05188 -0.12276
0.20649 0.05188 -0.03323
0.13187 0.05188 0.29613
0.16055 0.05188 0.01558
0.20718 0.01868 0.31638
0.23195 0.09577 -0.30812
-0.10237 -0.22826 0.33219
-0.13596 0.23792 -0.00301
-0.15942 0.22440 -0.00301
0.24489 0.23324 0.21440
0.17284 -0.00294 -0.30624
0.16429 -0.04301 -0.30624
0.18715 -0.00558 -0.30624
0.20452 -0.02268 -0.30624
0.17466 -0.05305 -0.30624
0.20066 -0.03722 -0.30624
-0.18637 0.25498 0.20071
0.11838 0.06581 -0.06866
0.11796 0.06589 -0.13755
0.08500 0.05188 -0.32600
-0.16682 0.24857 -0.31312
-0.21388 0.14456 -0.03915
0.10754 -0.25690 0.33468
-0.01543 -0.25797 0.33468
-0.01198 0.22944 0.04984
-0.01283 0.22871 0.12232
-0.07919 0.17149 0.06211
-0.01556 0.22636 0.09117
-0.02767 0.21591 0.10267
-0.03275 0.21154 0.21119
-0.06293 0.18552 0.08047
-0.03580 0.20890 0.05073
-0.04798 0.19840 0.10273
-0.04717 0.19910 0.04841
-0.04459 0.20132 0.02554
-0.04957 0.19703 0.14358
-0.05088 0.19590 0.06012
-0.02812 0.21552 0.12283
-0.02783 0.21577 0.22830
-0.09673 -0.21480 -0.12151
-0.09673 -0.21413 -0.02191
-0.09673 -0.21454 -0.23291
-0.09673 -0.21627 0.04328
0.12391 0.05543 0.33502
0.20718 -0.15272 0.31215
0.07331 0.06242 -0.31090
0.07331 0.05233 0.25438
0.07331 0.05778 -0.23260
-0.21517 0.27009 0.25229
-0.21410 0.27009 0.15339
0.06514 -0.24437 -0.33470
-0.08540 0.17140 0.30624
-0.04682 0.21610 0.30624
-0.07660 0.19214 0.30624
-0.02011 0.22720 -0.00301
-0.07194 0.22625 -0.00301
-0.10158 0.17889 -0.00301
-0.12277 0.18042 -0.00301
-0.08893 0.23227 -0.32297
-0.06494 -0.24945 0.33468
-0.03502 -0.24970 0.33468
-0.05576 0.18374 0.04114
-0.03801 0.19904 0.28933
-0.03850 0.19862 0.26776
-0.05802 0.18179 0.28975
-0.09440 0.15043 -0.07809
-0.02491 0.21034 0.18308
-0.05494 0.18445 0.17110
-0.09477 0.15011 0.19261
-0.00954 0.22359 0.25657
-0.07243 0.16936 0.17661
-0.08974 0.15444 0.15910
-0.03791 0.19913 0.20906
-0.06886 0.17245 -0.11791
-0.09180 0.15267 0.02162
-0.07837 0.16425 -0.15716
-0.04254 0.19513 0.15705
-0.03706 0.19986 0.17913
-0.07149 0.17017 0.12556
-0.07784 0.16471 0.24241
-0.07767 0.16485 0.07400
-0.04536 0.19271 0.12757
-0.04688 0.19140 0.17023
-0.09468 0.15019 0.30127
-0.02444 0.21074 0.21039
-0.07352 0.16843 -0.03684
-0.01748 0.21675 0.29238
-0.05198 0.18700 0.30270
-0.11980 0.20701 -0.30624
-0.16089 0.24080 -0.30624
-0.13568 0.21133 -0.30624
-0.17188 0.24087 -0.30624
0.15230 0.01193 -0.32297
0.15346 -0.00467 -0.32297
0.12858 0.00450 -0.32297
0.18930 -0.03537 -0.32297
0.20685 -0.06977 -0.32297
0.19192 -0.01567 -0.32297
-0.06663 0.19893 0.30624
0.08402 -0.23209 -0.29471
-0.21388 0.22906 0.31735
-0.13516 -0.25040 0.33468
-0.08273 -0.25528 0.33468
0.25069 0.19253 0.00458
0.25069 0.20504 0.00363
0.25069 0.21533 0.29773
0.25069 0.19689 0.07789
0.25069 0.19740 0.01908
0.25069 0.19568 -0.10496
0.25069 0.20546 0.05697
0.25069 0.20276 0.28570
0.25069 0.19062 0.23568
0.23195 0.20222 -0.08906
0.24487 0.10051 0.32297
-0.21388 0.22028 -0.31143
0.24973 0.22924 0.20700
0.23195 0.13002 0.32132
0.21946 -0.22471 0.30624
0.14879 0.06363 0.12422
0.14986 0.06370 -0.03392
0.15057 0.04577 -0.30624
0.10547 0.01483 -0.30624
-0.12893 -0.22952 -0.33337
-0.09673 -0.01348 0.31590
-0.09673 -0.08838 0.30739
0.23260 0.22867 0.30761
-0.18435 0.25011 -0.09333
0.15188 -0.06052 0.30604
0.18117 -0.12039 0.30604
0.19317 -0.10821 0.30604
0.20448 -0.12576 0.30604
-0.09673 0.10685 -0.31772
-0.18574 0.25508 -0.11529
0.25069 0.20539 -0.03327
0.25069 0.22460 -0.17064
0.25069 0.21786 -0.03977
0.25069 0.20002 -0.20582
0.25069 0.20185 -0.11899
0.25069 0.20913 -0.20318
0.25069 0.19431 -0.25676
0.25069 0.19745 -0.24637
0.25069 0.21991 0.09619
0.25069 0.20682 -0.08552
0.00862 -0.25123 0.29452
-0.01227 0.23587 0.13804
0.01324 0.23374 0.17856
0.01991 0.23318 0.33476
0.00011 0.23483 0.09406
0.00300 0.23459 0.10358
0.03032 0.23231 0.24463
0.02018 0.23316 0.21478
-0.06892 0.24060 0.23965
0.00576 0.23436 0.11606
0.01843 0.23330 0.15219
0.02349 0.23288 0.28356
0.03968 0.23153 0.29525
-0.14616 0.24705 0.32614
-0.00079 0.23491 0.33216
0.00119 0.23474 0.18622
-0.04624 0.23870 0.23846
0.04053 0.23146 0.27434
-0.04994 0.23901 0.19988
-0.09117 0.24246 0.32110
-0.05784 0.23967 0.28851
-0.09576 0.24284 0.29565
-0.12757 0.24549 0.33448
-0.07828 -0.26005 -0.33321
-0.07652 -0.26005 -0.30841
0.02987 -0.26005 -0.33383
-0.09590 -0.26005 -0.33400
-0.12861 -0.26005 -0.30827
-0.04779 -0.22658 -0.09033
-0.05197 -0.22658 -0.28328
-0.02535 -0.22658 -0.28548
-0.08656 -0.22658 -0.24148
-0.05779 -0.22658 -0.04563
-0.06030 -0.22658 -0.05545
-0.06421 -0.22658 -0.07212
-0.07706 -0.22658 -0.14100
-0.08081 -0.22658 0.07771
-0.06788 -0.22658 -0.28924
-0.08750 -0.22658 0.07637
-0.02670 -0.22658 -0.24477
-0.04364 -0.22658 -0.24026
-0.07312 -0.22658 -0.08877
-0.03831 -0.22658 -0.27954
-0.03325 -0.22658 -0.24969
-0.06321 -0.22658 0.03332
-0.08477 -0.22658 0.03840
-0.07986 -0.22658 -0.27965
-0.16688 -0.27009 0.29569
-0.05983 -0.24711 -0.33470
0.14591 0.06355 0.32740
0.01606 0.22761 0.32297
-0.06888 0.19312 -0.30624
-0.06020 0.21129 -0.30624
-0.07937 0.20857 -0.30624
-0.08759 0.17892 0.00301
-0.02692 0.21923 0.00301
-0.11470 0.17998 0.00301
-0.01315 0.23013 0.00301
0.02022 0.21018 -0.31244
0.16373 0.06524 0.28252
0.16265 0.06507 0.25355
0.10008 0.00288 -0.31078
-0.21388 0.26666 -0.19606
0.20718 -0.03160 -0.31504
0.20718 -0.04449 -0.32008
-0.18492 0.25522 -0.14264
-0.19637 -0.16135 0.32297
-0.21112 0.09961 0.32297
-0.17676 -0.10286 0.32297
-0.18261 -0.20032 0.32297
-0.18120 -0.21990 0.32297
-0.20779 0.08660 0.32297
-0.20213 -0.12669 0.32297
-0.19283 -0.01786 0.32297
-0.21091 -0.06786 0.32297
-0.17466 -0.01025 0.32297
-0.11573 -0.17673 0.32297
-0.20933 -0.19823 0.32297
-0.16731 -0.21011 0.32297
-0.17922 -0.14944 0.32297
-0.16474 -0.21711 0.32297
-0.18407 -0.25128 0.33468
0.13963 -0.08615 0.30604
0.14321 -0.13290 0.30604
0.10212 -0.08090 0.30604
0.13227 -0.08460 0.30604
0.17115 -0.21149 0.30604
0.12473 -0.19491 0.30604
0.10213 -0.19998 0.30604
0.18453 -0.19289 0.30604
0.16769 -0.14544 0.30604
-0.17804 0.25560 0.18466
-0.16436 0.25440 -0.15065
-0.21388 0.16745 -0.26464
-0.21388 0.17601 -0.22630
-0.21388 0.16134 -0.03539
-0.21388 0.16753 -0.06292
-0.21388 0.17475 -0.12553
-0.21388 0.16183 -0.13818
-0.21388 0.17804 -0.29900
-0.21388 0.16395 -0.11002
-0.21388 0.17676 -0.15335
-0.21388 0.19567 -0.24968
-0.21388 0.19700 -0.30267
-0.21388 0.20678 -0.20617
-0.08237 -0.21186 0.06752
-0.07318 -0.21186 -0.01854
-0.09242 -0.21186 0.16773
-0.09575 -0.21186 -0.05989
-0.09202 -0.21186 0.03589
-0.05796 -0.21186 0.11677
-0.04979 -0.21186 0.10588
-0.04279 -0.21186 0.19983
-0.07075 -0.21186 0.25336
-0.09385 -0.21186 -0.15530
-0.05843 -0.21186 0.08689
-0.08727 -0.21186 -0.06153
-0.08482 -0.21186 -0.04288
-0.04051 -0.21186 0.30848
-0.16074 -0.22828 -0.33223
-0.20576 0.25803 -0.23909
-0.20147 0.25765 -0.07049
-0.21990 0.24934 0.16020
-0.21990 0.19273 0.17874
-0.21990 0.23725 -0.01362
-0.21990 0.23799 0.00832
-0.21990 0.23630 -0.09284
-0.21990 0.22496 0.08984
-0.21990 0.23258 0.06724
-0.21990 0.19127 0.07514
-0.21990 0.26320 0.21569
-0.21990 0.26264 -0.18108
-0.21990 0.25944 0.29773
-0.21990 0.21937 0.09773
-0.21990 0.23835 0.25768
-0.21990 0.25972 -0.17167
-0.21990 0.26710 0.14274
-0.21990 0.19629 0.23037
-0.21990 0.17528 0.25109
-0.21990 0.26874 0.04852
-0.21990 0.18672 0.09241
-0.21990 0.26007 -0.24947
-0.21990 0.22153 -0.00946
-0.21990 0.24466 0.31263
-0.21990 0.23784 -0.12050
-0.21990 0.17014 0.28682
-0.21990 0.24324 0.22282
-0.21990 0.21972 0.11226
-0.21990 0.20679 0.14097
-0.21990 0.23336 0.13062
-0.21990 0.20862 0.29658
-0.21990 0.25908 -0.00081
-0.21990 0.24072 0.07518
-0.18701 0.25639 0.05168
0.15093 0.06377 -0.12480
-0.00337 0.23427 -0.11594
-0.19743 0.25125 0.04698
-0.01068 -0.22765 -0.33138
-0.21388 0.21216 -0.30702
-0.00540 0.22601 0.32297
0.20718 -0.00256 -0.30796
-0.16053 0.25316 0.27919
0.14993 0.02687 0.32297
0.10119 0.04459 0.32297
0.21288 0.05555 0.32297
-0.14773 -0.25984 0.31750
-0.09998 0.14626 0.28285
-0.12222 0.14626 0.12507
-0.10768 0.14626 -0.24585
-0.16512 0.14626 -0.25477
-0.11547 0.14626 -0.21963
-0.16529 0.14626 -0.17396
-0.12101 0.14626 0.10708
-0.12169 0.14626 -0.09117
-0.09954 0.14626 -0.18892
-0.16825 0.14626 -0.19458
-0.12761 0.14626 0.11856
-0.11155 0.14626 0.18210
-0.12415 0.14626 0.16201
-0.15332 0.14626 -0.25959
-0.15663 0.14626 -0.14173
-0.12584 0.14626 -0.01750
-0.10512 0.14626 0.24368
-0.12467 0.14626 -0.18902
-0.11384 0.14626 -0.15095
-0.19620 0.14626 -0.24660
-0.10351 0.14626 -0.23393
-0.10369 0.14626 0.01406
-0.10985 0.14626 0.01892
-0.10144 0.14626 -0.17571
-0.21824 0.14224 0.03500
-0.19094 0.25068 -0.09948
0.19937 -0.15167 0.32297
0.10492 0.00031 0.32297
0.14143 -0.06256 0.32297
0.14256 0.05188 -0.32187
0.20718 -0.21533 0.31520
0.08036 -0.22658 -0.30629
0.01985 -0.22658 -0.30888
-0.09673 0.15524 -0.31033
-0.00192 0.23414 0.11748
0.23507 0.23167 0.25978
-0.02360 0.21147 0.10194
-0.04648 0.19174 -0.15483
-0.00811 0.22482 -0.04482
-0.07431 0.16775 -0.30526
-0.01199 0.22148 -0.06048
-0.01449 0.21932 0.08334
-0.01536 0.21857 -0.22695
-0.01752 0.21671 -0.17409
-0.03760 0.19940 -0.25526
-0.02530 0.21000 -0.16610
-0.01300 0.22060 -0.29783
-0.01985 0.21470 -0.00226
-0.04170 0.19587 0.01358
-0.05721 0.18249 -0.23976
-0.00588 0.22675 0.06391
-0.01352 0.22016 0.06811
-0.05350 0.18569 -0.15410
-0.01727 0.21693 0.02941
-0.07027 0.17123 -0.26509
-0.01928 0.21519 -0.09148
-0.06014 0.17996 -0.14815
-0.01145 0.22194 -0.20901
-0.07180 0.16991 -0.25130
-0.04096 0.19650 -0.07609
-0.08218 0.16096 -0.27420
-0.20013 0.25149 0.17332
-0.19951 -0.27009 -0.32199
-0.02117 -0.22959 -0.33342
-0.07638 -0.23108 -0.29501
0.20718 -0.18360 -0.32202
-0.20370 0.24138 0.32297
-0.18198 0.21551 0.32297
-0.12707 0.24465 0.32297
-0.16474 0.22071 0.32297
-0.21388 0.14465 -0.28179
-0.24253 -0.24168 0.29452
-0.18566 0.25022 -0.02726
-0.04986 -0.22658 -0.31823
-0.00365 -0.24568 0.29452
-0.02825 0.21541 -0.16645
-0.02537 0.21789 -0.09377
-0.09381 0.15889 -0.30558
-0.07659 0.17374 -0.24715
-0.04033 0.20499 -0.25356
-0.01844 0.22387 -0.14478
-0.04988 0.19677 -0.26249
-0.06337 0.18514 -0.22395
-0.05076 0.19600 -0.24482
-0.02224 0.22060 -0.10744
-0.06483 0.18387 -0.21049
-0.03631 0.20846 -0.27422
-0.01780 0.22442 -0.23509
-0.09421 0.15854 -0.29819
-0.01917 0.22324 -0.28129
0.24613 0.19962 -0.33502
-0.09911 -0.23570 0.33468
-0.21799 0.24446 -0.33770
-0.16083 0.14282 -0.30624
-0.10912 0.13717 -0.30624
-0.04434 -0.22658 -0.21490
-0.03754 -0.22658 -0.17912
-0.06445 -0.22658 -0.25862
-0.07267 -0.22658 0.00839
-0.04004 -0.22658 -0.22784
-0.03486 -0.22658 -0.19779
-0.09333 -0.22658 -0.04063
-0.03169 -0.22658 -0.29498
-0.09397 -0.22658 0.13539
-0.08347 -0.22658 -0.08393
-0.07225 -0.22658 -0.03526
-0.04986 -0.22658 -0.29529
-0.08842 -0.22658 0.21716
-0.08796 -0.22658 -0.15259
-0.07582 -0.22658 -0.12790
0.23207 -0.21800 0.30624
-0.17545 0.24933 -0.05854
-0.16766 0.24865 -0.12324
-0.17660 0.24943 -0.27734
-0.16982 0.24884 -0.08434
-0.17989 0.24972 -0.23515
-0.18710 0.25035 -0.18121
-0.03396 0.15680 -0.31868
-0.15815 0.25051 0.28905
-0.15774 0.24903 -0.33762
0.10008 -0.14541 -0.31361
-0.21388 0.19200 0.13411
-0.21388 0.21689 0.20051
0.16252 -0.26893 0.33468
0.03782 -0.25990 -0.29453
-0.01642 -0.25126 -0.29453
0.06584 -0.25924 -0.29453
-0.01641 -0.22461 -0.29447
-0.01641 -0.22369 -0.32249
0.17192 0.06687 0.19920
-0.16412 0.24834 0.01843
-0.16826 0.13345 -0.30624
-0.10054 0.12335 -0.30624
-0.16819 0.14179 -0.30624
0.20923 -0.19013 0.32297
-0.15702 0.18143 -0.00301
-0.12832 0.16037 -0.00301
-0.11870 0.15702 -0.00301
-0.16300 0.25428 0.33172
0.23195 0.21983 -0.01955
0.23195 0.20134 -0.15160
0.23195 0.21444 -0.03408
0.23195 0.20394 -0.27230
0.23195 0.20500 -0.04940
0.23195 0.22352 -0.27780
0.23195 0.22124 -0.17774
0.23195 0.22478 0.18679
0.23195 0.22689 -0.31636
0.23195 0.21326 -0.15542
0.25102 -0.26722 -0.31312
-0.25102 -0.25849 0.30417
0.16566 -0.23095 0.29504
-0.04687 -0.22658 -0.32342
0.15737 -0.26762 0.30594
-0.21496 -0.25019 -0.29453
-0.21862 0.27009 -0.04027
0.09875 0.05188 0.31535
0.15718 0.06433 0.22445
-0.21388 0.24800 -0.25606
-0.21388 0.25185 0.02157
-0.21388 0.25266 -0.26745
-0.21388 0.24138 0.04279
-0.21388 0.24837 0.25820
-0.21388 0.23348 0.07060
-0.21388 0.23396 0.12941
-0.21388 0.25201 -0.17191
-0.04238 0.19479 0.32297
0.00843 0.23414 -0.18461
0.00241 0.23464 -0.17370
-0.07124 0.24079 -0.07785
0.00612 0.23433 -0.04100
-0.05145 0.23914 -0.17805
0.02955 0.23237 -0.29831
0.01522 0.23357 -0.25582
-0.07253 0.24090 -0.05981
0.02195 0.23301 -0.01913
0.02599 0.23267 -0.03971
-0.09342 0.24264 -0.09931
-0.00544 0.23530 -0.08228
-0.07633 0.24122 -0.10342
-0.01772 0.23632 -0.01547
0.00997 0.23401 -0.22621
-0.10268 0.24342 -0.04715
-0.06140 0.23997 -0.04754
-0.02335 0.23679 -0.09111
0.00104 0.23476 -0.18206
0.03819 0.23165 -0.18654
0.00590 0.23435 -0.01972
-0.02671 0.23707 -0.20082
-0.06503 0.24027 -0.13900
0.03165 0.23220 -0.28620
0.00216 0.23466 -0.21310
-0.08864 0.24224 -0.10399
0.16537 0.04574 0.32297
0.13477 0.02197 0.32297
0.14569 0.06354 -0.15763
0.18403 -0.10358 -0.30624
0.17336 -0.10989 -0.30624
0.20475 -0.11404 -0.30624
0.12094 0.06533 0.11550
0.12861 0.06427 0.22625
-0.15478 -0.22687 -0.32963
0.15770 -0.24126 0.29452
-0.12215 -0.23610 -0.33470
0.22645 0.03476 0.32297
-0.04634 0.16020 -0.30624
-0.02159 -0.21220 -0.32113
0.07331 0.06309 -0.11997
0.07331 0.06131 -0.04602
0.07331 0.06117 0.09015
-0.17718 -0.22658 -0.30257
-0.21388 0.25528 -0.08718
-0.21388 0.25810 0.26344
0.16493 -0.22658 0.32544
0.17722 -0.19469 0.30604
0.13693 -0.09199 0.30604
0.16912 -0.19334 0.30604
0.15742 -0.11928 0.30604
0.10505 -0.16411 0.30604
0.11337 -0.09421 0.30604
0.14139 -0.21510 0.30604
0.11376 -0.22518 0.30604
-0.21990 0.23674 0.33561
0.24797 0.18843 -0.16779
0.24398 0.18843 -0.00761
0.24260 0.18843 0.20336
0.23949 0.18843 0.25555
0.17206 -0.26987 -0.33470
0.20718 0.06002 0.21808
0.20718 0.05220 0.11698
0.20718 0.06270 0.15542
-0.09843 0.14695 0.23989
-0.16040 0.25463 -0.27572
-0.12605 -0.22769 0.29777
-0.20199 0.22066 0.30624
-0.19109 0.22095 0.30624
-0.20350 0.16659 0.30624
-0.20982 0.22720 0.30624
0.03946 -0.25895 0.29452
0.16632 -0.24946 0.29452
-0.20981 0.25838 -0.06969
-0.21017 0.25841 0.17121
-0.21331 0.25869 -0.05850
-0.20691 0.25813 -0.09117
-0.19681 0.25643 -0.11660
-0.17808 0.15086 -0.30624
-0.21990 0.21917 0.02682
-0.21990 0.25581 -0.18691
-0.21990 0.17621 0.19145
-0.21990 0.24868 -0.11945
-0.21990 0.21572 0.12707
-0.21990 0.22637 0.27237
-0.21990 0.21410 0.25451
-0.21990 0.26705 0.05591
-0.21990 0.16147 0.27640
-0.21990 0.24443 -0.15341
-0.21990 0.24656 -0.10468
-0.21990 0.24229 0.29548
-0.21990 0.18706 0.30603
-0.21990 0.19118 0.14921
-0.21990 0.25185 0.06159
-0.21990 0.26984 -0.08962
-0.21990 0.26447 -0.23758
-0.21990 0.23014 0.29850
-0.21990 0.25182 -0.06862
-0.21990 0.20283 0.23004
-0.21990 0.20157 0.06346
-0.21990 0.21543 0.27589
-0.21990 0.20684 0.21762
-0.21990 0.23570 0.11071
-0.21990 0.23783 0.04538
-0.21990 0.26173 -0.04164
-0.21990 0.23698 0.27686
-0.21990 0.26695 -0.10558
-0.21990 0.22528 -0.04993
0.13614 -0.26005 -0.33063
0.08303 -0.26005 -0.30035
0.12077 -0.26005 -0.29865
0.00370 -0.26005 -0.30223
0.12616 -0.04400 0.30604
0.18082 -0.13735 0.30604
0.25069 0.20822 0.13434
0.25069 0.18892 -0.13489
0.25069 0.21673 0.20792
0.25069 0.21234 0.18466
0.25069 0.19499 0.05600
0.25069 0.21073 0.15659
0.25069 0.22534 0.32210
0.25069 0.19199 -0.19964
0.25069 0.20415 -0.00941
-0.11273 0.20475 -0.32297
-0.12721 0.15228 -0.11911
-0.13667 0.15228 -0.10077
-0.13673 0.15228 -0.27386
-0.16420 0.15228 -0.26704
-0.15597 0.15228 -0.18285
-0.11425 0.15228 -0.27490
-0.12030 0.15228 -0.09662
-0.10461 0.15228 -0.23488
-0.11466 0.15228 -0.11999
-0.12473 0.15228 -0.14563
-0.14410 0.15228 -0.20183
-0.15761 0.15228 -0.22524
-0.15486 0.15228 -0.16534
-0.13458 0.15228 -0.20580
-0.21388 0.16604 -0.22223
-0.21388 0.16529 -0.16496
-0.21388 0.19299 -0.27160
-0.21388 0.18030 -0.24267
-0.21388 0.15566 -0.23952
-0.21388 0.23555 -0.27121
-0.21388 0.18141 -0.13207
-0.21388 0.15662 -0.08719
-0.21388 0.18291 -0.26423
-0.21388 0.18300 -0.18573
-0.21388 0.22758 -0.28004
-0.21388 0.18654 -0.17352
0.23199 0.22734 -0.06304
0.20600 -0.27009 0.33255
0.22752 0.05436 0.30624
-0.08056 0.20923 -0.00301
-0.10737 0.21084 -0.00301
-0.04360 0.21045 -0.00301
-0.08122 0.19922 -0.00301
-0.18995 0.25664 0.04068
0.23547 0.23202 0.19625
-0.02244 0.20804 -0.32297
0.16459 0.06537 -0.20872
-0.00309 0.23425 0.17520
-0.18446 0.25533 -0.10470
0.04986 -0.22684 -0.32954
0.21773 -0.27009 -0.32195
0.24664 -0.22710 -0.30937
0.20718 -0.20926 0.30648
-0.11109 0.24775 0.00977
0.07428 0.06603 0.29380
-0.21955 0.27009 -0.06935
-0.21877 0.27009 -0.23206
-0.12201 0.24465 -0.31285
0.00104 0.22422 -0.32297
0.21472 -0.02674 0.30624
0.09291 0.05188 0.31813
0.18109 0.01824 0.30604
0.12431 0.00134 0.30604
0.20076 -0.06872 0.30604
0.18080 -0.03171 0.30604
0.17917 -0.01333 0.30604
0.14822 -0.01976 0.30604
-0.20294 -0.26337 0.29452
-0.23911 -0.26063 0.29452
-0.19792 0.25693 -0.13100
0.20766 -0.27009 -0.31507
0.19472 0.06794 0.06090
0.09940 0.05188 0.27632
0.09703 0.05188 0.17080
0.09466 0.05188 0.09449
0.09562 0.05188 0.24573
0.09956 0.05188 0.11508
0.00409 0.24055 0.17476
-0.14178 0.25273 0.02204
-0.08468 0.24796 0.04395
0.02668 0.23866 0.22931
0.00840 0.24019 0.24815
0.00487 0.24048 0.12212
-0.09318 0.24867 0.11050
-0.01435 0.24209 0.19276
-0.01972 0.24254 0.20495
-0.00423 0.24124 0.08422
0.03482 0.23798 0.23396
-0.04494 0.24464 0.06197
-0.04019 0.24424 0.08254
0.04134 0.23744 0.12386
-0.01320 0.24199 0.09516
-0.06077 0.24596 0.11343
-0.06288 0.24614 0.07370
-0.04807 0.24490 0.12857
-0.06628 0.24642 0.08067
-0.06176 0.24605 0.03941
-0.11724 0.25068 0.01832
-0.03591 0.24389 0.13101
0.03449 0.23801 0.03544
-0.09803 0.14729 -0.06565
-0.06376 0.20751 0.32297
-0.06888 0.24059 -0.00053
-0.13790 0.11572 0.30624
-0.11168 0.11877 0.30624
-0.13921 0.14003 0.30624
-0.21990 0.24451 0.32503
0.24907 0.06597 0.32297
-0.15806 0.25158 -0.12876
-0.21052 0.25844 0.31075
0.01688 0.23542 -0.00970
-0.13422 0.24572 -0.30943
0.24553 0.23298 0.15329
-0.09673 0.04979 -0.31238
-0.09019 0.14758 0.30624
0.12743 -0.00996 0.32297
0.11126 0.00257 0.32297
0.18711 0.02974 0.32297
0.16659 -0.02410 0.32297
0.14522 0.01913 0.32297
0.15898 -0.02052 0.32297
-0.18563 -0.25403 0.29452
-0.07853 -0.24049 0.29452
-0.19729 0.25124 0.29451
-0.17349 0.24916 0.04462
-0.17695 0.24946 0.20569
-0.19138 0.25072 0.22297
-0.18109 0.24982 0.09989
-0.23681 -0.26817 0.33468
0.25102 -0.24201 0.30657
-0.01386 -0.23199 0.29472
-0.07888 0.23779 -0.30624
-0.06688 0.23015 -0.30624
-0.03958 0.22429 -0.30624
0.08402 -0.24509 0.33468
-0.10979 0.23809 -0.00301
-0.19366 0.25538 0.26297
-0.19062 0.07046 0.30624
0.11497 0.06649 0.26735
-0.19649 0.25722 0.05790
-0.21388 0.16561 0.06608
-0.21388 0.21858 0.21130
-0.18302 0.25604 -0.01703
0.24192 0.14254 0.30624
-0.15396 0.17400 -0.32297
-0.15110 0.20946 -0.32297
-0.16214 0.16891 -0.32297
-0.18219 0.18951 -0.32297
-0.16770 -0.26959 -0.33470
0.07490 -0.22658 0.30240
-0.13967 0.25255 -0.29254
-0.08030 0.24759 -0.12685
-0.08827 0.24826 -0.14206
-0.05877 0.24580 -0.13834
-0.11311 0.25033 -0.14227
-0.11214 0.25025 -0.05660
0.02409 0.23888 -0.03511
-0.15426 0.25377 -0.15441
-0.10706 0.24983 -0.06569
-0.13801 0.25241 -0.26327
-0.11345 0.25036 -0.16308
-0.15127 0.25352 -0.12266
-0.09216 0.24858 -0.08787
-0.06296 0.24615 -0.06473
-0.08869 0.24829 -0.13315
0.00988 0.24006 -0.04959
-0.11810 0.25075 -0.24297
-0.09293 0.24865 -0.21019
-0.08341 0.24785 -0.02464
-0.10581 0.24972 -0.02038
-0.14843 0.25328 -0.10990
-0.09208 0.24858 -0.15953
-0.08993 0.24840 -0.10867
-0.00206 0.24106 -0.01593
-0.13977 0.25256 -0.18728
-0.00010 0.24090 -0.06788
-0.06091 0.15939 -0.32297
-0.21388 0.26160 -0.11314
-0.01641 -0.22239 0.22366
-0.19287 0.25690 0.31992
0.03118 -0.22661 -0.32804
-0.17026 0.06537 0.30624
-0.09955 -0.07518 0.30624
-0.19804 0.12073 0.30624
-0.10953 -0.06756 0.30624
-0.13381 0.09889 0.30624
-0.12161 0.02287 0.30624
-0.09727 -0.11382 0.30624
-0.14801 0.04367 0.30624
-0.20118 0.12801 0.30624
-0.12381 -0.01729 0.30624
-0.16285 0.25427 0.24657
-0.16858 0.25477 0.22506
0.15776 0.06439 0.31583
0.24896 0.18843 -0.31855
-0.14620 0.24705 -0.24395
-0.14193 0.24669 -0.30328
-0.14954 0.24733 -0.22301
-0.03598 0.23785 -0.29257
-0.13083 0.24577 -0.17771
-0.05841 0.23972 -0.23182
-0.05351 0.23931 -0.28391
-0.06282 0.24009 -0.17455
-0.10103 0.24328 -0.33453
-0.01226 0.23587 -0.29078
-0.04294 0.23843 -0.26949
-0.00206 0.23501 -0.30635
-0.14390 0.24686 -0.15576
0.01324 0.23374 -0.29744
-0.10509 0.24362 -0.22348
-0.02363 0.23681 -0.32712
-0.07852 0.24140 -0.17877
-0.11881 0.24476 -0.19461
-0.03643 0.23788 -0.24238
-0.09885 0.24310 -0.26616
0.02611 0.23266 -0.31346
-0.04687 0.23876 -0.20439
-0.15400 0.24770 -0.07884
0.15686 -0.26558 -0.31288
0.20602 -0.27009 -0.30157
-0.04393 -0.21913 -0.32768
0.17484 -0.22658 -0.32569
-0.10088 -0.20755 0.30624
0.18798 0.05188 0.30793
0.20718 -0.01945 -0.31811
-0.06306 0.16029 -0.30624
0.20718 -0.05405 0.31556
0.22191 -0.03110 0.31317
0.15919 0.06455 0.04842
0.15649 0.06425 -0.24196
-0.02956 0.23656 0.32075
0.09787 0.05188 -0.07304
0.08375 0.05188 0.25730
0.09479 0.05188 0.26598
0.08438 0.05188 0.18717
0.08922 0.05188 0.10493
-0.10138 0.15236 -0.28537
-0.23553 -0.27009 -0.32064
-0.19041 0.25064 0.10501
0.24764 -0.26193 -0.29453
-0.09673 -0.21781 -0.16963
-0.09673 -0.21230 -0.00190
-0.09673 -0.22041 -0.24703
-0.09673 -0.21353 -0.13658
0.11238 0.06711 -0.11951
0.18670 -0.24085 -0.29420
0.13837 0.06357 -0.17814
0.10198 0.05476 0.33502
-0.21388 -0.07977 0.30762
-0.21388 0.00815 0.31547
0.23644 0.18843 0.32578
-0.21990 0.14847 0.32080
0.25069 0.20787 0.33178
0.24103 0.23392 -0.11559
-0.08192 0.24773 0.30265
0.00336 0.24061 0.31604
-0.05163 0.24520 0.23105
-0.11712 0.25067 0.17628
-0.01392 0.24205 0.26971
-0.07236 0.24693 0.32462
-0.02181 0.24271 0.29028
-0.05045 0.24510 0.27700
-0.00278 0.24112 0.30027
-0.15104 0.25350 0.09674
-0.01161 0.24186 0.25933
-0.13919 0.25251 0.11220
-0.07173 0.24688 0.16744
-0.11815 0.25075 0.12664
-0.11347 0.25036 0.26091
-0.10540 0.24969 0.11752
-0.07445 0.24710 0.27665
-0.04901 0.24498 0.25392
-0.09441 0.24877 0.21805
-0.15458 0.25380 0.20017
-0.08395 0.24790 0.32628
-0.14852 0.25329 0.07931
-0.09491 0.24881 0.30329
0.05780 -0.23237 -0.33457
0.07749 0.06790 -0.13494
-0.07511 0.14591 0.32297
0.20687 -0.22677 -0.29998
0.22839 0.03711 -0.32297
-0.07645 -0.24125 0.33468
-0.11885 0.24846 -0.33762
0.24000 0.16979 -0.30624
-0.10102 0.16405 0.32297
-0.11674 0.21434 0.32297
-0.12427 0.10332 0.32297
-0.18785 0.14974 0.32297
-0.10268 0.19379 0.32297
-0.13112 0.12966 0.32297
-0.15390 0.13241 0.32297
0.18161 -0.25566 0.33468
0.23927 0.04307 -0.32297
-0.21388 0.19590 -0.09656
-0.21388 0.20145 -0.05041
-0.21388 0.18419 -0.07701
-0.21388 0.17059 -0.05156
-0.21388 0.18835 -0.09832
-0.21388 0.21738 -0.09438
-0.21388 0.19464 -0.02650
-0.21388 0.21517 -0.02707
0.10371 0.05188 -0.32628
0.15182 0.00370 0.32297
0.18734 -0.02990 0.32297
0.13011 -0.00124 0.32297
0.19943 -0.04146 0.32297
0.20517 0.00421 0.32297
0.16057 0.02114 0.32297
0.03999 0.23755 -0.03446
-0.09302 0.24865 -0.26077
-0.11543 0.25053 -0.32511
0.03874 0.23765 -0.22436
0.03191 0.23822 -0.21447
-0.07195 0.24690 -0.28416
-0.08560 0.24804 -0.24978
-0.03996 0.24422 -0.18363
-0.00386 0.24121 -0.31849
0.03783 0.23773 -0.08552
-0.03494 0.24381 -0.17882
0.03044 0.23835 -0.15072
-0.06967 0.24671 -0.27046
-0.01858 0.24244 -0.23407
0.03931 0.23761 -0.11746
-0.02874 0.24329 -0.12740
0.00843 0.24018 -0.16320
-0.07329 0.24701 -0.25326
-0.01696 0.24230 -0.31781
-0.06089 0.24597 -0.19126
-0.00010 0.24090 -0.24141
-0.01564 0.24219 -0.22237
0.00279 0.24066 -0.07838
0.02824 0.23853 -0.33390
0.03793 0.23772 -0.07480
-0.01028 0.24175 -0.09735
-0.02270 0.19150 -0.30624
-0.12722 0.24605 -0.33762
0.07438 0.05188 0.11926
0.07807 0.05188 -0.18615
-0.05357 -0.21186 -0.08682
-0.03540 -0.21186 -0.30396
-0.07850 -0.21186 -0.32076
-0.05818 -0.21186 -0.31860
-0.02710 -0.21186 0.13324
-0.03693 -0.21186 -0.25859
-0.03370 -0.21186 0.21763
-0.07623 -0.21186 -0.25815
-0.03174 -0.21186 0.09477
-0.03594 -0.21186 -0.21789
-0.05132 -0.21186 -0.01083
-0.04612 -0.21186 0.05281
-0.02561 -0.21186 -0.08519
-0.06998 -0.21186 -0.14287
-0.06150 -0.21186 -0.22478
-0.04153 -0.21186 -0.01287
-0.06714 -0.21186 -0.13310
-0.08122 -0.21186 -0.30415
-0.16831 0.25475 -0.16606
-0.17765 0.25557 -0.23866
-0.04756 0.23907 -0.00782
-0.17218 -0.11390 0.32297
-0.20589 -0.15028 0.32297
-0.15367 -0.18719 0.32297
-0.17716 0.00882 0.32297
-0.21304 -0.16215 0.32297
-0.20649 -0.00782 0.32297
-0.21280 0.01198 0.32297
-0.20270 0.00421 0.32297
-0.20432 -0.05206 0.32297
-0.20053 0.02507 0.32297
-0.16847 -0.05463 0.32297
-0.21186 -0.11013 0.32297
-0.17936 -0.18430 0.32297
-0.17528 -0.08601 0.32297
-0.19429 -0.08912 0.32297
-0.05748 0.20945 0.32297
-0.15146 0.15320 0.00301
-0.19687 0.15739 0.00301
-0.15448 0.15974 0.00301
-0.18417 0.12100 -0.30624
-0.10678 0.09245 -0.30624
-0.11921 -0.06996 -0.30624
-0.15614 0.03525 -0.30624
-0.11624 -0.05366 -0.30624
-0.12197 -0.10653 -0.30624
-0.18289 0.12812 -0.30624
-0.15850 0.05083 -0.30624
-0.12596 -0.04803 -0.30624
-0.14524 -0.02277 -0.30624
-0.18001 0.08836 -0.30624
-0.12234 -0.07980 -0.30624
-0.11166 0.01623 -0.30624
-0.20252 0.10697 -0.32297
-0.09033 0.24843 0.07062
-0.05038 0.24510 0.06840
-0.04708 0.24482 0.09005
0.01363 0.23975 0.21100
-0.05179 0.24521 0.17917
0.00433 0.24053 0.19386
-0.12352 0.25120 0.03824
-0.03522 0.24383 0.19051
0.02871 0.23849 0.21220
-0.02747 0.24318 0.21863
-0.07389 0.24706 0.09937
-0.01972 0.24254 0.14607
-0.03583 0.24388 0.04729
0.02709 0.23863 0.10984
0.01769 0.23941 0.28853
0.03020 0.23837 0.13225
0.03687 0.23781 0.17247
-0.08952 0.24836 0.09531
-0.00331 0.24116 0.09160
-0.01930 0.24250 0.09757
-0.02572 0.24304 0.08492
0.02575 0.23874 0.20305
-0.05930 0.24584 0.04520
-0.02402 0.24289 0.10482
-0.01671 0.24228 0.07000
-0.03900 0.24415 0.16848
0.10999 0.06770 -0.23815
0.24390 -0.22750 -0.29810
0.23702 0.18843 0.18253
0.24879 0.18843 0.22120
0.24733 0.18843 -0.06302
0.24727 0.18843 0.14139
0.25102 -0.23939 0.29455
-0.01984 0.24255 0.00733
0.25069 0.04681 0.31761
-0.10998 0.24359 0.00301
0.11822 -0.25812 0.29452
0.09075 -0.25876 0.29452
-0.15738 0.21612 -0.32297
-0.13303 0.19151 -0.32297
-0.17989 0.20861 -0.32297
-0.11341 0.18573 -0.32297
-0.15972 0.19170 -0.32297
-0.16562 0.24847 0.01255
-0.02312 -0.25650 -0.33470
-0.01124 -0.25532 -0.33470
-0.21388 0.26806 0.18855
-0.21388 0.26975 -0.27196
-0.21388 0.26475 0.28607
0.23195 0.19916 -0.31444
0.23195 0.21369 -0.08982
0.23195 0.22319 -0.11098
0.23195 0.21571 -0.05190
0.23195 0.21119 -0.18516
0.23195 0.19849 -0.16664
0.23195 0.22579 0.19476
0.23195 0.19908 -0.25287
0.23195 0.21184 -0.23663
0.13062 0.06405 -0.20333
0.12954 0.06417 0.04597
-0.09461 0.09551 -0.30624
0.00603 -0.22658 -0.30444
0.24444 0.07884 -0.32297
-0.07068 -0.22658 0.31269
-0.16640 0.24359 -0.00301
-0.09278 0.15978 0.04228
-0.08941 0.16268 0.11533
-0.08982 0.16233 0.18791
-0.09771 0.15553 0.17045
-0.08701 0.16475 0.12699
-0.06878 0.18047 0.27131
-0.07502 0.17509 0.22755
-0.01502 0.22682 0.28529
-0.09599 0.15701 0.29329
-0.07959 0.17114 0.17253
-0.05525 0.19213 0.23111
0.23257 0.22859 0.02855
0.12512 0.06468 -0.31863
0.12551 0.06462 0.21136
-0.04920 0.16933 -0.30624
-0.00454 0.19890 -0.30624
-0.01982 -0.24778 0.29452
-0.19387 0.25544 0.25020
-0.11479 0.15228 0.27318
-0.15697 0.15228 0.29279
-0.19328 0.15228 0.27910
-0.20038 0.15228 0.22037
-0.14737 0.15228 0.23008
-0.18532 0.15228 0.25917
-0.14366 0.15228 0.28267
-0.13468 0.15228 0.22656
-0.19275 0.15228 0.11328
-0.14239 0.15228 0.30301
-0.18278 0.15228 0.16492
-0.16032 0.15228 0.25627
-0.17902 0.15228 0.14594
-0.15789 0.25357 0.08518
0.20718 -0.02489 0.31045
-0.20748 0.17070 -0.30624
-0.18197 0.21454 -0.30624
-0.19221 0.18969 -0.30624
0.07714 0.05188 -0.25715
0.07472 0.05188 -0.26486
0.04677 -0.24695 -0.29453
0.23486 0.23148 0.06034
-0.05761 -0.21186 0.00986
-0.03784 -0.21186 -0.02474
-0.03613 -0.21186 -0.31110
-0.03751 -0.21186 -0.07057
-0.05471 -0.21186 0.04108
-0.03339 -0.21186 -0.23348
-0.04784 -0.21186 -0.22711
-0.03609 -0.21186 0.02955
-0.06176 -0.21186 -0.26986
-0.02853 -0.21186 -0.01360
-0.05172 -0.21186 -0.11635
-0.04716 -0.21186 0.08041
-0.08527 -0.21186 -0.25003
-0.03714 -0.21186 -0.05492
0.16311 -0.24935 -0.33470
0.00392 -0.25623 -0.33470
0.19788 0.06794 0.07008
0.20174 0.06794 -0.18871
0.17877 0.06794 -0.32124
0.19607 0.06794 -0.02731
0.20298 0.06794 -0.27553
0.19329 0.06794 -0.23856
0.20045 0.06794 -0.25855
-0.03031 0.17225 -0.32220
-0.02915 0.17315 0.30966
0.12151 -0.26005 0.32024
0.06776 -0.26005 0.31204
0.03881 -0.26005 0.32382
0.13051 -0.26005 0.29740
-0.21388 0.23301 0.33700
0.15055 -0.23628 -0.33470
0.17978 -0.23622 -0.33470
-0.21388 0.14474 0.23486
-0.21990 0.21252 -0.06448
-0.21990 0.20462 -0.00728
-0.21990 0.20467 -0.20246
-0.21990 0.17967 -0.07801
-0.21990 0.15645 -0.13264
-0.21990 0.26084 -0.31869
-0.21990 0.16546 -0.04421
-0.21990 0.14285 0.22888
-0.21990 0.17270 -0.22952
-0.21990 0.16290 -0.13245
-0.21990 0.22456 -0.19010
-0.21990 0.18474 -0.20563
-0.21990 0.16063 -0.14259
-0.21990 0.23174 -0.19235
-0.21990 0.16920 0.14625
-0.21990 0.21966 -0.19436
-0.21990 0.18459 -0.26263
-0.21990 0.15243 -0.23092
-0.21990 0.18989 -0.21317
-0.21990 0.17980 -0.18454
-0.21990 0.18901 -0.19140
-0.21990 0.15210 -0.05665
-0.21990 0.16863 -0.14121
-0.21990 0.16092 0.08223
-0.21990 0.16348 0.10005
-0.21990 0.19948 -0.23460
-0.21990 0.21233 -0.16524
-0.21990 0.24878 -0.32457
-0.21990 0.20538 -0.07383
-0.03569 0.19058 0.30624
0.24979 0.06166 0.30624
-0.00297 -0.26005 0.29516
-0.12235 -0.26005 0.30146
0.00041 -0.26005 0.30218
0.07956 -0.26005 0.30342
-0.10477 -0.26005 0.29657
0.05537 -0.22662 0.30098
-0.20275 -0.23924 0.29452
-0.21388 0.10124 -0.30829
-0.14967 0.17553 -0.00301
-0.16142 0.16971 -0.00301
-0.15549 0.15832 -0.00301
-0.17387 0.24418 0.30624
-0.10001 0.18202 0.30624
-0.14921 0.20085 0.30624
-0.15745 0.23547 0.30624
0.22498 -0.22658 -0.30814
-0.10465 0.12306 0.30624
-0.15034 0.14438 0.30624
0.25102 -0.24088 -0.32351
0.07320 -0.22658 -0.31794
0.12635 -0.13451 0.32297
0.12637 -0.12774 0.32297
0.15522 -0.15105 0.32297
0.15687 -0.19572 0.32297
0.10048 -0.16875 0.32297
0.16554 -0.18396 0.32297
0.11364 -0.06075 0.32297
0.23254 0.05102 0.30624
0.14578 0.06354 -0.21187
0.14551 0.06354 -0.14247
0.21421 0.05309 -0.32297
0.09092 0.06794 -0.17571
0.10268 0.06794 -0.22618
0.10560 0.06794 0.07740
0.08599 0.06794 -0.21647
0.10749 0.06794 -0.18201
0.10848 0.06794 -0.07308
0.01057 0.23404 0.33770
0.17505 -0.27009 0.32008
-0.05129 0.24517 -0.26141
0.01648 0.23951 -0.11276
0.01804 0.23938 -0.31575
0.00019 0.24087 -0.09559
0.00363 0.24058 -0.19983
0.04191 0.23739 -0.04807
-0.00304 0.24114 -0.12306
-0.00278 0.24112 -0.25425
0.02164 0.23908 -0.22978
-0.10265 0.24946 -0.26997
-0.07288 0.24697 -0.20904
0.03874 0.23765 -0.13874
0.04187 0.23739 -0.15488
0.00989 0.24006 -0.26193
-0.08002 0.24757 -0.21038
-0.00793 0.24155 -0.17681
0.04009 0.23754 -0.02425
0.01847 0.23935 -0.06359
-0.05107 0.24515 -0.26812
-0.01596 0.24222 -0.19930
0.03904 0.23763 -0.19375
-0.09537 0.24885 -0.33673
0.03865 0.23766 -0.30096
0.02956 0.23842 -0.31006
0.03008 0.23838 -0.24350
-0.17124 0.15228 -0.21988
-0.14181 0.15228 -0.19500
-0.19065 0.15228 -0.24888
-0.17048 0.15228 -0.22958
-0.11308 0.15228 -0.22522
-0.10148 0.15228 -0.11162
-0.11069 0.15228 -0.28516
-0.19200 0.15228 -0.25675
-0.19738 0.15228 -0.27486
-0.12973 0.15228 -0.12454
-0.12856 0.15228 -0.29569
-0.17358 0.15228 -0.24800
-0.22882 -0.27009 -0.30382
-0.16010 -0.27009 -0.33079
-0.20422 0.25184 0.15231
0.00467 0.22803 -0.30624
-0.09673 -0.18062 0.31034
-0.09673 -0.07436 0.31464
0.01560 0.23683 0.00977
-0.15805 0.25169 0.31903
-0.20331 0.15228 -0.07376
-0.18079 0.15228 -0.15123
-0.21082 0.15228 -0.21172
-0.15685 0.15228 -0.07532
-0.18188 0.15228 -0.16518
-0.18407 0.15228 -0.07912
-0.17927 0.15228 -0.14314
-0.14252 0.15228 -0.08229
-0.15006 0.15228 -0.04730
-0.18913 0.15228 -0.03689
-0.20396 0.15228 -0.12504
-0.20837 0.15228 -0.09220
-0.07102 -0.22777 -0.33156
-0.09915 0.14633 -0.22269
-0.21388 0.21768 0.32728
0.04188 -0.22714 -0.29882
0.08999 0.06794 0.19104
0.08328 0.06794 0.18359
0.09127 0.06794 0.27450
0.08103 0.06794 0.26008
0.08034 0.06794 -0.00938
0.09691 0.06794 0.28548
0.07948 0.06794 0.13389
0.07846 0.06794 -0.21102
0.08118 0.06794 -0.15881
0.25059 0.22747 0.28921
0.22358 -0.22658 0.31361
0.22047 0.04542 0.30624
-0.21388 -0.22398 0.31496
-0.21388 -0.16413 0.30992
0.15437 -0.08755 0.30604
0.19932 -0.17662 0.30604
0.19323 -0.18259 0.30604
0.24015 0.23383 -0.01077
0.21192 0.04724 -0.30624
-0.24731 -0.25859 0.33468
-0.21990 0.24330 -0.33130
-0.01939 -0.21331 -0.26840
-0.16914 0.25482 0.29697
-0.01641 -0.22007 0.29304
-0.21212 -0.23148 -0.33435
0.07331 0.05555 0.26961
0.07331 0.05926 0.29872
0.07331 0.05814 0.00516
-0.00475 0.23439 0.25781
0.17739 -0.26656 0.33468
0.15529 -0.26294 -0.33265
0.06374 -0.23773 -0.33470
0.24122 0.11020 -0.30624
0.23795 0.09089 -0.30624
-0.09479 0.18576 -0.32297
0.15446 0.06403 -0.31605
0.15782 0.06440 -0.10257
0.24922 0.22993 -0.28093
0.20105 0.05188 -0.32086
-0.04820 0.15352 0.30624
-0.16736 -0.22349 0.32297
0.17363 -0.00213 0.30604
0.16705 0.00599 0.30604
0.16992 -0.04783 0.30604
0.18310 -0.02472 0.30604
-0.17613 0.25543 -0.33166
-0.19436 0.25703 -0.32759
-0.14994 0.15228 0.01946
-0.11844 0.15228 0.11299
-0.16648 0.15228 0.03073
-0.13080 0.15228 0.14087
-0.14852 0.15228 0.08633
-0.12952 0.15228 0.04772
-0.12866 0.15228 0.03029
-0.11594 0.15228 0.23102
-0.11356 0.15228 0.16847
-0.10291 0.15228 0.12082
-0.13689 0.15228 0.08377
0.23195 0.22116 0.23449
0.23195 0.20559 0.31695
0.23195 0.20125 0.22237
0.23195 0.19151 -0.03612
0.23195 0.19396 0.10383
0.23195 0.19514 0.28745
0.23195 0.19224 -0.13959
0.23195 0.19778 0.30567
0.23195 0.19118 -0.26060
0.23195 0.19277 -0.06713
-0.04927 0.19729 -0.05359
-0.03579 0.20891 -0.09429
-0.08301 0.16820 -0.11028
-0.07928 0.17141 -0.22415
-0.04179 0.20373 -0.09809
-0.08767 0.16418 -0.13487
-0.05568 0.19176 -0.06348
-0.08183 0.16922 -0.04982
-0.09281 0.15975 -0.17656
-0.08948 0.16262 -0.02308
-0.03557 0.20910 -0.03755
-0.07438 0.17564 -0.14082
-0.09446 0.15832 -0.05091
-0.02560 0.21769 -0.05223
-0.19590 0.20679 0.32297
-0.19323 0.17698 0.32297
-0.21286 0.24807 0.32297
-0.25102 -0.24911 0.31781
-0.05903 -0.22773 0.33148
-0.11671 0.14950 -0.30624
0.07331 0.05960 -0.25912
0.07331 0.05348 -0.32289
0.20928 -0.24610 -0.33470
-0.20354 0.25783 0.21960
0.10008 0.00715 -0.32113
-0.02858 0.24327 0.23365
-0.08506 0.24799 0.17622
-0.11209 0.25025 0.10076
-0.11217 0.25025 0.25433
-0.15416 0.25376 0.16900
0.01168 0.23991 0.29407
-0.02452 0.24294 0.32817
-0.05467 0.24545 0.31264
-0.04313 0.24449 0.19818
0.00510 0.24046 0.32477
-0.01084 0.24179 0.29194
-0.04794 0.24489 0.33218
-0.11276 0.25030 0.32363
-0.10993 0.25007 0.24608
-0.13549 0.25220 0.23893
-0.13287 0.25198 0.23194
-0.15472 0.25381 0.15020
-0.08354 0.24786 0.26189
-0.14401 0.25291 0.24353
-0.06998 0.24673 0.33450
-0.03138 0.24351 0.25249
0.00219 0.24071 0.29258
0.02926 0.23844 0.32473
-0.14916 0.25334 0.27949
0.11750 0.06598 0.30079
0.07639 0.06762 0.27776
-0.21797 0.27009 0.29730
0.04644 -0.22658 0.31642
0.21329 -0.05917 0.30624
0.15600 -0.21506 -0.32297
0.11114 -0.18818 -0.32297
0.15437 -0.19247 -0.32297
0.13108 -0.17818 -0.32297
0.10670 -0.11464 -0.32297
0.15272 -0.14540 -0.32297
0.11329 -0.05947 -0.32297
0.15724 -0.17144 -0.32297
0.25102 -0.26672 0.32242
0.07962 -0.22658 0.32422
-0.16067 0.24803 -0.20304
0.12768 -0.20681 -0.32297
0.14022 -0.12538 -0.32297
0.11379 -0.18047 -0.32297
0.10354 -0.07613 -0.32297
0.13653 -0.09312 -0.32297
0.16725 -0.15238 -0.32297
0.19500 -0.21948 -0.32297
0.13697 -0.07734 -0.32297
0.18494 -0.17974 -0.32297
-0.09673 -0.02147 0.31767
-0.09673 -0.04480 0.31791
0.22206 -0.00400 0.32123
0.23195 0.21339 0.16861
0.23195 0.22167 0.26995
0.23195 0.21691 0.21865
0.23195 0.21310 0.31747
0.23195 0.18859 -0.14604
0.23195 0.20728 0.14847
0.23195 0.20448 0.13452
0.23195 0.18850 -0.20840
0.23195 0.20775 0.11830
0.23195 0.21340 0.18755
0.22751 -0.21930 -0.30624
-0.05666 0.24562 -0.05786
-0.11196 0.25024 -0.20405
-0.14705 0.25317 -0.29245
-0.12503 0.25133 -0.14813
-0.06568 0.24637 -0.17335
-0.15341 0.25370 -0.05828
-0.09394 0.24873 -0.06947
-0.15581 0.25390 -0.16642
-0.10788 0.24990 -0.03926
-0.15756 0.25405 -0.25999
-0.10758 0.24987 -0.24592
-0.14182 0.25273 -0.23934
-0.08375 0.24788 -0.14936
-0.15493 0.25383 -0.21438
-0.14854 0.25329 -0.26483
-0.14110 0.25267 -0.21341
0.02947 0.23843 -0.01082
-0.13252 0.25195 -0.11687
0.00466 0.24050 -0.05723
-0.11528 0.25051 -0.09090
-0.15229 0.25361 -0.29958
-0.01458 0.24210 -0.02937
-0.04906 0.24499 -0.07571
-0.09525 0.24884 -0.04880
-0.10132 0.24935 -0.03765
-0.02096 -0.21242 -0.11909
-0.20882 0.14626 -0.07698
-0.20122 0.14626 -0.22069
-0.17510 0.14626 -0.02471
-0.20903 0.14626 0.25021
-0.15640 0.14626 0.13811
-0.19916 0.14626 0.18652
-0.15693 0.14626 0.17938
-0.19186 0.14626 0.16985
-0.18009 0.14626 0.03741
-0.15066 0.14626 0.07364
-0.16292 0.14626 0.11160
-0.19000 0.14626 -0.09358
-0.20783 0.14626 -0.10387
-0.19940 0.14626 -0.19096
-0.20247 0.14626 0.13697
-0.19860 0.14626 0.11865
-0.20164 0.14626 0.12923
-0.21090 0.14626 -0.19140
-0.21049 0.14626 0.15895
-0.19857 0.14626 0.16424
-0.15247 0.14626 0.06571
-0.19750 0.14626 0.18026
-0.13279 0.14626 0.16852
-0.20755 0.14626 0.07638
-0.20471 0.14626 0.08180
-0.19772 0.14626 0.01396
-0.19201 0.14626 0.10711
0.25027 0.22816 0.08566
-0.17229 0.25510 -0.30511
0.08068 0.05188 0.22219
0.08533 0.05188 -0.06173
0.08569 0.05188 -0.23662
0.08640 0.05188 0.01337
0.09011 0.05188 -0.16503
-0.20355 0.25783 -0.14007
-0.20683 0.25812 -0.28174
0.24509 0.03348 0.32297
0.24325 0.23375 0.31271
-0.14484 0.02686 -0.32297
-0.10237 -0.07745 -0.32297
-0.15580 0.08463 -0.32297
