0.13858 0.21308 0.08837
0.31899 0.07008 -0.01073
0.31984 0.20467 -0.04875
0.31984 0.12191 0.03098
-0.31984 0.15568 0.00213
-0.31984 0.13750 0.02122
-0.21023 0.21308 -0.02802
0.17960 0.21308 0.22703
-0.02718 0.21308 -0.04305
0.31984 0.19274 0.03435
0.15075 0.21308 0.20161
0.00831 0.18671 0.11206
0.00117 0.18671 0.27581
0.01584 0.18671 0.19751
0.00671 0.18671 -0.01952
0.00578 0.18671 0.04998
0.00055 0.18671 0.28266
0.03032 0.18671 0.28807
0.00118 0.18671 0.00784
0.00670 0.18671 -0.05634
0.00030 0.18671 0.25777
0.02132 0.18671 0.09921
0.00171 0.18671 0.21894
0.02023 0.18671 0.31250
0.16883 0.21308 0.25153
0.04335 0.21308 -0.08589
-0.31984 0.20015 -0.12349
-0.01083 0.21308 0.04925
-0.31984 0.12056 -0.01041
-0.06188 0.18671 -0.18086
-0.05853 0.18671 0.13410
-0.05419 0.18671 0.20102
-0.05197 0.18671 0.28414
-0.04419 0.18671 0.16702
-0.04870 0.18671 0.24156
-0.05024 0.18671 0.00865
-0.05778 0.18671 -0.06232
-0.06144 0.18671 -0.13449
-0.06697 0.18671 0.11483
-0.06009 0.18671 0.05638
-0.06629 0.18671 -0.11265
-0.31984 0.17365 0.09615
-0.19922 0.21308 0.27162
-0.31984 0.21022 0.11210
-0.29542 0.00407 0.29347
-0.30793 -0.11555 0.29347
-0.29630 -0.02662 0.29347
-0.29938 -0.06581 0.29347
-0.31464 -0.16443 0.29347
-0.29934 -0.10787 0.29347
-0.29904 0.09886 0.29347
0.29347 -0.11602 0.31181
0.29347 -0.20305 0.30521
0.29347 -0.00649 0.31450
0.29347 -0.03101 0.30536
0.29347 -0.15580 0.31011
0.29347 -0.10469 0.30194
-0.01795 0.21308 0.16066
0.17586 0.21308 0.19059
0.13845 0.21308 0.07004
-0.29347 0.03964 0.30089
-0.29347 -0.14355 0.30526
-0.29347 0.01499 0.29845
-0.29347 -0.09907 0.30503
-0.29347 0.08818 0.29881
-0.29347 -0.16490 0.30888
-0.29347 -0.11126 0.29655
0.31984 0.14203 0.04064
-0.30721 0.21308 0.06790
-0.19297 0.21308 -0.12559
-0.13390 0.21308 -0.27715
-0.29347 0.05836 -0.30560
-0.29347 0.13623 -0.31095
-0.29347 -0.15025 -0.31667
-0.29347 0.10793 -0.31343
-0.29347 0.17954 -0.31538
-0.29347 0.04228 -0.30357
-0.18143 0.21308 0.06767
0.10943 0.21308 -0.24445
0.16144 0.21308 -0.24825
-0.15348 0.19714 -0.31899
-0.19436 0.19939 -0.31899
-0.16013 0.19272 -0.31899
0.03176 0.21308 -0.28998
0.05107 0.14368 -0.31899
-0.00118 0.21308 0.01748
0.04599 0.21308 -0.06657
-0.02168 0.18671 -0.30498
-0.01264 0.18671 -0.09951
-0.02155 0.18671 -0.25024
-0.00070 0.18671 -0.26245
-0.01399 0.18671 -0.17496
-0.00096 0.18671 -0.12864
-0.00637 0.18671 0.12845
-0.01066 0.18671 0.08694
-0.00334 0.18671 -0.19806
-0.01306 0.18671 -0.27743
-0.00191 0.18671 0.09373
-0.00411 0.21308 0.26934
0.11821 0.21308 0.27564
-0.31984 0.14705 0.05490
-0.31899 0.13568 -0.31828
-0.31899 -0.06977 -0.30476
-0.31899 -0.01096 -0.31408
-0.31899 -0.02414 -0.30781
-0.31899 -0.10551 -0.30647
-0.31899 0.07224 -0.31885
-0.31899 -0.14296 -0.31613
-0.11102 0.21308 -0.05855
0.13405 0.21308 -0.11379
-0.17979 0.21308 0.02587
-0.07741 0.21308 0.03411
0.20900 0.21308 0.25954
0.19501 0.21308 -0.02432
0.18029 0.21308 -0.03541
0.31984 0.19065 -0.01694
-0.11209 0.18671 0.10472
-0.10329 0.18671 0.18981
-0.10517 0.18671 -0.00259
-0.10316 0.18671 0.20000
-0.11274 0.18671 0.21868
-0.11246 0.18671 -0.05106
-0.10770 0.18671 -0.03608
-0.11274 0.18671 -0.07856
-0.10133 0.18671 -0.06969
-0.12302 0.18671 0.27051
-0.12290 0.18671 0.14220
-0.10053 0.18671 -0.30897
-0.10262 0.18671 0.17805
0.27342 0.21308 -0.01194
0.29347 -0.06123 -0.31043
0.29347 0.02224 -0.30750
0.29347 0.18537 -0.31449
0.29347 0.15805 -0.31633
0.29347 0.08495 -0.31096
0.29347 0.11949 -0.31825
0.29347 0.15843 -0.30635
-0.04865 0.15355 -0.31984
-0.14473 0.21308 -0.23999
-0.17033 0.21308 -0.03736
-0.31899 0.14298 -0.00282
-0.31984 0.20106 0.11678
0.00325 0.21308 0.17370
-0.01581 0.21308 0.29341
0.31899 0.19743 -0.23709
0.31899 0.19266 -0.17413
0.25512 0.21223 0.27083
0.20942 0.21223 0.27112
0.30678 0.21223 0.30349
0.31839 0.21223 0.25119
0.28556 0.21223 0.29369
0.23517 0.21223 0.25190
0.28673 0.21223 0.19855
0.27568 0.21223 0.26725
0.31022 0.21223 0.30840
0.29658 0.21223 0.18773
0.29568 0.21223 0.23746
0.30296 0.21223 0.21552
0.23752 0.21223 0.31859
0.22863 0.21223 0.26532
0.24394 0.21223 0.29390
0.08867 0.18671 0.19120
0.09749 0.18671 0.31621
0.07904 0.18671 0.04041
0.07377 0.18671 0.27725
0.08002 0.18671 -0.04775
0.08203 0.18671 -0.00829
0.08830 0.18671 0.18152
0.07709 0.18671 0.02831
0.06868 0.18671 -0.27010
0.07398 0.18671 0.23408
0.06825 0.18671 0.21552
-0.11453 0.21308 0.25132
0.21280 0.21308 -0.18870
0.09514 0.21308 -0.21323
-0.09388 0.21308 -0.18205
-0.17656 0.21308 -0.21253
0.25107 0.21308 -0.07435
-0.13965 0.21308 -0.01097
-0.07193 0.12467 0.31958
-0.12023 0.21308 0.08435
-0.29965 0.21308 0.10445
-0.20581 0.21308 0.03574
0.19652 0.21308 0.15842
-0.01671 0.21308 -0.29570
-0.05617 0.21308 0.28086
-0.06012 0.21308 -0.16426
-0.10542 0.21308 -0.10706
0.31984 0.16631 0.03412
0.05372 0.21308 -0.24600
0.20512 0.21308 0.10269
0.00001 0.08776 0.31899
-0.06625 0.21308 -0.01904
0.06209 0.18671 0.18542
0.06052 0.18671 -0.08752
0.06096 0.18671 0.06124
0.05629 0.18671 -0.02398
0.04879 0.18671 -0.26861
0.05103 0.18671 -0.04178
0.04976 0.18671 -0.22356
0.06017 0.18671 -0.24710
0.05410 0.18671 -0.01209
0.06365 0.18671 -0.15140
0.06650 0.18671 -0.02476
0.05238 0.18671 -0.07300
-0.18240 0.21308 -0.21977
0.31984 0.18178 -0.11505
-0.08494 0.21308 0.12562
-0.17254 0.21308 -0.19675
0.29908 0.21308 0.14534
-0.31899 0.18578 -0.10330
-0.18681 0.21308 -0.05232
0.08422 0.21308 0.17364
0.04925 0.12838 0.31899
-0.05720 0.11070 0.31899
0.14591 0.21308 -0.29801
0.31721 -0.11759 -0.29347
0.30186 0.14505 -0.29347
0.30619 0.10610 -0.29347
0.31705 0.10458 -0.29347
0.31167 0.00982 -0.29347
-0.29527 0.21308 0.14736
0.06645 0.21308 -0.02037
-0.31374 0.20525 0.31899
-0.29389 -0.13358 0.31899
-0.29791 0.14129 0.31899
-0.30413 0.17124 0.31899
-0.29379 -0.19406 0.31899
-0.30064 -0.05685 0.31899
0.11990 0.21308 -0.19379
0.26374 0.20947 0.31899
0.31630 0.21308 -0.11201
-0.09388 0.21308 -0.24735
0.31899 -0.20802 -0.30368
0.31899 0.05571 -0.31420
0.31899 -0.19258 -0.29834
0.31899 -0.19817 -0.30648
0.31899 -0.16219 -0.30168
0.31899 -0.17805 -0.31226
0.11092 0.18671 -0.03039
0.12573 0.18671 0.19275
0.10439 0.18671 0.04580
0.12399 0.18671 0.15501
0.10430 0.18671 0.10471
0.10091 0.18671 0.06921
0.10402 0.18671 0.13161
0.11213 0.18671 0.13773
0.11738 0.18671 0.05618
0.12104 0.18671 0.24268
0.11227 0.18671 0.23216
0.10085 0.18671 0.25365
0.08305 0.21308 -0.07881
0.31334 0.14701 0.31899
0.31114 -0.00984 0.31899
0.30629 0.16085 0.31899
0.31800 -0.14732 0.31899
0.01400 0.21308 -0.22829
-0.11186 0.21308 0.04348
-0.13720 0.21308 0.02877
-0.00784 0.13660 0.31984
0.20730 0.21308 -0.23974
0.07387 0.21308 0.16805
-0.31899 0.09440 -0.03453
-0.05694 0.21308 -0.11492
-0.29347 0.13469 0.30883
-0.29347 -0.10923 0.31796
-0.29347 0.05514 0.31143
-0.29347 -0.13878 0.31674
-0.29347 0.10933 0.30152
-0.29347 0.06428 0.30765
-0.30988 0.21308 0.14566
-0.06759 0.21308 -0.16855
-0.15208 0.21308 -0.28077
0.31984 0.20314 0.05107
-0.09367 0.18671 -0.19138
-0.08446 0.18671 -0.07088
-0.07469 0.18671 0.07511
-0.07121 0.18671 0.20158
-0.09472 0.18671 -0.23144
-0.09347 0.18671 -0.20775
-0.07479 0.18671 -0.12510
-0.07201 0.18671 -0.31661
-0.09054 0.18671 -0.25996
-0.07361 0.18671 0.00677
-0.06703 0.18671 0.24132
-0.05672 0.21308 -0.18328
-0.20226 0.21308 -0.26115
-0.02091 0.12465 -0.31899
0.31899 0.13255 -0.03979
0.09085 0.21308 -0.23059
-0.04048 0.21308 -0.07967
0.13764 0.21308 0.31073
0.07606 0.21308 0.02726
0.31899 0.11617 0.00474
-0.22101 0.21308 -0.04871
-0.26603 0.21308 0.04336
-0.04966 0.21308 0.19412
0.10655 0.20185 0.31984
-0.31984 0.12742 -0.00706
-0.04500 0.16496 0.31984
0.31984 0.10834 -0.02642
0.00180 0.21308 0.26275
-0.06400 0.12534 -0.31984
0.17621 0.21308 -0.30277
0.25009 0.21308 -0.21431
-0.02665 0.21308 0.10005
-0.14086 0.21308 0.17233
0.31984 0.20682 0.06475
0.04503 0.15149 0.31984
0.12841 0.21308 0.23677
-0.16288 0.21308 0.23113
0.02255 0.10479 0.31899
0.26103 0.21308 -0.06145
0.16583 0.21308 -0.09904
-0.06001 0.21308 -0.23692
-0.02865 0.20022 0.31984
-0.31984 0.18439 0.02652
0.31984 0.12401 -0.05211
-0.26231 0.19300 -0.31899
-0.24174 0.20074 -0.31899
-0.31899 0.19093 0.25786
-0.31899 0.20832 0.17401
-0.28319 0.21308 -0.00526
0.25496 0.21308 -0.14448
-0.06451 0.21308 -0.28778
-0.04505 0.21308 -0.28533
0.07992 0.21308 -0.17577
-0.14642 0.18671 -0.06381
-0.13783 0.18671 -0.21915
-0.13747 0.18671 -0.08283
-0.24166 0.18671 0.28207
-0.15492 0.18671 0.24303
-0.18508 0.18671 -0.05995
-0.14509 0.18671 -0.26986
-0.13858 0.18671 0.07477
-0.17994 0.18671 -0.00780
-0.13901 0.18671 -0.07577
-0.15730 0.18671 -0.15534
-0.18068 0.18671 0.04559
-0.15905 0.18671 0.25708
-0.14255 0.18671 0.16440
-0.19787 0.18671 0.02097
-0.19164 0.18671 0.10989
-0.17640 0.18671 0.27044
-0.18119 0.18671 -0.03395
-0.17851 0.18671 0.20536
-0.21968 0.18671 0.24457
-0.16881 0.18671 -0.12395
-0.26703 0.18671 0.27707
-0.18788 0.18671 0.16734
-0.15073 0.18671 0.01678
-0.15183 0.18671 0.11301
-0.17963 0.18671 0.15584
-0.22309 0.18671 0.07741
-0.15863 0.18671 0.19093
-0.19385 0.18671 0.11605
-0.25049 0.18671 0.26572
-0.18934 0.18671 0.22133
-0.16785 0.18671 -0.08038
-0.24995 0.18671 0.29285
-0.18424 0.18671 -0.09717
-0.17306 0.18671 -0.02933
-0.21844 0.18671 0.23197
-0.21280 0.18671 0.19660
-0.19185 0.18671 0.16118
-0.18000 0.18671 0.28605
-0.18586 0.18671 0.27858
-0.15012 0.18671 0.30655
-0.15182 0.18671 0.25637
-0.16740 0.18671 0.09884
-0.14883 0.18671 -0.18185
-0.14774 0.18671 0.18052
-0.14087 0.18671 -0.06692
-0.13818 0.18671 0.13538
-0.17364 0.18671 0.22812
-0.16496 0.18671 0.12432
-0.14677 0.18671 -0.15098
-0.17631 0.18671 0.24517
-0.13655 0.18671 0.17142
-0.14692 0.18671 -0.19148
-0.13716 0.18671 0.19634
-0.13865 0.18671 0.00140
-0.19278 0.18671 0.13172
-0.14090 0.18671 0.23654
-0.18058 0.18671 0.03728
-0.21131 0.18671 0.07145
-0.15358 0.18671 -0.10840
-0.13612 0.18671 -0.16888
0.31984 0.20760 -0.13568
0.29763 0.11706 0.29347
0.31141 0.14026 0.29347
0.29787 0.13243 0.29347
0.29657 0.09195 0.29347
0.30279 -0.06068 0.29347
0.13659 0.21308 -0.12497
0.31899 0.20566 0.19062
0.31899 0.19401 0.24638
-0.01363 0.13253 -0.31984
0.03496 0.13448 0.31984
0.02117 0.18671 -0.06137
0.00863 0.18671 -0.27076
0.02048 0.18671 -0.06700
0.02852 0.18671 0.17077
0.02801 0.18671 -0.26969
0.01897 0.18671 0.03134
0.03049 0.18671 -0.29223
0.02717 0.18671 -0.12628
0.03182 0.18671 -0.14229
0.03312 0.18671 -0.16067
0.02673 0.18671 -0.27610
0.00899 0.18671 -0.19199
0.03162 0.18671 0.08191
0.06852 0.12430 0.31984
-0.01341 0.08496 0.31984
-0.11728 0.21308 -0.28659
0.19061 0.21308 -0.00587
0.04960 0.21026 -0.31984
-0.31899 0.17226 0.02503
0.31984 0.16637 -0.09047
0.09250 0.21308 0.24811
0.21161 0.21308 -0.07994
-0.05145 0.12243 0.31984
0.18862 0.21308 0.11600
-0.02702 0.14398 0.31899
0.03135 0.21308 -0.02902
-0.26753 0.21308 0.10521
-0.02534 0.21308 0.27383
0.31899 0.09983 -0.03563
0.10632 0.18671 -0.12840
0.11562 0.18671 0.10795
0.11706 0.18671 0.20090
0.10313 0.18671 0.14075
0.10925 0.18671 0.16398
0.10363 0.18671 0.22764
0.10250 0.18671 0.03057
0.10805 0.18671 -0.03837
0.12176 0.18671 0.27976
0.10331 0.18671 0.16785
0.11972 0.18671 0.25414
0.30798 0.21308 0.14440
0.09280 0.21308 0.03785
-0.27743 0.21308 0.18629
0.31984 0.18968 -0.06270
0.25498 0.21308 0.13504
-0.31984 0.20422 -0.10624
0.18076 0.20566 -0.31899
0.21302 0.19870 -0.31899
0.23809 0.18934 -0.31899
0.23379 0.21308 0.13520
0.31899 0.21020 0.15984
0.31899 0.19258 0.19603
0.31899 0.19625 0.16952
0.20836 0.21308 -0.15214
0.31984 0.14965 -0.08974
0.01451 0.19446 0.31984
0.22571 0.21308 -0.18899
0.15703 0.21308 -0.13693
-0.18264 0.21308 0.22740
-0.31984 0.21301 -0.01849
-0.29378 -0.15141 -0.29347
-0.29515 0.15870 -0.29347
-0.29858 0.05035 -0.29347
-0.31108 -0.12090 -0.29347
-0.29892 0.01574 -0.29347
-0.30663 -0.17130 -0.29347
-0.31352 -0.21251 -0.29347
-0.31984 0.12772 0.01465
0.04526 0.17069 0.31899
-0.12748 0.21308 -0.17771
0.29178 0.21308 0.12746
0.05081 0.18671 0.09680
0.04348 0.18671 -0.05265
0.03686 0.18671 -0.00606
0.04663 0.18671 0.01015
0.04495 0.18671 0.09032
0.04407 0.18671 0.30013
0.03896 0.18671 -0.18262
0.04248 0.18671 0.15149
0.04141 0.18671 -0.03591
0.03398 0.18671 0.19925
0.04006 0.18671 0.14152
0.04404 0.18671 0.00300
0.03426 0.18671 -0.04221
0.29590 0.21308 0.05861
0.19065 0.21308 0.24317
-0.08798 0.21308 0.02188
0.31857 0.00095 -0.29347
0.29851 0.15483 -0.29347
0.31172 0.03865 -0.29347
0.29784 0.18068 -0.29347
0.30943 0.18044 -0.29347
0.31899 0.17906 0.03597
-0.30696 0.18671 -0.06641
-0.30891 0.18671 0.02267
0.03888 0.17779 0.31984
0.31899 0.18242 -0.04199
-0.07990 0.21308 0.04331
0.10988 0.21308 0.28313
-0.31899 0.14663 0.06793
-0.01847 0.16564 -0.31899
-0.06568 0.19686 -0.31984
0.07546 0.13699 0.31984
-0.08492 0.16600 -0.31984
-0.02036 0.13662 -0.31984
-0.31728 0.18671 0.04544
-0.30891 0.18671 -0.05875
-0.10535 0.18093 -0.31984
0.25541 0.21308 0.17974
-0.05742 0.16541 0.31899
-0.26093 0.21308 -0.01508
0.15525 0.21308 -0.27870
0.06042 0.21308 0.21714
-0.31899 0.21084 -0.26628
-0.31899 0.21012 -0.25092
-0.01087 0.19565 0.31984
-0.31984 0.19729 -0.11450
-0.14711 0.21308 -0.04692
-0.23529 0.21308 -0.14168
0.16847 0.21308 0.19426
-0.22728 0.21308 -0.21026
-0.31899 -0.13250 0.31047
-0.31899 -0.15463 0.31461
-0.31899 -0.07250 0.30714
-0.31899 -0.06318 0.29914
-0.31899 0.06119 0.30136
0.03159 0.15124 0.31899
0.18856 0.21308 -0.21828
-0.27461 0.21308 0.03236
0.25037 0.21308 0.02003
0.24289 0.21308 -0.19550
0.20875 0.21308 0.01191
0.31316 0.21308 -0.14976
-0.30900 0.18671 0.04322
-0.31350 0.18671 0.05069
-0.22615 0.21308 0.18901
-0.31899 0.16315 -0.01336
-0.30572 0.20130 0.31899
-0.22393 0.19498 0.31899
0.01682 0.21308 -0.20639
-0.27224 0.21308 0.14989
-0.04419 0.21308 0.29803
-0.31380 0.21308 0.02915
-0.22244 0.21308 0.01044
-0.01105 0.11749 0.31984
-0.00230 0.21308 -0.03717
-0.12522 0.21308 -0.04253
0.18241 0.21308 -0.17759
-0.29366 0.18671 0.22388
-0.30292 0.18671 0.23653
-0.29558 0.18671 0.18720
-0.29593 0.18671 -0.19450
-0.29637 0.18671 -0.01793
-0.31229 0.18671 0.19360
-0.31148 0.18671 0.25142
-0.29585 0.18671 -0.06578
-0.30136 0.18671 0.04533
-0.11221 0.21308 0.09253
0.31972 0.15532 -0.10258
-0.31899 0.01899 0.31754
-0.31899 0.08290 0.31291
-0.31899 0.15942 0.30949
-0.31899 0.02451 0.30778
-0.31899 -0.13535 0.31618
0.31899 0.13770 -0.03740
0.01861 0.21308 -0.17585
0.15662 0.21308 0.13667
-0.00641 0.12987 -0.31984
0.12994 0.21308 -0.17869
0.24084 0.21308 0.07380
-0.00362 0.12637 0.31899
-0.13811 0.21308 -0.20552
-0.13356 0.21308 0.25473
0.28896 0.21308 -0.16684
-0.21407 0.21308 0.05748
-0.23328 0.21308 0.11773
0.31899 0.15233 -0.02233
-0.27163 0.21308 -0.16482
0.06657 0.21308 0.26660
-0.31984 0.17421 -0.04895
-0.11204 0.21308 -0.23409
0.06261 0.12943 0.31899
0.05501 0.21308 -0.29964
0.16047 0.21308 -0.00562
0.30814 0.21308 -0.01732
0.22833 0.21308 -0.01053
0.16138 0.21308 0.28055
-0.31984 0.20930 0.02181
0.31057 0.21308 -0.00645
0.00331 0.21308 -0.02098
0.23383 0.21308 0.08701
0.29347 0.17158 -0.30594
0.29347 0.13798 -0.31775
0.29347 0.09555 -0.30452
0.29347 -0.03849 -0.31415
0.29347 0.18061 -0.30139
0.29347 0.11308 -0.30637
-0.06337 0.21308 0.00794
0.23866 0.21308 -0.18730
-0.04242 0.21308 0.00877
0.04709 0.10488 0.31899
-0.13035 0.21308 -0.24589
0.08470 0.21308 -0.26262
0.01881 0.19346 -0.31984
0.02100 0.21308 -0.29484
0.25030 0.21308 0.21393
0.12212 0.19149 -0.31984
-0.12939 0.20730 -0.31984
-0.02554 0.08585 0.31984
-0.07588 0.21308 0.05138
-0.31984 0.12558 -0.04360
-0.03550 0.21308 0.21825
-0.31984 0.13742 -0.01560
0.03712 0.21308 0.01346
0.28233 0.21308 0.10149
0.09999 0.19278 -0.31984
-0.02915 0.21308 0.14342
0.26841 0.21308 0.12638
0.31984 0.13079 0.07095
-0.31698 0.21223 0.22475
-0.23920 0.21223 0.27873
-0.30235 0.21223 0.24877
-0.30841 0.21223 0.20793
-0.29899 0.21223 0.24008
-0.25973 0.21223 0.25376
-0.27991 0.21223 0.23604
-0.27700 0.21223 0.22989
-0.24016 0.21223 0.30734
-0.28212 0.21223 0.24188
-0.28953 0.21223 0.20744
-0.29578 0.21223 0.28216
-0.28369 0.21223 0.25390
-0.31984 0.15882 -0.04065
-0.31899 0.19002 0.29218
-0.31899 0.21159 0.27152
0.00673 0.07022 -0.31899
-0.06402 0.21308 0.12136
-0.08080 0.15412 0.31899
-0.05987 0.21308 -0.26680
-0.02432 0.21308 0.03323
0.07954 0.21308 -0.12626
0.08519 0.16981 0.31984
0.10370 0.21308 0.04604
-0.01474 0.21308 0.30722
-0.27634 0.21308 -0.13044
-0.21274 0.21308 -0.05505
0.02998 0.18671 -0.25020
0.02498 0.18671 -0.03107
0.03203 0.18671 -0.07310
0.00752 0.18671 -0.18587
0.03200 0.18671 -0.09059
0.01927 0.18671 -0.16932
0.02334 0.18671 -0.24152
0.01150 0.18671 -0.31852
0.02406 0.18671 -0.04839
-0.11959 0.18655 -0.31899
0.19317 0.21308 0.02040
0.03900 0.18671 -0.29569
0.03860 0.18671 -0.31164
0.06691 0.18671 0.00783
0.05476 0.18671 0.08025
0.05993 0.18671 0.00060
0.05262 0.18671 -0.19524
0.04714 0.18671 -0.09155
0.04249 0.18671 -0.30491
0.06050 0.18671 -0.18740
0.05649 0.18671 -0.12739
0.05524 0.18671 0.01098
0.04928 0.18671 -0.18656
0.04676 0.18671 -0.11596
-0.09989 0.21308 0.16683
0.23277 0.21308 -0.17297
0.00277 0.21308 0.28724
-0.05632 0.21308 0.17766
0.31899 0.14612 -0.30511
0.31899 -0.08727 -0.29507
0.31899 0.12750 -0.29698
0.31899 -0.17745 -0.29455
0.31899 0.10798 -0.29876
0.31899 0.07186 -0.30714
0.00957 0.10007 0.31984
-0.01046 0.18671 -0.19589
-0.00790 0.18671 -0.18312
-0.00398 0.18671 0.23841
-0.00133 0.18671 0.15008
-0.01503 0.18671 -0.24742
-0.03093 0.18671 -0.30307
-0.01070 0.18671 0.04629
-0.00751 0.18671 -0.00628
-0.00745 0.18671 0.17585
-0.02587 0.18671 -0.23023
-0.02025 0.18671 -0.31567
-0.02396 0.18671 -0.17981
-0.02456 0.18671 -0.21449
0.19431 0.21308 -0.20669
-0.18451 0.21308 -0.13367
0.05985 0.21308 -0.10425
0.31899 0.11623 0.05171
-0.31984 0.18572 0.07917
0.01731 0.15830 -0.31984
-0.05503 0.18671 -0.20703
-0.03398 0.18671 -0.24582
-0.03962 0.18671 -0.31734
-0.03883 0.18671 0.06034
-0.03403 0.18671 0.04985
-0.04841 0.18671 -0.09390
-0.05170 0.18671 -0.04426
-0.04650 0.18671 -0.07780
-0.05593 0.18671 -0.13213
-0.04132 0.18671 -0.24520
-0.04639 0.18671 -0.02857
-0.03775 0.18671 0.08629
-0.03948 0.18671 -0.02223
0.21652 0.21308 -0.15742
-0.02983 0.21308 0.25846
-0.11021 0.21308 0.29958
-0.19474 0.21308 0.17991
-0.31984 0.19117 0.08058
-0.31899 -0.03362 0.31826
-0.31899 -0.11134 0.31776
-0.31899 -0.00820 0.31321
-0.31899 0.16156 0.31747
-0.31899 0.09640 0.30339
-0.31899 0.03013 0.30687
-0.00785 0.09534 -0.31984
0.14166 0.20699 0.31984
-0.02032 0.19048 -0.31984
0.29183 0.21308 0.17309
0.19340 0.21308 0.25404
0.06423 0.16998 -0.31899
-0.21702 0.21308 -0.07576
0.03880 0.21308 -0.10338
0.31899 0.13543 -0.01583
0.19200 0.21308 0.28634
-0.05696 0.18032 -0.31899
-0.06940 0.18089 -0.31899
-0.12205 0.21308 0.04234
-0.02001 0.21308 -0.09361
-0.23593 0.21308 -0.09898
0.29988 0.21308 -0.15697
0.13407 0.21308 0.28240
-0.31899 0.10413 -0.29475
-0.31899 0.18423 -0.29618
-0.31899 0.04779 -0.30626
-0.31899 0.07364 -0.30756
-0.31899 0.13330 -0.30868
-0.31899 -0.11708 -0.29911
0.04876 0.21308 0.15739
-0.06144 0.18915 0.31984
0.17754 0.21308 -0.29628
-0.31984 0.13358 0.02737
-0.23071 0.21308 0.12291
0.08956 0.21308 0.15740
-0.19766 0.21308 0.25439
0.31899 0.06999 0.00505
0.11322 0.21308 0.29724
0.27863 0.20649 0.31899
0.23028 0.20424 0.31899
0.15829 0.21308 0.04142
0.12395 0.21308 -0.07071
-0.14353 0.20502 0.31984
-0.29107 0.21308 0.09588
0.26316 0.21308 0.00569
0.15034 0.21308 -0.14440
0.22432 0.21308 -0.11858
-0.09932 0.21308 -0.19569
0.31984 0.20501 -0.09530
0.06557 0.21308 0.22987
-0.28201 0.21308 0.17358
0.04745 0.21308 -0.20000
-0.07863 0.21308 -0.05635
0.17921 0.21308 0.00412
0.25388 0.19797 -0.31899
0.20494 0.20978 -0.31899
0.31984 0.07700 -0.00158
-0.16165 0.21308 0.28304
-0.30368 0.21308 -0.08166
-0.04549 0.21308 0.09625
0.30804 0.18671 0.18368
0.31242 0.18671 0.01605
0.31422 0.18671 -0.10582
0.31254 0.18671 0.10837
0.31891 0.18671 0.02056
0.31352 0.18671 0.09967
0.30631 0.18671 0.10633
0.31447 0.18671 0.00077
0.31032 0.18671 -0.09174
-0.02525 0.09216 -0.31984
-0.11811 0.21308 0.20902
0.26661 0.21308 -0.11213
0.17428 0.21308 0.19980
0.25818 0.21308 -0.03742
-0.23524 0.21308 0.04683
0.02502 0.21308 -0.15712
0.12752 0.20429 0.31984
-0.03684 0.21308 0.11229
-0.00736 0.21308 -0.17930
0.13490 0.21308 -0.24993
0.25628 0.21308 0.18944
-0.30026 0.21308 0.13545
0.15790 0.21308 0.02752
0.04527 0.21308 -0.28102
0.08508 0.21308 0.00089
-0.01036 0.09433 0.31984
0.00831 0.21308 0.07614
-0.17916 0.21308 0.05502
-0.11930 0.21308 -0.11275
-0.00005 0.21308 -0.18447
-0.08551 0.21308 -0.12224
0.04142 0.10517 0.31984
-0.13027 0.21308 0.31582
-0.31899 0.16295 0.04906
0.14489 0.21308 0.25582
0.14379 0.21308 0.30917
0.31899 0.02934 0.29353
0.31899 0.02058 0.30322
0.31899 -0.16643 0.31375
0.31899 -0.02325 0.29746
0.31899 -0.13130 0.30036
0.31899 -0.19891 0.29879
-0.27909 0.21308 -0.16658
0.14473 0.21308 -0.13270
0.22579 0.21308 -0.07384
0.18999 0.21308 -0.12072
0.22038 0.21308 0.17568
0.31899 0.20389 -0.27451
0.31899 0.19476 -0.29459
0.31899 0.20185 -0.29083
-0.31899 0.20060 -0.30614
-0.31899 0.20437 -0.27639
-0.10126 0.21308 -0.25736
-0.16977 0.21308 0.25506
0.00979 0.21308 0.04135
0.05058 0.21308 0.04671
0.22528 0.21308 -0.12947
0.06180 0.21308 -0.16937
-0.31757 0.18671 -0.21139
-0.31737 0.18671 -0.16238
-0.31496 0.18671 -0.18824
-0.31826 0.18671 -0.24872
-0.31037 0.18671 -0.22983
-0.29922 0.21223 -0.21685
-0.25283 0.21223 -0.26941
-0.29133 0.21223 -0.28764
-0.19184 0.21223 -0.29676
-0.29075 0.21223 -0.31762
-0.27081 0.21223 -0.24429
-0.31486 0.21223 -0.19240
-0.29076 0.21223 -0.23022
-0.20842 0.21223 -0.30799
-0.23200 0.21223 -0.25405
-0.30705 0.21223 -0.26168
-0.25309 0.21223 -0.28541
-0.26230 0.21223 -0.25348
-0.29867 0.21223 -0.18471
-0.14243 0.19500 -0.31899
0.11356 0.21308 -0.21028
0.10715 0.18437 0.31899
-0.09665 0.17749 0.31899
0.17759 0.21308 -0.19880
0.31984 0.12473 -0.03500
-0.16116 0.21304 -0.31818
0.23181 0.21308 0.05563
-0.10792 0.21308 -0.03062
-0.22081 0.21308 0.03776
-0.14690 0.21308 0.09593
-0.31984 0.14403 -0.07594
0.16519 0.21308 -0.15565
-0.04341 0.21308 -0.27421
0.08005 0.21308 -0.15652
0.14598 0.21308 -0.22756
0.31899 0.20429 0.29940
0.31899 0.20876 0.22795
0.31899 0.20807 0.28226
-0.01269 0.11687 -0.31899
-0.29528 0.18671 -0.08054
-0.29828 0.18671 0.27046
-0.30943 0.18671 0.22606
-0.30529 0.18671 -0.01878
-0.29590 0.18671 -0.02687
-0.29528 0.18671 -0.03518
0.09670 0.21308 0.21840
-0.08348 0.21308 0.02626
0.31899 0.17105 -0.00910
-0.29347 0.04767 -0.30739
-0.29347 -0.18480 -0.31830
-0.29347 0.13778 -0.29924
-0.29347 0.02755 -0.30936
0.16303 0.21308 -0.23578
0.31899 0.18845 0.29520
0.31899 0.20252 0.28563
-0.01077 0.18671 0.17067
-0.03107 0.18671 -0.23526
-0.01458 0.18671 0.20722
-0.03066 0.18671 0.01248
-0.02560 0.18671 0.08611
-0.01972 0.18671 0.23059
-0.01514 0.18671 0.12537
-0.00648 0.18671 0.20060
-0.01291 0.18671 0.28802
-0.02498 0.18671 -0.09785
-0.02060 0.18671 0.09724
-0.01005 0.18671 0.31161
-0.10335 0.21308 0.31706
0.31984 0.20547 0.01341
0.10198 0.21308 -0.30285
-0.26899 0.21308 0.02602
0.31984 0.12207 -0.02131
-0.25463 0.21308 0.10591
-0.22521 0.21308 -0.16146
0.18800 0.21308 -0.24429
-0.03469 0.21308 -0.20497
-0.11753 0.21308 -0.12180
-0.02592 0.21308 0.17391
0.11532 0.18671 -0.16236
0.13233 0.18671 -0.16594
0.13164 0.18671 0.20233
0.13383 0.18671 0.27864
0.13184 0.18671 -0.21991
0.12405 0.18671 0.08788
0.12515 0.18671 -0.21309
0.12469 0.18671 -0.16281
0.12244 0.18671 -0.26175
0.12382 0.18671 -0.22570
0.11783 0.18671 -0.02899
0.09827 0.21308 -0.17379
0.12960 0.21308 -0.16451
0.30281 -0.21308 -0.30158
-0.29002 0.21308 -0.15174
0.27740 0.21308 0.03708
0.26633 0.21223 0.28646
0.31129 0.21223 0.26253
0.26516 0.21223 0.25084
0.22564 0.21223 0.29955
0.26151 0.21223 0.23641
0.28403 0.21223 0.30111
0.28151 0.21223 0.20804
0.27981 0.21223 0.28238
0.31169 0.21223 0.23060
0.28109 0.21223 0.26576
0.28947 0.21223 0.23670
0.22032 0.21223 0.26445
0.22998 0.21223 0.28311
0.21278 0.21223 0.29484
-0.15031 0.21308 -0.20828
-0.09125 0.21308 0.24097
0.24395 0.21308 -0.06173
-0.01867 0.15350 0.31984
-0.03827 0.21308 -0.00670
0.22110 0.21308 0.21828
0.01840 0.21308 -0.08722
0.29347 -0.09946 -0.29382
0.29347 -0.13581 -0.29404
0.29347 -0.11548 -0.29392
0.29347 -0.00699 -0.30079
0.29347 -0.03018 -0.29922
0.29347 0.09066 -0.29546
0.30175 -0.06354 0.31899
0.30998 -0.10725 0.31899
0.29484 -0.18228 0.31899
0.29776 -0.20832 0.31899
0.30510 -0.07892 0.31899
0.29952 -0.14483 0.31899
-0.08444 0.13970 -0.31899
-0.05186 0.11721 -0.31984
-0.18802 0.21308 -0.10552
0.11666 0.21308 -0.31975
-0.11697 0.21308 -0.21856
-0.00255 0.21308 0.05332
-0.18793 0.18671 -0.16376
-0.26829 0.18671 0.20915
-0.19368 0.18671 -0.11965
-0.26924 0.18671 0.17418
-0.26611 0.18671 0.02720
-0.27584 0.18671 -0.09305
-0.22465 0.18671 -0.05117
-0.20151 0.18671 -0.23084
-0.27904 0.18671 -0.00038
-0.19193 0.18671 -0.22315
-0.28006 0.18671 -0.15252
-0.22198 0.18671 -0.02147
-0.17606 0.18671 -0.29111
-0.18165 0.18671 -0.31451
-0.15282 0.18671 -0.25751
-0.26455 0.18671 -0.19279
-0.16534 0.18671 -0.25945
-0.23394 0.18671 0.02921
-0.29169 0.18671 0.03867
-0.26656 0.18671 0.16751
-0.25655 0.18671 0.13506
-0.17060 0.18671 -0.31522
-0.23882 0.18671 0.07349
-0.19752 0.18671 -0.07292
-0.21173 0.18671 -0.04494
-0.28419 0.18671 -0.17275
-0.26327 0.18671 0.04869
-0.25570 0.18671 0.04885
-0.27393 0.18671 -0.20361
-0.19576 0.18671 -0.27326
-0.28158 0.18671 0.26400
-0.28868 0.18671 -0.31732
-0.25498 0.18671 0.06150
-0.19193 0.18671 -0.09052
-0.23106 0.18671 -0.25960
-0.28628 0.18671 -0.08592
-0.24569 0.18671 0.09254
-0.25645 0.18671 0.10588
-0.23965 0.18671 -0.15421
-0.23443 0.18671 0.05409
-0.28031 0.18671 -0.18139
-0.18304 0.18671 -0.26889
-0.21899 0.18671 -0.31324
-0.27705 0.18671 -0.06089
-0.19756 0.18671 -0.30444
-0.23741 0.18671 -0.14002
-0.28496 0.18671 0.00496
-0.19636 0.18671 -0.10984
-0.25187 0.18671 0.01686
-0.25275 0.18671 -0.31583
-0.23848 0.18671 -0.03070
-0.28293 0.18671 -0.19603
-0.28389 0.18671 -0.16528
-0.23489 0.18671 -0.09289
-0.17182 0.18671 -0.17294
-0.26002 0.18671 -0.21247
-0.26374 0.18671 -0.04510
-0.07537 0.21308 0.08846
-0.23490 0.21308 -0.10706
-0.14470 0.21308 0.14965
-0.17452 0.21308 0.16004
-0.31984 0.14957 -0.01094
0.08365 0.14400 -0.31984
0.19548 0.21308 0.05829
-0.13054 0.21308 -0.31840
-0.07134 0.21308 0.28802
0.31984 0.14774 0.02148
-0.11459 0.21308 0.31810
-0.11066 0.21308 -0.14043
-0.19036 0.21308 0.15702
-0.31899 0.16739 -0.29350
-0.31899 -0.02031 -0.30129
-0.31899 0.09305 -0.29511
-0.31899 0.19372 -0.31492
-0.31899 -0.11026 -0.29667
-0.31899 0.03156 -0.30259
-0.31899 0.06526 -0.29924
-0.27266 0.21308 -0.14552
-0.07817 0.18451 -0.31899
-0.31984 0.15744 0.03071
0.01977 0.21308 0.26248
0.03490 0.15008 -0.31899
-0.04705 0.21308 -0.02809
-0.11552 0.21308 0.28017
0.08648 0.17818 -0.31899
-0.06966 0.16153 -0.31984
0.11524 0.21308 -0.10426
0.18536 0.21308 -0.26985
-0.13306 0.21308 0.22244
0.13063 0.21308 0.25373
-0.27099 0.21308 0.12268
-0.10475 0.16541 0.31984
0.27582 0.21308 -0.19391
0.08340 0.21308 0.06421
0.03017 0.21308 0.23844
-0.06516 0.20584 0.31984
0.07843 0.15261 -0.31984
-0.06467 0.21308 0.23443
0.06115 0.21308 -0.00262
0.03366 0.21308 -0.29577
0.07802 0.21308 0.07914
0.31232 0.21308 0.08977
-0.29347 -0.04488 0.29370
-0.29347 -0.08104 0.30059
-0.29347 -0.05048 0.30053
-0.29347 -0.05881 0.29597
-0.29347 -0.11419 0.30635
-0.29347 -0.11899 0.31042
-0.30580 -0.08156 -0.31899
-0.30402 -0.04012 -0.31899
-0.31557 -0.03913 -0.31899
-0.31715 -0.15797 -0.31899
-0.30489 -0.02456 -0.31899
-0.31899 0.11578 0.02628
0.31984 0.14690 0.08082
0.31984 0.16256 -0.03577
0.21043 0.21308 -0.12959
-0.00286 0.07523 -0.31984
-0.00367 0.21308 -0.13315
-0.05395 0.21308 -0.23735
-0.22827 0.21020 0.31899
-0.18112 0.19701 0.31899
0.12367 0.21308 0.27249
-0.11763 0.18671 -0.26278
-0.12054 0.18671 -0.04774
-0.12865 0.18671 0.13729
-0.12102 0.18671 -0.15503
-0.12761 0.18671 -0.19814
-0.13143 0.18671 0.06877
-0.11577 0.18671 -0.10060
-0.12726 0.18671 -0.00726
-0.12037 0.18671 -0.23912
-0.12302 0.18671 0.03088
-0.13037 0.18671 -0.24191
-0.12165 0.18671 -0.14194
-0.12526 0.18671 -0.05498
-0.09395 0.21308 0.23148
0.04130 0.21308 0.24814
0.31899 0.11837 -0.05522
-0.02330 0.21308 0.18221
-0.09137 0.19543 0.31984
0.31899 0.20502 -0.16367
0.31899 0.19022 -0.22497
-0.29347 0.07640 -0.29543
-0.29347 -0.10008 -0.30768
-0.29347 -0.06027 -0.30623
-0.29347 -0.16858 -0.31612
-0.29347 0.09754 -0.29417
-0.29347 -0.03653 -0.30062
-0.18921 0.21308 -0.21705
0.31984 0.11822 0.01249
-0.29216 0.21308 0.17563
-0.11464 0.18090 -0.31984
-0.06139 0.21308 -0.05230
0.01145 0.21308 0.29861
0.28237 0.21308 0.17584
0.31899 0.15383 0.03003
0.09858 0.21308 -0.04154
0.00157 0.21308 -0.12556
0.02121 0.21308 0.19274
-0.23793 0.21308 -0.15700
0.31984 0.18191 0.10977
0.31133 0.18671 -0.11667
0.31321 0.18671 -0.05661
0.31484 0.18671 -0.06888
0.30187 0.18671 0.21546
0.31243 0.18671 0.02319
0.30393 0.18671 0.07415
0.29844 0.18671 0.25917
0.03069 0.21308 0.30317
0.13258 0.21308 0.00781
0.06559 0.21308 -0.26236
0.25321 0.21308 0.16300
-0.31984 0.15858 0.07337
-0.31899 0.17541 0.07564
0.05198 0.21308 -0.12726
-0.28400 0.21308 0.03986
0.10260 0.21308 -0.13514
-0.20883 0.21308 0.09150
0.04397 0.14797 -0.31984
-0.27685 0.21308 -0.19864
0.07951 0.21308 0.04930
0.31177 -0.21308 0.30144
0.18488 0.21308 -0.16959
-0.14050 0.21123 -0.31984
-0.06565 0.21308 -0.31954
0.03142 0.12394 0.31899
-0.20018 0.21308 -0.13507
0.31738 0.11821 0.29347
0.31376 -0.12766 0.29347
0.31598 -0.17716 0.29347
0.31544 0.11188 0.29347
0.31644 0.04296 0.29347
0.30208 -0.16051 0.29347
-0.18098 0.21255 0.29835
0.17924 0.21308 0.11023
0.19562 0.21308 -0.06730
-0.02389 0.21308 0.29556
-0.07917 0.21308 0.06440
-0.22595 0.21308 0.19998
-0.09727 0.21308 -0.04669
-0.10316 0.21308 -0.04244
0.29347 -0.20191 -0.31719
0.29347 -0.14948 -0.29409
0.29347 -0.16312 -0.29776
0.29347 -0.10591 -0.30804
0.29347 0.02838 -0.29903
0.29347 0.00097 -0.30295
0.29805 0.21308 -0.01619
-0.10246 0.21308 0.14026
0.08496 0.18671 0.05052
0.08127 0.18671 -0.03522
0.07940 0.18671 0.01160
0.09604 0.18671 0.28259
0.07574 0.18671 0.28751
0.08180 0.18671 0.23681
0.06959 0.18671 0.30996
0.07485 0.18671 0.04456
0.07025 0.18671 -0.13243
0.08453 0.18671 0.29926
0.07114 0.18671 0.26157
-0.25257 0.21308 0.17142
-0.00008 0.21308 0.04401
-0.09374 0.21308 0.12801
0.23593 0.21308 -0.02753
-0.24172 0.21308 0.09952
0.04752 0.21308 0.01502
0.31899 0.09592 0.00185
0.29488 0.21308 0.04628
0.10171 0.21308 -0.01468
0.28062 0.21308 0.03079
0.02080 0.14218 -0.31984
-0.15416 0.21308 -0.27502
-0.31899 0.18984 0.14853
-0.31899 0.18705 0.23500
-0.31899 0.19915 0.22278
0.27985 0.21223 -0.21106
0.26067 0.21223 -0.31516
0.28354 0.21223 -0.30669
0.26481 0.21223 -0.26408
0.28018 0.21223 -0.26970
0.27105 0.21223 -0.24306
0.31711 0.21223 -0.30305
0.27696 0.21223 -0.23343
0.20305 0.21223 -0.27722
0.26508 0.21223 -0.24866
0.29438 0.21223 -0.18539
0.28935 0.21223 -0.20940
0.17570 0.21223 -0.31600
0.30274 0.21223 -0.27608
0.31024 0.21223 -0.29918
-0.19307 0.21308 0.21932
0.19714 0.21308 0.19614
0.14948 0.21308 0.10587
0.16374 0.21308 -0.20174
0.17039 0.21308 0.09435
0.19922 0.21308 0.16822
0.00688 0.08865 0.31899
0.24694 0.21308 0.09801
-0.09254 0.21308 0.27311
-0.23857 0.21308 0.12869
-0.31899 0.12792 -0.06357
-0.31899 0.19716 -0.15743
-0.03936 0.21308 0.15038
-0.31899 0.09506 0.04052
0.31899 -0.10186 -0.30645
0.31899 -0.12581 -0.31136
0.31899 -0.02382 -0.30930
0.31899 -0.15291 -0.30158
0.31899 -0.10996 -0.30639
0.31899 0.07969 -0.31480
0.31899 -0.09228 -0.30797
0.10708 0.21308 -0.17486
0.03704 0.21308 -0.25363
0.25337 0.21308 0.09765
-0.10248 0.21308 -0.01761
0.31984 0.14326 0.07152
0.04869 0.21308 0.31110
-0.00526 0.21308 0.31687
-0.31899 0.12241 -0.02658
0.03427 0.19048 -0.31984
0.26234 0.18671 0.31829
0.23897 0.18671 0.30261
0.28140 0.18671 0.29950
-0.21765 0.21308 -0.16307
0.11793 0.21308 -0.12132
-0.31899 0.13550 -0.07350
0.26727 0.21308 0.17169
0.14677 0.21308 0.12958
0.06932 0.21308 -0.10568
0.23895 0.21308 0.21028
-0.06165 0.21308 0.25593
-0.02983 0.12532 -0.31899
-0.04958 0.21308 0.26813
0.16955 0.21308 -0.13904
-0.19758 0.21308 -0.24164
0.02295 0.21308 -0.12162
-0.06350 0.20763 -0.31984
-0.31899 0.11764 -0.03083
0.20014 0.18671 -0.31579
0.23817 0.18671 -0.30941
0.18951 0.18671 -0.17274
0.25162 0.18671 -0.01816
0.27013 0.18671 -0.13538
0.20296 0.18671 -0.18528
0.26948 0.18671 -0.04535
0.25884 0.18671 -0.09506
0.22499 0.18671 -0.07795
0.22912 0.18671 -0.21118
0.23922 0.18671 -0.18886
0.25721 0.18671 -0.01569
0.27263 0.18671 -0.18351
0.27078 0.18671 0.10740
0.26045 0.18671 0.09783
0.26716 0.18671 -0.19651
0.18797 0.18671 -0.26248
0.28043 0.18671 -0.12198
0.25569 0.18671 -0.19908
0.25106 0.18671 0.04096
0.28124 0.18671 0.09122
0.26879 0.18671 -0.07594
0.29286 0.18671 -0.17083
0.28619 0.18671 -0.28861
0.27299 0.18671 0.19847
0.19581 0.18671 -0.21445
0.22027 0.18671 -0.24057
0.28759 0.18671 0.17830
0.19170 0.18671 -0.12776
0.26925 0.18671 -0.05541
0.18975 0.18671 -0.23565
0.26246 0.18671 -0.04222
0.22349 0.18671 -0.27636
0.27468 0.18671 -0.22803
0.26531 0.18671 0.13098
0.28218 0.18671 -0.13750
0.26704 0.18671 -0.15468
0.25599 0.18671 -0.16411
0.19221 0.18671 -0.25631
0.22887 0.18671 -0.24706
0.25396 0.18671 -0.03232
0.24309 0.18671 -0.01005
0.20424 0.18671 -0.12201
0.22168 0.18671 -0.27004
0.21416 0.18671 -0.11325
0.26558 0.18671 -0.20387
0.16248 0.18671 -0.27928
0.25747 0.18671 -0.26329
0.25456 0.18671 -0.27105
0.25999 0.18671 0.14897
0.23162 0.18671 -0.19439
0.24400 0.18671 -0.28782
0.28519 0.18671 0.14776
0.25705 0.18671 0.03347
0.25762 0.18671 -0.22670
0.23622 0.18671 -0.01713
0.27655 0.18671 -0.09005
-0.31984 0.19862 0.12314
0.13316 0.21308 -0.05357
0.05193 0.19111 -0.31984
0.30601 -0.09017 -0.31899
0.29735 0.08388 -0.31899
0.29594 0.06844 -0.31899
0.30832 -0.06477 -0.31899
0.30024 0.00480 -0.31899
0.30706 -0.07891 -0.31899
0.30528 -0.10517 -0.31899
-0.05573 0.21308 0.11395
0.16082 0.19647 0.31899
0.17298 0.20350 0.31899
-0.25578 0.21308 -0.17691
-0.24358 0.21308 -0.18882
0.01463 0.07697 0.31984
0.15217 0.21308 -0.30251
-0.22453 0.21308 -0.15138
0.31984 0.19786 -0.04027
-0.02482 0.21308 -0.01666
0.31899 0.08726 -0.03335
-0.02114 0.16473 0.31984
-0.05141 0.21308 -0.12453
0.20642 0.21308 -0.05849
-0.01903 0.21308 -0.30641
-0.25612 0.21308 0.03481
-0.31893 0.14374 -0.31899
-0.31890 -0.00425 -0.31899
-0.30991 0.04890 -0.31899
-0.30140 -0.13304 -0.31899
-0.30823 0.01269 -0.31899
-0.30338 -0.19810 -0.31899
-0.30724 -0.13191 -0.31899
-0.08536 0.14894 -0.31899
0.27827 0.21308 -0.10502
0.19272 0.21308 -0.14658
-0.19390 0.21308 0.05291
0.25860 0.21308 -0.12806
-0.17596 0.21308 -0.28421
0.31926 0.21308 -0.01299
0.04517 0.21308 -0.17695
0.31984 0.16139 -0.00159
-0.14757 0.21308 -0.01670
0.00598 0.21308 0.16018
-0.06318 0.21308 0.14398
0.06128 0.16018 -0.31899
-0.30463 0.21223 -0.27662
-0.31264 0.21223 -0.24957
-0.24658 0.21223 -0.25592
-0.21311 0.21223 -0.28122
-0.26805 0.21223 -0.23711
-0.29181 0.21223 -0.25045
-0.22167 0.21223 -0.28726
-0.21411 0.21223 -0.31288
-0.29670 0.21223 -0.19437
-0.29630 0.21223 -0.27929
-0.30882 0.21223 -0.21535
-0.30590 0.21223 -0.18356
-0.31460 0.21223 -0.24156
-0.30555 0.21223 -0.31594
-0.26428 0.21223 -0.24783
0.28170 0.21308 0.01502
0.06752 0.21308 0.25300
0.08687 0.21308 0.31115
-0.04657 0.17038 0.31984
0.30187 0.21308 0.01619
0.14291 0.21308 0.20292
0.07635 0.21308 0.18158
0.23452 0.21308 0.01514
0.13094 0.21308 0.02972
-0.31899 0.13233 0.04517
0.05597 0.15263 -0.31984
0.31600 0.21308 -0.12193
-0.29347 0.15791 0.31139
-0.29347 0.09650 0.31104
-0.29347 -0.03337 0.31075
-0.29347 -0.07828 0.31599
-0.29347 0.16655 0.29683
-0.29347 0.17321 0.31222
-0.29347 0.18548 0.30486
-0.23353 0.21308 0.22987
-0.03973 0.21308 -0.20872
0.30049 0.12948 -0.31899
0.31623 -0.09633 -0.31899
0.31316 0.16988 -0.31899
0.31659 0.12319 -0.31899
0.10010 0.18671 0.20197
0.09135 0.18671 -0.05184
0.09747 0.18671 -0.27216
0.09473 0.18671 -0.29498
0.09650 0.18671 0.05598
0.10047 0.18671 0.01744
0.09845 0.18671 0.13707
0.09476 0.18671 -0.09878
0.07715 0.18671 -0.21385
0.07470 0.18671 -0.24266
0.11529 0.19464 -0.31984
-0.17250 0.21308 -0.09595
-0.27509 0.21308 -0.00529
-0.07777 0.15930 0.31984
-0.01858 0.21308 0.13904
0.14240 0.21308 0.18755
0.31899 0.14241 0.05959
0.13788 0.21308 0.09720
-0.22472 0.21308 -0.20213
-0.00378 0.16038 -0.31984
0.23705 0.21308 0.18039
0.07161 0.15682 0.31899
-0.29927 0.00512 -0.29347
-0.30608 -0.03759 -0.29347
-0.29825 -0.00068 -0.29347
-0.30321 -0.01980 -0.29347
-0.30396 -0.19088 -0.29347
-0.15641 0.21308 0.18218
0.16499 0.21308 0.00667
0.31984 0.19405 -0.07989
0.29841 -0.18923 -0.29347
0.29970 0.05730 -0.29347
0.30786 -0.06407 -0.29347
0.30632 -0.11458 -0.29347
0.31182 -0.20746 -0.29347
0.31984 0.16497 0.04970
-0.05467 0.17217 -0.31984
0.13370 0.21308 -0.01957
0.14972 0.21308 -0.21656
0.15538 0.21308 -0.22146
-0.12815 0.19280 0.31984
0.31899 0.17220 0.07090
0.17824 0.21308 -0.25582
0.16499 0.21308 -0.07598
0.31899 0.13329 0.01877
0.18875 0.21308 0.12824
-0.30493 0.21308 -0.01725
-0.15671 0.21308 -0.11262
0.21945 0.21308 0.14886
0.13847 0.21308 -0.22065
-0.00903 0.15846 0.31899
-0.31892 0.21308 -0.06315
-0.16759 0.21308 -0.07230
0.11409 0.21308 0.14861
-0.28261 0.21308 -0.13670
-0.06228 0.17767 0.31984
-0.15616 0.21308 -0.06988
0.02433 0.21308 -0.27495
0.29258 0.21308 0.00661
-0.01608 0.21308 0.24813
-0.10197 0.15756 -0.31984
-0.31984 0.16907 0.00772
0.17236 0.21308 0.01593
0.30201 0.05241 -0.31899
0.29474 0.00649 -0.31899
0.29507 -0.06898 -0.31899
0.31400 -0.15534 -0.31899
0.30577 -0.13801 -0.31899
0.31093 -0.11613 -0.31899
0.29987 -0.17118 -0.31899
0.01238 0.14323 -0.31899
0.26492 0.21308 0.06364
0.31899 -0.21136 0.30023
0.31899 -0.19001 0.30874
0.31899 -0.18572 0.29769
0.31899 -0.18415 0.30909
0.31899 0.13437 -0.07194
-0.29347 -0.05708 -0.29732
-0.29347 0.02352 -0.29735
-0.29347 -0.00823 -0.30005
-0.29347 -0.20164 -0.30150
-0.29347 -0.11669 -0.30997
-0.29347 -0.07195 -0.29939
-0.29347 -0.09293 -0.30671
0.04039 0.21308 -0.15993
-0.31899 0.17503 0.08677
-0.25106 0.21308 -0.11131
0.31984 0.17037 0.10633
0.12551 0.18671 -0.23439
0.12818 0.18671 -0.03286
0.12759 0.18671 0.04346
0.12589 0.18671 0.11149
0.12335 0.18671 -0.10913
0.13193 0.18671 -0.08132
0.13246 0.18671 0.09676
0.11568 0.18671 -0.07705
0.13076 0.18671 -0.22999
0.11673 0.18671 -0.30608
0.12029 0.18671 -0.08551
0.12108 0.18671 -0.17651
0.03718 0.09361 -0.31899
0.00074 0.21308 0.23505
0.31118 0.21308 -0.12496
-0.24594 0.21308 -0.01885
-0.12599 0.21308 0.22842
-0.13169 0.21308 -0.17049
0.04571 0.18671 0.23739
0.05310 0.18671 0.25132
0.04134 0.18671 0.16837
0.03660 0.18671 0.18022
0.03874 0.18671 -0.10377
0.05394 0.18671 0.14079
0.04045 0.18671 0.27066
0.03640 0.18671 -0.06586
0.03633 0.18671 0.10491
0.03563 0.18671 0.02104
0.05297 0.18671 0.26079
0.05387 0.18671 0.22038
0.04716 0.18671 0.16196
0.03534 0.09305 0.31899
-0.14105 0.21308 -0.14843
0.16668 0.21308 0.22681
-0.19587 0.21308 0.19962
0.31984 0.18366 -0.01310
0.08804 0.21308 0.26196
-0.21242 0.21308 -0.22941
0.00189 0.18569 -0.31899
-0.11185 0.21308 -0.00339
-0.13783 0.21308 -0.22678
-0.09263 0.21308 -0.27172
-0.00977 0.21308 0.17148
-0.14400 0.21308 0.22025
-0.15954 0.21308 -0.18788
0.29347 -0.15468 0.30454
0.29347 -0.10258 0.31683
0.29347 -0.14500 0.31857
0.29347 -0.18143 0.29762
-0.20273 0.21308 0.12952
-0.20090 0.21308 0.05503
0.08110 0.18057 -0.31984
0.31495 -0.15507 0.31899
0.30237 -0.11091 0.31899
0.30719 -0.16502 0.31899
0.31291 -0.18430 0.31899
0.31361 -0.13065 0.31899
0.30533 -0.05188 0.31899
0.00530 0.06112 -0.31984
-0.15123 0.21308 0.06487
-0.00142 0.21308 -0.27883
-0.08374 0.21308 -0.10026
0.11819 0.21308 0.11766
-0.31984 0.11108 0.03807
-0.31984 0.20005 -0.05776
-0.02945 0.15634 -0.31899
0.20198 0.21308 -0.01044
0.13966 0.21308 -0.11729
0.01627 0.21308 0.22121
-0.31899 0.11339 0.05120
0.03504 0.21308 0.23169
0.07957 0.21308 0.14310
0.16004 0.21308 0.11736
0.07294 0.21308 0.19670
0.09287 0.21308 0.15274
-0.12847 0.21308 0.24097
0.19836 0.19061 0.31899
0.21718 0.19384 0.31899
0.20527 0.18804 0.31899
0.08559 0.21308 -0.09346
-0.02556 0.21308 0.23652
-0.13512 0.21308 0.26892
-0.07915 0.21308 0.15668
0.10537 0.21308 0.18737
0.31984 0.17558 0.02441
0.03386 0.21308 -0.21981
-0.31984 0.20346 -0.13412
0.31899 0.15887 -0.04160
0.05927 0.21308 0.02526
0.12659 0.21308 0.01682
0.17364 0.18671 -0.00010
0.14402 0.18671 -0.24821
0.19672 0.18671 -0.02278
0.19678 0.18671 0.14002
0.14863 0.18671 -0.17324
0.21711 0.18671 0.16353
0.20752 0.18671 0.15729
0.15072 0.18671 -0.10859
0.15899 0.18671 0.14424
0.19354 0.18671 0.04977
0.13416 0.18671 0.16742
0.16332 0.18671 -0.18669
0.24188 0.18671 0.17355
0.13798 0.18671 0.08367
0.16412 0.18671 0.26023
0.27208 0.18671 0.25736
0.20666 0.18671 0.01828
0.15653 0.18671 0.24671
0.18758 0.18671 0.18392
0.23897 0.18671 0.26493
0.16192 0.18671 0.07770
0.13503 0.18671 0.30660
0.23289 0.18671 0.12528
0.16956 0.18671 -0.17492
0.15020 0.18671 0.30923
0.18544 0.18671 0.14133
0.23401 0.18671 0.07000
0.15813 0.18671 -0.07752
0.15969 0.18671 -0.10432
0.14687 0.18671 -0.20594
0.16094 0.18671 -0.06215
0.24719 0.18671 0.19132
0.24011 0.18671 0.19287
0.14031 0.18671 0.05684
0.24742 0.18671 0.24966
0.23977 0.18671 0.25873
0.17069 0.18671 -0.11388
0.17923 0.18671 0.11875
0.20668 0.18671 0.06890
0.17951 0.18671 0.07303
0.28591 0.18671 0.27861
0.23167 0.18671 0.08674
0.15869 0.18671 0.12713
0.14295 0.18671 -0.00537
0.13477 0.18671 0.15229
0.19262 0.18671 0.28648
0.24997 0.18671 0.16126
0.18427 0.18671 -0.11997
0.13779 0.18671 0.11591
0.26859 0.18671 0.24057
0.21621 0.18671 0.08725
0.18445 0.18671 -0.04511
0.16931 0.18671 0.08370
0.23546 0.18671 0.29189
-0.31984 0.15098 -0.07258
-0.05409 0.12949 0.31899
0.21211 0.21308 -0.20476
0.22725 0.21308 0.12605
-0.26310 0.21308 0.20741
-0.13256 0.21308 -0.14138
0.12631 0.21308 0.04081
0.05666 0.18207 -0.31899
-0.02639 0.20983 -0.31984
-0.04955 0.18641 0.31899
0.00414 0.21308 -0.10424
0.05888 0.21308 0.08919
0.31984 0.18939 0.12115
-0.17192 0.21308 -0.02033
0.09832 0.21308 0.02264
0.04702 0.17127 -0.31984
-0.31984 0.13272 0.05726
0.10896 0.21308 0.00827
-0.31899 0.17952 -0.07640
-0.31984 0.19067 0.03723
0.16030 0.20275 -0.31899
0.26013 0.19305 -0.31899
-0.16884 0.21308 0.05262
0.09429 0.21308 0.10556
-0.18382 0.21308 0.27187
-0.01234 0.17573 -0.31899
0.31899 0.11121 0.03488
-0.18945 0.21308 -0.15373
-0.11559 0.21308 0.17923
0.11371 0.19589 0.31984
-0.29999 0.21308 0.11177
-0.23793 0.21308 0.09477
-0.19644 0.21308 0.00471
-0.31984 0.15526 0.08552
-0.09554 0.21308 0.06206
0.31984 0.19896 0.00125
0.31984 0.19587 0.01156
0.00691 0.21308 0.13950
-0.21509 0.21308 0.25612
-0.09312 0.21308 -0.31594
0.00339 0.20943 -0.31984
0.02668 0.09976 0.31899
-0.31612 0.21308 -0.15671
-0.10366 0.18600 0.31984
-0.17215 0.21308 0.02298
0.04385 0.21308 0.22054
-0.01568 0.14689 0.31899
0.27264 0.21223 -0.29138
0.28443 0.21223 -0.25218
0.23963 0.21223 -0.27212
0.21514 0.21223 -0.27266
0.23730 0.21223 -0.30924
0.19840 0.21223 -0.28187
0.26866 0.21223 -0.28071
0.20867 0.21223 -0.31042
0.28693 0.21223 -0.29912
0.22742 0.21223 -0.31229
0.25451 0.21223 -0.27748
0.24440 0.21223 -0.31861
0.21416 0.21223 -0.29476
0.15509 0.21308 0.08850
0.01989 0.21308 0.08429
-0.01364 0.21308 0.09347
-0.16315 0.21308 -0.28350
-0.01336 0.21308 -0.05011
0.04250 0.21308 0.13079
-0.14253 0.21308 -0.28111
0.08941 0.21308 0.05582
-0.31984 0.16321 -0.10681
0.31984 0.19743 -0.12204
-0.26760 0.21308 0.17289
0.31984 0.20717 0.11023
-0.02213 0.07827 -0.31899
-0.28848 0.21308 0.04439
-0.03124 0.21308 -0.28317
-0.11476 0.21308 -0.25003
-0.31899 0.12863 -0.01358
0.04626 0.21308 -0.27028
-0.09616 0.18671 0.15019
-0.08852 0.18671 -0.00774
-0.09631 0.18671 0.16748
-0.08521 0.18671 0.18945
-0.09387 0.18671 -0.12678
-0.09452 0.18671 -0.09854
-0.09676 0.18671 0.02742
-0.07388 0.18671 0.28762
-0.09951 0.18671 0.24550
-0.09714 0.18671 -0.00574
-0.07216 0.18671 0.23403
-0.09923 0.18671 0.20881
-0.07884 0.18671 0.20376
0.01650 0.21308 -0.05579
0.10325 0.16220 -0.31984
0.31984 0.14963 -0.03716
0.30446 -0.10553 0.29347
0.29713 -0.16407 0.29347
0.31223 0.00877 0.29347
0.30214 -0.11147 0.29347
0.31693 -0.07445 0.29347
0.21870 0.21308 0.15893
0.09774 0.21308 0.27418
-0.31984 0.09974 0.00654
0.08437 0.21308 -0.29231
0.02328 0.12893 0.31984
-0.01498 0.21308 -0.18585
0.30888 0.21308 0.06585
0.31899 0.06731 -0.00564
0.07266 0.21308 -0.30378
0.13466 0.21308 -0.26960
-0.31899 0.10987 -0.05157
-0.07146 0.15956 0.31899
-0.05356 0.21308 0.09176
0.31984 0.17000 -0.04680
0.31984 0.17234 -0.06286
0.23606 0.21308 0.10671
0.26244 0.21308 0.11443
0.00698 0.07436 0.31899
-0.31899 0.08834 -0.02994
0.25467 0.21308 0.04976
-0.31824 0.21308 -0.03890
0.03074 0.21308 0.26088
0.02311 0.09386 0.31984
-0.05069 0.14403 0.31899
0.07376 0.17013 0.31984
-0.06248 0.13009 0.31899
-0.07170 0.21308 -0.13907
0.06403 0.21308 0.11812
-0.24715 0.21308 0.04772
-0.31899 0.16486 -0.09609
0.11966 0.21308 0.18868
0.06075 0.18848 -0.31984
-0.29028 0.21308 -0.07284
0.03264 0.18885 0.31984
0.20861 0.21308 0.03983
0.31899 0.14340 -0.07584
0.18018 0.21308 0.20625
-0.08559 0.21308 0.08629
0.25727 0.21308 -0.20746
-0.01787 0.21308 -0.06467
-0.10560 0.18671 0.08096
-0.10328 0.18671 -0.01382
-0.12019 0.18671 0.18532
-0.10187 0.18671 -0.13197
-0.12766 0.18671 0.23086
-0.10272 0.18671 -0.07712
-0.11156 0.18671 0.09876
-0.12984 0.18671 0.30531
-0.11310 0.18671 0.12517
-0.10755 0.18671 0.05363
-0.10821 0.18671 0.21471
-0.11434 0.18671 -0.03502
0.06407 0.21308 0.19525
0.05460 0.21308 0.11257
0.11405 0.21308 -0.12947
-0.16344 0.21308 0.01750
0.09169 0.17076 -0.31899
-0.04048 0.18671 0.17988
-0.04822 0.18671 -0.11291
-0.05324 0.18671 -0.23671
-0.04562 0.18671 0.03491
-0.05334 0.18671 -0.19412
-0.03413 0.18671 -0.12840
-0.03529 0.18671 -0.17530
-0.04794 0.18671 -0.20901
-0.05359 0.18671 -0.09806
-0.05657 0.18671 -0.29833
-0.03770 0.18671 -0.16709
-0.04501 0.18671 -0.20034
-0.15606 0.21308 -0.21909
-0.31984 0.15243 0.09706
-0.02425 0.21308 -0.27817
-0.25278 0.21308 0.19965
0.01954 0.21308 -0.23840
0.20151 0.21308 -0.11782
-0.03682 0.15258 -0.31899
0.28178 0.21308 -0.18911
0.01753 0.21308 -0.03281
-0.19835 0.21308 0.10472
0.02783 0.21308 0.15091
-0.31899 -0.06887 -0.31211
-0.31899 -0.07573 -0.31289
-0.31899 0.00337 -0.30801
-0.31899 -0.19886 -0.31288
-0.31899 -0.06163 -0.30831
0.30457 0.18671 0.00130
0.30326 0.18671 -0.01303
0.30642 0.18671 -0.24913
0.30698 0.18671 -0.21854
0.29470 0.18671 -0.01650
0.30184 0.18671 -0.13911
0.30584 0.18671 -0.15091
0.31486 0.18671 -0.25410
-0.26339 0.21308 -0.13505
-0.03176 0.21308 -0.27143
-0.00879 0.21308 -0.01526
0.06188 0.16526 0.31899
0.25539 0.21308 -0.16063
-0.02691 0.10542 -0.31899
-0.21248 0.21308 0.24362
0.12475 0.21308 -0.10050
-0.06245 0.21308 -0.30504
0.18676 0.21308 0.12182
-0.30514 0.17698 -0.29347
-0.31880 0.01260 -0.29347
-0.31526 0.05074 -0.29347
-0.30385 0.18308 -0.29347
-0.30591 0.07044 -0.29347
-0.31094 0.07374 -0.29347
-0.03662 0.14041 -0.31899
-0.29877 0.21308 -0.12984
-0.02336 0.21308 -0.14687
-0.13824 0.21308 0.28252
-0.07780 0.13746 0.31984
-0.10460 0.21308 0.10936
-0.21107 0.21308 0.01024
-0.31523 -0.11757 0.29347
-0.31857 -0.15257 0.29347
-0.31647 0.14466 0.29347
-0.31209 -0.01380 0.29347
-0.31984 0.15966 -0.09209
-0.31899 0.10625 -0.01907
-0.15280 0.21308 0.21355
0.05256 0.21308 -0.18273
0.31899 0.16586 0.07866
0.31111 0.21308 -0.05317
-0.04680 0.18962 -0.31984
-0.29456 0.03426 0.29347
-0.30883 -0.18439 0.29347
-0.29350 -0.19964 0.29347
-0.29886 -0.14997 0.29347
-0.30554 -0.17098 0.29347
-0.29519 0.08038 0.29347
-0.31764 0.03971 -0.29347
-0.30160 0.12971 -0.29347
-0.31290 -0.02105 -0.29347
-0.31000 -0.02901 -0.29347
-0.31694 0.17846 -0.29347
-0.29667 0.17094 -0.29347
-0.01629 0.10036 -0.31984
-0.28523 0.21071 0.31899
-0.12276 0.21308 -0.11883
0.02640 0.21308 -0.01038
-0.31984 0.18254 0.01308
-0.31899 0.17551 0.06998
0.15465 0.21308 0.16622
-0.20035 0.21308 0.13961
0.02621 0.21308 0.31408
0.00975 0.21308 -0.26702
0.07194 0.14641 -0.31899
0.02853 0.21308 -0.04349
0.20707 0.21308 0.18135
0.12483 0.17757 -0.31953
-0.31899 0.19616 0.24839
-0.31899 0.20802 0.23482
0.24279 0.21308 0.22579
-0.12942 0.18671 -0.26567
-0.12853 0.18671 -0.16451
-0.11852 0.18671 -0.29135
-0.10611 0.18671 -0.28829
-0.10907 0.18671 -0.21696
-0.11852 0.18671 -0.16598
-0.11526 0.18671 -0.24612
-0.13217 0.18671 0.10275
-0.12422 0.18671 0.01031
-0.11579 0.18671 -0.12140
-0.15206 0.18671 -0.05867
-0.18050 0.18671 0.21445
-0.14195 0.18671 0.28051
-0.13817 0.18671 0.10700
-0.16816 0.18671 -0.16341
