0.08445 0.03564 -0.40089
-0.17753 -0.13363 -0.36032
-0.02905 0.05939 -0.02026
0.17520 -0.05360 0.40089
-0.09431 0.05939 -0.38923
-0.04316 0.05939 0.04476
0.11877 0.05939 0.15383
-0.06136 0.13363 -0.11684
-0.26726 0.12657 0.07985
0.19961 0.05939 0.39457
0.02328 -0.08943 0.32665
-0.01499 0.03876 0.32665
0.26726 0.00149 -0.34325
0.09954 0.05939 0.39843
-0.21719 0.05939 0.36795
-0.19788 0.13363 0.37306
0.00128 0.10332 -0.40089
0.26726 0.09554 0.29708
-0.17248 0.13363 0.38015
-0.23048 -0.13363 0.39173
0.00779 -0.13363 -0.36621
0.04145 -0.13363 0.36258
0.08848 0.05939 0.08780
-0.13028 0.05939 0.01427
-0.09073 0.05939 -0.04185
0.22701 0.13363 -0.19101
0.08708 0.05939 -0.17050
-0.19930 0.05333 0.32665
-0.03910 -0.12787 -0.32665
-0.14265 0.05939 -0.38626
-0.25180 -0.13363 0.32868
0.07719 -0.00037 -0.40089
-0.21148 0.05939 0.26303
-0.14406 -0.13363 0.37562
0.03803 0.05939 0.19829
0.03000 0.11818 0.40089
0.07685 0.01124 0.40089
0.09118 0.00459 0.32665
-0.26632 0.13363 0.17636
-0.10206 0.13363 -0.18771
-0.26726 0.13337 -0.25736
-0.21269 0.05939 0.22876
-0.26534 0.05939 0.06890
0.24050 0.05939 0.27450
-0.26726 0.10429 -0.17243
0.13113 0.13363 0.33835
0.26726 0.06650 0.00326
0.11854 0.05939 0.29774
-0.04045 -0.13363 -0.35287
-0.16892 0.13363 -0.37617
0.01749 0.05939 0.38709
0.26726 0.10509 0.20701
-0.03892 -0.03147 -0.40089
0.14030 -0.13363 -0.36051
-0.06374 0.05939 -0.38082
-0.12488 0.05939 0.37162
-0.04772 0.13363 -0.30923
0.15506 -0.07553 -0.40089
0.07629 0.05939 0.12546
-0.05682 -0.01615 -0.40089
-0.05270 -0.04704 -0.32665
-0.24525 0.05939 -0.33487
0.17539 0.05939 0.37477
0.15979 0.05939 -0.16698
0.17897 0.13363 -0.33214
-0.18999 0.11714 -0.40089
-0.26726 0.00586 -0.37106
-0.26726 -0.01031 0.35402
0.08161 0.13363 -0.05476
-0.22228 0.01342 0.40089
0.05364 0.05939 -0.35264
-0.11551 0.13363 -0.09821
0.18656 -0.12690 -0.40089
-0.26726 0.08723 0.04163
0.16548 0.05939 -0.35959
0.12470 -0.05063 -0.40089
-0.24319 -0.00316 -0.40089
-0.20906 0.05939 -0.32882
0.26726 0.11927 -0.12482
-0.26726 0.00490 0.38792
-0.25408 -0.02814 -0.40089
-0.01495 0.05939 -0.33836
-0.05357 0.13363 0.27206
-0.18932 0.05939 -0.30978
-0.11927 0.05939 -0.33510
-0.03800 0.13363 -0.12077
0.21255 -0.00945 0.40089
0.26726 0.09829 -0.37466
-0.26186 0.13363 0.33824
0.10159 0.13363 0.25274
-0.07779 0.05939 0.05931
0.18536 0.13363 -0.16890
0.12391 0.13363 0.14123
-0.15472 0.13363 0.29146
-0.11884 -0.08695 0.32665
0.15516 0.05939 0.08302
-0.13128 0.13363 -0.07349
-0.07846 0.03570 0.32665
-0.26726 -0.07347 -0.36367
-0.11992 0.05939 0.09835
-0.22767 0.05939 0.05731
-0.04203 -0.04778 0.32665
0.26056 0.05939 -0.29190
0.09001 0.05939 0.05284
0.03253 0.13363 -0.19039
0.18407 0.13363 0.19633
0.04079 -0.07989 0.40089
0.10134 0.05939 -0.36306
0.06819 -0.03574 -0.40089
0.26726 0.03884 0.34050
-0.25460 0.13363 0.28401
-0.06599 0.05939 -0.08418
0.07717 0.13363 0.17260
-0.12550 0.05939 0.04565
0.01164 0.13363 -0.23205
0.01578 0.05939 0.32995
0.13026 0.05939 -0.33610
-0.08658 -0.09865 0.40089
-0.25361 -0.13363 -0.38971
0.26726 -0.09892 -0.38929
-0.18962 0.05028 -0.32665
-0.19465 0.05939 -0.02235
-0.07103 -0.08802 -0.40089
0.26726 0.12108 -0.07944
0.26456 0.05939 -0.07305
0.21960 0.13363 -0.31353
-0.16263 0.13363 0.27043
0.10127 -0.04145 0.32665
-0.19804 0.13363 0.29143
-0.24453 0.05398 0.40089
0.13889 0.13363 0.09340
-0.07931 -0.13363 -0.39800
-0.26726 -0.12528 -0.37937
-0.22241 -0.05136 -0.32665
0.18605 0.06541 0.40089
0.23845 -0.00129 -0.40089
0.05242 -0.07982 0.40089
-0.04175 0.05939 -0.15015
-0.22020 -0.13363 0.34072
0.20882 -0.11301 0.32665
-0.14610 -0.10058 0.40089
0.20546 0.05939 0.27816
0.08117 0.00644 0.32665
-0.14574 0.13363 0.22495
0.07304 -0.01907 -0.32665
-0.09430 -0.13037 -0.40089
-0.04810 0.05939 -0.25079
-0.17671 0.05939 -0.31520
-0.16859 0.13363 -0.20629
0.10876 0.13363 0.30522
0.08853 0.05939 0.14901
-0.15084 0.05939 -0.02269
0.26726 0.10745 -0.31297
-0.11583 0.01770 0.40089
-0.15818 -0.08277 0.40089
-0.14691 0.13363 0.13201
-0.25199 0.13363 0.31737
0.05737 0.13363 0.28588
-0.16195 -0.02049 0.40089
0.05966 -0.03281 0.32665
0.24826 0.13363 -0.05490
-0.13345 0.05939 -0.05401
-0.23638 0.07920 -0.40089
0.14849 -0.11432 0.40089
-0.06140 0.01881 -0.40089
-0.26726 0.06759 -0.29846
0.15504 0.13363 -0.00348
-0.18995 0.05939 0.10817
-0.24336 0.05939 -0.32596
-0.20011 0.05939 0.11276
-0.11194 0.05939 0.10699
0.05056 -0.12606 0.32665
-0.06413 -0.01126 0.40089
-0.03701 0.13363 0.12131
0.02067 0.05939 -0.31872
0.06889 0.12840 0.40089
0.11677 0.00441 -0.32665
0.26726 0.09964 0.22604
-0.20414 0.05939 0.33883
0.04293 0.13363 0.08071
0.06851 0.03173 0.32665
0.09675 0.13363 -0.39194
-0.26726 0.12055 -0.07542
-0.06817 0.05939 -0.33346
-0.07229 0.05939 0.33540
0.10560 0.00207 0.40089
-0.01334 0.13363 -0.26778
-0.00803 -0.11097 0.40089
-0.16216 -0.13363 -0.35971
0.07941 0.03353 0.32665
0.16565 0.13363 -0.10791
0.25155 0.05939 -0.04574
0.12846 -0.00181 0.32665
-0.24234 0.05432 -0.40089
-0.22325 0.05939 -0.05493
-0.26726 0.12022 -0.09721
0.13263 0.05939 -0.36661
-0.01444 0.05939 0.31643
0.26726 0.08848 0.03899
0.04724 0.13363 -0.24587
0.20952 0.13363 0.03457
-0.07365 0.05939 0.35452
-0.02347 0.13363 -0.15892
-0.08262 0.13363 0.04222
0.11363 0.13363 0.31970
-0.17098 -0.00518 -0.32665
-0.08042 -0.02571 -0.32665
0.26588 -0.09373 0.32665
-0.20084 -0.13363 -0.36366
-0.26726 -0.07903 0.34943
-0.16035 0.05939 -0.02883
0.10237 -0.13363 -0.39222
0.05822 0.02759 -0.32665
0.12839 0.05939 0.24521
-0.19179 0.13363 -0.22895
0.26010 0.13363 0.31364
-0.12126 0.13363 0.03327
-0.23330 0.12084 -0.40089
0.07316 0.05939 0.00554
0.08166 -0.11836 -0.32665
0.08858 0.13363 -0.32904
0.04865 0.13363 0.21345
-0.02650 0.05939 -0.37714
-0.11351 0.06152 0.40089
-0.05517 -0.06068 -0.32665
0.20559 -0.09961 0.40089
0.04101 0.05939 0.16857
0.12693 0.08931 0.40089
-0.26726 0.09735 -0.20007
0.00174 0.05939 0.13394
0.26726 0.12959 -0.34070
0.03766 0.05939 0.32384
-0.05935 -0.06651 -0.40089
0.26726 0.12154 0.33820
-0.05388 0.05939 -0.11597
-0.26726 -0.13264 0.33198
0.03079 0.13363 -0.15657
0.22230 -0.09551 0.32665
-0.22409 0.05939 0.34342
0.01662 0.05939 -0.25060
-0.17431 -0.01781 -0.32665
-0.02994 0.13363 -0.06598
0.26726 0.12573 -0.35334
-0.07800 0.13363 0.08201
0.26726 -0.13273 -0.37311
-0.26726 -0.06599 -0.36542
0.00659 0.13363 0.28863
0.12913 0.05752 -0.40089
0.12085 0.05939 -0.00783
-0.02363 0.05939 -0.39764
-0.24470 0.08506 0.40089
0.01848 0.13363 -0.25679
-0.19317 -0.00591 -0.40089
-0.23082 0.13363 0.04779
0.04944 0.03695 0.40089
0.14081 0.05939 -0.10554
0.24075 0.13363 0.38239
-0.08722 0.05939 -0.29945
-0.04998 -0.13363 0.37974
0.12014 -0.04969 0.32665
0.04214 0.05939 -0.38171
0.21587 0.05939 -0.18765
-0.13212 0.05939 0.15199
-0.14543 0.05939 -0.19530
-0.05726 0.05939 -0.28722
0.00259 0.13363 -0.26448
0.18754 -0.09745 -0.32665
0.05625 0.13363 0.39323
0.11652 0.05939 -0.39067
0.06945 -0.09796 0.32665
-0.20260 0.13363 -0.02818
0.19947 0.02796 0.40089
0.10352 0.13363 -0.00430
-0.26726 0.05356 0.36098
0.04355 0.05939 -0.25530
0.13412 0.04742 -0.40089
-0.01989 0.04679 -0.40089
0.04916 -0.03577 0.40089
-0.26726 0.09406 0.04441
-0.24566 -0.04883 0.40089
-0.26726 -0.07800 -0.39276
0.15705 0.13363 0.17308
-0.15323 0.13363 -0.18532
-0.15518 0.05939 -0.24577
0.08986 0.05939 -0.23505
0.26726 0.10788 0.04947
-0.06619 -0.13363 -0.33641
-0.07664 -0.07305 0.40089
-0.14810 0.05939 -0.37556
0.00139 -0.13363 0.33869
-0.07992 0.05939 0.35305
-0.21576 0.05939 -0.38761
0.04681 0.04843 -0.40089
0.23883 0.03014 0.32665
-0.26726 0.11112 0.03103
0.18363 0.13363 -0.02789
-0.26726 0.10320 -0.09435
-0.13823 -0.11398 0.40089
0.03561 0.06860 0.40089
-0.17918 0.05939 0.38203
-0.18558 0.05939 0.18235
-0.18562 0.13363 0.27459
0.26726 -0.00033 -0.36558
-0.22343 0.05939 -0.00963
0.06472 -0.04886 0.32665
-0.04981 0.13363 0.01422
-0.15804 0.13363 0.32934
-0.19316 0.05939 0.38751
0.11731 -0.11761 -0.32665
-0.26726 0.13268 0.37068
-0.13473 0.13363 -0.16831
-0.21461 0.08506 0.40089
-0.05229 0.13363 -0.39332
-0.01168 0.05939 -0.02481
0.11202 0.05939 -0.20546
-0.26379 0.13363 -0.27252
0.25133 0.05081 0.32665
0.04936 0.13363 -0.36267
0.10664 0.05939 -0.31955
-0.12726 0.05939 0.13461
0.26726 -0.02150 -0.33460
-0.16613 0.13363 0.22621
-0.26726 -0.11281 0.39599
0.24167 0.05939 -0.17742
-0.26726 0.13191 0.05519
-0.24206 -0.11457 -0.32665
0.06551 -0.04958 -0.40089
-0.00398 0.05939 0.22159
0.22362 0.13363 0.38985
0.17796 -0.12783 -0.40089
0.01498 0.13363 -0.09834
-0.07781 0.13363 -0.21732
-0.25848 -0.04637 0.40089
-0.20674 0.05939 0.21459
0.26726 0.06519 -0.40014
0.02530 -0.00448 -0.40089
-0.26059 0.13363 -0.16328
-0.19306 -0.13363 -0.38565
-0.02270 0.13363 -0.07517
-0.24639 -0.08039 0.32665
0.25191 0.05939 -0.25591
0.02070 0.05939 0.16032
-0.03494 -0.05444 -0.40089
-0.00164 0.03596 -0.32665
0.19651 -0.03758 -0.32665
-0.05474 0.04378 0.40089
-0.02226 0.02436 0.32665
0.17872 0.05939 -0.36518
-0.00680 -0.03534 0.32665
0.22552 -0.05205 -0.40089
0.01445 0.13363 -0.08043
0.03389 0.01000 0.32665
-0.10715 0.05939 0.23574
0.26726 -0.00653 0.33053
0.26726 0.07754 -0.08770
-0.26398 0.05939 -0.15643
-0.14297 -0.04667 0.32665
0.26360 0.05939 -0.33232
-0.02867 -0.13363 0.37269
0.15751 0.13363 0.29136
0.25336 0.05939 0.22786
-0.06204 0.13363 -0.07568
0.21728 0.05939 -0.37944
0.09144 -0.13346 -0.32665
0.03290 0.05939 -0.25727
0.09742 0.13363 0.23847
-0.23142 0.13363 0.38439
0.14654 0.05939 -0.15148
-0.18389 0.03410 0.40089
0.14136 0.13363 0.31868
0.15335 0.10242 0.40089
-0.26232 -0.13363 -0.38472
0.06384 -0.13363 0.36813
0.19958 0.13363 0.07033
-0.03142 0.13363 -0.07311
-0.11350 -0.11794 0.32665
0.06912 0.13363 -0.04809
-0.26726 0.08264 -0.37571
-0.13303 0.13363 0.11466
-0.00909 0.10606 0.40089
0.05261 0.05939 0.21611
0.26726 0.10001 -0.20403
0.12447 0.05939 -0.24670
-0.23344 0.05939 -0.32496
0.05857 0.13363 -0.38499
-0.08854 0.03554 -0.40089
-0.07651 0.13363 0.22149
-0.04312 0.05939 -0.35104
0.15101 -0.13363 -0.33676
-0.19965 0.13363 0.31487
0.26726 0.08592 -0.39444
0.13842 -0.05161 0.32665
0.14898 0.05939 0.16445
0.18347 -0.08011 0.40089
-0.06759 0.13363 0.29466
-0.21163 0.05939 0.02428
0.20647 0.05939 -0.24299
-0.04637 0.13363 -0.28813
-0.12350 0.12533 -0.40089
-0.26385 -0.11567 0.32665
-0.19556 0.13363 -0.21369
0.18170 0.13363 0.37524
-0.17388 0.13363 0.26599
0.03877 -0.04555 -0.40089
0.06090 0.05939 0.07324
-0.21303 -0.12452 -0.32665
0.05510 -0.05822 -0.40089
-0.19360 0.05939 0.29332
-0.10908 0.13250 0.40089
0.16050 -0.08354 -0.40089
0.24201 0.05939 0.07139
0.00230 0.05939 -0.22079
0.22127 0.05939 0.09412
0.09993 0.13363 0.27469
-0.09985 0.05939 0.30546
-0.26726 0.09390 0.08531
-0.20761 0.04300 -0.40089
0.02532 0.05939 -0.11312
-0.11743 0.05939 0.07769
0.23890 0.05939 -0.22129
0.26726 0.09810 0.38727
0.00079 0.05939 0.18594
0.12952 0.05939 0.22458
0.09871 0.13363 0.18439
-0.17500 -0.11120 0.32665
-0.23421 -0.02779 -0.32665
0.13678 -0.11609 0.40089
0.03605 0.02434 0.40089
0.26726 0.12349 0.40028
-0.14211 0.05939 0.11222
-0.07527 -0.13159 0.40089
0.14933 0.13363 -0.09718
-0.09268 0.06742 0.40089
0.26480 0.13363 -0.37633
-0.24552 0.01352 -0.32665
-0.12205 -0.01406 0.40089
-0.08941 -0.06421 0.32665
-0.11146 0.13363 -0.07170
-0.09971 0.05939 0.39237
-0.04774 -0.08705 -0.40089
0.25456 0.05798 0.32665
-0.10351 0.13363 -0.22667
-0.11268 0.05939 0.19513
-0.22498 0.07835 0.40089
0.05287 0.05939 -0.05836
-0.26726 0.09480 -0.25912
-0.03402 0.05939 0.26640
0.00349 0.13363 0.00902
-0.00979 0.13363 -0.23045
-0.26726 0.12946 0.11551
0.23377 0.13363 0.31662
-0.12595 0.13363 0.01138
0.26338 0.13363 0.37854
-0.04168 0.05939 -0.16481
-0.04850 0.13363 0.24860
0.16673 0.02381 -0.32665
-0.21180 -0.03489 0.40089
-0.21690 -0.13363 -0.33823
0.26726 0.07802 0.02883
-0.11953 0.05939 0.37471
-0.07055 0.00552 -0.40089
0.11321 0.13363 -0.31484
0.21960 0.13363 0.24037
0.00412 0.13363 -0.00481
-0.07585 0.05939 -0.03264
-0.24441 0.13363 -0.23710
-0.21139 0.13363 0.18119
0.23869 -0.09238 -0.32665
-0.10073 0.05939 0.33267
0.18821 0.05939 0.14320
0.17953 0.13363 0.30305
-0.01248 -0.13363 -0.33939
-0.12054 -0.13102 -0.32665
-0.05030 0.05939 -0.04944
-0.11584 0.13363 -0.24914
-0.17640 0.13363 0.05037
0.06772 -0.05909 0.32665
0.26726 0.05655 0.37292
0.07561 0.11738 0.40089
0.25077 0.11186 0.40089
0.09720 0.03101 -0.40089
-0.19794 -0.12087 0.32665
0.02316 -0.05414 0.32665
-0.22464 0.13363 0.26988
0.09516 0.05939 -0.00823
-0.26726 0.10188 -0.35280
0.08753 -0.09475 0.32665
0.04062 -0.13363 -0.33410
-0.04029 -0.06573 0.32665
0.02903 0.05939 -0.22406
-0.20084 0.13363 0.36287
0.11587 -0.12749 -0.32665
-0.22210 0.05939 -0.34261
-0.19431 0.13363 0.14503
0.09409 -0.08543 0.40089
-0.13621 -0.03847 0.40089
0.21585 0.05939 0.39332
0.16294 -0.13363 0.34566
-0.26283 -0.04725 -0.40089
0.26726 0.03653 -0.33727
0.06346 0.13363 0.13339
-0.11613 0.07947 0.40089
0.26726 0.08501 -0.16003
-0.22923 0.13363 -0.34967
0.05021 -0.00220 0.32665
-0.22337 0.01106 -0.40089
0.03033 0.05939 -0.37278
-0.01229 0.05939 -0.35574
0.12412 0.05939 -0.38035
-0.03732 0.08723 -0.40089
-0.23665 0.05939 -0.23960
0.03938 -0.13363 -0.39294
0.16806 0.06754 0.40089
-0.26726 -0.12532 -0.39111
-0.19702 0.05939 -0.19210
-0.15068 0.13363 -0.09487
0.26726 0.10298 0.03810
0.10981 0.05939 -0.01269
-0.21260 0.13363 -0.00142
0.04020 0.13363 -0.17361
-0.08434 -0.05467 -0.32665
0.18945 0.13363 0.24041
-0.12945 0.05939 -0.25339
-0.26726 -0.03239 0.36835
0.11935 0.13363 -0.37437
-0.19978 0.05939 0.31286
0.03340 -0.00505 0.32665
-0.04082 0.13363 0.17876
-0.11891 0.05939 0.32437
0.21115 0.05939 -0.39613
0.05165 0.05939 -0.38391
-0.12933 -0.02771 -0.40089
-0.02494 0.01452 0.40089
-0.01069 -0.13363 -0.35502
-0.05979 0.05939 0.09491
0.10720 0.13363 0.25341
-0.21459 0.13363 -0.02204
0.26345 -0.10923 -0.32665
0.15122 0.05939 -0.22351
-0.17837 0.05939 -0.08293
-0.15941 0.13363 0.11645
-0.15851 -0.10614 -0.40089
0.00762 -0.13363 -0.37984
-0.24027 0.05939 -0.29037
0.23900 0.05939 -0.25899
0.11605 -0.00300 -0.32665
-0.23241 0.10968 -0.40089
0.25973 -0.03520 -0.32665
-0.24898 0.13363 -0.09652
0.14115 0.05939 -0.35841
0.26726 0.07368 -0.09479
-0.22456 -0.03375 -0.32665
-0.26726 0.07109 0.10938
0.05717 0.13363 -0.06503
-0.00113 -0.02500 -0.32665
-0.26540 0.05939 -0.14625
-0.26726 -0.03931 -0.36334
-0.02886 -0.11408 -0.40089
0.17525 0.13363 -0.08168
0.22222 -0.13363 0.38712
-0.26726 -0.00959 0.36741
0.17097 0.01330 -0.32665
-0.00922 0.05939 -0.15369
-0.26726 0.10748 0.26485
0.26726 0.10640 0.37357
-0.14529 0.13363 0.08293
0.08186 0.05939 0.10386
-0.06897 0.13363 0.01033
0.03734 0.00723 0.40089
0.10811 0.05939 0.24696
0.15854 0.13363 -0.27370
0.00999 0.13363 -0.03862
-0.03911 0.05939 0.37409
-0.12711 -0.07962 0.40089
-0.18969 0.05939 0.33315
-0.23042 0.13363 -0.28296
-0.17332 -0.11945 -0.32665
0.26085 0.05939 0.23716
0.26726 -0.05033 0.33062
0.05107 0.05939 -0.22569
0.08096 0.13363 -0.00113
-0.06572 -0.12036 -0.40089
-0.25367 -0.10217 0.32665
-0.13825 -0.03064 -0.40089
0.06366 0.05939 0.36202
0.06648 -0.00190 -0.40089
-0.18598 0.02026 0.32665
0.23699 0.13363 -0.28546
-0.11515 0.05939 -0.18164
-0.01857 -0.03432 0.32665
0.01141 -0.13363 0.36766
0.12420 0.13363 -0.24193
-0.04097 0.13363 0.23672
-0.17648 0.05088 -0.32665
-0.23936 -0.05104 0.40089
0.26726 0.07817 -0.02502
0.01344 -0.00346 -0.32665
-0.26366 0.05939 0.33167
0.08439 0.13363 -0.16872
0.21952 -0.13308 -0.40089
-0.14521 0.05939 0.19382
0.18468 -0.02430 0.40089
-0.23342 -0.09685 -0.40089
0.21806 -0.13363 -0.34131
0.20853 0.05939 -0.01951
0.03151 0.05939 -0.31645
0.24157 0.13363 -0.20332
-0.23649 0.05939 0.31307
0.00116 0.05939 -0.28292
-0.10040 0.13363 0.36419
-0.02455 -0.06717 0.40089
0.26726 0.10536 0.30651
-0.14713 0.02558 0.32665
-0.15683 0.13363 -0.10534
-0.11023 0.13363 0.26794
-0.26726 0.10897 0.32168
0.01695 -0.06012 -0.40089
0.03818 0.13363 -0.18125
-0.20380 0.05939 0.07989
-0.26726 -0.02459 0.35564
0.08641 0.13363 -0.12281
0.05487 -0.12015 0.40089
0.16620 0.13363 -0.23587
0.05768 -0.03672 -0.32665
-0.16470 0.13363 0.31898
-0.01554 0.13363 -0.37930
0.10874 0.13363 0.23179
-0.03253 0.05939 0.38104
-0.23982 0.13363 0.38087
-0.19029 0.05939 0.26354
0.13291 0.13363 0.15704
-0.10220 0.02422 0.40089
-0.15429 0.05939 -0.15427
-0.11580 0.13186 0.40089
-0.09766 -0.13363 0.39731
-0.17301 0.05939 0.13105
0.23519 0.13363 0.10213
0.26535 0.13363 0.11523
-0.17277 0.05939 -0.00379
-0.12923 0.05939 -0.17788
-0.11349 0.13363 -0.39240
0.00851 0.05939 0.01701
0.26726 0.11552 -0.04621
-0.13773 0.13363 -0.37311
-0.16496 0.05939 0.02591
0.16493 -0.09765 0.32665
-0.11791 0.13363 -0.11421
0.02567 0.05939 -0.13440
0.12805 -0.06971 -0.40089
-0.21154 0.13363 0.09085
0.19946 0.13363 0.19971
-0.14310 -0.11902 0.32665
0.25680 0.03045 -0.40089
-0.01579 -0.10133 0.32665
-0.10555 -0.13363 -0.39374
-0.03497 0.13363 0.23450
-0.12962 0.13363 0.17743
-0.19406 0.03319 0.32665
0.26726 -0.07439 -0.33305
0.21489 0.05939 0.07011
0.14483 0.13363 -0.03051
-0.24573 0.05939 0.02184
0.11881 0.05939 -0.39897
0.08949 0.12518 0.40089
-0.26726 0.11282 0.39866
0.26726 0.09468 0.35296
0.00299 0.05939 0.02855
-0.09154 0.13363 -0.02462
0.22035 -0.06952 -0.32665
0.26726 0.12717 0.37205
-0.07656 0.13363 -0.32013
-0.22012 0.13363 -0.10508
0.08213 0.05939 -0.35448
-0.26512 0.13363 0.19473
0.06916 -0.05449 -0.40089
0.09979 0.05939 0.26258
-0.15557 0.13363 -0.17469
-0.26726 0.07649 -0.02624
0.26726 -0.06364 0.35178
0.24424 -0.02208 -0.32665
0.11622 0.05939 0.07768
0.13999 0.13363 -0.06749
0.26726 0.06599 0.37378
-0.19389 0.13363 -0.06154
-0.25616 0.05939 0.04092
-0.22346 -0.08426 0.40089
-0.10618 -0.13363 -0.33691
-0.09843 0.05939 -0.04539
-0.17558 0.05939 0.35404
-0.11720 0.13363 -0.29638
0.21924 0.13363 -0.15406
-0.17401 0.13363 -0.22016
-0.26239 0.05939 0.34331
0.26726 0.09886 0.18382
-0.26726 0.06161 0.36103
0.02875 0.13363 -0.29838
-0.14670 -0.07940 0.40089
0.13690 0.05939 -0.31017
0.02817 0.00497 -0.40089
-0.14721 0.13363 0.28423
0.23136 0.11943 -0.40089
-0.11801 -0.05487 -0.32665
0.07835 0.05939 0.05198
-0.03342 0.05939 -0.21775
-0.26726 0.12094 -0.31006
-0.09970 0.04196 -0.32665
0.08288 -0.10120 -0.32665
-0.00753 0.13363 0.36256
0.18174 0.13363 0.29391
0.25183 0.05939 0.24948
0.15585 -0.02084 0.40089
0.06036 -0.08438 0.32665
-0.08194 -0.02365 -0.40089
0.26726 0.10939 0.25322
-0.20750 -0.06460 0.32665
0.11817 0.13363 0.36522
-0.03635 0.05939 -0.22586
-0.07918 0.13363 -0.39008
-0.26622 -0.08787 -0.40089
0.04181 0.05939 0.33191
0.15534 0.13363 0.02957
-0.14544 0.02662 0.40089
0.06496 0.05939 0.04270
-0.26509 -0.13363 -0.35205
0.04201 0.11349 0.40089
-0.00121 0.05939 0.36279
0.04687 0.03279 -0.40089
0.05045 0.13363 -0.01110
-0.17714 0.05939 -0.38603
0.13726 -0.08080 -0.40089
0.09068 0.05939 -0.26970
-0.26726 0.07957 -0.38406
-0.22525 0.05939 -0.27401
-0.14766 0.05939 0.40081
0.18172 0.13363 0.15857
-0.26726 0.01637 -0.38849
-0.26536 0.04752 -0.32665
0.05523 0.09376 0.40089
-0.09215 0.13363 0.23275
0.16706 0.05939 -0.32887
0.26726 0.09918 -0.36025
-0.08552 0.13363 0.31881
0.15351 0.05939 0.39386
0.16928 -0.04915 0.32665
0.19444 0.13363 0.25542
0.11422 -0.13363 -0.36429
-0.09632 -0.11954 -0.32665
0.25379 0.13363 0.29435
0.05992 -0.04469 0.40089
-0.15321 0.13363 0.26970
-0.18579 -0.11431 -0.40089
-0.04318 -0.07898 0.32665
0.21702 -0.09013 -0.32665
0.26726 0.10125 0.07327
-0.02026 0.13363 -0.11180
-0.12351 0.05939 0.19380
-0.05850 -0.07516 0.32665
0.20487 0.05939 -0.38109
-0.13381 0.05939 -0.34668
0.24470 0.11866 -0.40089
0.06342 0.08961 0.40089
-0.04678 -0.07400 -0.40089
-0.20884 -0.06274 0.40089
-0.26726 0.00321 -0.33001
-0.04350 0.13363 -0.32511
-0.07115 0.05939 0.29618
-0.23121 0.04620 0.40089
-0.12543 -0.06862 -0.32665
0.09315 0.05939 -0.29826
-0.12488 0.13363 0.34403
0.10357 -0.01506 -0.40089
0.17431 0.05939 0.31912
-0.04459 0.09420 0.40089
-0.25532 -0.00647 0.32665
-0.16039 -0.12875 -0.40089
-0.22150 0.13363 -0.09733
-0.07930 0.05939 0.24568
-0.08024 0.13363 0.00187
0.24552 0.13363 0.20408
0.13027 0.13363 -0.06532
0.18051 0.12582 -0.40089
-0.01983 0.00575 -0.32665
-0.15049 -0.13363 -0.39845
0.16977 0.05939 -0.32206
-0.26726 0.07144 0.35707
-0.26726 0.09028 0.01906
-0.12921 -0.10867 -0.32665
-0.12864 0.13363 -0.39089
-0.10136 0.13363 0.30383
0.18052 -0.09710 -0.40089
0.19576 0.05939 -0.28343
-0.07479 -0.10496 0.32665
-0.20028 0.11965 0.40089
0.19108 0.13363 0.00397
0.04158 0.05939 0.36396
0.03928 -0.06803 0.40089
-0.18829 0.05939 0.39824
0.05026 0.05939 0.32968
0.24694 0.05939 -0.16865
-0.10191 0.05939 0.20382
-0.22050 0.05939 0.32683
-0.08751 0.12715 0.40089
0.03407 0.05939 0.17439
0.23611 0.05939 0.03888
-0.04394 0.05939 0.10923
0.24657 -0.10182 0.32665
0.26726 -0.05424 0.36890
-0.25295 0.05939 -0.33527
0.09194 0.05939 0.39954
0.23674 0.05939 -0.06463
0.09283 0.05939 0.22316
0.25999 -0.12002 0.32665
-0.26726 -0.05335 -0.35190
-0.21389 0.05939 0.28395
-0.16211 0.05939 -0.19825
0.17490 -0.07881 -0.32665
0.20743 -0.05582 -0.40089
-0.20096 0.05939 0.32758
-0.07650 -0.12832 -0.32665
-0.19811 0.02682 -0.40089
-0.21004 0.05939 0.10598
0.26726 0.05988 0.28072
-0.26726 0.06170 -0.04276
0.08495 0.01020 -0.40089
-0.21743 -0.05218 0.40089
-0.02118 0.13363 0.34143
0.11415 0.05939 -0.32670
0.26726 -0.07292 0.36769
0.23963 -0.13363 0.35192
0.02887 0.05939 0.33981
0.02655 0.13363 0.03196
-0.05541 -0.13363 0.35815
-0.19903 0.00875 0.40089
-0.17545 -0.09922 -0.32665
0.05008 -0.06235 -0.40089
-0.21002 0.05939 0.38308
-0.09349 -0.07320 -0.40089
-0.00338 0.05939 0.29518
0.18429 -0.13363 -0.39848
-0.26726 0.04067 -0.35334
-0.11047 0.13363 0.00915
0.01608 -0.10662 0.40089
-0.03349 -0.04556 -0.32665
0.13474 0.13363 -0.15422
0.09581 0.05939 -0.16675
0.25013 0.05939 -0.01082
0.26358 -0.13363 -0.36450
0.24702 -0.05658 0.40089
-0.11760 0.07229 0.40089
-0.04155 0.05939 -0.09703
-0.14805 0.05939 0.06367
-0.04138 -0.13363 0.36145
-0.20171 0.05939 -0.38765
-0.18410 -0.13363 0.35165
0.26726 0.07986 -0.18025
0.16836 0.13363 0.12661
0.12463 -0.08740 0.32665
0.19040 -0.11347 -0.40089
0.18146 -0.10512 -0.32665
0.07979 -0.01444 0.40089
0.00565 0.05939 -0.32733
0.01033 -0.09700 0.32665
0.14308 0.13363 0.39481
-0.16954 0.05939 -0.13472
0.05448 0.05939 -0.34294
0.26726 0.08042 -0.20013
-0.20245 0.05939 0.17030
-0.04510 0.13363 -0.14658
0.01324 0.13363 -0.28218
-0.10565 0.13363 -0.26998
-0.14561 0.13363 -0.05848
-0.04388 0.13363 -0.24513
-0.13863 -0.02133 0.32665
0.25425 0.13363 -0.12146
-0.19242 0.08134 -0.40089
0.26726 0.10760 -0.09580
0.26726 0.09664 0.36412
0.22117 -0.13363 -0.37378
0.02063 0.05939 -0.21207
0.02389 0.13363 -0.13867
0.26726 0.09099 0.27832
-0.19659 0.13363 0.12604
-0.01742 -0.13363 0.38629
-0.16763 0.05939 -0.37598
-0.01174 0.05991 -0.40089
-0.17791 0.13363 -0.11119
0.07447 0.13363 0.14115
0.17414 0.13363 -0.19881
-0.01782 0.05939 0.02120
-0.09928 0.05939 -0.02429
-0.10904 0.13363 0.12108
-0.03696 -0.04547 0.32665
0.19611 0.13363 -0.21469
0.08941 0.13363 -0.23175
0.02668 0.13363 0.11447
0.15219 0.13363 0.10962
-0.10706 0.05939 -0.18732
0.13250 0.05939 0.12331
-0.22081 0.05939 0.17124
-0.01473 0.10774 -0.40089
0.22856 0.13363 0.27118
0.11761 0.05939 0.35044
-0.01471 0.05939 -0.14673
-0.17361 -0.00589 0.32665
0.26126 0.05939 -0.06482
-0.04116 0.06002 0.40089
-0.12127 0.13363 0.32340
-0.24289 0.13363 -0.33234
-0.14250 0.05939 -0.15027
0.01119 0.05939 0.34729
-0.04041 0.05939 0.25754
-0.06506 0.13363 0.16277
-0.07481 0.05939 -0.15511
0.18769 -0.10940 0.40089
-0.06881 0.05939 -0.30827
-0.10137 -0.03310 0.32665
-0.00362 0.11218 0.40089
-0.07658 0.04601 -0.32665
0.13928 -0.13363 0.33386
-0.13099 0.13363 0.37232
-0.21275 0.05939 0.01212
0.26726 -0.08633 -0.36521
-0.18892 0.05939 -0.38497
0.05790 0.05939 0.29219
-0.09813 0.13363 0.25237
-0.11594 0.05939 -0.21025
-0.22456 0.05939 -0.33534
-0.11989 -0.12966 0.40089
-0.00808 0.13363 0.21189
-0.12252 -0.01280 -0.32665
-0.11939 0.05061 -0.32665
-0.15191 0.13363 0.09060
0.26726 0.06653 -0.17831
0.23461 0.13363 0.27858
-0.08076 -0.05327 -0.40089
-0.26726 -0.05664 -0.32756
0.12437 -0.01500 -0.32665
0.07847 0.05939 -0.35861
-0.26045 -0.12487 0.40089
0.21417 0.05939 0.32397
0.09384 0.13363 -0.10079
0.04727 0.05939 -0.05234
-0.26726 0.09196 -0.01371
-0.25946 -0.13363 0.33179
-0.16137 0.13363 0.20248
-0.13756 0.13363 0.24268
-0.04638 0.13363 -0.10075
0.26624 0.13363 0.08931
0.22623 -0.07194 0.40089
-0.23182 0.13363 -0.00929
0.12523 0.13363 -0.12140
0.26149 0.05939 0.27203
-0.15560 0.05939 -0.39754
0.24531 0.05939 -0.32735
0.21760 -0.13363 0.33242
-0.09757 0.05939 0.27024
-0.13272 0.13363 0.38635
-0.10408 0.05939 0.39980
0.13332 0.05939 -0.34439
0.12245 0.08412 -0.40089
-0.13583 0.13363 -0.28636
-0.08896 0.13363 0.03863
0.13660 0.05939 -0.05315
0.00433 -0.13363 -0.39071
0.12316 -0.13363 0.35365
0.01574 0.13363 0.14009
0.05266 0.13363 -0.01848
0.26726 0.12668 0.32757
0.23205 0.05939 -0.14893
0.19458 0.13363 -0.19981
-0.05047 0.05939 -0.02404
-0.24295 0.05939 0.23144
0.01468 -0.12410 0.40089
-0.08703 0.13363 -0.25794
0.05686 0.05939 -0.15680
-0.19781 0.07395 0.40089
0.15710 0.13363 0.35334
0.03785 0.05939 -0.15152
0.07600 0.05939 0.28118
-0.06393 0.05560 -0.32665
-0.25008 0.10949 0.40089
-0.07096 0.05939 -0.33894
-0.08728 0.13363 -0.03577
-0.06163 -0.04560 -0.32665
0.07026 0.05939 -0.35870
-0.21031 0.13363 0.10887
0.07119 0.13363 0.16943
0.06311 0.13363 -0.01219
-0.08254 0.05939 0.38059
0.26726 -0.03023 -0.34736
0.21156 0.13363 0.20828
-0.16163 -0.13363 0.38956
0.18905 -0.06787 -0.40089
0.03562 0.13363 0.00421
-0.09911 0.13363 -0.05782
0.10652 0.05939 -0.28260
-0.21668 0.13363 0.38669
0.26726 0.10029 -0.02989
0.25009 -0.12178 -0.32665
-0.03630 0.13363 0.24802
-0.25977 -0.03538 0.32665
-0.08571 0.01045 -0.40089
-0.23601 -0.10491 0.32665
0.05055 0.13363 -0.20166
0.10210 0.10206 0.40089
-0.09286 0.13363 -0.23785
0.20895 0.13363 0.38495
-0.00620 0.05939 -0.31446
0.07057 0.02769 -0.32665
-0.25338 0.13363 0.00449
0.13731 -0.05690 -0.40089
0.15842 0.05939 -0.38325
0.00417 -0.13363 0.35634
0.04391 0.05939 0.38223
0.15460 0.05939 0.32995
0.14330 0.05939 -0.18977
-0.26726 0.00040 0.33826
-0.23451 0.05939 -0.38657
0.16022 0.05581 -0.40089
0.19237 0.05939 -0.26218
0.14644 0.00757 0.32665
0.12746 0.05939 -0.06176
-0.13332 0.05939 -0.29056
0.19708 -0.11058 -0.32665
0.19360 0.05939 -0.05494
0.03717 0.13363 0.36305
-0.06991 0.13363 -0.32787
0.24576 0.05939 -0.12758
-0.06523 0.13363 0.28260
-0.21642 0.13363 0.15996
0.26642 0.09805 -0.40089
-0.15934 -0.13363 -0.32845
0.23274 0.05939 0.11435
0.16873 0.05939 0.34617
0.18087 -0.11338 -0.32665
-0.20977 0.13363 0.13069
0.10892 0.13363 0.20054
0.25837 -0.08406 0.40089
0.16080 0.13363 -0.29552
0.06656 -0.04153 -0.32665
-0.20810 0.13363 -0.04903
-0.19023 -0.03956 -0.40089
-0.23994 0.05939 -0.38361
0.22341 0.05009 0.40089
-0.18008 0.13363 -0.00987
0.19607 0.06892 0.40089
-0.26593 0.05939 0.36966
-0.26726 0.05181 0.32745
-0.14978 -0.05956 -0.32665
-0.06204 0.13363 -0.17234
0.22574 -0.10921 0.32665
-0.26726 0.11667 -0.34663
-0.26726 0.03072 -0.36939
-0.21210 0.05939 0.34945
0.26726 0.02821 0.38717
0.07802 0.03762 0.40089
-0.02190 0.13363 -0.08780
-0.22382 0.05939 -0.25857
-0.11800 -0.08407 -0.40089
0.26726 -0.12399 0.35858
0.00690 -0.11245 0.32665
0.21782 -0.01846 -0.40089
-0.24248 0.13363 -0.08690
-0.19813 0.05939 -0.36926
0.09281 0.13363 -0.11726
0.03888 0.13363 0.06411
0.26027 0.05939 -0.13527
0.04582 -0.00737 -0.32665
-0.10727 0.13363 -0.19771
0.08700 -0.13363 0.39482
-0.18012 0.05939 -0.01503
-0.26726 0.07376 0.07946
0.26726 -0.04419 0.39191
0.16597 0.05939 -0.27095
-0.02053 -0.05605 0.32665
0.24193 0.12701 -0.40089
-0.01330 0.13363 0.13090
0.15999 0.05939 -0.32805
-0.15435 0.04675 0.32665
0.26726 0.13137 -0.35258
0.12424 0.05939 -0.17668
0.07548 0.13363 -0.30016
0.06357 0.05939 -0.37273
-0.21083 0.13363 0.24550
0.05904 0.13363 -0.02597
0.24410 0.05939 -0.28522
-0.13269 0.13363 0.10060
0.23377 0.00433 -0.40089
-0.20115 -0.05927 0.40089
-0.09811 0.05939 -0.10302
-0.14684 0.13363 -0.09063
-0.20949 -0.08024 0.32665
-0.08600 -0.04475 0.40089
0.24719 -0.10616 -0.32665
-0.00979 0.05939 0.20907
-0.23217 -0.12039 0.40089
0.04848 0.13363 0.32726
-0.25937 -0.01632 -0.40089
0.14725 0.05640 0.32665
0.14807 -0.13363 -0.38284
0.07922 0.13363 -0.32321
-0.20152 0.13363 -0.02077
-0.06100 0.00296 -0.32665
-0.20593 -0.01590 0.32665
0.08363 0.05939 0.23735
0.20923 0.13363 0.32095
-0.07025 0.05939 -0.14424
-0.20815 0.05939 0.04256
-0.24704 -0.07114 -0.32665
-0.24942 0.05939 -0.32022
-0.21796 0.13363 0.25575
-0.26726 0.11677 -0.29378
0.26726 0.09370 0.10211
0.19092 0.05939 -0.39661
-0.13026 0.05106 -0.32665
-0.20035 0.08831 -0.40089
-0.08309 0.03647 0.40089
0.21340 0.13363 0.27076
-0.00854 0.05939 -0.10035
-0.13128 -0.03980 0.32665
-0.25011 0.13363 0.23077
-0.02821 -0.07623 0.40089
0.03054 -0.10147 -0.40089
-0.00510 -0.03024 -0.32665
-0.07103 0.13363 -0.21303
-0.14809 -0.02547 -0.40089
-0.16989 -0.06080 0.32665
-0.15533 -0.01053 -0.32665
0.16270 0.05939 0.30646
0.07437 0.13363 -0.27715
0.09636 0.05939 0.35386
-0.05317 0.13363 0.18446
-0.07214 0.05939 0.34730
-0.13427 0.04605 0.32665
0.06802 0.05939 0.05088
-0.01759 0.05939 -0.10437
0.26726 0.07996 0.04007
0.12351 0.13363 0.00981
0.07762 0.05939 0.36122
0.22660 0.13363 -0.26626
0.05487 0.05939 -0.06376
0.17210 0.13363 0.19952
0.21167 0.13363 -0.21859
-0.01763 0.04656 0.32665
0.17623 0.05939 -0.37093
0.00781 0.05939 -0.34114
0.12724 -0.13363 0.39660
-0.04675 0.05939 0.17559
-0.24833 0.05939 0.00253
0.04737 0.05939 -0.09194
0.20508 0.05939 0.33489
0.01689 -0.13363 -0.37545
0.18536 0.05939 -0.00982
-0.24649 0.05939 -0.02009
-0.20985 0.05939 -0.35743
0.07515 0.05939 -0.07708
0.15249 0.07319 -0.40089
0.06915 0.06424 0.40089
-0.13676 0.05939 -0.34102
0.04912 0.06428 -0.40089
-0.03346 0.05939 0.13126
-0.24392 0.05939 -0.26636
0.06425 0.12703 -0.40089
0.25655 0.01348 -0.32665
-0.22702 -0.13363 -0.36631
-0.09787 -0.02697 0.40089
-0.01502 0.05939 -0.27003
0.26726 0.07064 0.23889
-0.26726 -0.12653 0.33343
0.26726 0.11776 -0.24642
0.17312 0.13363 -0.20472
-0.09404 0.05939 0.29143
-0.09924 0.05939 0.04417
-0.18880 0.13363 -0.05772
0.26687 -0.11479 0.40089
-0.09953 0.05939 -0.14016
-0.03131 0.13363 0.28227
-0.07558 0.09012 -0.40089
0.01158 0.05939 -0.21246
-0.00098 -0.05332 -0.32665
0.04153 0.13363 -0.00430
0.26726 -0.01571 -0.35054
0.05725 0.13363 -0.15055
-0.04886 0.13363 0.20937
-0.07068 -0.05174 0.40089
0.05728 -0.13363 -0.33527
-0.01484 -0.13363 -0.39413
0.11599 -0.13363 0.32810
0.20219 0.05939 -0.01530
0.23793 0.05939 0.06662
-0.09061 0.13363 0.30548
0.13177 0.05939 -0.23981
-0.02800 0.05939 0.35549
-0.26726 0.08604 -0.11132
-0.24907 0.05939 -0.08513
0.07287 -0.00744 -0.40089
-0.13679 0.05939 0.22916
-0.19789 -0.04704 -0.32665
0.14959 0.13363 0.20979
-0.26451 0.00171 0.32665
0.24611 0.13363 -0.11889
-0.26726 0.12194 0.27056
0.22642 -0.01275 -0.32665
0.17853 0.13363 0.33150
0.14860 0.03340 0.40089
0.26726 0.08975 -0.30342
-0.26726 0.07415 -0.30201
-0.26726 0.01726 -0.35882
0.20909 0.05939 -0.00516
-0.11694 0.13363 0.18088
0.11694 0.02378 -0.32665
0.17886 0.09050 0.40089
-0.15149 0.08619 -0.40089
-0.00688 0.05939 0.39430
0.12714 0.13363 0.19175
0.06906 0.05939 0.01907
0.14799 0.05939 0.14869
0.26537 0.13363 -0.08535
0.00955 0.05939 0.11320
-0.06582 0.03872 0.32665
0.19815 0.05939 -0.38611
0.12843 0.13363 0.26876
-0.03865 0.05939 0.03156
0.26726 0.12958 0.19977
0.04593 -0.00674 0.32665
-0.18408 0.05939 0.39096
0.01584 0.13363 -0.39274
-0.09358 0.13363 -0.33390
-0.12139 0.13363 -0.14773
0.00612 0.05939 0.32426
0.08844 0.13363 0.01615
-0.05842 0.02001 0.40089
-0.16054 0.05939 -0.31557
0.12959 0.05939 0.39109
0.14905 0.05939 -0.27675
0.02873 0.13363 0.36004
-0.26726 0.06577 -0.29057
-0.18402 0.13363 -0.03383
-0.12966 0.05939 0.37534
-0.00622 -0.13036 0.32665
-0.19105 0.05939 -0.20438
0.16987 -0.13363 -0.33477
-0.08237 0.05939 -0.09796
0.24495 0.05939 0.24175
0.15824 0.00740 0.40089
0.24339 0.05939 -0.35546
-0.09911 0.13363 0.33587
0.11848 0.05939 -0.06284
0.08513 0.05939 -0.26703
-0.01451 -0.13363 -0.36262
-0.11578 0.01161 0.40089
0.15100 0.05939 -0.13609
-0.16134 0.13363 0.03429
0.09971 0.13363 -0.24549
0.14100 0.01079 -0.40089
-0.04501 -0.08617 0.40089
-0.26726 0.04571 0.35501
-0.14359 0.05939 0.39691
0.04655 0.05493 -0.32665
-0.05232 -0.00095 -0.40089
-0.26726 0.06573 0.37160
-0.14002 0.04655 -0.40089
-0.12634 -0.11546 0.32665
-0.06066 0.13363 0.16636
-0.15082 -0.13363 0.34502
0.11891 0.05939 0.23088
0.01305 -0.10779 -0.32665
0.07501 0.13363 -0.10433
0.06227 0.13363 -0.10961
-0.24507 0.05939 -0.35353
-0.02422 0.13363 -0.01484
-0.09380 0.05939 0.39622
0.04512 0.05939 0.01818
-0.17078 0.03377 -0.40089
-0.02818 0.05939 -0.27127
0.15827 0.05939 0.06444
0.00074 -0.04949 -0.40089
0.05076 0.05939 0.23925
-0.03146 0.05939 0.36179
0.16369 0.05939 0.20874
-0.25421 -0.10732 -0.32665
-0.04322 0.05939 0.20504
0.10068 0.13363 0.07559
0.22149 -0.08059 0.32665
0.20990 0.05939 0.34363
-0.17955 0.05939 -0.32098
0.12867 -0.11611 -0.32665
0.20600 0.05939 -0.06181
0.11085 0.05939 -0.04730
-0.25003 0.05939 0.37049
-0.21285 0.05939 0.13276
0.17962 0.05939 0.22618
-0.21872 0.05939 0.00830
0.07458 0.03954 0.32665
-0.19403 -0.00507 0.40089
-0.12819 0.05939 0.22530
0.07569 0.05161 -0.40089
-0.00314 0.05939 -0.21032
0.26055 0.13363 0.03858
-0.08408 -0.13363 0.39280
0.21309 -0.05144 0.40089
0.21165 0.13363 -0.11495
-0.26726 -0.13045 -0.37525
0.17824 -0.03163 0.32665
-0.08409 0.05939 0.00412
-0.14478 0.05939 0.37696
-0.02404 0.05939 0.25213
-0.24635 -0.11705 -0.40089
0.02335 -0.12013 0.40089
0.18364 0.05939 -0.13594
0.14678 -0.08533 0.32665
0.08319 0.05939 0.18401
0.26726 0.10792 -0.21566
-0.04259 0.13363 0.17300
0.06358 0.05939 -0.29832
-0.12516 0.04926 0.32665
0.23398 0.13363 0.18929
0.23557 0.05939 0.02532
-0.26726 0.08602 -0.19583
-0.06889 0.05939 -0.07063
0.04035 -0.00748 -0.40089
-0.07572 0.05939 -0.34519
0.05461 0.13363 0.03302
0.13233 0.13363 0.28710
-0.05861 0.05939 0.12692
-0.23054 -0.13363 -0.39052
0.18321 0.05939 -0.23573
-0.14711 -0.05433 0.32665
0.19616 -0.10730 0.40089
-0.20348 -0.04619 0.32665
0.26726 -0.10607 -0.34844
-0.02136 0.13363 -0.17489
-0.18290 -0.06377 0.40089
-0.22542 0.05939 0.03811
0.09283 0.07244 -0.40089
0.16765 0.13363 0.16450
-0.26126 -0.06133 -0.32665
-0.26726 -0.09544 0.39748
0.12843 0.08343 -0.40089
-0.20270 -0.02885 0.40089
-0.10349 0.05939 0.01087
-0.26726 0.03147 0.39770
-0.13297 0.13363 -0.35440
-0.25705 0.13363 0.07586
0.04812 0.05939 0.07291
-0.25870 0.13363 -0.06163
0.22201 0.02931 -0.32665
-0.01373 0.05939 -0.03396
0.17038 0.05939 0.16054
0.16758 0.13363 -0.03039
-0.09117 0.02083 0.32665
-0.05059 0.13363 0.11364
0.04932 0.13363 -0.22078
0.25229 0.12309 -0.40089
0.20611 0.13363 0.21948
-0.19159 0.13363 -0.36202
0.16783 0.05939 0.05079
0.23282 0.13363 0.01114
0.17330 0.02833 0.32665
0.26726 0.09922 -0.12421
0.26726 0.03453 0.35013
0.07138 0.09321 0.40089
-0.04782 -0.03658 -0.32665
0.01674 0.13363 0.16283
0.00124 -0.13363 -0.35146
0.24298 0.05939 0.15608
-0.03273 0.02195 0.40089
0.04590 0.05939 0.22057
0.20233 0.05148 -0.32665
0.08398 0.05939 0.15896
0.16969 -0.01008 -0.40089
0.16908 0.13363 0.21299
0.03746 0.02991 0.40089
0.03062 0.13363 -0.21341
0.14950 0.05939 -0.07287
-0.03226 0.05939 -0.02894
-0.18411 0.03849 -0.32665
-0.26726 -0.11580 -0.37042
-0.21930 0.05939 -0.16014
0.10945 0.13363 0.37759
-0.21965 0.13363 -0.30355
0.08822 -0.03688 0.40089
-0.26726 0.10884 -0.17990
-0.06111 0.13363 -0.23909
0.08330 0.05939 0.36740
-0.24725 -0.13363 -0.33245
-0.09649 0.13363 0.08901
-0.13678 0.02295 0.40089
0.14396 0.05939 -0.39750
-0.02977 0.05939 0.30866
0.10522 0.05939 -0.06488
0.26726 -0.05008 -0.35995
-0.13932 0.13363 -0.35929
-0.06166 0.13363 -0.22819
-0.21888 0.06915 0.40089
-0.20568 0.13363 0.17781
-0.22468 -0.06687 0.32665
0.07135 0.13363 -0.17366
-0.07726 0.05939 0.32213
-0.10538 0.11150 0.40089
0.15849 0.05939 0.29251
-0.22954 0.05939 -0.35451
0.20267 -0.13363 -0.38606
-0.08316 0.05939 0.33487
-0.12559 0.13363 -0.00701
0.05242 -0.07138 0.40089
-0.15926 0.13363 0.24862
0.24490 0.13363 -0.38534
0.19077 0.13363 0.28513
0.23607 0.02083 0.40089
0.04925 -0.08845 0.32665
-0.25687 -0.07324 0.40089
-0.20030 0.05939 0.02567
-0.04948 0.05939 0.07548
-0.26726 0.13245 -0.01983
-0.06571 0.10921 0.40089
-0.06369 0.05939 0.23079
-0.25860 -0.13363 -0.40025
0.22932 0.05939 0.34580
0.26726 -0.12964 0.38038
0.23052 0.00886 -0.40089
0.04078 0.05939 0.08763
-0.23164 0.05939 -0.08137
-0.05992 0.05939 0.28556
0.23852 0.13363 0.24284
-0.00149 0.05939 -0.09835
0.23980 -0.08436 -0.32665
-0.23192 0.02353 0.32665
-0.08707 0.05939 -0.14165
0.01008 0.05939 -0.24026
-0.11878 0.13363 0.32840
0.15659 0.05939 0.34105
0.22843 -0.01471 -0.40089
-0.16185 0.13363 -0.29942
0.07670 0.05939 0.03263
-0.17213 0.13363 0.11803
-0.01376 -0.13363 0.34497
-0.04376 -0.13363 -0.38762
-0.02645 -0.09235 -0.32665
-0.19103 -0.01337 0.40089
0.02796 -0.13363 0.37951
-0.19404 0.13363 -0.33224
0.12327 0.13363 0.33895
-0.07005 0.05939 0.04962
0.02011 -0.13363 -0.32776
0.10600 0.13363 -0.02538
0.21394 -0.09822 -0.32665
0.17942 0.05939 -0.22314
0.11296 0.05939 0.36013
0.01200 0.13363 -0.22551
0.06237 0.13363 -0.39591
-0.09124 -0.13363 0.33630
0.09214 0.13363 -0.18516
0.04206 -0.13363 0.35073
-0.16873 0.13363 -0.08601
0.10521 -0.10096 -0.40089
0.00800 0.05939 0.26387
-0.11576 0.13363 0.34058
0.00254 -0.11792 -0.40089
0.00763 0.13363 0.39977
0.17015 0.05939 -0.05249
-0.00418 0.13363 0.27260
0.26726 0.09422 -0.07736
0.26726 -0.11125 -0.33822
-0.20341 0.13363 0.12395
0.09532 0.05939 -0.22748
0.01982 0.13363 -0.23657
0.01543 -0.13363 -0.36293
0.13652 0.13363 0.07538
-0.02214 -0.02155 0.32665
0.02107 0.13363 0.01479
0.02128 0.13363 -0.22996
-0.15363 -0.08146 -0.40089
-0.16656 -0.13363 -0.37855
-0.13153 -0.05349 -0.40089
-0.26726 -0.04791 0.36585
0.06882 0.05939 -0.04983
-0.05519 0.05939 -0.24305
-0.22999 -0.13363 -0.37720
-0.20023 0.05939 0.35803
0.15450 0.05939 0.35132
0.13429 0.05338 0.32665
0.12470 0.13363 0.31827
-0.25046 0.03158 -0.32665
0.25430 0.13363 -0.03662
-0.19928 0.13363 -0.36773
-0.07151 0.03785 0.40089
-0.18215 0.13363 -0.04196
0.26726 -0.03675 -0.38560
0.15804 0.13363 -0.38459
0.18220 0.13363 0.24177
0.02681 -0.03860 0.32665
0.07608 -0.00382 0.32665
0.20095 0.05939 -0.33936
0.14135 0.05939 0.01696
-0.18616 0.05939 0.02934
-0.07087 0.05939 -0.06472
-0.13762 0.13363 0.38259
0.17890 0.13363 -0.22034
0.14343 -0.03555 -0.32665
-0.00820 0.05939 0.18063
0.04588 0.13363 0.01435
0.26054 0.13363 -0.24969
-0.00570 0.05939 0.14045
-0.06395 0.05939 0.03102
0.05184 0.05939 0.11322
-0.26726 0.04330 -0.34816
0.08576 0.05939 0.01666
0.26726 0.09880 -0.13400
-0.13828 0.05939 0.03907
0.19640 0.13363 0.17289
-0.16833 0.13363 -0.01892
0.21414 0.05939 -0.25808
0.06926 0.05939 0.38379
-0.26726 0.10528 0.21470
-0.07350 0.13363 0.34563
0.26726 0.08659 -0.01371
-0.09474 0.13363 0.35615
0.24217 -0.04959 0.32665
-0.20825 0.05939 -0.10050
0.21456 -0.10941 0.32665
0.16870 -0.00873 0.40089
0.15530 -0.11531 -0.40089
0.06945 0.05939 -0.22903
0.22351 0.13363 0.32275
0.06324 0.05710 -0.40089
0.18992 0.13363 -0.32359
0.13543 0.05939 0.29749
-0.16372 0.05939 -0.34610
0.04446 -0.00133 0.32665
-0.10742 -0.05018 -0.40089
-0.25251 -0.07979 -0.32665
-0.14804 0.01567 -0.40089
-0.09622 0.13363 0.13944
0.18354 0.05939 -0.34911
0.06545 0.05939 -0.33586
0.03638 0.13363 0.23077
0.19787 0.13363 -0.37769
-0.26726 0.12968 -0.05386
0.25626 0.05939 -0.18423
0.20513 0.05939 0.30497
-0.00615 0.05939 -0.36443
0.26726 0.04708 0.33120
-0.26726 0.10979 0.03668
0.05766 0.04970 0.40089
-0.00418 0.02043 -0.32665
-0.23621 0.05939 -0.34703
0.20360 0.05939 -0.20074
-0.16255 0.05665 0.32665
-0.15578 -0.13363 -0.38772
-0.25498 0.13363 -0.08430
-0.15433 0.13363 0.31700
-0.26726 0.09326 0.29675
-0.09581 0.13363 -0.11945
-0.04098 0.05939 -0.17039
0.23966 0.10403 -0.40089
0.12757 -0.11593 0.40089
0.05351 0.13363 0.35591
-0.00320 -0.00759 -0.40089
-0.26726 0.06418 -0.11556
0.01959 0.13363 -0.34574
0.18261 0.05939 0.12894
0.03673 0.05939 0.39157
-0.12228 0.13363 0.22888
0.24745 0.05939 0.16955
0.20308 0.05939 -0.14370
0.21263 0.13363 -0.29671
-0.18201 -0.13363 0.38797
0.00963 0.05939 -0.29542
-0.26726 0.07511 0.01557
0.10638 -0.02450 -0.32665
-0.00361 0.13363 0.01339
-0.05890 0.05417 -0.40089
-0.23152 0.05939 -0.20941
0.21704 0.05939 0.36848
-0.07951 0.05939 -0.31629
0.10322 -0.10892 0.32665
-0.18272 0.13363 -0.22462
-0.26726 -0.05573 -0.39654
-0.03626 -0.13363 0.33626
0.00831 0.05939 0.37139
0.26726 0.09477 0.14593
0.06984 0.05939 0.12329
0.19192 0.13363 -0.02380
0.19821 -0.12809 -0.32665
-0.25371 0.05227 -0.32665
0.05573 0.05939 0.34994
-0.18186 -0.09598 0.40089
0.13894 -0.10391 -0.40089
0.16826 0.13363 0.25184
0.03698 0.05939 0.18933
-0.23903 0.13363 -0.18054
0.15254 0.13363 -0.39062
0.14166 -0.03641 -0.40089
-0.24366 -0.13363 0.39366
-0.00218 0.05939 0.34007
-0.18318 0.13363 -0.32293
-0.24570 0.05939 -0.04464
-0.26726 0.12127 0.16755
-0.00132 0.13363 0.38010
-0.24105 0.05939 0.05986
-0.06167 0.13363 -0.22175
0.18746 0.01588 -0.40089
-0.26726 0.11785 0.06213
0.14895 -0.00973 -0.32665
-0.24423 0.13363 0.34763
0.09689 0.03846 0.40089
-0.26726 0.08538 -0.02577
0.24260 0.05939 0.32404
0.25184 0.05939 -0.22177
0.23571 0.05939 -0.33672
-0.12702 -0.06028 0.40089
-0.16178 -0.07993 -0.32665
-0.19082 0.13363 -0.17633
-0.26726 0.06170 -0.33682
0.14061 0.05939 -0.22468
0.12602 0.13363 -0.26538
0.01883 0.05939 0.05675
-0.08285 0.09266 0.40089
0.15572 0.03255 -0.32665
0.08488 0.13363 -0.29645
0.07422 -0.13363 -0.36895
-0.00824 0.03547 0.32665
-0.10527 -0.08334 0.40089
-0.13756 0.05939 -0.36856
0.24594 0.13363 -0.00025
-0.26617 -0.02052 -0.32665
0.11829 -0.07732 0.32665
-0.03426 0.13363 -0.04749
0.14231 -0.06301 0.40089
-0.26726 0.00544 -0.34873
0.01775 0.13363 -0.20218
-0.13375 -0.13363 0.37896
-0.09026 0.05939 -0.22270
-0.20963 0.05939 0.36954
0.26165 0.13363 0.20035
-0.02825 0.05939 0.34971
-0.03658 0.05939 -0.35908
0.16083 -0.03976 0.32665
0.25766 0.05939 -0.24631
-0.04314 -0.13363 0.34673
0.12663 0.13363 -0.02096
-0.16852 0.05939 -0.25983
-0.16110 0.05939 0.39336
-0.06711 0.01569 0.40089
-0.16719 0.13363 -0.01211
-0.24453 0.05939 0.15496
-0.07782 -0.06307 0.32665
0.17460 0.05939 -0.30348
0.25258 -0.04101 0.40089
-0.26726 0.10024 -0.13870
0.00638 0.13363 0.18283
-0.00962 -0.11800 -0.40089
0.26726 0.12995 -0.27454
-0.26726 0.10621 0.19822
0.15714 0.05939 -0.07531
0.13298 -0.13363 -0.37902
-0.00257 0.05939 -0.32892
0.23377 0.12318 0.40089
0.18901 0.08664 -0.40089
-0.26726 0.11768 0.31744
-0.13007 0.13363 0.14343
-0.11910 0.13363 0.04024
0.23740 0.03964 0.40089
0.04977 0.05939 0.39676
-0.00891 -0.13363 0.37911
0.12283 0.05939 0.34849
-0.26726 0.09142 0.39124
-0.26726 0.12560 -0.12510
-0.12671 0.01525 0.32665
-0.14851 -0.04552 0.32665
-0.16392 0.05939 -0.21758
0.11797 0.04000 -0.40089
0.25839 0.05939 -0.33638
0.26726 -0.11185 0.39541
0.10284 -0.06586 0.40089
-0.18074 0.05939 0.35818
-0.18503 0.13363 0.39310
-0.18704 0.05939 0.24229
-0.05807 0.03453 0.40089
-0.22989 0.01778 0.40089
-0.11647 0.13363 0.09474
0.04603 0.13363 -0.16745
-0.11026 0.13363 -0.05272
0.02232 -0.13363 -0.38373
-0.14996 0.13363 -0.12536
0.06654 0.05939 0.19326
-0.14636 0.11293 -0.40089
-0.15975 0.13363 0.35629
-0.03607 0.05939 -0.36588
-0.00469 0.13363 -0.08987
0.20856 0.05939 0.09602
0.26726 0.02628 0.36438
0.09509 0.13363 0.19092
0.26337 0.11258 0.40089
-0.12287 0.05939 0.35541
-0.03043 0.13363 0.21140
-0.06278 0.05939 0.30468
-0.04463 0.05939 0.29888
0.15281 0.05939 -0.26307
0.26376 0.05939 0.34653
0.26726 0.10598 -0.35019
-0.23054 0.10121 0.40089
0.24250 0.13363 -0.23726
0.26726 -0.03652 0.36363
0.07484 0.05939 -0.35441
0.00805 0.05939 0.35895
-0.22174 0.02514 0.40089
0.14800 -0.03663 -0.40089
0.24443 -0.01296 0.32665
0.12183 0.05939 -0.37434
-0.26726 0.11138 0.18129
-0.26726 0.09817 -0.18243
-0.02489 0.05939 0.02260
0.01550 0.05939 -0.05928
0.02914 0.05761 0.32665
-0.26726 0.05984 -0.06353
-0.26192 0.05939 0.03375
-0.07960 0.13363 0.02063
0.18201 0.13363 0.05707
0.17102 0.13363 0.37765
-0.26726 0.05984 0.27809
0.26726 0.06136 0.20159
-0.03043 -0.13363 0.38342
0.04855 0.13363 -0.39919
-0.26726 0.09259 -0.00233
-0.21462 -0.02195 -0.40089
0.18344 -0.04248 0.40089
-0.26726 0.13012 0.31116
-0.26726 0.09204 -0.08891
-0.26726 0.12674 0.13145
-0.26726 -0.10197 0.38625
-0.17226 0.13363 0.30392
0.26726 0.08590 0.18358
0.14558 -0.10509 0.32665
0.18199 -0.13317 0.40089
-0.19331 0.13363 0.33400
-0.22868 -0.13363 0.33922
-0.08634 0.05939 0.06676
-0.21526 -0.11833 0.32665
0.00053 0.05939 0.08501
-0.02949 0.12706 -0.40089
-0.07102 0.13363 -0.23812
-0.14416 0.13363 -0.11924
-0.21283 0.13363 -0.15873
0.17117 0.13363 -0.05268
0.19824 0.05939 -0.33364
0.04252 0.05939 -0.06007
-0.07560 -0.04813 0.32665
-0.26726 0.11085 0.04702
-0.25621 0.05939 -0.11238
0.20820 0.13363 0.11645
0.16761 0.01775 -0.32665
0.26726 0.07124 0.00639
-0.26726 -0.01785 0.39173
0.17832 0.13363 -0.11016
0.12292 0.02953 -0.40089
-0.07034 0.05406 0.32665
-0.22667 0.05939 -0.37765
-0.06790 0.13363 -0.08963
0.09732 -0.01227 -0.40089
-0.17847 0.05939 -0.36336
-0.19001 0.05323 -0.40089
0.23524 0.13363 0.37338
0.14697 0.11155 0.40089
-0.17283 -0.02142 0.40089
0.26726 -0.01104 -0.32705
-0.05789 0.05939 -0.37534
0.00695 -0.13363 -0.34886
-0.19206 0.05939 -0.11162
0.26726 0.12628 -0.19141
-0.06792 -0.11073 0.40089
-0.00779 0.11067 -0.40089
0.03002 0.05939 -0.10895
0.06879 0.05939 -0.32702
-0.16258 0.03176 0.32665
-0.00296 0.05939 -0.23885
-0.09953 -0.09682 0.40089
0.16156 -0.03315 0.40089
-0.24881 0.05939 0.38621
0.19490 0.13363 0.22706
-0.26726 0.06204 -0.10804
-0.11776 0.08292 -0.40089
-0.22433 0.13363 -0.14205
-0.08896 0.05939 -0.36676
0.14916 0.13363 0.02041
-0.09961 -0.00559 -0.40089
0.26726 0.07903 0.16769
0.19954 -0.13363 -0.36246
-0.03174 -0.02939 -0.32665
0.21000 0.05939 -0.02514
-0.02935 0.05939 0.03383
-0.01081 0.05939 -0.25422
0.15975 0.05939 -0.02139
-0.22789 -0.13363 0.32970
-0.08783 0.13363 -0.14219
0.19638 0.13363 0.23328
-0.02105 -0.08732 0.32665
-0.01695 0.05939 -0.24907
-0.16527 0.12760 -0.40089
-0.04377 0.05939 -0.03679
0.14804 0.13363 0.35950
0.09671 0.13363 0.16446
-0.26726 0.11502 -0.10769
-0.15821 -0.04614 -0.40089
0.11191 -0.08632 -0.32665
-0.26635 0.05939 0.18212
0.26709 0.05750 0.40089
-0.23899 0.13363 -0.22781
0.12679 0.05939 0.08676
0.10928 0.05939 -0.22834
-0.12091 -0.13363 0.38167
-0.01489 0.11330 -0.40089
-0.23286 0.05939 0.08249
-0.10672 -0.13363 -0.38404
-0.09544 0.09832 0.40089
0.12248 -0.09612 0.32665
-0.11748 0.13363 -0.21065
0.13668 -0.11129 -0.32665
0.17250 0.05617 -0.32665
0.19320 0.05939 0.34266
0.08156 0.13363 0.18493
-0.21777 0.13363 0.30182
-0.05905 -0.08236 0.40089
-0.19593 0.05939 -0.36320
-0.00759 -0.08941 -0.32665
-0.03159 0.00254 0.40089
0.22840 0.13363 0.21453
-0.25644 0.13363 0.35421
0.26726 0.12635 -0.02577
0.03151 0.05939 0.26126
-0.24552 0.09801 0.40089
-0.23378 -0.03073 -0.40089
-0.10978 0.13363 0.38264
-0.26726 0.04461 -0.37955
-0.17534 0.05939 -0.34410
0.21391 0.13363 -0.30667
-0.05751 0.05939 0.39950
0.19585 0.05939 0.22650
0.24662 0.05939 0.29828
-0.26726 0.08062 -0.35799
-0.00281 0.05939 -0.26367
-0.23488 -0.09680 0.32665
0.08731 0.02005 -0.32665
-0.12485 -0.08865 -0.40089
0.26726 0.12810 0.27165
-0.03614 0.05939 -0.05156
-0.26726 0.09882 -0.02135
-0.18256 0.13363 -0.12890
-0.26726 -0.07484 0.36730
0.26726 0.10127 -0.08721
0.02361 0.13363 0.30731
0.18219 -0.00860 0.40089
0.22964 0.01841 -0.32665
-0.22752 0.05939 0.12930
0.08725 -0.01641 0.32665
0.21644 0.05939 -0.09362
0.25142 -0.13363 0.39156
-0.01121 -0.12130 0.32665
0.25210 0.05939 0.27824
-0.20855 -0.01016 -0.32665
-0.14361 0.05939 0.09483
0.24484 0.13363 -0.10245
-0.21548 0.05939 -0.14022
-0.00708 -0.11502 -0.32665
-0.23881 0.04502 0.32665
0.24612 0.04526 -0.32665
-0.17205 0.05939 -0.35111
-0.18320 0.13363 -0.05266
0.04291 -0.08395 0.32665
-0.23318 0.13363 0.23999
-0.08959 -0.00771 -0.40089
0.09938 0.05939 -0.35461
-0.18476 0.09487 0.40089
0.12023 0.05939 -0.00118
0.16606 -0.06778 -0.40089
0.06946 0.08266 -0.40089
0.06625 0.05939 -0.21980
0.07846 0.05939 -0.00496
-0.17759 0.13363 -0.36514
-0.01483 -0.11544 0.40089
-0.26574 0.13363 -0.36166
-0.17941 0.05939 -0.30008
-0.19737 0.05939 0.19709
-0.09930 0.13363 -0.14167
0.11885 0.04708 0.40089
-0.12045 0.13363 0.27428
0.04076 -0.08981 0.32665
0.19242 0.05939 -0.16000
-0.24224 0.00471 0.32665
-0.17598 0.05939 0.03327
0.26726 0.09635 -0.07130
0.17930 0.13363 0.01561
-0.25117 0.05939 -0.20239
0.10279 0.08403 -0.40089
-0.23749 0.13363 -0.34206
0.25851 0.13363 -0.19213
0.20721 0.13363 -0.17710
-0.26726 -0.12270 0.37495
