0.13497 0.18320 0.16562
0.19510 0.18320 0.13832
0.12111 0.18320 0.07032
0.01965 0.18320 -0.22040
0.11833 0.18320 -0.27488
0.09813 0.18320 -0.30018
0.00208 0.18320 -0.03609
0.07767 0.18320 -0.14383
0.10232 0.18320 0.03959
0.06903 0.18320 -0.29978
0.16496 0.18320 -0.18112
0.15923 0.18320 0.01445
0.08015 0.18320 -0.23027
0.11558 0.18320 -0.25797
0.10614 0.18320 -0.32033
0.10248 0.18320 -0.03513
0.14562 0.18320 0.17605
0.16171 0.18320 0.08018
0.16511 0.18320 -0.21606
0.08998 0.18320 -0.03418
0.09330 0.18320 -0.12121
0.05032 0.18320 -0.27772
0.14628 0.18320 -0.10694
-0.02815 0.18320 -0.11095
0.15064 0.18320 -0.28054
-0.02176 0.18320 -0.19684
0.13573 0.18320 -0.21046
-0.16596 0.18320 -0.32072
0.12194 0.18320 -0.20106
0.10984 0.18320 -0.17262
0.16445 0.18320 -0.29574
0.04499 0.18320 -0.28919
-0.12070 0.18320 -0.30234
0.14062 0.18320 -0.17494
0.14357 0.18320 0.12206
0.03367 0.18320 -0.23887
0.18425 0.18320 0.18831
-0.00255 0.18320 -0.06320
-0.04596 0.18320 -0.21604
0.02318 0.18320 -0.27529
0.14115 0.18320 -0.23698
0.08897 0.18320 -0.20819
0.15812 0.18320 -0.23955
-0.05142 0.18320 -0.32787
0.11246 0.18320 0.03743
0.12220 0.18320 -0.06482
0.15135 0.18320 -0.11812
0.13533 0.18320 0.02992
0.00165 0.18320 -0.29513
-0.01916 0.18320 -0.17391
-0.00351 0.18320 -0.09064
0.20043 0.18320 0.10606
0.19354 0.18320 0.25105
0.17294 0.18320 -0.21054
0.05498 0.18320 -0.00211
0.11402 0.18320 0.15743
0.12046 0.18320 -0.01821
0.14698 0.18320 0.21358
0.10226 0.18320 -0.08128
0.18372 0.18320 0.02585
0.09925 0.18320 -0.13383
-0.04080 0.18320 -0.19850
0.11940 0.18320 -0.00695
-0.03853 0.18320 -0.14172
0.10379 0.18320 -0.15260
-0.10683 0.18320 -0.26738
0.20066 0.18320 0.28287
0.16775 0.18320 0.01046
0.15065 0.18320 -0.19067
0.17842 0.18320 -0.07627
0.05310 0.18320 -0.01753
0.11947 0.18320 -0.15431
-0.00844 0.18320 -0.23260
0.11008 0.18320 0.09604
-0.12078 0.18320 -0.26917
-0.06910 0.18320 -0.24514
0.09910 0.18320 -0.28042
-0.08357 0.18320 -0.23977
0.08790 0.18320 -0.01193
0.11451 0.18320 -0.16653
-0.05142 0.18320 -0.15720
-0.02226 0.18320 -0.11568
-0.05051 0.18320 -0.28640
0.10131 0.18320 0.05970
0.14771 0.18320 0.02009
-0.01996 0.18320 -0.13608
-0.09579 0.18320 -0.28465
0.11728 0.18320 -0.09709
-0.09993 0.18320 -0.26570
0.05136 0.18320 -0.04744
-0.05572 0.18320 -0.13452
-0.10301 0.18320 -0.30408
0.17236 0.18320 0.22100
-0.10465 0.18320 -0.22947
0.03465 0.18320 -0.25639
0.01305 0.18320 -0.32925
0.13970 0.18320 0.13199
-0.08544 0.18320 -0.21214
0.12292 0.18320 0.05552
-0.14649 0.18320 -0.29777
0.10516 0.18320 -0.09679
-0.01026 0.18320 -0.32099
0.18305 0.18320 -0.10166
0.19496 0.18320 0.10723
0.15181 0.18320 0.12870
-0.00688 0.18320 -0.04858
0.07395 0.18320 -0.24595
0.03005 0.18320 -0.22926
0.19325 0.18320 0.17470
-0.05980 0.18320 -0.20072
0.18148 0.18320 -0.17728
0.00007 0.18320 -0.11367
0.13778 0.18320 -0.12672
0.05641 0.18320 -0.30185
0.18602 0.18320 -0.12454
0.13165 0.18320 -0.16949
-0.01809 0.18320 -0.12133
0.06371 0.18320 -0.24130
0.15953 0.18320 -0.27637
0.06077 0.18320 -0.23120
0.01131 0.18320 -0.18465
0.05104 0.18320 -0.05468
0.08509 0.18320 -0.03856
-0.08391 0.18320 -0.19419
0.16559 0.18320 0.15098
-0.07553 0.18320 -0.21291
0.15216 0.18320 -0.31367
0.13443 0.18320 -0.22494
-0.09686 0.18320 -0.26123
0.16078 0.18320 -0.13483
0.18770 0.18320 0.11628
0.19958 0.18320 0.08080
-0.08507 0.18320 -0.31573
-0.21639 -0.07347 0.37388
-0.21870 0.00200 0.37567
-0.22090 0.07389 0.37694
-0.21518 -0.11291 0.37024
-0.21270 -0.19394 0.34913
-0.21345 -0.16944 0.35105
-0.19740 0.13571 0.35002
-0.23279 0.19025 -0.38206
0.20968 0.18320 0.32007
-0.14928 0.18320 -0.23316
-0.09960 0.18320 -0.18964
0.12685 0.18320 0.18634
0.10035 0.18320 0.13951
0.09191 0.18320 0.13090
0.03682 0.18320 0.04191
0.04214 0.18320 0.04964
0.05743 0.18320 0.06788
-0.11864 0.18320 -0.21741
-0.18738 0.18320 -0.32661
-0.08940 0.18320 -0.15297
-0.13427 0.18320 -0.25059
-0.07192 0.18320 -0.12226
-0.08709 0.18320 -0.14339
-0.21892 0.01296 0.37678
0.12117 0.18320 0.00380
0.12000 0.18320 -0.16700
-0.05541 0.18320 -0.30943
-0.11195 0.18320 -0.27410
0.00196 0.18320 -0.20842
0.05039 0.18320 -0.07492
-0.05683 0.18320 -0.27276
0.10801 0.18320 0.12356
0.05597 0.18320 -0.08608
0.09788 0.18320 0.07736
-0.06263 0.18320 -0.32165
0.04115 0.18320 -0.02882
0.01950 0.18320 -0.28908
0.10631 0.18320 -0.29312
0.02020 0.18320 -0.11410
0.01431 0.18320 -0.17771
0.15223 0.18320 -0.23597
0.20126 0.18320 0.23706
0.11882 0.18320 -0.32634
0.10544 0.18320 -0.01236
0.03062 0.18320 -0.16043
0.08858 0.18320 -0.04385
0.04501 0.18320 0.02211
0.19838 0.18320 0.25933
0.15205 0.18320 0.06626
0.11446 0.18320 -0.05410
0.02332 0.18320 -0.21338
0.03862 0.18320 -0.23832
0.13061 0.18320 -0.12972
0.09330 0.18320 -0.30846
-0.00806 0.18320 -0.26462
0.01847 0.18320 -0.23074
-0.13350 0.18320 -0.28770
-0.03631 0.18320 -0.18422
0.02034 0.18320 -0.00442
0.10883 0.18320 -0.05651
0.03060 0.18320 -0.13620
0.01535 0.18320 -0.12375
0.05827 0.18320 -0.29350
-0.06271 0.18320 -0.28099
0.12915 0.18320 -0.27900
0.13945 0.18320 -0.15149
0.04182 0.18320 -0.13757
-0.12521 0.18320 -0.32743
0.15995 0.18320 -0.18964
0.18328 0.18320 0.14379
-0.02445 0.18320 -0.10049
0.18773 0.18320 0.20885
0.11111 0.18320 -0.30197
-0.11175 0.18320 -0.26251
0.02760 0.18320 -0.17604
0.07581 0.18320 -0.09138
-0.12725 0.18320 -0.25842
-0.02885 0.18320 -0.18656
0.06890 0.18320 -0.18737
0.11249 0.18320 0.05553
0.11371 0.18320 0.09058
0.07677 0.18320 -0.19520
0.02838 0.18320 -0.26845
0.07052 0.18320 -0.07551
0.10155 0.18320 -0.12076
0.12587 0.18320 -0.27470
-0.15126 0.18320 -0.32378
0.03263 0.18320 -0.26326
0.18528 0.18320 -0.01009
0.15686 0.18320 -0.25219
0.08007 0.18320 -0.00910
-0.07840 0.18320 -0.21711
-0.00542 0.18320 -0.08170
0.15914 0.18320 -0.04895
-0.04744 0.18320 -0.24271
0.21349 0.18320 0.28799
0.06651 0.18320 -0.29357
0.01327 0.18320 -0.07215
-0.09702 0.18320 -0.23399
0.07253 0.18320 -0.01852
0.08372 0.18320 -0.29459
0.04186 0.18320 -0.15796
0.04892 0.18320 -0.02257
0.00138 0.18320 -0.08108
0.11889 0.18320 -0.10306
0.16079 0.18320 -0.17607
0.13802 0.18320 -0.16181
0.12313 0.18320 0.00902
0.07105 0.18320 -0.03952
0.06967 0.18320 0.00177
0.03627 0.18320 -0.22605
0.09702 0.18320 0.00878
0.13502 0.18320 0.07260
0.08886 0.18320 -0.18476
0.17620 0.18320 0.20306
0.07108 0.18320 -0.15447
0.10979 0.18320 -0.28621
0.01026 0.18320 -0.17402
0.04035 0.18320 -0.29171
0.15808 0.18320 0.06741
0.10047 0.18320 0.10320
0.17122 0.18320 -0.26090
0.01099 0.18320 -0.15093
0.04196 0.18320 -0.11034
0.09175 0.18320 -0.05831
0.02597 0.18320 -0.06658
0.16692 0.18320 0.10965
0.00289 0.18320 -0.27813
-0.06438 0.18320 -0.19174
0.14910 0.18320 -0.02119
0.05174 0.18320 -0.17275
0.11630 0.18320 -0.28897
0.13843 0.18320 0.03963
0.10794 0.18320 -0.08025
0.02578 0.18320 -0.09583
0.02621 0.18320 -0.11085
0.15544 0.18320 0.17811
-0.03506 0.18320 -0.11221
0.11731 0.18320 -0.21061
-0.01546 0.18320 -0.30485
0.15638 0.18320 -0.20591
0.12347 0.18320 -0.32298
0.03717 0.18320 -0.09142
0.22401 0.19672 -0.04159
-0.17561 0.12583 0.34931
-0.17748 0.06481 0.37051
-0.18333 -0.12660 0.36910
-0.18105 -0.05184 0.36607
-0.17596 0.11438 0.37097
-0.17958 -0.00396 0.36458
-0.17699 0.08063 0.35073
-0.17839 0.03508 0.35542
-0.20367 0.00475 -0.33649
-0.20742 0.08396 -0.33406
-0.19970 0.01529 -0.33617
-0.20585 0.05442 -0.33497
-0.20408 -0.01118 -0.33698
-0.20659 0.13377 -0.33254
-0.20074 0.11721 -0.33305
-0.20911 -0.05225 -0.33823
-0.20669 0.09572 -0.33370
0.23035 0.18320 0.39008
0.21631 0.18320 0.38270
0.23200 0.19108 -0.35825
0.21661 0.17015 0.33528
-0.17642 0.14445 0.36989
-0.17642 0.13989 0.35032
-0.22127 0.08590 0.34022
-0.22240 0.12281 0.37402
-0.21681 -0.05978 0.35529
-0.21630 -0.07647 0.34659
-0.21832 -0.01024 0.36112
-0.21658 -0.06726 0.34485
-0.21775 -0.02911 0.33991
-0.22052 0.06162 0.35289
0.23301 0.19001 -0.14250
-0.18244 0.19352 -0.39355
-0.23615 0.18571 -0.27803
0.22561 0.19591 0.25077
0.22510 0.19618 -0.02741
-0.19172 0.19122 -0.39355
-0.21817 0.17391 0.37998
-0.19995 0.15597 0.37998
0.21031 -0.16252 -0.37094
0.19388 -0.18015 -0.37040
0.21480 -0.16817 -0.37076
0.21372 -0.02811 -0.37505
0.21018 -0.18044 -0.37039
0.21384 0.01726 -0.37644
0.19321 -0.17475 -0.37056
0.20743 -0.12678 -0.37203
0.21986 -0.00567 -0.37574
0.20813 -0.06102 -0.37404
-0.17642 0.13862 0.34103
0.18007 -0.03026 0.35647
0.18286 -0.12148 0.34593
0.18122 -0.06781 0.34710
0.17749 0.05409 0.33498
0.18490 -0.18792 0.34007
0.17606 0.10073 0.36224
0.17588 0.10662 0.33153
0.18083 -0.05503 0.34237
0.18158 -0.07958 0.34156
0.13887 0.14114 -0.37319
-0.05144 0.17297 -0.37319
-0.01752 0.17568 -0.37319
0.08467 0.17251 -0.37319
0.00695 0.16737 -0.37319
0.10291 0.17797 -0.37319
0.16544 0.15828 -0.37319
0.16414 0.14013 -0.37319
0.06534 0.18030 -0.37319
-0.08183 0.18103 -0.37319
0.20248 -0.18002 -0.34223
0.20898 -0.06951 -0.33885
0.20905 -0.16979 -0.34192
0.21690 -0.01251 -0.33710
-0.17533 0.13476 0.37175
-0.17594 0.11499 0.35402
-0.17816 0.04242 0.36435
-0.18205 -0.08469 0.37162
-0.17782 0.05369 0.35281
-0.17668 0.09082 0.35846
-0.17769 0.05792 0.34824
-0.17690 0.08367 0.36176
-0.17753 0.06318 0.37828
0.23188 0.19120 -0.36690
-0.06420 0.13571 0.37655
-0.08164 0.13571 0.37855
-0.23416 0.18862 -0.16947
0.14660 0.19016 -0.39355
0.02834 0.19179 -0.39355
-0.09478 0.19677 -0.39355
0.06131 0.19205 -0.39355
-0.23556 0.18665 0.23907
0.11775 0.18602 0.39355
-0.01425 0.18320 -0.35369
-0.14656 0.18320 -0.35524
0.14258 0.18320 -0.33296
0.07221 0.18320 -0.33889
0.09257 0.18320 -0.34147
-0.07215 0.18320 -0.35892
0.09242 0.18320 -0.33474
0.02234 0.18320 -0.34954
-0.22097 0.07610 0.35325
-0.21895 0.01023 0.34222
-0.21787 -0.02504 0.35877
-0.21952 0.02889 0.35535
-0.22163 0.09784 0.37202
-0.22146 0.09210 0.34120
-0.21675 -0.06159 0.33931
-0.21787 -0.02507 0.35071
-0.21838 -0.00842 0.35331
0.17572 0.13571 0.33857
0.23665 0.18320 -0.37377
0.23427 0.18320 -0.10029
0.23698 0.18320 -0.15648
0.22574 0.18320 -0.37275
0.23499 0.18320 -0.30558
0.23344 0.18320 -0.18012
0.22928 0.18320 -0.12987
-0.20610 0.17396 -0.33248
0.20546 -0.01354 0.37300
0.19121 0.06506 0.37540
0.19239 -0.03327 0.37239
0.18787 0.00979 0.37371
0.18502 0.12707 0.37730
0.20536 0.03123 0.37437
0.18611 -0.03544 0.37233
0.20848 0.07781 0.37579
0.05218 0.18320 0.34586
0.16650 0.18320 0.36730
-0.05180 0.18320 0.34080
0.11911 0.18320 0.35585
-0.03138 0.18320 0.33501
0.14623 0.18320 0.35971
0.11908 0.18320 0.34152
0.22958 0.19325 -0.21888
-0.17949 0.13571 0.34585
-0.11640 0.18320 0.04777
0.06475 0.18320 0.28095
-0.09025 0.18320 -0.02215
-0.15688 0.18320 -0.15088
-0.13122 0.18320 0.16992
-0.11484 0.18320 0.06149
-0.16790 0.18320 -0.02326
-0.19124 0.18320 0.00480
-0.05954 0.18320 0.07702
0.03507 0.18320 0.28847
-0.12071 0.18320 0.03370
0.01763 0.18320 0.31026
-0.17701 0.18320 -0.14381
-0.21352 0.18320 0.08994
-0.05024 0.18320 0.01388
-0.07408 0.18320 0.11843
-0.14994 0.18320 0.31617
0.03984 0.18320 0.25867
-0.14123 0.18320 0.02905
-0.16239 0.18320 0.04486
-0.14407 0.18320 0.13455
-0.20595 0.18320 -0.10155
-0.16115 0.18320 0.09394
0.02077 0.18320 0.23335
-0.20988 0.18320 -0.22649
-0.05887 0.18320 0.19780
-0.17306 0.18320 0.21987
-0.00122 0.18320 0.27685
-0.13433 0.18320 0.18074
-0.13846 0.18320 0.31008
-0.16275 0.18320 0.11478
-0.14854 0.18320 -0.18412
-0.07869 0.18320 0.08976
-0.19162 0.18320 0.26816
-0.04254 0.18320 -0.00314
-0.00755 0.18320 0.15109
-0.09692 0.18320 0.17894
-0.20945 0.18320 -0.18481
0.08125 0.18320 0.19921
-0.08885 0.18320 0.22697
-0.21160 0.18320 0.11154
-0.18704 0.18320 -0.04590
-0.17736 0.18320 0.14510
-0.21302 0.18320 0.13730
-0.17914 0.18320 -0.00426
-0.06854 0.18320 0.16642
-0.04044 0.18320 0.14905
-0.06515 0.18320 0.15791
-0.15954 0.18320 0.01570
0.03864 0.18320 0.09678
0.09849 0.18320 0.23203
0.02083 0.18320 0.17613
-0.04718 0.18320 0.00980
-0.18543 0.18320 -0.09288
-0.15018 0.18320 0.28052
-0.21117 0.18320 -0.21195
-0.12434 0.18320 -0.04912
0.03196 0.18320 0.20927
0.02131 0.18320 0.20519
0.11750 0.18320 0.19951
-0.07011 0.18320 0.15507
-0.01024 0.18320 0.02750
-0.18036 0.18320 -0.02709
0.02523 0.18320 0.21537
-0.18005 0.18320 -0.27052
-0.11647 0.18320 -0.01752
0.06266 0.18320 0.31659
-0.04439 0.18320 0.19147
0.00696 0.18320 0.14869
-0.09007 0.18320 0.28819
0.10988 0.18320 0.21752
-0.07074 0.18320 0.32195
-0.02836 0.18320 0.06342
0.17051 0.18320 0.30112
-0.06038 0.18320 0.09865
0.04037 0.18320 0.10253
0.06910 0.18320 0.17638
-0.01531 0.18320 0.27963
-0.21557 0.18320 0.29508
-0.11263 0.18320 -0.05816
0.06096 0.18320 0.12671
-0.17877 0.18320 -0.16586
-0.01169 0.18320 0.00159
-0.11471 0.18320 0.13321
-0.15168 0.18320 0.05319
-0.17511 0.18320 -0.17688
-0.05944 0.18320 -0.06042
-0.02038 0.18320 0.13623
0.18792 0.18320 0.29387
-0.09549 0.18320 0.04940
-0.08269 0.18320 0.14596
0.17380 0.18320 0.28905
0.08154 0.18320 0.32569
-0.16949 0.18320 0.02186
0.05187 0.18320 0.25329
-0.13705 0.18320 -0.07679
-0.20334 0.18320 0.02126
-0.05410 0.18320 -0.00503
0.00973 0.18320 0.19249
-0.14562 0.18320 -0.15035
-0.21690 0.18320 -0.02312
-0.16724 0.18320 0.32158
-0.12077 0.18320 -0.04107
-0.14963 0.18320 0.29385
-0.19497 0.18320 0.24118
-0.10813 0.18320 0.28882
-0.09718 0.18320 0.05569
-0.17500 0.18320 0.17541
-0.06342 0.18320 -0.03713
0.15166 0.18320 0.32848
0.15802 0.18320 0.30034
0.04735 0.18320 0.25795
-0.20517 0.18320 0.28951
-0.04846 0.18320 0.29641
-0.10353 0.18320 -0.07251
0.18204 0.18320 0.30730
-0.17179 0.18320 0.23538
-0.14540 0.18320 0.15909
0.04772 0.18320 0.32656
-0.14350 0.18320 0.28343
-0.05242 0.18320 0.16772
-0.02581 0.18320 0.16440
-0.02674 0.18320 0.02916
-0.04979 0.18320 -0.03181
-0.11031 0.18320 0.02954
-0.17616 0.18320 0.16078
-0.14115 0.18320 -0.10187
-0.08151 0.18320 -0.03650
0.16579 0.18320 0.26867
0.13468 0.18320 0.28038
-0.06295 0.18320 0.25754
0.08884 0.18320 0.30112
0.19319 0.18320 0.30614
-0.00362 0.18320 0.22432
-0.10316 0.18320 0.27323
-0.21431 0.18320 0.00062
0.12597 0.18320 0.22315
0.11142 0.18320 0.26029
0.00809 0.18320 0.06914
-0.02643 0.18320 0.08778
0.16081 0.18320 0.24765
0.00795 0.18320 0.25249
0.02874 0.18320 0.15335
-0.04235 0.18320 0.05025
-0.17540 0.18320 -0.13804
0.12972 0.18320 0.33187
-0.03792 0.18320 -0.02118
0.09173 0.18320 0.19647
-0.09921 0.18320 -0.04674
-0.07875 0.18320 0.03097
-0.12176 0.18320 -0.16428
-0.16411 0.18320 -0.07541
-0.04894 0.18320 0.04822
0.10038 0.18320 0.30541
-0.19891 0.18320 0.30180
-0.04945 0.18320 0.08826
-0.11185 0.18320 0.15709
-0.06239 0.18320 0.01657
0.13301 0.18320 0.21235
0.03100 0.18320 0.11285
0.05889 0.18320 0.11294
-0.13130 0.18320 0.00543
-0.16487 0.18320 -0.21198
0.06540 0.18320 0.32386
-0.17044 0.18320 0.32648
0.04176 0.18320 0.12069
-0.15509 0.18320 -0.02777
0.07111 0.18320 0.27552
0.08669 0.18320 0.28651
-0.04277 0.18320 0.32424
0.17642 0.14699 -0.35611
0.17642 0.14674 -0.36933
-0.21294 0.00835 0.37664
-0.21330 -0.08393 0.37381
-0.20061 -0.02977 0.37547
-0.19662 0.09523 0.37930
-0.20417 -0.08254 0.37385
-0.18878 0.03344 0.37741
-0.21519 0.13278 0.38045
-0.20702 0.04864 0.37787
-0.23479 0.18777 -0.22453
-0.22992 0.19297 -0.15668
-0.23145 0.19161 -0.12892
0.17642 0.15205 -0.33654
-0.18465 -0.08128 -0.37334
-0.19039 -0.03567 -0.37473
-0.18010 0.08690 -0.37848
-0.18424 -0.05575 -0.37412
-0.20578 -0.17386 -0.37050
0.20847 0.14198 0.37998
0.19114 0.14498 0.37998
-0.22189 0.10374 -0.33346
0.21713 0.15684 -0.02029
0.21713 0.17658 0.26401
0.21713 0.13870 -0.15958
0.21713 0.14910 -0.13439
0.21713 0.13735 0.20315
0.21713 0.14233 0.21474
0.21713 0.16952 0.32168
0.21713 0.14334 -0.18758
0.21713 0.14034 -0.22061
0.21713 0.13706 0.18615
0.21713 0.14569 0.09416
0.21713 0.15403 0.02209
0.21713 0.15197 0.21534
0.21713 0.15741 0.12105
0.21713 0.14193 0.30213
0.21713 0.16165 0.03318
0.21713 0.14048 -0.24694
0.21713 0.17171 0.20727
0.21713 0.14670 -0.10310
0.21713 0.16044 0.13707
-0.22316 0.11111 -0.37388
-0.22167 0.06251 -0.35053
-0.22320 0.11226 -0.34296
-0.22187 0.06891 -0.34554
-0.22375 0.13018 -0.33893
-0.21807 -0.05532 -0.36093
-0.22096 0.03930 -0.34757
-0.21943 -0.01092 -0.34933
-0.21745 -0.07556 -0.36690
-0.21775 -0.06558 -0.36573
0.18497 -0.09132 0.37062
0.01205 0.16391 -0.37998
0.16578 0.18055 -0.37998
-0.18175 0.17352 -0.37998
-0.00123 0.17681 -0.37998
0.03378 0.17663 -0.37998
-0.10519 0.15750 -0.37998
-0.21682 0.18095 -0.37998
-0.07420 0.15511 -0.37998
0.07957 0.17397 -0.37998
-0.12889 0.15909 -0.37998
-0.10607 0.16530 -0.37998
0.04451 0.16698 -0.37998
-0.05396 0.17681 -0.37998
0.18140 -0.07369 0.36485
0.18452 -0.17579 0.35715
0.17924 -0.00325 0.36282
0.18398 -0.15812 0.36353
0.18245 -0.10805 0.36266
0.18296 -0.12471 0.35275
-0.21101 0.17834 0.33248
0.23055 0.19245 -0.26015
0.17886 0.10188 -0.35656
0.18677 -0.15653 -0.36727
0.18394 -0.06400 -0.37361
0.18302 -0.03390 -0.35364
0.18156 0.01380 -0.36488
0.17910 0.09405 -0.34476
0.17989 0.06818 -0.36088
0.18145 0.01739 -0.35870
0.17828 0.12084 -0.35243
0.17805 0.12849 -0.36106
0.22682 0.19521 0.23495
-0.19812 -0.08380 -0.37326
-0.19698 -0.19658 -0.36981
-0.19463 -0.16811 -0.37068
-0.19304 -0.18648 -0.37012
0.17847 0.13571 0.37790
-0.23708 0.18402 -0.28782
-0.20078 0.13571 -0.35167
-0.06869 0.19677 -0.32149
-0.03793 0.19677 -0.27606
-0.21496 0.19677 0.03217
-0.09048 0.19677 -0.31409
0.15726 0.19677 -0.34841
-0.11861 0.19677 0.14050
-0.05300 0.19677 -0.28177
-0.18910 0.19677 0.13991
-0.19166 0.19677 0.19515
-0.07457 0.19677 -0.33513
0.08647 0.19677 -0.29393
-0.22339 0.19677 -0.33271
-0.21617 0.19677 -0.12063
-0.16675 0.19677 0.02838
-0.18164 0.19677 0.10390
-0.15256 0.19677 -0.19562
-0.15460 0.19677 0.00251
-0.14012 0.19677 -0.34404
-0.06695 0.19677 -0.26585
0.00979 0.19677 -0.14794
-0.12956 0.19677 -0.34260
-0.02147 0.19677 0.00275
-0.10397 0.19677 0.06257
0.10675 0.19677 -0.26341
-0.09781 0.19677 -0.01246
-0.07866 0.19677 -0.35789
0.10360 0.19677 -0.37397
-0.05306 0.19677 0.00998
-0.13498 0.19677 -0.18487
0.07116 0.19677 -0.33935
-0.10476 0.19677 -0.29922
-0.17526 0.19677 -0.18159
-0.06711 0.19677 -0.07152
-0.20310 0.19677 -0.08973
0.13103 0.19677 -0.27981
-0.15988 0.19677 -0.13648
-0.08544 0.19677 0.01578
-0.19308 0.19677 -0.17971
0.05542 0.19677 -0.27283
-0.17535 0.19677 0.17857
0.04600 0.19677 -0.30897
0.09683 0.19677 -0.17697
-0.05726 0.19677 -0.10865
-0.18037 0.19677 0.12919
-0.15684 0.19677 0.21484
-0.17072 0.19677 -0.36107
0.15699 0.19677 -0.31804
-0.17853 0.19677 -0.12424
-0.00510 0.19677 -0.17305
-0.02010 0.19677 -0.23391
-0.19848 0.19677 -0.14457
0.08040 0.19677 -0.23422
0.16263 0.19677 -0.29435
-0.22314 0.19677 -0.07267
-0.15831 0.19677 -0.03862
-0.17718 0.19677 0.09123
-0.00331 0.19677 -0.27031
-0.03121 0.19677 -0.30264
-0.12306 0.19677 -0.03264
-0.01802 0.19677 -0.39271
-0.21196 0.19677 -0.00382
0.02375 0.19677 -0.34081
0.11587 0.19677 -0.26447
0.08065 0.19677 -0.33105
-0.14570 0.19677 0.20056
-0.05687 0.19677 -0.20727
-0.20695 0.19677 0.14573
-0.01762 0.19677 -0.26435
0.05116 0.19677 -0.20645
0.12595 0.19677 -0.33575
-0.11077 0.19677 -0.29592
0.00499 0.19677 -0.28522
-0.01733 0.19677 -0.04857
-0.13595 0.19677 -0.11178
-0.18159 0.19677 -0.38471
-0.21633 0.19677 0.35044
-0.03413 0.19677 -0.12213
0.05769 0.19677 -0.35917
0.13441 0.19677 -0.36836
-0.13318 0.19677 -0.21119
-0.07876 0.19677 -0.36984
0.06550 0.19677 -0.33804
-0.13759 0.19677 -0.39084
-0.11727 0.19677 -0.26716
-0.20351 0.19677 0.11480
0.14120 0.19677 -0.36714
-0.09368 0.19677 -0.23686
-0.19618 0.19677 0.24654
-0.14155 0.19677 0.00172
0.01919 0.19677 -0.11737
0.03494 0.19677 -0.07901
-0.19676 0.19677 0.29997
-0.08744 0.19677 -0.16262
-0.17405 0.19677 0.02630
0.10914 0.19677 -0.31294
-0.18720 0.19677 -0.04802
0.13483 0.19677 -0.29389
0.08397 0.19677 -0.28349
0.02754 0.19677 -0.24374
0.18174 0.19677 -0.34245
0.10613 0.19677 -0.19472
-0.16560 0.19677 0.06993
-0.05860 0.19677 -0.21815
0.07783 0.19677 -0.25261
-0.22256 0.19677 -0.10834
-0.19722 0.19677 0.15408
-0.21602 0.19677 -0.10945
-0.21891 0.19677 0.21245
-0.13100 0.19677 -0.01116
-0.13824 0.19677 0.20107
-0.16362 0.19677 -0.33975
0.08555 0.19677 -0.36392
-0.03934 0.19677 -0.05537
-0.16101 0.19677 -0.17849
0.04985 0.19677 -0.09240
-0.21033 0.19677 -0.14581
-0.13532 0.19677 -0.19143
-0.01029 0.19677 -0.17623
-0.05655 0.19677 -0.24359
-0.16962 0.19677 0.11503
-0.06846 0.19677 -0.24903
0.18037 0.19677 -0.35690
0.04090 0.19677 -0.33286
0.02098 0.19677 -0.16648
-0.19606 0.19677 -0.38564
-0.13539 0.19677 0.10471
0.00580 0.19677 -0.24724
-0.01085 0.19677 -0.39179
-0.06563 0.19677 -0.20483
-0.20863 0.19677 -0.12736
0.00199 0.19677 -0.16343
-0.09695 0.19677 0.14319
-0.07565 0.19677 -0.08564
-0.14791 0.19677 0.17164
-0.02983 0.19677 -0.34167
0.04366 0.19677 -0.19323
0.01705 0.19677 -0.24034
-0.11139 0.19677 -0.16320
0.03637 0.19677 -0.34513
0.02181 0.19677 -0.19063
-0.05088 0.19677 -0.07199
-0.13828 0.19677 0.12711
-0.07093 0.19677 -0.16949
0.03976 0.19677 -0.14646
-0.01472 0.19677 -0.19534
0.14375 0.19677 -0.28714
-0.00704 0.19677 -0.25595
0.03727 0.19677 -0.08791
-0.18879 0.19677 -0.03678
-0.19635 0.19677 0.07725
0.03070 0.19677 -0.33623
0.08240 0.19677 -0.27362
-0.20978 0.19677 -0.02265
0.06460 0.19677 -0.29884
-0.03684 0.19677 0.01103
-0.13454 0.19677 0.02261
0.04815 0.19677 -0.08659
-0.12758 0.19677 0.10309
-0.10016 0.19677 0.15453
0.00856 0.19677 -0.06974
0.16343 0.19677 -0.32870
-0.10230 0.19677 -0.06140
-0.10987 0.19677 -0.05634
-0.04151 0.19677 -0.35468
-0.05696 0.19677 0.08608
-0.08776 0.19677 -0.01615
-0.21153 0.19677 0.04559
-0.19741 0.19677 -0.17598
-0.16523 0.19677 -0.26141
-0.13980 0.19677 0.08429
-0.03463 0.19677 -0.00195
-0.16789 0.19677 -0.37830
-0.14662 0.19677 0.01307
-0.19339 0.19677 -0.19609
-0.02583 0.19677 -0.07624
0.08538 0.19677 -0.32452
-0.04063 0.19677 -0.29430
0.03242 0.19677 -0.20910
-0.22257 0.19677 0.14846
-0.20080 0.19677 -0.25025
-0.11047 0.19677 -0.22556
-0.07964 0.19677 -0.30445
-0.13394 0.19677 -0.21987
-0.21287 0.19677 0.16614
-0.10134 0.19677 -0.13985
-0.09200 0.19677 -0.09332
-0.05487 0.19677 -0.00239
-0.01744 0.19677 -0.29776
-0.01990 0.19677 -0.04430
-0.07329 0.19677 -0.21985
-0.20200 0.19677 -0.31463
0.08839 0.19677 -0.19212
-0.10853 0.19677 -0.37228
0.01865 0.19677 -0.31457
0.16279 0.19677 -0.32117
-0.12121 0.19677 0.17170
-0.10905 0.19677 0.08349
0.18037 0.19677 -0.37973
0.17667 0.19677 -0.37152
0.01227 0.19677 -0.30903
-0.18163 0.19677 -0.22062
-0.07984 0.19677 -0.37996
-0.20321 0.19677 0.26543
0.01182 0.19677 -0.33833
0.04323 0.19677 -0.10799
-0.06782 0.19677 -0.30591
-0.00281 0.19677 -0.24582
0.00093 0.19677 -0.09405
0.08723 0.19677 -0.33175
-0.13226 0.19677 0.12482
0.18003 0.16216 0.34629
0.18172 0.15231 0.34364
-0.18421 -0.07809 0.37399
-0.20681 -0.17661 0.37097
-0.18964 -0.19239 0.37049
-0.17991 -0.01088 0.37605
-0.18562 -0.15724 0.37157
0.21968 -0.04881 -0.36765
0.21749 -0.12013 -0.35708
0.21949 -0.05473 -0.36720
0.21601 -0.16859 -0.35840
0.21774 -0.11190 -0.35433
-0.04844 0.18320 -0.36005
0.08426 0.18320 -0.35285
0.05205 0.18320 -0.35298
0.09623 0.18320 -0.35431
0.08207 0.18320 -0.36925
-0.05586 0.18320 -0.37059
0.17038 0.18320 -0.36674
0.11399 0.18320 -0.35704
0.22076 0.12646 0.33035
-0.20513 -0.17107 0.37115
-0.21004 -0.19616 0.37038
-0.18726 -0.05317 0.37475
-0.19042 -0.03775 0.37523
-0.19563 -0.16237 0.37141
-0.19070 -0.17877 0.37091
-0.06436 0.19150 -0.39355
-0.22237 0.13571 0.17754
-0.22074 0.13571 0.19899
-0.22242 0.13571 -0.08499
0.22843 0.19412 0.27728
-0.21577 -0.02954 0.37548
-0.21545 -0.10157 0.37327
0.22392 0.14593 0.20191
0.22025 0.13571 0.06613
0.22016 0.13571 0.29209
0.22076 0.13571 0.15032
-0.19885 0.13586 0.33899
-0.23609 0.18582 0.08747
0.19723 0.10682 0.33095
0.18401 0.03639 0.33311
0.19872 -0.01709 0.33475
0.18823 -0.03285 0.33523
0.20863 0.10599 0.33098
0.18696 -0.09516 0.33714
0.20937 0.06587 0.33221
0.18829 -0.04536 0.33561
0.18596 -0.11463 0.33773
-0.08868 0.14788 -0.37998
0.22755 0.18320 0.35815
0.22474 0.18320 0.15189
0.22988 0.18320 -0.02320
0.23033 0.18320 0.19428
0.22546 0.18320 -0.03921
-0.21896 0.13571 -0.34403
-0.23167 0.19140 0.05861
0.22229 0.13571 -0.23487
0.22127 0.13571 -0.29874
0.22236 0.13571 0.04383
-0.23735 0.18347 0.07625
0.21198 0.16792 0.33576
0.21341 -0.19677 -0.35533
0.15018 0.17146 -0.37319
0.17009 0.18016 -0.37319
0.16789 0.16696 -0.37319
0.15418 0.16152 -0.37319
0.07319 0.16811 -0.37319
0.16017 0.17674 -0.37319
0.15860 0.16672 -0.37319
0.22131 0.13571 -0.26335
0.21998 0.13571 -0.18094
0.22094 0.13571 -0.27837
-0.01907 0.18578 -0.39355
-0.23380 0.18907 -0.37272
-0.23005 0.19287 0.24828
-0.23222 0.19084 0.00728
0.06509 0.16369 -0.37998
0.06144 0.15162 -0.37998
-0.07795 0.13594 -0.37998
0.09726 0.15704 -0.37998
0.02982 0.14602 -0.37998
0.14380 0.15975 -0.37998
0.01904 0.15760 -0.37998
0.10727 0.15308 -0.37998
0.13403 0.15379 -0.37998
-0.20584 0.14693 0.33248
-0.19866 -0.15063 -0.34125
-0.19019 -0.01954 -0.33723
-0.19972 -0.13493 -0.34077
-0.20700 -0.18154 -0.34219
-0.18204 -0.01799 -0.33719
-0.20293 -0.19643 -0.34265
-0.14112 0.17566 -0.37319
0.04430 0.13662 -0.37319
-0.15540 0.16521 -0.37319
-0.07736 0.13755 -0.37319
-0.03877 0.14095 -0.37319
-0.16237 0.17162 -0.37319
-0.13728 0.15842 -0.37319
-0.16617 0.17720 -0.37319
-0.17311 0.15165 -0.37319
-0.21911 0.02156 -0.37648
-0.20884 0.03583 -0.37692
-0.20794 -0.13902 -0.37157
-0.20336 -0.09604 -0.37288
-0.20279 0.01340 -0.37623
-0.20279 0.06866 -0.37793
-0.21007 -0.01573 -0.37534
-0.21558 -0.00190 -0.37577
-0.21314 0.11345 -0.37930
-0.21560 -0.09910 0.35818
-0.21868 0.00148 0.36560
-0.21582 -0.09217 0.37025
-0.21335 -0.17256 0.36914
-0.21631 -0.07601 0.36777
0.22565 0.19588 -0.28858
-0.17642 0.16122 0.34884
-0.23510 0.18736 0.38678
0.23152 0.19155 0.01133
0.01029 0.18320 -0.38563
-0.09401 0.18320 -0.38674
-0.14016 0.18320 -0.38554
0.21341 -0.16071 0.34353
0.21779 -0.01771 0.34506
0.21600 -0.07616 0.34268
0.21942 0.03548 0.33864
0.21640 -0.06325 0.34284
0.23414 0.18865 0.12459
-0.22392 0.14081 -0.27434
-0.22392 0.14475 0.27717
-0.22392 0.16347 0.28591
-0.22392 0.15890 0.17611
-0.22392 0.13968 0.24971
-0.22392 0.15873 0.26115
-0.22392 0.17828 0.33567
-0.22392 0.15714 0.01047
-0.22392 0.14825 0.32489
-0.22392 0.13762 -0.10255
-0.22392 0.14045 -0.16258
-0.22392 0.13855 -0.24891
-0.22392 0.14600 -0.02732
-0.22392 0.14766 0.33988
-0.22392 0.14359 0.06114
-0.22392 0.13952 0.08443
-0.22392 0.16407 0.18735
-0.22392 0.17560 0.34808
-0.22392 0.15160 0.02710
-0.22392 0.14019 0.12213
-0.22392 0.15347 -0.03379
0.23618 0.18565 0.36636
0.22776 0.19459 -0.16549
-0.21713 0.17109 -0.10178
-0.21713 0.16172 0.11546
-0.21713 0.17805 0.02468
-0.21713 0.17227 0.23886
-0.21713 0.16047 0.27092
-0.21713 0.16735 0.16564
-0.21713 0.16693 -0.03124
-0.21713 0.15328 0.31251
-0.21713 0.15257 0.15681
-0.21713 0.18074 -0.17260
-0.21713 0.18241 -0.08355
-0.21713 0.17431 0.10840
-0.21713 0.14738 0.21252
-0.21713 0.14824 0.29112
-0.21713 0.13950 0.29131
-0.21713 0.15915 0.33143
-0.21713 0.17411 0.30172
-0.22529 0.19608 0.24162
0.23592 0.18610 0.07005
-0.17883 0.13571 -0.34804
0.23459 0.18805 -0.14755
-0.11726 0.18320 0.17343
-0.16749 0.18320 0.26596
-0.19159 0.18320 0.18135
0.01631 0.18320 0.32140
0.15082 0.18320 0.24394
-0.18732 0.18320 -0.23354
0.13823 0.18320 0.26916
-0.03316 0.18320 0.09605
-0.07497 0.18320 -0.03603
0.04246 0.18320 0.18083
-0.12691 0.18320 0.25340
-0.03439 0.18320 0.11841
-0.14144 0.18320 -0.12152
-0.00316 0.18320 0.05589
-0.01175 0.18320 -0.01555
-0.16814 0.18320 0.09495
-0.11754 0.18320 0.11897
-0.13894 0.18320 0.09618
-0.15170 0.18320 0.12894
-0.18389 0.18320 0.16126
-0.11097 0.18320 -0.14080
-0.19486 0.18320 0.31147
-0.15770 0.18320 0.00049
-0.10909 0.18320 0.13270
0.02461 0.18320 0.07836
0.11500 0.18320 0.28167
-0.20645 0.18320 -0.01423
-0.09869 0.18320 0.09668
-0.05652 0.18320 -0.04866
-0.18667 0.18320 0.12021
-0.04989 0.18320 0.09834
0.06164 0.18320 0.27193
-0.21691 0.18320 -0.10555
-0.14506 0.18320 -0.16374
-0.12881 0.18320 0.23558
-0.11527 0.18320 0.18595
-0.18656 0.18320 -0.08231
-0.17581 0.18320 0.13785
-0.04899 0.18320 0.12537
0.11528 0.18320 0.29094
-0.04840 0.18320 -0.01306
-0.08520 0.18320 0.05802
-0.08568 0.18320 0.29625
-0.02771 0.18320 0.01404
-0.06496 0.18320 0.22401
0.10105 0.18320 0.21001
-0.01751 0.18320 0.31371
-0.16244 0.18320 0.22349
-0.03381 0.18320 0.05222
-0.11851 0.18320 -0.12574
-0.06643 0.18320 0.13156
-0.09298 0.18320 -0.03913
-0.14779 0.18320 0.07052
-0.10771 0.18320 0.14440
-0.06215 0.18320 0.16283
0.05182 0.18320 0.11903
-0.15564 0.18320 0.13503
-0.08941 0.18320 0.15436
0.08556 0.18320 0.31575
-0.11439 0.18320 0.10730
-0.18490 0.18320 0.10549
-0.14547 0.18320 0.04929
-0.17801 0.18320 0.22566
-0.12426 0.18320 -0.11203
0.06938 0.18320 0.15895
0.04357 0.18320 0.24506
-0.03620 0.18320 0.29637
-0.01088 0.18320 0.03988
-0.19558 0.18320 0.19426
-0.03207 0.18320 0.23602
-0.18294 0.18320 -0.21965
0.01837 0.18320 0.33065
0.17523 0.18320 0.27414
-0.17522 0.18320 0.20934
-0.13852 0.18320 0.11906
-0.13077 0.18320 0.22710
-0.13816 0.18320 0.03475
0.00329 0.18320 0.19805
-0.09138 0.18320 0.17469
-0.15559 0.18320 -0.04930
0.19018 0.18320 0.32144
-0.15651 0.18320 0.05489
0.13254 0.18320 0.30686
-0.11623 0.18320 -0.08737
-0.00018 0.18320 0.20478
-0.20424 0.18320 0.06566
0.10057 0.18320 0.19089
-0.13013 0.18320 0.28521
0.05487 0.18320 0.15150
-0.13396 0.18320 -0.11824
-0.16723 0.18320 0.02882
-0.20457 0.18320 0.27814
-0.09772 0.18320 0.14965
-0.05957 0.18320 0.20873
-0.16480 0.18320 0.10186
-0.13793 0.18320 0.30403
-0.03307 0.18320 0.27189
-0.07583 0.18320 -0.07523
-0.12433 0.18320 0.21343
-0.11946 0.18320 -0.10744
0.05774 0.18320 0.13880
-0.05702 0.18320 0.04426
0.01996 0.18320 0.11535
-0.15971 0.18320 0.03268
0.18688 0.18320 0.32755
-0.02513 0.18320 0.03661
-0.11957 0.18320 0.27723
-0.10380 0.18320 -0.05230
0.05890 0.18320 0.09189
-0.16765 0.18320 0.05886
-0.14316 0.18320 0.30408
-0.19469 0.18320 -0.18386
-0.04055 0.18320 0.26330
-0.10866 0.18320 0.01481
0.11371 0.18320 0.27647
-0.19140 0.18320 -0.28154
-0.15168 0.18320 0.25383
-0.16653 0.18320 0.08278
-0.02908 0.18320 -0.00361
-0.17958 0.18320 0.15520
-0.17949 0.18320 -0.24686
-0.11047 0.18320 -0.15476
0.09737 0.18320 0.16912
-0.17273 0.18320 -0.11791
0.05858 0.18320 0.14718
0.05148 0.18320 0.27479
-0.16440 0.18320 -0.10065
-0.13227 0.18320 0.08226
-0.07532 0.18320 0.21734
-0.19216 0.18320 0.04991
-0.11080 0.18320 0.31009
-0.19482 0.18320 -0.16889
-0.12771 0.18320 0.03443
-0.00676 0.18320 0.12942
-0.10890 0.18320 -0.08997
-0.06692 0.18320 -0.00430
-0.14664 0.18320 -0.18942
-0.08377 0.18320 -0.06738
-0.09593 0.18320 -0.08119
0.07355 0.18320 0.13479
0.10955 0.18320 0.31511
-0.12351 0.18320 0.26568
0.13714 0.18320 0.33179
-0.16107 0.18320 -0.06624
-0.12074 0.18320 -0.14317
-0.07702 0.18320 0.10725
-0.11428 0.18320 -0.11851
-0.03438 0.18320 0.15161
0.07408 0.18320 0.30846
-0.06851 0.18320 0.06981
-0.20851 0.18320 -0.02151
0.00046 0.18320 0.06341
-0.11036 0.18320 -0.14656
-0.19285 0.18320 -0.15163
-0.12656 0.18320 -0.10189
-0.12742 0.18320 0.16254
-0.14473 0.18320 0.05431
-0.02779 0.18320 0.05752
-0.02325 0.18320 0.09366
-0.05256 0.18320 0.31858
0.02975 0.18320 0.17299
0.00298 0.18320 0.26939
0.01718 0.18320 0.03970
0.18643 0.14342 -0.37998
0.21230 0.15377 -0.37998
0.18746 -0.17892 -0.35742
0.18370 -0.05620 -0.34868
0.18579 -0.12433 -0.34680
0.18228 -0.00969 -0.33713
0.18700 -0.16403 -0.35534
0.17962 0.13571 0.36433
-0.23436 0.18835 0.07295
-0.21622 -0.11578 -0.36023
-0.21603 -0.12180 -0.34727
-0.21485 -0.16029 -0.34360
-0.21770 -0.06728 -0.34469
-0.21462 -0.16802 -0.36572
-0.07768 0.19625 0.39355
0.22613 0.18579 0.39355
0.17329 0.19540 0.39355
-0.22392 0.15935 0.37818
0.22164 0.10801 0.33241
0.21572 -0.08539 0.34061
0.21496 -0.10997 0.35758
0.21258 -0.18796 0.34216
0.21443 -0.12746 0.35244
0.21271 -0.18365 0.36143
0.22082 0.13571 0.28408
-0.06213 0.18797 0.39355
0.20683 0.13571 0.35177
-0.04967 0.13571 0.37768
-0.07803 0.13784 0.37319
0.11496 0.16800 0.37319
0.09864 0.15141 0.37319
0.17079 0.16227 0.37319
0.08364 0.14102 0.37319
-0.00877 0.13797 0.37319
0.16170 0.15810 0.37319
-0.09133 0.14119 0.37319
-0.07262 0.14611 0.37319
0.13803 0.14382 0.37319
0.17009 0.14457 0.37319
-0.19349 0.13586 0.35666
-0.22392 0.15645 -0.02329
-0.18976 0.16604 -0.33248
-0.18412 0.18919 0.39355
-0.22437 0.19655 -0.06753
0.18399 0.13912 0.37287
-0.22908 0.19364 0.21435
0.21713 0.13865 -0.06285
0.21713 0.16044 0.17405
0.21713 0.13848 -0.00516
0.21713 0.15737 0.22771
0.21713 0.14682 0.06670
0.21713 0.13751 -0.17055
0.21713 0.15826 0.04436
0.21713 0.14494 0.03479
0.21713 0.14000 -0.25863
0.21713 0.14803 0.28715
0.21713 0.14511 0.11966
0.21713 0.14442 -0.16812
0.21713 0.15804 0.09881
0.21713 0.14540 -0.08185
0.21713 0.13585 -0.02470
0.21713 0.14183 0.23588
0.21713 0.14689 0.33088
-0.22851 0.18320 0.14020
-0.23005 0.18320 0.19065
-0.22894 0.18320 0.04361
-0.23441 0.18320 0.24366
-0.22422 0.18320 -0.21926
-0.23264 0.18320 0.29647
0.17973 0.07344 -0.37660
0.18084 0.03739 -0.35677
0.18021 0.05783 -0.36675
0.18031 0.05469 -0.35528
0.17918 0.09143 -0.34957
0.18393 -0.06369 -0.35640
0.18100 0.03216 -0.36578
0.18307 -0.03542 -0.36969
0.18707 -0.16630 -0.36967
0.18654 -0.14880 -0.36988
0.20642 0.00471 0.33408
0.21280 0.04443 0.33286
0.21204 -0.09352 0.33709
0.21267 -0.01013 0.33453
0.20343 -0.12425 0.33803
-0.23339 0.18957 0.12896
-0.23191 0.18320 -0.23988
-0.23616 0.18320 -0.12909
-0.23270 0.18320 -0.07729
-0.22799 0.18320 -0.35511
-0.23167 0.18320 -0.03497
-0.23453 0.18320 0.01631
0.21912 0.11389 0.33074
-0.23670 0.18475 0.21721
-0.22615 0.19560 -0.33843
0.23665 0.18484 -0.08818
-0.23184 0.19125 0.28722
0.20380 0.16539 -0.33248
0.22404 0.09373 -0.33703
0.21897 -0.07196 -0.35661
0.22369 0.08227 -0.34961
0.22193 0.02479 -0.35530
0.22328 0.06903 -0.33861
0.22263 0.04777 -0.36209
0.21979 -0.04525 -0.35889
0.22472 0.11591 -0.36312
0.20322 0.19677 0.25080
0.12074 0.19677 0.29991
0.00069 0.19677 0.05132
0.05509 0.19677 -0.01163
0.10348 0.19677 -0.08176
-0.06002 0.19677 0.13650
0.01291 0.19677 0.23603
0.07158 0.19677 0.02665
0.00529 0.19677 0.01717
-0.11228 0.19677 0.20337
0.15716 0.19677 0.12965
0.03548 0.19677 0.12709
0.17804 0.19677 -0.12460
0.19929 0.19677 0.10627
0.17567 0.19677 -0.04878
0.01047 0.19677 0.07803
-0.03283 0.19677 0.37418
0.05364 0.19677 0.23516
-0.06701 0.19677 0.21836
0.09428 0.19677 -0.16342
0.15747 0.19677 0.28224
-0.17378 0.19677 0.36348
0.18196 0.19677 -0.18156
0.13616 0.19677 0.23584
-0.07185 0.19677 0.37624
0.00699 0.19677 0.38119
0.18219 0.19677 0.04032
0.11704 0.19677 -0.05770
-0.06751 0.19677 0.35980
0.08511 0.19677 0.36287
0.14442 0.19677 -0.05030
0.21935 0.19677 0.25378
0.00004 0.19677 0.22903
-0.04017 0.19677 0.36968
0.04569 0.19677 0.00614
0.00224 0.19677 0.36951
0.14455 0.19677 0.05649
-0.05818 0.19677 0.38077
0.13042 0.19677 -0.12386
0.21756 0.19677 0.07555
0.20850 0.19677 0.07973
0.19301 0.19677 -0.24863
0.14920 0.19677 -0.07518
0.05619 0.19677 0.35753
0.21028 0.19677 -0.10616
0.09023 0.19677 0.08124
0.21149 0.19677 -0.04249
0.18051 0.19677 0.26811
-0.08715 0.19677 0.22084
0.17798 0.19677 0.02076
0.14859 0.19677 -0.20040
0.10858 0.19677 -0.02272
0.16118 0.19677 -0.22851
0.19795 0.19677 -0.18672
-0.07589 0.19677 0.18796
0.08127 0.19677 -0.06936
-0.12471 0.19677 0.36282
0.20886 0.19677 -0.06413
-0.12898 0.19677 0.38576
0.20131 0.19677 -0.12847
0.17592 0.19677 0.33966
-0.05499 0.19677 0.35541
0.13496 0.19677 0.37429
-0.05725 0.19677 0.12895
0.09198 0.19677 0.03945
0.14841 0.19677 0.19855
0.15663 0.19677 -0.14762
-0.07143 0.19677 0.20423
0.10576 0.19677 0.00450
0.08839 0.19677 0.10171
0.04583 0.19677 0.31656
-0.01989 0.19677 0.17270
0.17309 0.19677 0.06053
0.08636 0.19677 0.29805
0.03023 0.19677 0.11119
0.02117 0.19677 0.33400
-0.07230 0.19677 0.30393
0.07911 0.19677 0.19262
0.18787 0.19677 0.19364
0.18694 0.19677 0.14781
0.04377 0.19677 0.21305
0.07883 0.19677 0.02831
-0.13921 0.19677 0.31116
0.19917 0.19677 -0.29273
0.06428 0.19677 0.24715
0.09277 0.19677 -0.04247
0.03903 0.19677 0.22692
0.19031 0.19677 -0.28076
0.12391 0.19677 0.18432
0.18053 0.19677 0.21725
-0.09625 0.19677 0.24873
0.04988 0.19677 0.07595
-0.02866 0.19677 0.19794
0.13581 0.19677 0.33687
0.13972 0.19677 -0.01163
0.04789 0.19677 0.38972
0.19522 0.19677 0.07082
0.08639 0.19677 0.21027
0.14100 0.19677 0.21082
-0.01804 0.19677 0.09705
0.15775 0.19677 0.11264
-0.03254 0.19677 0.11360
0.20996 0.19677 -0.22552
0.14348 0.19677 0.23948
0.03499 0.19677 -0.05764
-0.02593 0.19677 0.29064
0.11939 0.19677 -0.13988
0.13845 0.19677 0.36460
-0.05389 0.19677 0.17196
-0.02241 0.19677 0.10473
-0.03158 0.19677 0.07434
0.09374 0.19677 -0.00136
0.21785 0.19677 -0.15506
0.18520 0.19677 -0.18734
-0.09886 0.19677 0.27980
-0.11853 0.19677 0.28695
0.19301 0.19677 0.29202
0.21546 0.19677 -0.36058
-0.07682 0.19677 0.35474
0.17840 0.19677 0.02969
0.17340 0.19677 -0.23101
0.08206 0.19677 0.31149
-0.15615 0.19677 0.29899
0.08812 0.19677 0.14926
-0.00935 0.19677 0.30435
0.07423 0.19677 0.00851
0.15354 0.19677 0.12157
0.17905 0.19677 -0.09257
0.15595 0.19677 0.31315
0.18835 0.19677 0.13302
0.13154 0.19677 0.08718
-0.16439 0.19677 0.38547
-0.01038 0.19677 0.06242
-0.08565 0.19677 0.16645
-0.22006 0.19677 0.38882
-0.14266 0.19677 0.29875
0.07873 0.19677 0.10929
0.05634 0.19677 0.36562
0.15593 0.19677 0.37265
-0.09051 0.19677 0.17536
0.20238 0.19677 -0.05288
0.21704 0.19677 0.03058
0.19969 0.19677 -0.11002
-0.14119 0.19677 0.32089
0.04048 0.19677 -0.03198
0.13739 0.19677 0.28162
-0.06718 0.19677 0.38683
-0.10703 0.19677 0.38406
0.21826 0.19677 -0.34400
-0.01762 0.19677 0.06432
-0.08580 0.19677 0.28750
0.19613 0.19677 -0.30941
0.15127 0.19677 -0.06629
0.18711 0.19677 0.27571
0.06137 0.19677 0.07948
-0.15122 0.19677 0.31470
0.10943 0.19677 0.32836
-0.05284 0.19677 0.15983
-0.01548 0.19677 0.08975
0.02307 0.19677 0.34303
0.20477 0.19677 0.23273
-0.01507 0.19677 0.29354
0.06375 0.19677 0.27384
0.11581 0.19677 -0.06582
0.18484 0.19677 -0.08108
0.04021 0.19677 -0.02289
-0.15420 0.19677 0.35181
0.08371 0.19677 0.12846
0.19694 0.19677 0.05532
-0.03767 0.19677 0.14967
0.14353 0.19677 -0.20091
0.04923 0.19677 0.35019
0.10496 0.19677 0.27901
-0.04883 0.19677 0.34037
-0.09239 0.19677 0.35320
0.19330 0.19677 -0.20409
0.16928 0.19677 0.13416
0.14506 0.19677 0.14183
0.09537 0.19677 -0.04674
0.18235 0.19677 -0.17505
0.21790 0.19677 0.05031
0.22292 0.19677 0.17465
0.10673 0.19677 -0.10845
0.00177 0.19677 0.20583
0.13819 0.19677 0.01712
0.17539 0.19677 -0.17469
0.10035 0.19677 0.31916
0.20621 0.19677 -0.11668
0.16203 0.19677 -0.07406
0.11804 0.19677 -0.03321
0.03422 0.19677 0.04801
0.06658 0.19677 0.25310
0.07183 0.19677 -0.09743
0.15169 0.19677 0.11576
0.20942 0.19677 -0.32876
-0.08060 0.19677 0.30153
0.19059 0.19677 -0.19870
0.16931 0.19677 0.16551
-0.03664 0.19677 0.07177
0.20186 0.19677 0.07747
0.12296 0.19677 0.12395
-0.13841 0.19677 0.32756
0.19706 0.19677 0.02670
0.08107 0.19677 0.00605
0.04361 0.19677 0.24146
0.13026 0.19677 -0.09471
0.02857 0.19677 -0.03970
0.08203 0.19677 -0.10300
-0.06020 0.19677 0.33932
-0.22654 0.19537 -0.04061
-0.22369 0.12843 -0.36645
-0.21914 -0.02019 -0.36040
-0.22107 0.04261 -0.35780
-0.21558 -0.13667 -0.36810
-0.21506 -0.15370 -0.36548
-0.21954 -0.00718 -0.36285
-0.22143 0.05462 -0.36961
-0.21999 0.00759 -0.35062
-0.22362 0.12604 -0.37152
-0.19385 0.15120 -0.33248
0.18995 0.13571 0.34339
0.23536 0.18696 -0.32771
-0.22762 0.19468 0.28228
-0.18201 -0.04703 -0.35045
-0.18214 -0.05111 -0.34241
-0.18069 -0.00398 -0.34808
-0.17663 0.12881 -0.37555
-0.17759 0.09741 -0.37437
-0.17822 0.07680 -0.34966
-0.17788 0.08800 -0.36617
-0.17966 0.02969 -0.34499
-0.18566 -0.16614 -0.34323
-0.18013 0.01444 -0.34121
0.23740 0.18338 0.30751
0.18235 0.14865 0.35012
-0.04950 0.15587 0.37319
0.00281 0.16209 0.37319
-0.17409 0.17650 0.37319
-0.17263 0.16221 0.37319
-0.16565 0.14770 0.37319
-0.13795 0.14542 0.37319
-0.01974 0.17148 0.37319
-0.17098 0.14983 0.37319
-0.03528 0.16672 0.37319
-0.16459 0.17756 0.37319
-0.22392 0.18049 0.12787
-0.22392 0.15563 -0.19719
-0.22392 0.16328 -0.19139
-0.22392 0.14589 -0.22622
-0.22392 0.18018 0.06994
-0.22392 0.13643 -0.36877
-0.22392 0.16888 -0.30127
-0.22392 0.17440 0.20101
-0.22392 0.15477 -0.31089
-0.22392 0.17747 -0.08319
-0.22392 0.17693 -0.16370
-0.22392 0.17798 0.17007
-0.22392 0.17812 0.26745
-0.22392 0.17205 -0.16129
-0.22392 0.16996 -0.35471
-0.22392 0.17690 0.01936
-0.22392 0.17433 -0.07185
-0.22392 0.15554 -0.14663
-0.22392 0.15705 -0.36165
-0.22392 0.16835 0.08406
-0.22392 0.15488 -0.13206
-0.22392 0.17056 -0.05528
0.23037 0.19260 -0.11071
-0.21047 -0.17827 0.34266
-0.19005 -0.13004 0.34118
-0.17926 0.01769 0.33666
-0.18987 -0.14458 0.34163
-0.20049 -0.13703 0.34140
0.21989 0.05093 0.36275
0.21573 -0.08500 0.36694
0.21658 -0.05707 0.36584
0.21943 0.03575 0.36005
0.22081 0.08085 0.36424
0.21794 -0.01268 0.34836
0.21805 -0.00903 0.35717
0.22132 0.09760 0.36515
0.18393 0.08742 -0.33404
0.18567 -0.03780 -0.33788
0.21713 0.17290 -0.11852
0.21713 0.17122 -0.10494
0.21713 0.16354 -0.21731
0.21713 0.17402 0.11910
0.21713 0.16991 -0.21864
0.21713 0.17211 0.16479
0.21713 0.14978 -0.25306
0.21713 0.18154 0.27849
0.21713 0.16288 -0.30159
0.21713 0.14739 -0.28899
0.21713 0.16089 -0.27854
0.21713 0.14694 -0.23949
0.21713 0.14176 -0.33248
0.21713 0.18233 0.12599
0.21713 0.15354 -0.30963
0.21713 0.16206 -0.20918
0.21713 0.17257 -0.12909
0.21713 0.17347 -0.07785
0.22601 0.19568 0.24372
-0.04869 0.16633 0.37998
-0.05099 0.15435 0.37998
-0.04753 0.18139 0.37998
-0.17084 0.14935 0.37998
0.09229 0.17729 0.37998
0.02251 0.16098 0.37998
-0.19716 0.17771 0.37998
-0.04152 0.16961 0.37998
0.02378 0.17460 0.37998
-0.00352 0.17533 0.37998
-0.01633 0.16270 0.37998
-0.17612 0.14870 0.37998
0.22807 0.19438 -0.20550
0.23696 0.18426 -0.32072
-0.20118 0.15181 -0.33248
-0.17744 0.10223 -0.33428
-0.17651 0.13259 -0.35744
-0.18068 -0.00354 -0.36185
-0.17848 0.06839 -0.35482
-0.18036 0.00676 -0.35514
-0.18289 -0.07563 -0.34648
-0.18257 -0.06528 -0.35359
-0.17693 0.11912 -0.35685
-0.18134 -0.02496 -0.35976
0.17642 0.17394 -0.35019
-0.22392 0.14157 0.20248
-0.22392 0.13779 -0.06145
-0.22392 0.14624 -0.02083
-0.22392 0.15767 0.30745
-0.22392 0.16651 0.18170
-0.22392 0.14638 0.08060
-0.22392 0.13577 -0.14204
-0.22392 0.13721 -0.04324
-0.22392 0.17688 0.32445
-0.22392 0.14691 0.19600
-0.22392 0.15548 0.29191
-0.22392 0.14253 0.00563
-0.22392 0.14457 -0.06643
-0.22392 0.14691 0.14772
0.22392 0.14044 -0.24421
0.22392 0.14681 -0.24562
0.22392 0.15734 -0.14358
0.22392 0.14922 -0.06745
0.22392 0.15766 -0.30161
0.22392 0.14842 -0.23407
0.22392 0.14942 -0.12868
0.22392 0.15200 0.01010
0.22392 0.14665 -0.11407
0.22392 0.14016 -0.09972
0.22392 0.14431 -0.09163
0.22392 0.14941 -0.07545
0.22392 0.17933 -0.34322
0.22392 0.14298 0.00760
0.22392 0.15560 -0.34521
0.22392 0.13975 -0.03605
0.22392 0.14690 -0.17129
0.18309 -0.12899 0.36054
0.18250 -0.10974 0.35686
0.18347 -0.14121 0.36689
0.17715 0.06512 0.36997
0.18374 -0.15016 0.36451
-0.23354 0.18320 0.16062
-0.23567 0.18320 0.17342
-0.22988 0.18320 -0.24452
-0.23434 0.18320 -0.27298
-0.23004 0.18320 -0.34233
-0.23550 0.18320 0.06272
0.12474 0.18434 0.39355
0.18205 0.08162 0.37591
0.19300 0.05600 0.37513
0.20146 0.09588 0.37635
0.19789 0.03314 0.37443
0.22064 0.13481 0.37754
0.18891 0.04884 0.37491
0.18687 -0.04515 0.37203
-0.19620 -0.10029 0.34027
-0.21120 -0.19266 0.34310
-0.19474 -0.11263 0.34065
-0.19396 -0.13479 0.34133
-0.19454 -0.14002 0.34149
-0.18163 -0.06521 0.33920
-0.22864 0.19397 -0.32884
-0.21713 0.14992 -0.24024
-0.21713 0.16628 -0.33190
-0.21713 0.17612 -0.29205
-0.21713 0.15877 -0.15331
-0.21713 0.16194 -0.30535
-0.21713 0.15232 -0.14031
-0.21713 0.13668 -0.06470
-0.21713 0.13819 -0.00797
-0.21713 0.13571 -0.30618
-0.21713 0.15721 -0.27345
-0.21713 0.13949 -0.04187
-0.21713 0.15832 -0.00725
-0.21713 0.15080 -0.07774
-0.21713 0.16600 -0.12560
-0.21713 0.15887 -0.16266
-0.21713 0.16121 -0.11768
-0.21713 0.14015 -0.20703
-0.22176 0.13571 0.37714
-0.21790 0.13571 0.34795
-0.03113 0.18320 0.39041
-0.14955 0.18320 0.39109
-0.05324 0.18320 0.39124
0.05802 0.18320 0.38908
-0.22392 0.14918 -0.21758
-0.22392 0.17321 0.17191
-0.22392 0.16917 0.05909
-0.22392 0.15261 -0.17173
-0.22392 0.17251 -0.17459
-0.22392 0.17959 0.25368
-0.22392 0.18039 -0.25440
-0.22392 0.16998 0.03380
-0.22392 0.15814 -0.17507
-0.22392 0.16474 0.07668
-0.22392 0.16508 0.06211
-0.22392 0.15729 -0.20774
-0.22392 0.16689 0.01210
-0.22392 0.16528 -0.33001
-0.22392 0.17843 0.28875
-0.22392 0.15732 -0.08527
-0.22392 0.17408 -0.21475
-0.12026 0.18352 -0.39355
0.18068 -0.03008 0.37249
0.09744 0.18935 0.39355
-0.10624 0.19666 0.39355
-0.10064 0.19490 0.39355
-0.00727 0.19565 0.39355
-0.23019 0.19275 -0.19509
0.19281 0.18320 -0.11766
0.19525 0.18320 -0.22893
0.19406 0.18320 -0.10697
0.21059 0.18320 0.10556
0.21530 0.18320 -0.08469
0.21007 0.18320 0.18119
0.20113 0.18320 -0.31243
0.20429 0.18320 -0.21870
0.20553 0.18320 -0.27678
0.19976 0.18320 -0.05616
0.19751 0.18320 -0.10314
0.19857 0.18320 -0.29939
0.20242 0.18320 -0.14346
0.21461 0.18320 0.09970
-0.23342 0.18952 -0.27422
0.18528 -0.19677 0.35108
0.17889 0.00820 0.33894
0.17818 0.03145 0.35238
0.17749 0.05395 0.36804
0.17558 0.11638 0.35388
0.17533 0.12445 0.34329
0.17600 0.10267 0.33626
0.17967 -0.01729 0.35143
0.17800 0.03743 0.33829
0.17528 0.12625 0.35522
-0.06529 0.18320 -0.36995
0.04725 0.18320 -0.35012
0.03082 0.18320 -0.35885
0.04849 0.18320 -0.36290
0.09223 0.18320 -0.36380
0.10326 0.18320 -0.34176
0.11261 0.18320 -0.34828
-0.09987 0.18320 -0.37201
-0.01531 0.18320 -0.36138
0.18366 -0.05472 -0.34283
0.18560 -0.11807 -0.34386
0.18614 -0.13589 -0.36141
0.18789 -0.19305 -0.36896
0.18785 -0.19153 -0.35673
-0.21690 0.13571 0.34136
0.22988 0.19300 0.25781
-0.22560 0.19591 0.33455
0.05128 0.18320 0.39076
-0.19877 0.18320 0.39342
0.01489 0.18320 0.38871
-0.21547 0.18320 0.38812
-0.22159 0.13571 -0.23502
-0.21768 0.13571 0.07867
-0.21932 0.13571 0.08381
0.09169 0.13571 0.37538
0.22392 0.13631 0.34596
0.22392 0.14636 0.17999
-0.20259 -0.19662 0.36638
0.23691 0.18435 0.18235
-0.21032 -0.12150 -0.37210
-0.20369 0.12510 -0.37965
-0.18013 0.10387 -0.37900
-0.18802 0.07126 -0.37800
-0.21086 -0.10437 -0.37263
-0.20205 0.06049 -0.37767
-0.21803 0.05108 -0.37739
-0.21626 0.10072 -0.37891
-0.21407 0.07138 -0.37801
0.17642 0.16397 -0.36996
0.23267 0.18320 -0.24658
0.23000 0.18320 -0.34010
0.23340 0.18320 -0.21479
0.23126 0.18320 0.00101
0.22886 0.18320 -0.21773
0.23434 0.18320 -0.25413
-0.18666 -0.19662 0.34891
-0.19599 -0.02737 0.37554
-0.19213 0.08600 0.37901
-0.21035 -0.04354 0.37505
-0.19223 0.02700 0.37721
-0.21213 -0.06581 0.37437
-0.20243 0.02252 0.37707
0.22190 0.13571 0.13986
-0.17491 0.18499 -0.39355
-0.07380 0.18320 -0.39280
0.10537 0.18320 -0.39049
0.08117 0.18320 -0.39032
0.10401 0.18320 -0.38447
-0.19465 0.15685 0.33248
-0.17642 0.15201 -0.35811
-0.21898 0.13571 0.28491
-0.22126 0.13571 0.29166
-0.21852 0.13571 0.27677
-0.20007 -0.09047 -0.33940
-0.19029 -0.10503 -0.33985
-0.20578 -0.13324 -0.34071
-0.19873 -0.16856 -0.34180
-0.18936 0.01925 -0.33604
-0.17642 0.17313 0.35080
-0.17642 0.17706 0.33954
-0.07385 0.14718 0.37998
0.20056 0.17719 0.37998
0.16807 0.14260 0.37998
-0.02338 0.15259 0.37998
0.17655 0.15911 0.37998
0.05648 0.14278 0.37998
0.13636 0.14252 0.37998
-0.14318 0.13880 0.37998
-0.08754 0.14126 0.37998
-0.17996 0.15133 -0.37998
-0.22202 0.14783 -0.37998
-0.02470 0.16916 -0.37998
0.17911 0.18214 -0.37998
-0.17711 0.16286 -0.37998
0.00739 0.16199 -0.37998
-0.07858 0.16988 -0.37998
-0.20162 0.17415 -0.37998
-0.15912 0.14298 -0.37998
-0.13273 0.14714 -0.37998
0.20736 -0.19677 -0.35553
-0.18609 -0.18016 -0.34664
-0.18017 0.01325 -0.37270
-0.17982 0.02474 -0.37050
-0.18025 0.01035 -0.36736
-0.17834 0.07291 -0.37569
0.23560 0.18659 0.08442
0.18221 0.17944 0.33329
0.20425 0.13571 -0.36879
0.18898 0.07318 0.33198
0.19191 -0.04965 0.33574
0.18045 0.12571 0.33037
0.19017 0.00558 0.33405
0.19070 0.10862 0.33090
0.19968 0.09757 0.33124
0.19999 -0.07348 0.37116
0.19875 -0.12861 0.36947
0.21834 0.03341 0.37444
0.21378 0.00909 0.37369
0.21129 -0.07708 0.37105
0.19291 -0.01700 -0.33724
0.19652 0.05328 -0.33509
0.21268 0.07841 -0.33432
0.18845 0.09509 -0.33381
0.19022 -0.02627 -0.33753
0.19051 -0.06581 -0.33874
0.18715 -0.08413 -0.33930
-0.10869 0.14075 0.37319
0.12593 0.13571 0.37319
0.14971 0.16478 0.37319
-0.04850 0.14199 0.37319
0.07010 0.16806 0.37319
0.06696 0.15854 0.37319
0.07997 0.15259 0.37319
0.00513 0.13599 0.37319
0.11165 0.16218 0.37319
0.23122 0.19183 0.27028
0.11041 0.18320 -0.33399
-0.13966 0.18320 -0.35563
0.04452 0.18320 -0.33491
-0.06800 0.18320 -0.33541
