-0.18918 0.11703 -0.07309
-0.09687 0.11703 -0.13922
-0.06789 0.11703 0.06308
-0.03335 0.11703 0.20216
-0.11525 0.11703 0.22638
0.02420 0.11703 0.05059
0.06145 0.11703 0.31233
0.00783 0.11703 0.37704
0.05833 0.11703 0.28426
-0.06381 0.11703 -0.10011
-0.08051 0.11703 0.32671
0.06096 0.11703 0.36495
-0.06963 0.11703 0.17011
-0.05689 0.11703 0.15158
-0.17877 0.11703 -0.04899
-0.20307 0.11703 0.34591
-0.08450 0.11703 -0.12687
-0.02498 0.11703 0.33450
-0.05726 0.11703 0.27963
0.02698 -0.08036 -0.41088
-0.09363 -0.07147 -0.41088
0.02319 -0.06268 0.32262
-0.10885 -0.06268 0.29319
-0.12345 -0.06268 0.31192
0.10585 -0.06268 0.30023
0.13921 -0.06268 0.29947
-0.12283 -0.06268 0.30349
-0.10793 -0.06268 0.31962
-0.16760 -0.06268 0.36993
0.08546 -0.06268 0.29078
-0.06226 -0.06268 0.32554
-0.08229 -0.06268 0.36351
0.09941 -0.06268 0.33948
-0.06485 -0.06268 0.39104
0.10602 -0.06268 0.36357
0.11189 -0.06268 0.37849
0.15701 -0.06268 0.33106
0.07403 -0.06268 0.37823
0.11036 -0.06268 0.36056
-0.18187 -0.06268 0.40042
0.05475 -0.06268 0.34018
0.13812 -0.06268 0.32606
0.20653 -0.08761 -0.18227
-0.04360 -0.08080 0.32441
-0.09068 -0.08080 0.03954
-0.02611 -0.08080 0.07917
-0.07711 -0.08080 -0.14055
-0.10553 -0.08080 -0.16077
-0.10535 -0.08080 0.19381
-0.02583 -0.08080 0.20545
0.04517 -0.08080 0.23694
0.12357 -0.08080 0.39561
0.07812 -0.08080 0.26308
-0.15586 -0.08080 -0.11025
-0.16063 -0.08080 -0.10408
-0.17436 -0.08080 -0.20892
-0.09252 -0.08080 0.04576
-0.13100 -0.08080 0.16037
-0.04332 -0.08080 0.09222
-0.16115 -0.08080 0.16326
-0.18291 -0.08080 0.23104
-0.17895 -0.08080 -0.18196
0.06523 -0.08080 0.27709
-0.15195 -0.08080 -0.24654
-0.09467 -0.08080 0.38329
-0.12457 -0.08080 -0.07267
-0.17850 -0.08080 0.00194
-0.08739 -0.08080 0.05543
-0.02424 -0.08080 0.29789
0.02771 -0.08080 0.19495
-0.12448 -0.08080 0.37524
0.03666 -0.08080 0.30330
-0.02404 -0.08080 0.32902
-0.16313 -0.08080 0.01461
0.00330 -0.08080 0.06266
0.01685 -0.08080 0.32302
-0.01555 -0.08080 0.34279
-0.16186 -0.08080 -0.13253
-0.09817 -0.08080 0.23219
-0.02013 -0.08080 0.40162
0.10510 -0.08080 0.38456
0.00303 -0.08080 0.10727
0.02493 -0.08080 0.25108
-0.11775 -0.08080 0.16899
-0.07094 -0.08080 0.27834
-0.13695 -0.08080 0.15192
0.12125 -0.08080 0.33216
-0.16555 -0.08080 -0.01752
0.02718 -0.08080 0.11080
-0.19899 -0.08080 -0.34643
-0.20411 -0.08080 0.08517
-0.00807 -0.08080 0.36466
-0.07041 -0.08080 0.02433
0.01321 -0.08080 0.18323
-0.11631 -0.08080 0.39710
-0.16604 -0.08080 -0.15654
-0.15859 -0.08080 -0.18724
-0.20289 -0.08080 0.00081
-0.04953 -0.08080 0.32416
0.10633 -0.08080 0.28730
-0.14839 -0.08080 0.31045
-0.08295 -0.08080 0.25195
-0.19815 -0.08080 0.38350
0.06025 -0.08080 0.30615
-0.16412 -0.08080 0.35249
-0.03009 -0.08080 0.05587
-0.18193 -0.08080 -0.24191
-0.09302 -0.08080 0.11324
-0.18757 -0.08080 0.28938
-0.14151 -0.08080 -0.25937
-0.12584 -0.08080 -0.03887
-0.00032 -0.08080 0.23998
-0.14251 -0.08080 -0.01097
-0.06321 -0.08080 0.36465
-0.09459 -0.08080 -0.18622
0.00800 -0.08080 0.37173
0.00844 -0.08080 0.13153
-0.17728 -0.08080 0.13163
0.19348 -0.09562 -0.21190
-0.18488 -0.06775 0.26998
0.04148 -0.06775 0.27016
0.20653 -0.04759 -0.31377
0.20653 -0.04049 -0.31010
0.07585 0.00727 -0.27899
0.10328 -0.04188 -0.27899
-0.08202 0.01271 -0.27899
0.05592 -0.00538 -0.27899
0.08794 -0.03854 -0.27899
0.00936 -0.01157 -0.27899
0.06883 0.00455 -0.27899
0.05756 -0.02025 -0.27899
-0.20652 0.01790 -0.29851
-0.20652 0.01687 -0.20789
0.02196 -0.05055 0.26595
-0.02475 -0.03982 0.26595
-0.11188 -0.04403 0.26595
-0.18864 -0.05892 0.26595
-0.18276 -0.04326 0.26595
-0.09414 -0.06531 0.26595
0.10563 -0.05267 0.26595
0.19348 -0.11430 -0.37871
-0.12065 -0.06775 0.27850
0.20155 -0.06775 0.13183
0.05756 -0.06775 0.10187
-0.07934 -0.06775 -0.24541
0.13868 -0.06775 -0.30141
0.19158 -0.06775 -0.13859
-0.03605 -0.06775 -0.38738
0.08979 -0.06775 -0.01588
-0.06640 -0.06775 -0.27442
-0.06569 -0.06775 -0.18494
0.13317 -0.06775 0.02880
0.18299 -0.06775 0.16910
-0.08851 -0.06775 -0.38388
0.01283 -0.06775 -0.04052
0.19929 -0.06775 0.08553
-0.09975 -0.06775 -0.29799
0.12620 -0.06775 -0.25959
-0.14949 -0.06775 -0.31131
-0.10121 -0.06775 -0.25135
0.19822 -0.06775 -0.39650
0.16117 -0.06775 -0.11439
-0.03222 -0.06775 -0.33953
-0.02165 -0.06775 -0.14514
-0.03879 -0.06775 -0.35466
0.14364 -0.06775 -0.14159
0.01479 -0.06775 0.01397
0.06952 -0.06775 -0.36351
0.18004 -0.06775 -0.11933
0.01817 -0.06775 -0.00487
0.17226 -0.06775 -0.23335
-0.01070 -0.06775 -0.08545
0.15226 -0.06775 0.19398
0.19240 -0.06775 -0.04066
-0.03330 -0.06775 -0.35033
0.15455 -0.06775 -0.09611
0.13849 -0.06775 -0.15009
0.14684 -0.06775 0.17854
0.18846 -0.06775 -0.19975
0.16218 -0.06775 0.08194
0.06042 -0.06775 -0.02672
-0.07069 -0.06775 -0.33514
-0.04108 -0.06775 -0.12483
0.08308 -0.06775 -0.07023
-0.03193 -0.06775 -0.36483
-0.03472 -0.06775 -0.40141
0.18933 -0.06775 0.04437
-0.01027 -0.06775 -0.34387
-0.08486 -0.06775 -0.30290
0.10453 -0.06775 -0.34988
0.06158 -0.06775 0.04081
0.04048 -0.06775 -0.23589
0.14732 -0.06775 -0.25903
-0.02046 -0.06775 -0.04563
0.18442 -0.06775 0.27212
0.12195 -0.06775 0.15467
0.07441 -0.06775 -0.32637
0.06808 -0.06775 -0.13139
-0.01607 -0.06775 -0.06884
0.16550 -0.06775 -0.19378
0.03283 -0.06775 -0.33108
0.12280 -0.06775 -0.17697
0.06974 -0.06775 -0.05741
0.19600 -0.06775 0.18604
0.07756 -0.06775 -0.04298
0.16987 -0.06775 0.28565
0.17668 -0.06775 0.16392
0.12253 -0.06775 0.04927
0.20511 -0.06775 0.02283
-0.09194 -0.06775 -0.32865
0.16856 -0.06775 -0.04877
0.02620 -0.06775 -0.28567
0.16917 -0.06775 -0.28469
0.10004 -0.06775 -0.36969
0.02880 -0.06775 -0.24749
0.12909 0.10704 -0.43312
0.19636 -0.11703 -0.26120
0.20653 -0.11393 -0.38269
0.20653 -0.10724 0.10203
0.14126 -0.06154 0.28624
-0.14776 -0.06189 0.28624
0.07447 -0.05874 0.28624
0.12033 -0.05827 0.28624
0.17901 -0.03569 0.28624
-0.11363 -0.04820 0.28624
0.00853 -0.02694 0.28624
0.09604 0.11042 -0.43062
-0.20652 -0.07050 0.17299
-0.20652 -0.07360 0.26864
-0.20652 -0.06786 0.16139
0.20653 -0.01292 0.34830
0.02630 0.10036 0.42267
-0.19877 0.00192 -0.30860
0.19348 -0.08814 0.08048
0.19348 -0.08696 -0.01040
0.19348 -0.08386 0.19964
-0.20602 -0.05845 -0.36567
-0.20602 -0.02731 -0.35230
0.19928 -0.03280 0.39804
-0.05315 -0.06631 -0.28618
0.10738 -0.07357 0.41088
-0.06632 -0.06373 0.40254
0.18291 -0.01289 -0.26595
-0.10794 -0.06036 -0.26595
0.19139 -0.02457 -0.26595
-0.11399 -0.06014 -0.26595
0.12924 -0.06278 -0.26595
0.16778 -0.04397 -0.26595
0.14188 -0.01450 -0.26595
-0.19348 -0.09160 0.36318
0.15349 0.01457 -0.27299
-0.20652 0.06859 0.41370
0.04731 -0.06631 -0.28383
0.20653 -0.08708 0.02500
0.20653 -0.09582 0.25432
0.20653 -0.08126 -0.18026
0.20653 -0.08755 0.18063
-0.20652 -0.08094 0.17526
-0.20652 -0.09034 0.29092
-0.20652 -0.08129 0.14911
-0.04794 0.11082 0.43018
0.01629 -0.06306 -0.40363
0.20653 -0.03471 -0.28109
0.06332 0.02761 0.34156
0.00138 0.02761 0.04609
0.01785 0.02761 0.03924
-0.04109 0.02761 0.37880
-0.07983 0.02761 0.04547
-0.09332 0.02761 0.02565
-0.20562 0.02761 -0.29209
-0.20524 0.02761 -0.34510
-0.15875 0.02761 -0.12242
-0.13326 0.02761 0.08067
-0.01093 0.02761 0.22305
-0.10027 0.02761 -0.17943
-0.17427 0.02761 -0.05882
-0.13827 0.02761 -0.12276
0.09891 0.02761 0.27638
-0.19482 0.02761 0.06351
0.00082 0.02761 0.08186
-0.06736 0.02761 0.14741
-0.14362 0.02761 0.38906
-0.18124 0.02761 -0.30431
0.00132 0.02761 0.09052
-0.15444 0.02761 -0.30461
-0.03842 0.02761 0.13702
-0.12315 0.02761 -0.18028
0.16174 0.02761 0.33854
-0.10058 0.02761 0.04571
-0.03613 0.02761 0.16822
-0.07383 0.02761 0.21031
-0.12128 0.02761 -0.06428
0.06733 0.02761 0.24340
-0.19714 0.02761 -0.18739
-0.17993 0.02761 -0.32473
-0.07001 0.02761 -0.12437
-0.18295 0.02761 0.26097
-0.07797 0.02761 -0.04861
0.07342 0.02761 0.21686
0.01619 0.02761 0.06197
-0.00503 0.02761 0.15813
-0.01703 0.02761 0.21012
-0.15754 0.02761 -0.20571
-0.12882 0.02761 -0.15504
-0.07366 0.02761 -0.05120
-0.17313 0.02761 0.19026
-0.18407 0.02761 0.30285
-0.09886 0.02761 -0.08901
0.01478 0.02761 0.36554
-0.14112 0.02761 0.26485
-0.14729 0.02761 -0.17726
-0.10862 0.02761 -0.14954
-0.18458 0.02761 0.17324
0.10756 0.02761 0.27296
0.13163 0.02761 0.28930
-0.03786 0.02761 -0.02580
-0.00798 0.02761 0.08551
-0.02088 0.02761 0.13832
0.05615 0.02761 0.35341
-0.19118 0.02761 -0.32156
-0.12008 0.02761 0.24327
-0.10829 0.02761 -0.06850
-0.07604 0.02761 0.11109
-0.13448 0.02761 0.13596
-0.03671 0.02761 0.02744
-0.00679 0.02761 0.06638
-0.05410 0.02761 0.28831
-0.18666 0.02761 0.07550
-0.19897 0.02761 0.02076
-0.19788 0.02761 0.10740
-0.11799 0.02761 0.02718
-0.18094 0.02761 -0.21427
0.00650 0.02761 0.31499
-0.03723 0.02761 0.18065
0.04355 0.02761 0.28443
-0.13705 0.02761 -0.14572
-0.18601 0.02761 0.11254
0.20653 -0.07293 -0.05044
0.20653 -0.06926 -0.32680
0.20653 -0.06853 0.09576
-0.20652 0.02342 0.08688
-0.20652 0.02219 0.28262
-0.20652 0.02517 0.17085
-0.11656 0.01457 0.20116
-0.08420 0.01457 -0.11182
-0.06559 0.01457 0.21079
-0.08859 0.01457 0.38779
-0.13903 0.01457 -0.13472
-0.12679 0.01457 0.18854
-0.20132 0.01457 0.14637
-0.19962 0.01457 -0.33763
-0.05845 0.01457 0.23310
-0.10393 0.01457 0.26433
-0.03708 0.01457 0.13417
-0.12370 0.01457 0.04704
-0.05915 0.01457 0.17232
-0.01307 0.01457 0.39754
-0.02172 0.01457 0.04286
0.01387 0.01457 0.06725
-0.17363 0.01457 0.12963
-0.04820 0.01457 -0.09090
-0.20116 0.01457 -0.01669
-0.20575 0.01457 -0.37372
-0.14964 0.01457 -0.27210
-0.19456 0.01457 0.19193
-0.10559 0.01457 0.06767
0.05895 0.01457 0.22250
-0.01120 0.01457 0.13353
-0.10297 0.01457 0.27574
-0.11149 0.01457 -0.11522
-0.06397 0.01457 0.04737
-0.20038 0.01457 0.23397
-0.12946 0.01457 -0.11615
-0.20358 0.01457 -0.06766
-0.16008 0.01457 -0.12489
-0.05214 0.01457 0.29751
0.07135 0.01457 0.19855
-0.17896 0.01457 0.25427
0.00628 0.01457 0.28972
-0.13819 0.01457 0.03983
-0.13458 0.01457 0.18305
0.05424 0.01457 0.20903
-0.13145 0.01457 0.29080
-0.19772 0.01457 -0.34868
-0.17908 0.01457 -0.31835
0.03477 0.01457 0.37440
0.01686 0.01457 0.35742
-0.01161 0.01457 0.01865
-0.08889 0.01457 0.10342
0.05951 0.01457 0.29882
0.02582 0.01457 0.13390
-0.06475 0.01457 0.36980
-0.15636 0.01457 -0.15559
0.04708 0.01457 0.32118
-0.06120 0.01457 0.10778
-0.10321 0.01457 0.11234
0.02130 0.01457 0.34847
-0.12477 0.01457 -0.05401
0.11278 0.01457 0.40720
0.15476 0.01457 0.30947
0.03726 0.01457 0.38068
0.07213 0.01457 0.41002
0.14030 0.01457 0.29043
-0.14680 0.01457 0.15217
-0.17321 0.01457 0.06037
-0.00185 0.01457 0.13193
-0.20574 0.01457 0.25277
-0.00146 0.01457 0.00127
-0.18367 0.01457 0.03954
-0.13217 0.01457 -0.24076
-0.13626 0.01457 0.36382
-0.01860 0.01457 0.16981
-0.08959 0.01457 0.27040
0.07389 0.01457 0.24913
-0.12325 0.01457 -0.10246
-0.20156 0.01457 -0.20918
0.09254 0.01457 0.24388
-0.17862 0.11703 -0.41526
0.19339 0.11703 0.30291
0.19538 0.11703 0.19925
0.14138 0.11703 0.07322
-0.05573 0.11703 -0.35240
0.12102 0.11703 -0.05122
-0.10642 0.11703 -0.37162
0.13330 0.11703 -0.42236
0.20836 0.11703 0.35042
0.18029 0.11703 -0.23204
0.12805 0.11703 -0.16437
0.17022 0.11703 0.31385
0.06637 0.11703 -0.07888
0.08196 0.11703 -0.23866
0.11977 0.11703 -0.23222
-0.13961 0.11703 -0.36155
0.11410 0.11703 -0.29057
-0.08474 0.11703 -0.40605
0.18936 0.11703 -0.21807
0.18827 0.11703 0.23478
0.18743 0.11703 0.03180
0.02330 0.11703 -0.27894
0.03676 0.11703 -0.05628
0.14066 0.11703 -0.05588
0.13249 0.11703 0.23495
0.02562 0.11703 -0.14050
0.04724 0.11703 -0.09831
0.09099 0.11703 -0.18065
-0.00085 0.11703 -0.21290
0.20272 0.11703 -0.34360
0.12586 0.11703 -0.17495
0.04505 0.11703 -0.38547
0.00604 0.11703 -0.16167
-0.05130 0.11703 -0.30007
0.07501 0.11703 -0.08503
0.17480 0.11703 -0.03991
-0.02744 0.11703 -0.40872
0.20248 0.11703 0.30949
0.17743 0.11703 -0.33359
0.17817 0.11703 0.06706
0.18167 0.11703 -0.15836
0.13761 0.11703 -0.15302
0.20586 0.11703 0.02059
-0.06386 0.11703 -0.21924
0.12749 0.11703 0.05901
-0.02603 0.11703 -0.19667
-0.12694 0.11703 -0.26667
0.09487 0.11703 -0.40985
0.18933 0.11703 0.15602
-0.10040 0.11703 -0.37035
0.07840 0.11703 -0.11096
0.17236 0.11703 -0.37951
-0.01466 0.11703 -0.13717
0.07460 0.11703 -0.38241
0.11332 0.11703 0.15654
0.14849 0.11703 -0.09600
0.17964 0.11703 0.25380
0.15216 0.11703 -0.24799
-0.02475 0.11703 -0.05954
0.05368 0.11703 -0.35673
-0.11378 0.11703 -0.40452
0.06275 0.11703 -0.38533
0.20253 0.11703 0.34603
0.15077 0.11703 0.14979
0.16889 0.11703 -0.25983
-0.01459 0.11703 -0.23231
0.20243 0.11703 0.00302
0.02779 0.11703 -0.03345
0.00885 0.11703 -0.09746
0.18695 0.11703 0.33759
0.13589 0.11703 -0.33503
0.02654 0.11703 -0.29245
0.03404 0.11703 -0.36057
0.04967 0.11703 0.08475
0.14909 0.11703 -0.06142
0.20415 0.01457 -0.34500
-0.02524 0.01457 -0.33631
-0.08429 0.01457 -0.40658
-0.03114 0.01457 -0.37280
0.19283 0.01457 -0.40803
0.10989 0.01457 0.19773
0.12797 0.01457 -0.15476
0.07652 0.01457 -0.40033
0.06254 0.01457 0.00345
0.00984 0.01457 -0.14956
0.18781 0.01457 0.07692
0.19655 0.01457 0.20722
-0.10102 0.01457 -0.24034
0.11969 0.01457 0.15276
0.13256 0.01457 -0.20835
0.10745 0.01457 0.01181
0.16015 0.01457 -0.11007
0.16752 0.01457 0.24701
0.10407 0.01457 0.17633
0.15981 0.01457 -0.04572
0.16303 0.01457 -0.34237
0.05076 0.01457 -0.07582
0.18187 0.01457 -0.28039
0.09522 0.01457 -0.35198
-0.00976 0.01457 -0.21303
-0.01196 0.01457 -0.19533
0.09718 0.01457 0.15128
0.02057 0.01457 0.01556
0.10748 0.01457 -0.09738
0.08895 0.01457 -0.29142
-0.11986 0.01457 -0.27878
0.17751 0.01457 0.11746
0.10777 0.01457 -0.25563
0.02249 0.01457 -0.36868
0.19050 0.01457 -0.20251
0.09835 0.01457 -0.06844
-0.00370 0.01457 -0.33189
0.18480 0.01457 -0.35722
0.20305 0.01457 0.38637
-0.04321 0.01457 -0.34897
0.18103 0.01457 -0.36414
-0.08533 0.01457 -0.26014
0.16973 0.01457 0.33627
0.00227 0.01457 -0.37349
-0.12875 0.01457 -0.31379
0.13722 0.01457 0.25398
0.20189 0.01457 0.10909
0.14539 0.01457 -0.16145
0.20476 0.01457 0.37142
0.16686 0.01457 -0.01667
-0.18449 0.01457 -0.37477
0.00305 0.01457 -0.38305
0.09257 0.01457 -0.18661
-0.00424 0.01457 -0.13534
0.00947 0.01457 -0.25635
0.14863 0.01457 -0.38686
0.17315 0.01457 -0.37161
0.01016 0.01457 -0.32337
0.14950 0.01457 0.17364
0.06502 0.01457 -0.19731
-0.04643 0.01457 -0.32890
0.08089 0.01457 -0.16908
0.05406 0.01457 -0.31520
0.16726 0.01457 -0.22967
0.07715 0.01457 0.08332
0.01073 0.01457 -0.03757
0.20196 0.01457 -0.13604
0.20517 0.01457 0.11879
0.04665 0.01457 -0.00565
0.00008 0.01457 -0.17242
0.16768 0.01457 -0.30129
0.09318 0.01457 -0.19790
0.05614 0.01457 -0.12368
0.20653 -0.09490 -0.21655
0.15686 -0.06631 -0.40845
0.03621 -0.06775 -0.27780
-0.16867 -0.06775 -0.27545
0.20653 -0.05877 0.34278
0.20653 -0.00864 0.39237
-0.05770 -0.02413 0.40254
-0.09262 -0.02817 0.40254
-0.04275 -0.06036 0.40254
-0.16336 -0.00651 0.40254
-0.08200 -0.04383 0.40254
0.12890 -0.05292 0.40254
0.05842 -0.03972 0.40979
0.15315 -0.03543 0.40979
0.13829 -0.00564 0.40979
0.11377 -0.03718 0.40979
0.01361 -0.02774 0.40979
0.13907 -0.04173 0.40979
0.05130 -0.05678 0.40979
0.08747 -0.04197 0.40979
-0.20886 0.11489 -0.42568
0.20653 -0.01964 -0.41153
0.20653 -0.09700 0.41121
0.08326 0.01141 0.26595
-0.05107 -0.00065 0.26595
-0.03140 0.00240 0.26595
-0.13045 0.00263 0.26595
0.08198 -0.02982 0.26595
0.07443 -0.02988 0.26595
0.13212 -0.00222 0.26595
0.15412 -0.02157 0.26595
-0.15085 -0.03674 0.26595
0.07290 -0.04282 0.26595
-0.19540 -0.01170 0.26595
-0.17957 -0.02547 0.26595
-0.09382 -0.03695 0.26595
0.08578 -0.06039 0.26595
-0.16592 0.00091 0.26595
0.20301 -0.11562 0.16595
0.19928 -0.00069 -0.36909
0.20653 0.01289 0.41952
-0.20602 -0.01682 -0.39582
-0.04246 -0.06268 -0.29464
0.17228 -0.06268 -0.28767
0.02702 -0.06268 -0.30853
0.01741 -0.06268 -0.31285
0.04880 -0.06268 -0.29818
-0.10740 -0.06268 -0.30351
-0.08613 -0.06268 -0.29612
0.03153 -0.06268 -0.30113
0.14544 -0.06268 -0.37508
0.10914 -0.06268 -0.29536
0.08487 -0.06268 -0.31937
0.17654 -0.06631 0.40977
-0.11638 -0.02712 0.28624
-0.08038 0.01132 0.28624
-0.13325 0.00780 0.28624
-0.16323 0.01003 0.28624
-0.17383 0.01025 0.28624
-0.12437 0.00363 0.28624
-0.18310 0.00664 0.28624
0.07797 0.01225 0.27899
0.17887 -0.02935 0.27899
-0.07162 -0.00923 0.27899
0.09222 0.01123 0.27899
0.16464 -0.04804 0.27899
0.18375 -0.01893 0.27899
0.07468 -0.03619 0.27899
0.13053 -0.00097 0.27899
-0.19877 -0.00270 0.35723
-0.21099 0.11223 0.33539
-0.18411 -0.06268 -0.36378
-0.16201 -0.06268 -0.38686
-0.03663 -0.06268 -0.39292
-0.15165 -0.06268 -0.38147
-0.00347 -0.06268 -0.35375
-0.05857 -0.06268 -0.38528
0.04010 -0.06268 -0.37435
-0.02503 -0.06268 -0.39657
-0.11812 -0.06268 -0.35802
-0.14932 -0.06268 -0.39230
-0.08544 -0.06268 -0.34476
-0.20652 -0.11348 -0.26851
-0.07742 -0.06775 0.27796
0.00534 -0.05217 -0.41088
-0.18779 -0.05479 -0.41088
0.07744 -0.04216 -0.41088
0.05582 -0.05076 -0.41088
-0.10232 -0.05059 -0.41088
-0.10868 -0.02212 -0.41088
-0.20652 -0.09728 -0.06825
-0.20602 -0.04795 -0.35332
-0.20602 -0.05925 -0.30205
-0.19877 -0.00317 -0.40333
0.03104 -0.06296 -0.40363
-0.20652 -0.11071 -0.35810
0.19348 -0.08766 -0.16014
-0.19697 -0.08080 0.31261
-0.19698 -0.08080 0.20095
0.19856 -0.11426 0.15848
0.07787 -0.06268 0.30989
-0.12555 -0.06268 0.34348
-0.07974 -0.06268 0.31459
0.09093 -0.06268 0.29539
-0.16556 -0.06268 0.29850
-0.16538 -0.06268 0.34739
-0.02901 -0.06268 0.28714
-0.19486 -0.06268 0.37336
-0.07003 -0.06268 0.31602
-0.18749 -0.06268 0.30271
0.04945 0.00175 0.40254
-0.06620 0.00271 0.40254
0.06247 -0.03515 0.40254
0.10548 -0.03130 0.40254
0.03410 -0.01407 0.40254
0.15905 -0.02660 0.40254
-0.20602 -0.01771 0.29701
0.02617 -0.03416 0.41088
-0.02435 -0.03219 0.41088
-0.19021 -0.00041 0.41088
-0.19094 -0.06920 0.41088
-0.13960 -0.11409 0.41088
-0.15502 -0.06075 0.41088
0.02011 -0.11061 0.41088
0.10153 -0.09497 0.41088
-0.12501 -0.10846 0.41088
-0.20577 0.04006 0.41088
-0.20447 -0.10801 0.41088
-0.19601 -0.00763 0.41088
0.09929 -0.11553 0.41088
-0.06124 -0.03441 0.41088
-0.20034 -0.07423 0.41088
0.01190 -0.02075 0.41088
-0.08323 -0.05659 0.41088
0.06144 -0.05316 0.41088
-0.09100 -0.01838 0.41088
-0.03171 -0.03085 0.41088
-0.01961 0.01724 0.41088
0.08384 0.00598 -0.26595
-0.14931 -0.03984 -0.26595
-0.02653 -0.01190 -0.26595
0.11884 0.00825 -0.26595
-0.05717 -0.00229 -0.26595
-0.11005 -0.02163 -0.26595
-0.08462 -0.04184 -0.26595
-0.09078 -0.02635 0.40979
-0.05763 -0.01492 0.40979
-0.02236 0.00212 0.40979
0.06799 -0.00065 0.40979
-0.06784 0.01177 0.40979
0.00615 0.00728 0.40979
-0.19348 -0.11445 -0.39076
0.21696 0.10380 -0.04397
0.02487 -0.10513 0.41088
-0.20335 -0.05093 0.41088
0.11458 -0.10902 0.41088
-0.01394 -0.07912 0.41088
0.03850 -0.03386 0.41088
-0.16047 -0.10299 0.41088
-0.02760 -0.02479 0.41088
-0.19158 -0.01701 0.41088
-0.14777 0.02377 0.41088
-0.12113 -0.00569 0.41088
-0.10895 0.01062 0.41088
-0.15532 -0.08100 0.41088
-0.18577 0.07540 0.41088
-0.03178 -0.09236 0.41088
-0.12813 -0.05640 0.41088
0.04048 -0.04719 0.41088
0.02043 -0.05693 0.41088
-0.04278 -0.10656 0.41088
0.08006 -0.06268 0.32116
0.09555 -0.06268 0.34952
0.11131 -0.06268 0.34336
0.10031 -0.06268 0.37879
0.15199 -0.06268 0.33661
0.12066 -0.06268 0.35634
0.07558 -0.06268 0.34027
0.16057 -0.06268 0.33797
-0.03022 -0.06268 0.39032
0.14512 -0.06268 0.33811
0.15517 -0.06268 0.31977
0.07342 0.01457 -0.40572
0.11932 -0.02152 -0.40363
-0.01722 -0.05009 -0.40363
0.14513 -0.03674 -0.40363
0.07404 -0.02300 -0.40363
-0.17833 -0.06043 -0.40363
-0.08519 -0.04479 -0.40363
0.16994 -0.05140 -0.40363
0.06636 0.09251 -0.42392
0.17113 -0.00331 -0.42392
-0.03651 0.09888 -0.42392
-0.05855 0.09723 -0.42392
0.14023 0.08014 -0.42392
0.03137 0.04692 -0.42392
0.12142 -0.03787 -0.42392
0.19368 0.07262 -0.42392
-0.13461 0.10015 -0.42392
0.20047 -0.10941 -0.42392
0.09886 0.00112 -0.42392
-0.03075 0.08811 -0.42392
0.09981 0.09464 -0.42392
0.10966 -0.03572 -0.42392
0.06941 0.03714 -0.42392
0.13502 0.01865 -0.42392
0.18238 0.00532 -0.42392
-0.13782 0.08585 -0.42392
0.05102 0.01405 -0.42392
-0.13029 0.09112 -0.42392
-0.19348 -0.09773 -0.30132
-0.19348 -0.08690 -0.17120
-0.19348 -0.08814 -0.08151
-0.19348 -0.09101 0.12417
-0.20886 0.11514 0.40981
0.21465 0.10873 -0.42972
-0.17294 0.01457 -0.40799
0.20653 -0.01997 0.30045
0.20653 -0.00960 -0.36260
0.19348 -0.11034 0.40807
-0.20652 -0.11247 0.40105
-0.13678 -0.05060 0.27899
0.07669 0.00366 0.27899
-0.17947 -0.05319 0.27899
-0.03007 -0.02986 0.27899
-0.07478 0.01138 0.27899
-0.19558 -0.04329 0.27899
-0.17492 -0.05117 0.27899
-0.05188 -0.06631 -0.28042
-0.19348 -0.09866 0.02515
0.19782 -0.08080 0.25126
0.20043 -0.08080 0.19552
0.20355 -0.08080 0.30615
-0.20011 0.01457 0.27457
-0.07544 0.02058 0.41088
0.00897 0.11007 -0.43094
-0.19348 -0.08516 0.05972
-0.19348 -0.09364 0.33039
-0.19348 -0.08814 -0.01650
-0.20652 -0.09413 -0.16400
-0.19877 -0.01535 0.32415
0.20653 0.01899 -0.11583
0.20653 0.02178 0.04694
0.20653 0.02111 0.06538
0.19914 -0.11703 0.20298
0.11055 -0.06631 0.40630
-0.21273 0.11087 0.06421
-0.20652 -0.07618 -0.21629
-0.20652 -0.07242 -0.21301
-0.20652 -0.07955 0.02245
-0.05942 -0.05526 -0.42392
-0.12133 -0.09582 -0.42392
-0.16439 0.00605 -0.42392
-0.04230 -0.06792 -0.42392
0.09360 -0.10307 -0.42392
-0.16795 0.03701 -0.42392
-0.19941 -0.08031 -0.42392
-0.12098 -0.03286 -0.42392
-0.10973 0.00869 -0.42392
-0.02156 0.00170 -0.42392
-0.08748 0.00383 -0.42392
-0.09828 -0.00129 -0.42392
-0.20475 -0.08927 -0.42392
0.01671 -0.07693 -0.42392
-0.09002 -0.06735 -0.42392
-0.18335 -0.02052 -0.42392
-0.20060 -0.02031 -0.42392
0.12715 -0.11548 -0.42392
-0.10517 -0.05951 -0.42392
0.12782 -0.07838 -0.42392
-0.02819 0.01457 0.26936
-0.07174 0.07119 0.42392
0.14747 0.10007 0.42392
0.08251 0.09029 0.42392
-0.08242 0.03770 0.42392
-0.02444 0.02410 0.42392
-0.01753 0.02816 0.42392
-0.14753 -0.07746 0.42392
0.09245 0.07677 0.42392
-0.11864 -0.06525 0.42392
-0.11091 0.04254 0.42392
-0.01227 0.09304 0.42392
-0.03746 0.01467 0.42392
-0.18829 -0.05259 0.42392
-0.12996 0.02750 0.42392
0.05254 0.03793 0.42392
-0.14045 0.08969 0.42392
-0.05337 0.01462 0.42392
0.10993 0.07167 0.42392
-0.19421 -0.06285 0.42392
-0.19877 -0.00565 -0.30986
-0.19877 -0.05227 -0.33382
0.19348 -0.09308 -0.09589
-0.08063 0.01457 -0.27447
0.20653 -0.10463 0.35795
-0.15253 0.11557 0.42625
0.19723 -0.08080 -0.20247
0.20015 -0.08080 -0.16405
-0.01373 0.07727 -0.41088
-0.20570 0.08489 -0.41088
-0.03393 0.03324 -0.41088
-0.01400 0.02828 -0.41088
-0.13546 0.03217 -0.41088
-0.20625 0.04895 -0.41088
-0.18414 -0.06232 -0.41088
-0.11761 -0.01203 -0.41088
-0.15162 -0.02837 -0.41088
0.14588 0.08758 -0.41088
-0.11037 -0.02853 -0.41088
-0.16663 -0.07050 -0.41088
0.09463 0.09774 -0.41088
-0.00379 0.09416 -0.41088
0.04047 0.07105 -0.41088
-0.05247 0.02045 -0.41088
-0.20138 -0.09210 -0.41088
-0.13862 -0.03365 -0.41088
0.10992 0.06788 -0.41088
-0.08348 -0.00568 -0.41088
-0.06203 0.02185 0.41088
0.16173 0.01905 0.41088
-0.03114 0.02098 -0.41088
-0.19906 -0.10352 -0.30669
0.19928 -0.06084 0.39621
0.19928 -0.06111 0.31759
0.06663 -0.06268 -0.38791
-0.07892 -0.06268 -0.40245
-0.19572 -0.06268 -0.34265
-0.18047 -0.06268 -0.37228
-0.00186 -0.06268 -0.37480
-0.00393 -0.06268 -0.39782
-0.03561 -0.06268 -0.37315
-0.18573 -0.06268 -0.37627
0.04853 -0.06268 -0.39920
-0.17857 -0.06268 -0.38998
-0.02878 -0.06268 -0.36340
-0.19877 -0.01697 0.29146
0.17199 0.10036 -0.42234
-0.20652 0.00000 0.41408
-0.19348 -0.08746 -0.34943
-0.19546 -0.11703 0.33491
-0.20652 -0.05889 -0.27218
-0.19363 0.10669 -0.43329
-0.20652 -0.10337 0.31863
0.19546 -0.02825 -0.28008
-0.01872 -0.05540 -0.28008
0.09594 -0.03177 -0.28008
0.08810 -0.05111 -0.28008
0.17063 -0.03058 -0.28008
-0.20652 -0.11266 -0.42007
-0.20652 -0.06058 -0.41743
0.20886 0.11637 -0.05777
0.19537 0.01457 0.28056
0.16271 -0.06775 0.35851
-0.10091 -0.06775 -0.10346
-0.14127 -0.06775 0.31471
-0.05785 -0.06775 0.00516
-0.08996 -0.06775 0.39061
-0.12653 -0.06775 0.22382
-0.16641 -0.06775 0.34103
0.09350 -0.06775 0.25822
-0.19885 -0.06775 0.33768
-0.08015 -0.06775 0.23415
-0.02726 -0.06775 0.41014
-0.09580 -0.06775 0.15343
-0.00519 -0.06775 0.18735
-0.13128 -0.06775 -0.23369
0.09424 -0.06775 0.24644
-0.02051 -0.06775 0.08211
-0.05175 -0.06775 0.02392
-0.02308 -0.06775 0.10322
-0.14568 -0.06775 0.33933
0.05048 -0.06775 0.34518
0.09122 -0.06775 0.34988
-0.17112 -0.06775 -0.24127
0.06491 -0.06775 0.19876
0.06011 -0.06775 0.37473
0.09936 -0.06775 0.31683
-0.10589 -0.06775 -0.18530
-0.11319 -0.06775 0.08338
-0.09747 -0.06775 0.39104
-0.04253 -0.06775 -0.07815
0.01454 -0.06775 0.30906
-0.11663 -0.06775 0.06284
-0.11559 -0.06775 0.01980
-0.19773 -0.06775 0.36190
-0.18461 -0.06775 -0.26526
0.08490 -0.06775 0.23617
-0.07185 -0.06775 0.28862
-0.12531 -0.06775 0.35327
-0.16478 -0.06775 -0.15630
-0.14868 -0.06775 0.21728
-0.00586 -0.06775 0.27780
-0.14380 -0.06775 0.06930
-0.03749 -0.06775 0.27281
0.01860 -0.06775 0.28137
-0.02348 -0.06775 0.00423
-0.13996 -0.06775 0.28560
-0.07913 -0.06775 0.12342
0.16175 -0.06775 0.37473
0.04756 -0.06775 0.22708
-0.10407 -0.06775 -0.06299
-0.08293 -0.06775 0.27641
-0.17206 -0.06775 0.19120
-0.18866 -0.06775 -0.19555
-0.19991 -0.06775 -0.28659
-0.01503 -0.06775 0.31910
-0.19396 -0.06775 -0.30113
-0.07860 -0.06775 0.11059
-0.09713 -0.06775 0.03526
-0.18355 -0.06775 0.12533
0.10543 -0.06775 0.41011
-0.17524 -0.06775 0.28214
-0.18837 -0.06775 0.24121
-0.07065 -0.06775 -0.08823
-0.16987 -0.06775 0.20975
-0.17421 -0.06775 0.17058
0.15539 -0.06775 0.31785
-0.15186 -0.06775 -0.01584
-0.13628 -0.06775 0.08888
0.07123 -0.06775 0.14740
-0.17652 -0.06775 0.19979
-0.16901 -0.06775 -0.28669
-0.07691 -0.06775 0.15052
0.20653 -0.06441 -0.31488
0.20653 -0.05006 -0.30951
0.20653 -0.04705 -0.31903
-0.20652 -0.07173 0.15691
-0.20652 -0.06836 -0.15471
0.19928 -0.00157 0.38295
-0.08695 0.11703 0.37808
-0.04168 0.11703 -0.07049
0.03527 0.11703 0.42330
0.03795 0.11703 0.36906
-0.17626 0.11703 0.37298
-0.15786 0.11703 0.13679
0.01754 0.11703 0.03964
0.06951 0.11703 0.31904
-0.00605 0.11703 0.10802
0.02483 0.11703 0.32415
-0.16354 0.11703 0.01094
0.10824 0.11703 0.42216
0.08327 0.11703 0.21034
0.04370 0.11703 0.15147
-0.12596 0.11703 0.19114
-0.19541 0.11703 -0.03893
-0.17389 0.11703 0.28113
-0.16670 0.11703 0.09399
-0.18657 0.11703 -0.06453
-0.14538 0.11703 -0.28899
-0.00425 0.11703 0.24695
-0.10030 0.11703 0.30305
-0.07521 0.11703 0.39424
-0.18761 0.11703 0.10007
-0.16578 0.11703 0.41010
0.00147 0.11703 0.04386
0.02704 0.11703 0.35179
-0.00447 0.11703 0.08330
-0.19515 0.11703 -0.38824
-0.07389 0.11703 0.40566
-0.04455 0.11703 0.38605
-0.07042 0.11703 0.39319
0.17453 0.11703 0.40683
0.02462 0.11703 0.11494
-0.11682 0.11703 0.26644
0.02471 0.11703 0.37563
0.08907 0.11703 0.38298
-0.12474 0.11703 -0.07743
-0.02063 0.11703 0.22168
-0.19518 0.11703 -0.11034
-0.19359 0.11703 0.41685
0.19385 0.11703 0.42037
0.03585 0.11703 0.17838
-0.07622 0.11703 -0.08813
-0.13325 0.11703 -0.20708
-0.12565 0.11703 -0.21439
0.10034 0.11703 0.30439
-0.15738 0.11703 -0.26142
-0.02481 0.11703 0.30677
0.00580 0.11703 0.09791
-0.18086 0.11703 0.34187
0.05870 0.11703 0.30229
0.04766 0.11703 0.16408
-0.13543 0.11703 -0.25065
0.03506 0.11703 0.28763
-0.14590 0.11703 0.16380
-0.02734 0.11703 0.13345
0.03138 0.11703 0.41572
-0.04636 0.11703 -0.05803
-0.06358 0.11703 0.08540
-0.16073 0.11703 0.21297
0.07868 0.11703 0.18132
-0.03948 0.11703 0.41889
-0.14812 0.11703 -0.12283
-0.17427 0.11703 -0.02815
0.06095 0.11703 0.34379
-0.00868 0.11703 0.24004
-0.00214 0.11703 0.02022
-0.14486 0.11703 0.25489
-0.16026 0.11703 -0.25563
-0.13284 0.11703 -0.18037
-0.11898 0.11703 -0.23270
-0.15322 0.11703 0.03484
-0.18712 0.11703 0.36372
-0.06967 0.11703 -0.05505
0.20653 -0.08771 -0.39966
0.20408 -0.11367 0.02519
0.20653 -0.07987 -0.08313
0.20653 -0.08060 -0.33546
0.20653 -0.07812 0.00821
-0.19601 0.10036 -0.41121
-0.08215 0.00002 0.28624
-0.14568 -0.01584 0.28624
0.11956 -0.00072 0.28624
-0.07497 -0.01034 0.28624
0.09147 0.01195 0.28624
0.13555 0.00702 0.28624
-0.10733 -0.03821 0.28624
0.13057 -0.08080 0.14679
0.15410 -0.08080 -0.35572
-0.09937 -0.08080 -0.33642
0.16728 -0.08080 -0.31472
0.00062 -0.08080 -0.35620
0.20076 -0.08080 -0.25127
0.07067 -0.08080 -0.40480
0.11169 -0.08080 0.21855
0.19252 -0.08080 -0.31163
-0.13595 -0.08080 -0.33332
0.13327 -0.08080 0.09543
0.01587 -0.08080 -0.14265
0.02537 -0.08080 -0.17783
0.18022 -0.08080 -0.04668
0.18206 -0.08080 0.18140
0.07652 -0.08080 0.04638
-0.00913 -0.08080 -0.36661
-0.04602 -0.08080 -0.10188
0.05212 -0.08080 0.07901
0.00153 -0.08080 -0.03265
0.12808 -0.08080 0.07058
-0.07088 -0.08080 -0.39971
0.07380 -0.08080 -0.04379
0.01044 -0.08080 -0.01380
-0.09904 -0.08080 -0.26212
0.05751 -0.08080 -0.13011
0.18998 -0.08080 -0.40614
0.06723 -0.08080 -0.13514
0.10164 -0.08080 -0.15884
0.12465 -0.08080 -0.09762
0.06328 -0.08080 -0.26934
0.14294 -0.08080 -0.22915
0.13268 -0.08080 -0.20238
-0.09964 -0.08080 -0.30216
-0.14813 -0.08080 -0.31852
-0.08736 -0.08080 -0.36152
0.20258 -0.08080 -0.14291
-0.00903 -0.08080 -0.02169
0.06764 -0.08080 -0.30212
0.10298 -0.08080 -0.00261
-0.01320 -0.08080 -0.07760
-0.02871 -0.08080 -0.09418
0.01544 -0.08080 -0.07610
0.19284 -0.08080 0.16948
-0.15582 -0.08080 -0.37197
0.08110 -0.08080 0.07898
0.17535 -0.08080 -0.33619
0.17124 -0.08080 -0.14582
-0.02096 -0.08080 -0.20435
0.00131 -0.08080 -0.28328
-0.01895 -0.08080 -0.39285
0.18444 -0.08080 0.06701
0.15523 -0.08080 -0.37905
-0.13387 -0.08080 -0.40202
0.11317 -0.08080 -0.00111
0.14138 -0.08080 -0.02613
-0.00334 -0.08080 -0.34346
0.11718 -0.08080 0.13839
0.18211 -0.08080 -0.14898
0.17060 -0.08080 -0.37257
0.18929 -0.08080 -0.26247
-0.03489 -0.08080 -0.24093
0.00770 -0.08080 -0.08199
0.19704 -0.08080 -0.26026
0.01687 -0.08080 -0.16089
0.12487 -0.08080 -0.10855
0.18091 -0.08080 0.29590
0.07048 -0.08080 0.06378
0.04366 -0.08080 -0.15459
-0.19191 -0.08080 -0.39653
0.10885 -0.08080 -0.13406
0.05959 -0.08080 -0.17302
0.13510 -0.08080 0.24912
-0.21104 0.11220 -0.41206
-0.13416 -0.10217 0.42392
-0.07188 -0.07371 0.42392
-0.07860 -0.07366 0.42392
0.13162 -0.00529 0.42392
0.02910 -0.10116 0.42392
0.09922 -0.04875 0.42392
-0.01421 -0.07381 0.42392
-0.07848 -0.09876 0.42392
-0.03755 -0.06942 0.42392
0.14672 -0.00500 0.42392
0.01876 -0.10903 0.42392
0.18074 -0.04522 0.42392
0.05790 -0.08950 0.42392
0.15818 0.03627 0.42392
0.20508 -0.04850 0.42392
0.17066 -0.00953 0.42392
0.03987 0.01099 0.42392
0.13227 -0.01428 0.42392
0.05174 -0.10828 0.42392
0.01974 -0.04624 0.42392
0.17082 0.10036 -0.41427
0.20653 -0.04500 0.40338
0.12163 0.01457 -0.28034
-0.05530 0.02761 0.14141
0.04504 0.02761 0.36324
-0.15674 0.02761 0.15050
-0.14314 0.02761 0.35270
0.08535 0.02761 0.19153
0.05435 0.02761 0.32207
-0.02811 0.02761 0.33905
-0.18382 0.02761 -0.00773
-0.16051 0.02761 0.30515
-0.06028 0.02761 0.22845
-0.08951 0.02761 0.08263
0.03222 0.02761 0.31705
0.06072 0.02761 0.18420
-0.17365 0.02761 -0.26722
-0.14459 0.02761 -0.26060
-0.17066 0.02761 0.23393
0.02896 0.02761 0.12850
-0.10448 0.02761 -0.17576
-0.09027 0.02761 -0.11499
0.03894 0.02761 0.30784
-0.17060 0.02761 -0.05217
-0.04976 0.02761 0.35599
0.04883 0.02761 0.11917
0.01933 0.02761 0.25062
-0.18217 0.02761 0.12425
-0.13191 0.02761 -0.17567
0.00087 0.02761 0.21202
-0.17891 0.02761 -0.18318
-0.03047 0.02761 -0.01609
-0.17295 0.02761 0.06668
-0.17869 0.02761 0.07292
-0.11664 0.02761 0.24824
-0.18270 0.02761 -0.26383
-0.18281 0.02761 -0.05428
-0.17277 0.02761 0.04856
-0.18667 0.02761 -0.27983
0.01383 0.02761 0.14190
0.08054 0.02761 0.37315
-0.14754 0.02761 -0.04886
0.02742 0.02761 0.37451
0.04473 0.02761 0.09265
-0.15704 0.02761 -0.14424
-0.20283 0.02761 0.34175
-0.09464 0.02761 0.13129
-0.18652 0.02761 -0.32999
-0.05929 0.02761 0.29815
-0.04167 0.02761 0.23483
-0.15443 0.02761 -0.11458
-0.12625 0.02761 0.07059
0.05839 0.02761 0.38193
-0.15009 0.02761 -0.29338
-0.14981 0.02761 -0.14770
-0.12073 0.02761 0.29892
-0.19115 0.02761 -0.14979
-0.10425 0.02761 -0.07875
0.01181 0.02761 0.10847
-0.16687 0.02761 -0.23513
-0.16818 0.02761 0.13226
-0.20149 0.02761 -0.29528
-0.18838 0.02761 0.08739
0.06450 0.02761 0.35060
0.04905 0.02761 0.22031
-0.15003 0.02761 0.27614
-0.05153 0.02761 0.04319
-0.16343 0.02761 0.37110
-0.03954 0.02761 0.34447
-0.11825 0.02761 0.01405
-0.16998 0.02761 0.03144
-0.03434 0.02761 -0.00306
-0.09960 0.02761 -0.01822
0.03013 0.02761 0.33199
0.02585 0.02761 0.17636
-0.16541 0.02761 -0.04664
0.05969 0.02761 0.24717
-0.20652 -0.08812 -0.15536
-0.17530 -0.11703 -0.41442
-0.20602 -0.03076 0.30605
-0.20489 0.01464 0.38436
0.02956 -0.07189 0.41088
0.01203 -0.04662 0.27899
-0.01794 -0.04935 0.27899
0.14344 -0.05339 0.27899
0.14529 -0.00012 0.27899
0.18957 -0.05794 0.27899
0.03001 -0.03033 0.27899
0.00688 -0.04533 0.27899
-0.11286 -0.05206 0.27899
0.20955 0.10036 0.36686
0.21428 0.10036 -0.10618
0.06676 0.10354 -0.43441
-0.20886 0.11633 -0.29441
-0.01468 -0.06775 -0.27136
0.20653 -0.03122 0.31524
-0.18378 0.11294 -0.42719
0.21616 0.10613 -0.23813
-0.20652 0.01544 0.32388
-0.20652 0.01970 -0.19412
-0.20602 0.01117 0.29118
-0.19348 -0.08683 -0.26503
-0.19795 -0.07571 -0.41088
0.02545 -0.06631 0.28098
-0.00220 0.10036 0.21621
-0.16206 0.10036 0.42741
0.20703 0.10036 -0.07488
-0.01212 0.10036 0.39178
0.13284 0.10036 0.21347
0.17416 0.10036 0.33223
-0.03623 0.10036 0.37393
0.07532 0.10036 0.06110
0.10547 0.10036 0.36705
0.06443 0.10036 0.38646
-0.07617 0.10036 0.39878
0.18426 0.10036 0.41781
-0.02265 0.10036 0.15228
0.14502 0.10036 0.13379
-0.03892 0.10036 0.26071
0.16337 0.10036 0.41055
0.18652 0.10036 -0.02280
0.17282 0.10036 -0.02091
0.17560 0.10036 0.17080
0.18616 0.10036 0.31749
0.01460 0.10036 0.35220
0.05060 0.10036 -0.07984
0.16122 0.10036 0.25556
0.02205 0.10036 0.00898
-0.03065 0.10036 0.31762
0.16254 0.10036 0.14852
0.18052 0.10036 0.31877
-0.06959 0.10036 0.18589
0.04214 0.10036 0.19042
0.18313 0.10036 -0.36348
0.05622 0.10036 -0.09675
0.11026 0.10036 -0.11772
0.04387 0.10036 0.09746
-0.09701 0.10036 0.38299
0.03659 0.10036 0.14922
0.07709 0.10036 0.11493
0.08692 0.10036 0.41549
-0.03168 0.10036 0.35294
-0.03726 0.10036 0.36318
0.18625 0.10036 0.08298
0.18728 0.10036 -0.09990
0.17025 0.10036 -0.29828
0.12603 0.10036 0.05236
-0.09711 0.10036 0.34175
0.09509 0.10036 -0.04532
0.09837 0.10036 0.21075
0.16046 0.10036 0.11639
0.09974 0.10036 0.19528
-0.07526 0.10036 0.26741
0.12201 0.10036 -0.14311
0.10338 0.10036 0.22761
0.11059 0.10036 0.02019
0.08966 0.10036 0.38262
-0.02664 0.10036 0.27195
0.03937 0.10036 0.03557
0.11204 0.10036 0.14921
0.02752 0.10036 0.00433
-0.16305 0.10036 0.40863
0.10577 0.10036 0.10606
-0.15920 0.10036 0.33538
-0.13471 0.10036 0.32193
-0.04478 0.10036 0.21279
-0.15150 0.10036 0.33683
0.03243 0.10036 0.22358
0.09310 0.10036 0.18216
0.07368 0.10036 -0.00532
0.14490 0.10036 0.09805
-0.04819 0.10036 0.32916
0.06301 0.10036 -0.07072
-0.03679 0.10036 0.32738
-0.02165 0.10036 0.26900
0.13831 0.10036 0.28099
0.11388 0.10036 -0.18272
0.14655 0.10036 0.41247
-0.07959 0.10036 0.38424
0.19643 0.10036 0.02076
-0.04125 0.10036 0.42839
0.19348 -0.08598 -0.23516
-0.19698 -0.08080 0.06649
-0.20061 -0.08080 -0.16709
-0.20442 -0.08080 -0.35242
0.20653 0.01595 0.02009
0.20653 0.01584 0.19691
0.06313 -0.06240 -0.28732
-0.11382 -0.00206 -0.28732
-0.12753 -0.04057 -0.28732
0.01176 -0.04209 -0.28732
-0.08019 -0.03202 -0.28732
-0.12406 -0.02235 -0.28732
-0.06511 -0.03372 -0.28732
-0.05512 -0.06775 -0.26890
0.08763 0.01940 -0.41088
0.09095 0.02371 -0.41088
0.20653 -0.00217 -0.39770
0.19928 -0.06588 -0.40297
0.09075 0.01457 0.07246
-0.10639 0.01457 -0.26158
-0.05829 0.01457 -0.35676
0.12376 0.01457 -0.18189
0.11136 0.01457 -0.12946
-0.02832 0.01457 -0.12869
-0.06475 0.01457 -0.13811
0.12756 0.01457 0.02463
0.06804 0.01457 0.02905
0.17999 0.01457 0.23901
0.04136 0.01457 0.05562
0.09325 0.01457 -0.12671
-0.06988 0.01457 -0.35820
0.20487 0.01457 -0.09794
0.01561 0.01457 -0.18513
-0.02235 0.01457 -0.30091
0.14985 0.01457 0.23433
0.13973 0.01457 0.09847
0.12221 0.01457 0.21712
-0.02106 0.01457 -0.12822
0.07166 0.01457 0.07145
0.19254 0.01457 -0.25793
0.13012 0.01457 -0.05614
0.06885 0.01457 0.00088
-0.11286 0.01457 -0.24860
0.01851 0.01457 -0.24560
0.20533 0.01457 -0.29005
0.12537 0.01457 -0.36404
0.17575 0.01457 -0.04407
-0.00734 0.01457 -0.37343
0.13445 0.01457 0.09480
0.15384 0.01457 0.14042
0.11557 0.01457 -0.07288
0.02652 0.01457 -0.12490
0.11017 0.01457 -0.38758
-0.04761 0.01457 -0.36544
0.12748 0.01457 -0.24334
0.04717 0.01457 -0.14264
0.08584 0.01457 0.09701
0.16762 0.01457 0.30787
0.11677 0.01457 0.12193
-0.16817 0.01457 -0.39199
-0.10972 0.01457 -0.39663
0.14101 0.01457 0.20285
0.18176 0.01457 -0.00399
0.00093 0.01457 -0.25683
0.02190 0.01457 -0.00295
0.18848 0.01457 0.24399
0.05996 0.01457 0.04659
0.15184 0.01457 0.11134
0.14866 0.01457 0.08978
0.11491 0.01457 0.11648
0.19214 0.01457 -0.10193
0.19545 0.01457 0.36706
0.18076 0.01457 0.25569
0.19570 0.01457 0.18309
-0.03226 0.01457 -0.16788
0.12354 0.01457 -0.25362
0.07812 0.01457 -0.12197
0.11033 0.01457 -0.36255
0.20565 0.01457 0.05410
-0.03870 0.01457 -0.10213
0.03727 0.01457 -0.08108
0.18474 0.01457 0.15020
-0.06566 0.01457 -0.29622
0.16367 0.01457 -0.25346
0.01255 0.01457 -0.21360
0.20281 0.01457 0.02405
0.11558 0.01457 -0.26247
0.13152 0.01457 -0.14404
0.01734 0.01457 -0.34398
0.19924 0.01457 -0.15665
-0.11568 0.01457 -0.40932
-0.20076 -0.10164 0.41088
-0.09811 -0.02592 -0.42392
0.11661 -0.10799 -0.42392
0.13537 -0.09829 -0.42392
-0.09302 -0.08355 -0.42392
-0.19070 0.07363 -0.42392
-0.11299 0.04628 -0.42392
-0.00174 -0.00916 -0.42392
0.09719 -0.10935 -0.42392
0.05612 -0.05025 -0.42392
0.03719 -0.10701 -0.42392
-0.17278 0.01380 -0.42392
0.12812 -0.10257 -0.42392
-0.07427 -0.00609 -0.42392
-0.17702 -0.09254 -0.42392
-0.09850 -0.05362 -0.42392
-0.09660 -0.03288 -0.42392
0.13822 -0.11635 -0.42392
0.14544 -0.08807 -0.42392
-0.20195 -0.05744 -0.42392
-0.01069 -0.08880 -0.42392
0.15762 -0.08024 0.41088
-0.19877 -0.02832 0.36079
-0.19877 -0.03299 0.35881
-0.14680 -0.06775 -0.40548
0.11266 -0.06775 -0.31951
-0.02436 -0.06775 -0.26738
0.19721 -0.06775 -0.29404
-0.03815 -0.06775 -0.34604
0.08184 -0.06775 0.07914
-0.01264 -0.06775 -0.04978
0.20563 -0.06775 0.17555
0.04317 -0.06775 0.06150
-0.08074 -0.06775 -0.33172
-0.06299 -0.06775 -0.26441
0.05450 -0.06775 -0.32275
0.05493 -0.06775 -0.37337
-0.07060 -0.06775 -0.27761
0.15376 -0.06775 0.00868
0.06778 -0.06775 -0.27967
0.16473 -0.06775 0.09058
-0.05540 -0.06775 -0.14377
-0.04394 -0.06775 -0.27784
-0.14030 -0.06775 -0.33516
-0.12041 -0.06775 -0.27217
0.10697 -0.06775 -0.11125
0.03388 -0.06775 -0.33941
0.10431 -0.06775 0.14275
-0.12745 -0.06775 -0.29183
0.10877 -0.06775 -0.04961
-0.12246 -0.06775 -0.32741
0.01874 -0.06775 -0.36208
0.09902 -0.06775 0.00824
-0.08413 -0.06775 -0.24393
0.11078 -0.06775 -0.00163
0.08672 -0.06775 -0.12770
0.14506 -0.06775 0.25159
0.19955 -0.06775 0.30244
0.16986 -0.06775 0.17446
-0.05064 -0.06775 -0.29303
0.01801 -0.06775 -0.14696
0.18033 -0.06775 -0.31526
0.00923 -0.06775 -0.09704
-0.08199 -0.06775 -0.35532
0.07534 -0.06775 0.10344
-0.04304 -0.06775 -0.33094
0.03654 -0.06775 -0.20011
0.08671 -0.06775 -0.03413
0.01709 -0.06775 0.02842
0.13219 -0.06775 0.13239
0.20255 -0.06775 0.29851
0.10477 -0.06775 0.04548
0.18646 -0.06775 -0.34665
0.17255 -0.06775 0.09724
0.19859 -0.06775 -0.09915
0.11361 -0.06775 0.05727
0.17869 -0.06775 -0.33160
0.14863 -0.06775 -0.35360
0.02746 -0.06775 -0.11755
0.12902 -0.06775 -0.06328
-0.01639 -0.06775 -0.10864
-0.06797 -0.06775 -0.40877
0.05946 -0.06775 -0.23449
0.11051 -0.06775 -0.31024
-0.09780 -0.06775 -0.25564
0.12740 -0.06775 0.18011
-0.00559 -0.06775 -0.36038
0.15526 -0.06775 -0.13017
0.03538 -0.06775 0.01955
0.10359 -0.06775 -0.16663
-0.04851 -0.06775 -0.18543
0.04451 -0.06775 -0.40936
0.20653 -0.07061 0.26341
-0.11193 0.01457 0.27897
0.20886 0.11567 -0.23730
-0.20652 -0.10079 0.27091
0.05353 -0.11703 0.41534
0.01780 0.01457 -0.27181
-0.21519 0.10795 0.02921
-0.20131 -0.06631 -0.34997
0.15706 0.01721 -0.42392
0.19481 0.00820 -0.42392
0.15204 -0.02114 -0.42392
-0.03052 0.01515 -0.42392
0.11741 0.00067 -0.42392
0.11232 -0.02713 -0.42392
0.06406 0.00473 -0.42392
0.02698 -0.02070 -0.42392
0.19318 0.06143 -0.42392
0.05448 0.02860 -0.42392
0.19255 0.04146 -0.42392
0.11521 0.06233 -0.42392
0.13824 -0.07765 -0.42392
-0.01053 0.09907 -0.42392
-0.06569 0.05564 -0.42392
0.03026 0.07641 -0.42392
0.15340 -0.07066 -0.42392
0.17225 0.08292 -0.42392
0.19651 -0.08080 0.37870
0.19542 -0.08080 -0.09814
0.19711 -0.10828 0.00939
-0.10988 -0.11703 -0.42245
-0.19874 -0.11703 -0.39566
-0.17627 -0.08080 -0.12784
-0.19544 -0.08080 -0.37768
-0.18385 -0.08080 0.39624
-0.16277 -0.08080 0.27170
0.11899 -0.08080 0.27272
-0.15121 -0.08080 -0.07884
0.00379 -0.08080 0.33538
-0.15995 -0.08080 0.03447
-0.19007 -0.08080 -0.02903
-0.15888 -0.08080 -0.22963
-0.14565 -0.08080 -0.15079
-0.13872 -0.08080 0.14200
0.08819 -0.08080 0.26003
-0.20418 -0.08080 0.15638
-0.16112 -0.08080 -0.08706
-0.03602 -0.08080 0.08815
-0.05352 -0.08080 0.30298
-0.09253 -0.08080 0.21224
0.16903 -0.08080 0.36842
0.09904 -0.08080 0.22084
-0.06907 -0.08080 0.40404
-0.14132 -0.08080 -0.20864
-0.02143 -0.08080 0.10444
-0.20206 -0.08080 -0.09317
-0.14099 -0.08080 0.23893
-0.17052 -0.08080 0.13545
-0.06439 -0.08080 0.22605
-0.01461 -0.08080 0.16906
-0.08854 -0.08080 0.26592
-0.12330 -0.08080 -0.10182
-0.19541 -0.08080 -0.33316
-0.00803 -0.08080 0.38931
-0.12874 -0.08080 0.40864
0.00055 -0.08080 0.09444
-0.14885 -0.08080 0.39806
-0.09352 -0.08080 -0.16741
-0.07949 -0.08080 0.01545
0.11708 -0.08080 0.34115
-0.13176 -0.08080 0.27105
-0.16582 -0.08080 -0.10945
0.03335 -0.08080 0.24530
-0.12117 -0.08080 0.11024
-0.16287 -0.08080 0.25368
-0.17077 -0.08080 -0.07311
0.07320 -0.08080 0.29111
-0.02715 -0.08080 0.04045
-0.04998 -0.08080 0.23848
-0.17379 -0.08080 -0.18628
-0.15140 -0.08080 0.36549
-0.14093 -0.08080 -0.16384
-0.06248 -0.08080 0.07228
-0.16563 -0.08080 -0.27037
-0.18155 -0.08080 -0.09425
0.08564 -0.08080 0.40140
0.06393 -0.08080 0.34480
-0.04386 -0.08080 -0.07865
-0.14081 -0.08080 -0.12119
-0.08186 -0.08080 0.23648
0.00208 -0.08080 0.21544
-0.19213 -0.08080 0.30057
-0.16468 -0.08080 -0.24824
-0.20206 -0.08080 0.00836
-0.10122 -0.08080 -0.08380
-0.15024 -0.08080 -0.16606
0.05583 -0.08080 0.32087
0.01016 -0.08080 0.25374
-0.12089 -0.08080 0.32585
0.14182 -0.08080 0.38808
-0.13150 -0.08080 -0.19460
-0.02683 -0.08080 0.33740
-0.10545 -0.08080 0.30355
-0.20652 -0.09111 -0.38222
0.14361 -0.08177 0.42392
0.08027 0.03194 0.42392
0.07153 -0.06046 0.42392
0.05984 -0.09756 0.42392
0.16658 0.05799 0.42392
-0.11986 -0.08788 0.42392
0.05439 -0.05771 0.42392
-0.08349 -0.06791 0.42392
0.19572 0.01730 0.42392
-0.00546 -0.08118 0.42392
-0.04235 -0.09847 0.42392
-0.07662 -0.05364 0.42392
0.10775 0.00943 0.42392
0.18535 0.02311 0.42392
0.09550 -0.04392 0.42392
-0.11889 -0.11450 0.42392
-0.01286 -0.08114 0.42392
0.13398 -0.03493 0.42392
0.17943 -0.11388 0.42392
0.20653 0.02305 -0.16624
0.20653 0.02578 -0.37300
0.20653 0.01515 -0.39506
-0.18833 -0.05158 -0.40363
0.14531 0.00726 -0.40363
0.03434 0.01036 -0.40363
-0.10105 -0.02562 -0.40363
0.09864 0.00269 -0.40363
0.09377 0.00508 -0.40363
0.11626 0.10545 0.43384
-0.10549 -0.06843 -0.41088
0.20653 -0.09837 -0.32702
0.20385 -0.08080 -0.21794
0.20320 -0.08080 0.07037
0.19547 -0.08080 -0.38806
0.00274 -0.01442 -0.26595
0.08088 -0.00263 -0.26595
-0.19062 -0.03912 -0.26595
-0.06440 0.00743 -0.26595
-0.02546 0.01256 -0.26595
0.07678 -0.00711 -0.26595
-0.05143 -0.00349 -0.26595
0.16510 0.01319 -0.26595
0.20242 -0.11703 -0.21575
-0.20602 -0.03174 0.36669
-0.20602 -0.03464 0.34984
0.15464 0.01457 -0.28347
0.13414 -0.06613 0.40254
-0.06591 -0.04940 0.27899
-0.07776 -0.04370 0.27899
0.14282 -0.04695 0.27899
0.02977 -0.04450 0.27899
0.13751 -0.01771 0.27899
0.13259 -0.04195 0.27899
0.00769 -0.05312 0.27899
-0.00706 0.10041 0.43479
0.19348 -0.09330 0.02505
-0.06981 0.06190 0.41088
0.00069 0.05924 0.41088
-0.11845 0.06709 0.41088
0.19904 0.03130 0.41088
0.15597 0.05334 0.41088
0.20630 -0.07977 0.41088
0.15873 0.08500 0.41088
0.12281 0.09251 0.41088
-0.13187 0.07415 0.41088
0.20095 -0.04435 0.41088
0.20522 0.07187 0.41088
0.10906 0.06138 0.41088
0.12777 -0.05999 0.41088
0.15083 -0.02239 0.41088
-0.04383 0.07184 0.41088
0.16129 0.02693 0.41088
0.17215 0.06641 0.41088
-0.04608 0.07793 0.41088
0.19348 -0.10393 -0.14597
0.19928 -0.05337 -0.28862
0.19789 -0.06631 -0.41081
-0.19877 -0.03673 -0.37922
-0.12483 -0.02324 -0.27899
-0.03751 -0.03132 -0.27899
-0.15307 -0.03514 -0.27899
0.13947 -0.05861 -0.27899
-0.20119 -0.02684 -0.27899
0.08537 0.02761 0.15455
0.05916 0.02761 -0.38919
0.09608 0.02761 -0.31910
0.18400 0.02761 -0.20783
-0.07386 0.02761 -0.38310
0.12059 0.02761 0.18018
0.06821 0.02761 0.05155
0.01190 0.02761 -0.17411
0.12273 0.02761 0.14400
0.10430 0.02761 -0.04496
0.14545 0.02761 -0.16881
0.14937 0.02761 -0.22573
-0.01243 0.02761 -0.11381
0.04300 0.02761 -0.29312
0.05689 0.02761 -0.02225
0.06072 0.02761 -0.13923
0.05261 0.02761 -0.32377
-0.00616 0.02761 -0.19368
0.17556 0.02761 0.15101
0.17201 0.02761 0.22448
0.10564 0.02761 -0.25976
0.06679 0.02761 -0.21528
0.17869 0.02761 -0.31809
0.13329 0.02761 0.24994
-0.07456 0.02761 -0.36032
0.08005 0.02761 -0.18425
0.00050 0.02761 -0.07393
-0.08854 0.02761 -0.18927
-0.12913 0.02761 -0.27381
0.01603 0.02761 -0.39619
-0.02089 0.02761 -0.25323
0.20563 0.02761 0.00576
0.12155 0.02761 -0.20805
0.13084 0.02761 0.22319
-0.06272 0.02761 -0.25069
0.02160 0.02761 -0.16634
0.20594 0.02761 0.26915
-0.02726 0.02761 -0.38241
0.16438 0.02761 -0.33236
0.04512 0.02761 -0.34013
0.03068 0.02761 -0.09035
0.17125 0.02761 0.32138
-0.15454 0.02761 -0.39285
0.08191 0.02761 -0.14342
0.04793 0.02761 -0.12826
0.16734 0.02761 -0.23505
0.00411 0.02761 -0.11278
-0.02652 0.02761 -0.09128
0.10844 0.02761 -0.08619
0.03660 0.02761 0.03927
-0.01659 0.02761 -0.25689
0.18809 0.02761 0.08790
-0.11678 0.02761 -0.40368
0.15735 0.02761 -0.26422
0.12917 0.02761 0.11363
-0.04417 0.02761 -0.33637
0.17299 0.02761 -0.09195
0.14691 0.02761 -0.39801
0.11422 0.02761 -0.18061
0.18820 0.02761 -0.12766
0.17669 0.02761 0.07307
-0.06776 0.02761 -0.31464
0.05854 0.02761 0.11071
0.12248 0.02761 -0.09800
0.06324 0.02761 0.03949
0.14221 0.02761 -0.17426
0.13501 0.02761 -0.05186
-0.13446 0.02761 -0.27591
0.20027 0.02761 -0.14186
-0.00180 0.02761 -0.24029
0.00491 0.02761 -0.25734
0.17909 0.02761 0.27361
-0.20602 0.00154 0.38919
-0.20652 -0.10252 -0.04534
0.17134 -0.01414 0.41088
0.12743 -0.07139 0.41088
0.04225 0.05177 0.41088
0.07933 0.06112 0.41088
0.10230 0.09120 0.41088
0.07996 0.03066 0.41088
0.17861 0.03973 0.41088
0.15050 0.04563 0.41088
-0.02609 0.09013 0.41088
0.07931 -0.01435 0.41088
0.14005 0.08138 0.41088
0.06721 0.06230 0.41088
0.09554 -0.01085 0.41088
0.15222 -0.08626 0.41088
0.12611 0.08342 0.41088
0.16071 0.04640 0.41088
-0.06598 0.04552 0.41088
-0.13476 0.08659 0.41088
0.11292 0.03116 0.41088
0.16686 -0.00502 -0.27899
0.17656 -0.01746 -0.27899
-0.00412 0.01341 -0.27899
0.13647 -0.04898 -0.27899
-0.17702 0.01435 -0.27899
-0.03747 -0.00448 -0.27899
0.19962 -0.00068 -0.27899
0.20653 0.00711 -0.40139
0.20588 -0.02912 0.28624
-0.19877 -0.02669 -0.33136
-0.19877 -0.05335 -0.29357
0.19348 -0.10377 0.35841
-0.19877 -0.03666 0.32530
0.20653 -0.02941 -0.26856
-0.15201 0.10036 0.29656
-0.19824 0.10036 -0.40471
-0.04018 0.10036 0.05827
-0.18914 0.10036 -0.11618
-0.17461 0.10036 0.31614
0.00026 0.10036 -0.30875
-0.09707 0.10036 -0.14852
0.08332 0.10036 -0.16719
-0.08984 0.10036 0.04960
-0.12752 0.10036 -0.23902
0.02304 0.10036 -0.08562
-0.18163 0.10036 -0.24894
-0.12309 0.10036 -0.03618
-0.07096 0.10036 -0.15157
0.13239 0.10036 -0.33037
-0.08045 0.10036 -0.34840
-0.11598 0.10036 -0.32870
-0.10202 0.10036 -0.34442
-0.04997 0.10036 -0.24769
-0.07218 0.10036 -0.39649
-0.14416 0.10036 -0.17153
-0.20172 0.10036 -0.19079
-0.01145 0.10036 -0.37895
-0.05415 0.10036 0.03379
-0.12722 0.10036 -0.14284
-0.15684 0.10036 0.09258
0.06840 0.10036 -0.42067
-0.00596 0.10036 -0.17997
-0.18073 0.10036 -0.10253
0.00379 0.10036 -0.23604
0.12593 0.10036 -0.32436
-0.10189 0.10036 0.02098
-0.06238 0.10036 0.04034
-0.21362 0.10036 -0.40485
-0.07127 0.10036 -0.06556
-0.07419 0.10036 -0.07029
-0.21597 0.10036 -0.00028
0.05983 0.10036 -0.24947
-0.15152 0.10036 0.11704
0.15281 0.10036 -0.35268
-0.05902 0.10036 -0.04796
-0.14781 0.10036 -0.26015
-0.10139 0.10036 -0.26974
-0.18071 0.10036 -0.26003
-0.17516 0.10036 -0.27990
-0.13841 0.10036 -0.31093
-0.01012 0.10036 -0.32165
0.07076 0.10036 -0.22160
-0.13098 0.10036 -0.27244
-0.09075 0.10036 -0.18458
