-0.29340 0.15443 -0.07812
-0.02502 0.11006 0.00649
0.29143 0.15443 -0.09758
0.12372 0.15443 0.10058
0.11517 0.17796 0.12070
-0.24629 0.15443 -0.21661
-0.14449 0.15443 -0.09206
-0.02982 0.17796 0.10967
0.00616 0.15443 -0.05060
0.17303 0.15443 0.14949
0.27124 0.17796 -0.04679
0.02208 -0.17796 0.01553
-0.28038 0.15443 0.07414
-0.00726 -0.14241 -0.03567
0.27090 0.15443 -0.00647
-0.03948 0.15443 0.30275
-0.17309 0.15443 -0.06603
0.08988 0.17796 -0.06833
-0.09480 0.17796 0.31314
0.03384 -0.17796 -0.13308
0.23310 0.17796 0.11170
-0.04029 -0.14241 0.06225
0.28996 0.17796 -0.02426
0.29300 0.15443 -0.02338
-0.01059 0.17796 0.09238
0.01856 -0.00020 0.01795
-0.06802 0.17796 -0.06917
-0.12594 -0.17053 -0.05220
-0.20755 0.15443 0.22486
-0.07063 -0.14241 -0.07983
0.21182 0.15443 0.02228
0.22506 0.15443 0.14329
0.05404 -0.17796 0.02534
0.00486 0.17796 -0.20206
-0.02798 -0.14241 -0.12989
0.13371 -0.14886 -0.04442
-0.01548 -0.14241 -0.12338
-0.12608 0.15443 0.27569
-0.11037 0.17796 -0.09362
-0.14525 0.15443 -0.08213
0.13456 0.15443 0.14173
-0.13551 0.17796 0.17272
0.15915 0.15443 0.09096
0.24344 0.17796 0.05554
-0.03307 0.17796 -0.02040
0.21834 0.15443 -0.18607
-0.17217 -0.15343 -0.00596
0.00969 -0.14895 0.16845
0.15926 0.17796 0.18110
0.11946 -0.14241 -0.05559
0.25392 0.17796 0.06439
-0.21944 0.15443 -0.02851
-0.05181 0.15443 0.14858
0.15247 0.17796 -0.28706
-0.00783 0.11014 -0.02452
0.31713 0.15443 -0.04725
0.01502 -0.17796 -0.05408
-0.07430 0.15443 0.27691
-0.10278 0.15443 0.17223
0.26563 0.17796 -0.00059
-0.32809 0.17454 -0.01758
-0.02575 -0.07914 0.00093
0.05508 0.17796 0.31668
-0.22766 0.17796 0.16230
0.24981 0.17796 0.02038
0.21460 0.17796 -0.08250
-0.08260 0.17796 -0.00970
0.02360 0.11942 -0.01006
0.21149 0.17796 -0.22348
0.16547 0.17796 0.02138
0.28551 0.15443 -0.01099
-0.06817 -0.15081 -0.10997
0.04477 0.15443 0.21461
-0.25656 0.15443 -0.05605
-0.06556 -0.14241 0.02916
-0.06085 0.17796 -0.31050
-0.17358 0.17796 -0.10625
-0.23056 0.17796 0.18486
0.02282 -0.14971 -0.15531
-0.05418 0.15443 0.25123
-0.00218 0.17796 0.07279
-0.01847 -0.06262 -0.01807
-0.03035 -0.17796 0.10527
0.00514 -0.15360 0.17300
0.05942 0.15443 -0.27610
0.05927 0.17796 -0.00382
0.25475 0.15443 -0.00150
-0.27363 0.15443 -0.13034
0.13623 0.17796 0.16051
-0.28398 0.17796 -0.08556
-0.08870 0.15443 -0.30799
-0.00743 0.15443 -0.18732
-0.00547 -0.15740 0.01064
0.01100 0.06833 0.02321
-0.03088 -0.14241 -0.07369
0.04065 0.15443 -0.17216
0.08509 0.17796 0.30543
0.09865 0.15443 0.30659
0.06903 0.17796 -0.26526
0.10263 0.15443 0.08945
-0.18747 0.17796 0.18004
-0.08120 0.17796 -0.21303
0.03220 0.15443 -0.31829
0.04882 0.15443 -0.25833
0.21668 0.17796 0.21690
0.11562 -0.16730 -0.06252
-0.00317 0.15443 0.24048
-0.11601 0.17796 -0.19559
0.13252 -0.17796 0.01111
0.24913 0.15443 -0.16785
-0.03465 0.15443 -0.05238
-0.09158 0.17796 0.03618
0.22219 0.17796 -0.00310
0.13753 -0.17796 0.01488
-0.06911 -0.14241 -0.10078
0.01752 0.09394 -0.01889
0.06096 0.15443 -0.30083
-0.17245 0.17796 0.14889
0.21307 0.17796 -0.03369
0.00942 0.17796 -0.32731
-0.24169 0.15443 -0.19783
-0.20592 0.17796 0.21909
-0.12299 -0.14241 0.00585
-0.17592 0.17796 0.06923
0.01167 0.15443 -0.25342
0.21230 0.17796 0.06483
0.13262 0.15443 -0.08625
-0.02105 0.15443 0.21537
-0.05234 0.17796 0.22876
0.10182 0.15443 0.07741
0.24486 0.17796 -0.08904
0.09293 0.17796 -0.21724
0.00455 -0.13417 0.02528
-0.00281 -0.14990 0.17532
-0.14196 0.17796 -0.07203
0.09806 0.15443 0.10586
-0.04589 -0.17796 -0.10369
-0.00835 0.15443 0.24968
0.00568 0.02933 0.02513
0.24652 0.17796 -0.07612
0.29567 0.17796 -0.09078
0.30296 0.16405 0.12459
0.00534 -0.14241 0.01838
0.00984 -0.07188 -0.02369
-0.14773 0.17796 -0.14553
0.25097 0.17796 0.16805
0.02013 0.15443 -0.06314
-0.11749 0.17796 0.20023
0.31841 0.17378 -0.08727
0.04451 0.17796 0.10837
0.01433 -0.15234 -0.02134
0.07632 -0.17796 -0.03196
-0.20338 0.15443 -0.01031
0.02344 -0.08889 0.01045
-0.17596 0.17796 -0.16481
0.01615 -0.17796 0.08056
0.13022 0.15443 -0.19735
-0.10415 -0.14241 -0.02561
-0.06225 0.17796 0.16521
0.01322 -0.14997 0.02219
0.27459 0.17796 -0.13033
0.04823 0.17796 0.09226
0.08466 0.15443 0.13425
-0.25537 0.15443 0.10610
-0.18014 0.17796 -0.01752
0.23441 0.15443 0.17300
-0.00107 -0.09952 0.02573
-0.20209 0.17796 -0.06833
-0.05964 0.15443 0.30352
-0.16420 0.17796 -0.18971
0.01443 0.05089 0.02127
-0.00104 -0.16746 -0.17710
-0.00424 -0.17796 0.02740
-0.08041 0.15443 -0.12272
0.11746 -0.14241 0.04268
0.19367 0.15443 -0.07070
-0.19695 0.17796 0.12052
-0.10718 0.15443 0.16491
-0.14592 0.17796 0.08034
0.23038 0.16335 0.23612
-0.04183 0.17621 -0.32489
0.02661 0.17796 0.30105
0.15646 0.15443 -0.21128
-0.05005 -0.17796 0.07985
0.05336 0.17796 0.14339
0.25051 0.17796 0.05215
0.22989 0.17796 -0.21085
0.06079 -0.14241 0.10891
0.17757 0.15443 0.02992
-0.02182 -0.14241 0.07699
0.14073 0.17796 -0.25764
-0.00408 -0.15063 -0.17406
-0.14996 0.17796 0.09589
0.04421 -0.16785 0.13392
0.14408 0.15443 -0.10366
0.26232 0.15443 -0.13009
-0.03025 0.17796 0.06262
0.02525 0.15443 -0.01293
-0.02587 0.04440 -0.00007
-0.10343 0.17796 0.29221
-0.19297 0.15443 -0.10735
-0.31441 0.15443 -0.02758
0.02703 0.17796 0.15602
0.14686 0.17796 0.25158
0.04879 0.15443 -0.04939
0.14350 0.17796 0.25894
-0.10056 0.17796 -0.20915
0.01779 0.17796 0.22670
0.27483 0.17796 0.00716
-0.06009 0.17796 0.11579
0.12418 0.15443 0.16332
0.04312 0.17796 0.09305
0.04890 0.17796 0.14797
-0.23843 0.17796 0.13628
0.23452 0.17796 0.21539
-0.01992 -0.00369 0.01617
-0.17549 0.15443 0.10304
-0.13512 0.17796 -0.15169
-0.19085 0.15443 0.17050
0.29407 0.17796 0.13193
0.11740 0.15443 -0.23133
-0.32253 0.17796 -0.03282
-0.15238 -0.14995 -0.02576
0.28961 0.17796 -0.11204
0.15544 0.15443 -0.09783
0.01327 0.17796 0.14130
-0.28230 0.17796 0.15316
-0.03882 0.17796 -0.03002
-0.13408 0.17796 0.29601
-0.14865 0.15443 0.25905
0.18903 0.17796 -0.05657
0.12708 0.17796 -0.03880
-0.06075 0.17796 -0.08142
0.08497 0.17796 -0.26503
0.05468 -0.16076 0.12346
0.06280 0.15443 -0.19504
-0.03161 -0.17796 -0.01412
-0.03233 -0.17796 -0.12316
-0.05274 -0.17796 -0.06985
0.02121 0.17796 -0.29880
-0.01309 0.17796 -0.01092
-0.11427 0.15443 -0.07591
0.08346 0.17796 -0.31124
-0.29553 0.15443 -0.08225
0.00812 -0.14241 0.14659
-0.01440 -0.17796 0.01455
-0.27050 0.15443 0.15773
0.09334 -0.17796 0.07058
-0.14054 0.17796 0.24596
0.18274 0.17796 -0.21139
0.13887 0.17796 0.22596
-0.02326 -0.10114 0.01088
-0.02447 0.06376 -0.00795
-0.03333 -0.17796 0.09586
0.03476 0.15443 0.05169
0.02531 -0.10560 -0.00433
-0.17354 0.17796 0.04278
-0.21932 0.17796 -0.21555
0.12960 0.17796 0.18417
-0.17289 -0.17736 -0.00524
0.10587 -0.14825 -0.07227
0.00746 -0.15740 0.02150
-0.29442 0.15443 -0.02021
0.24135 0.15443 0.20925
0.30172 0.15443 -0.12463
-0.00881 0.15443 0.04952
-0.23278 0.17796 -0.07862
0.16010 0.17796 -0.12182
0.19537 0.17796 0.17326
0.17031 0.17796 -0.25582
-0.23702 0.17796 -0.09738
-0.08717 -0.16897 -0.09097
-0.29555 0.17796 0.14148
0.20503 0.17796 0.03243
-0.01605 -0.03035 -0.02002
-0.01593 0.17796 0.18183
0.03445 0.15443 0.30409
-0.03549 -0.17796 -0.04662
0.01849 -0.06943 -0.01804
-0.10178 0.17796 -0.08728
-0.24694 0.15443 -0.13554
0.30012 0.15443 0.04251
-0.26752 0.15443 0.14516
0.19992 0.15443 0.04194
0.10926 -0.14241 0.02410
-0.28668 0.15443 0.09896
-0.15887 0.17796 -0.28101
0.20924 0.17796 0.01136
0.16080 0.17796 -0.09343
0.07667 0.15443 0.01538
-0.02528 0.15443 0.26227
-0.14322 0.15443 0.07757
-0.00654 -0.14412 0.02501
0.12006 0.15914 -0.30483
0.01028 0.05148 -0.02351
0.04638 -0.17796 -0.10305
-0.07893 -0.14241 -0.02472
0.00881 0.03547 0.02412
0.12918 0.17796 -0.29372
0.26427 0.17796 0.11272
0.01125 -0.06998 0.02311
0.19891 0.17796 0.22606
0.25421 0.15443 0.08980
0.05060 -0.14241 -0.08035
-0.00740 0.15443 0.02792
-0.02190 -0.11418 -0.01360
-0.03051 -0.14241 -0.03861
0.27498 0.15849 -0.17974
0.07051 -0.14241 -0.01520
-0.12589 0.17796 0.01921
0.11257 0.17796 -0.02423
0.24392 0.15443 -0.02651
0.11245 -0.16922 0.06569
0.22526 0.15443 -0.21059
0.24572 0.17796 -0.04910
0.00530 0.12716 0.02518
0.05691 0.15443 -0.20992
-0.18828 0.17796 0.08251
-0.24355 0.17796 0.14563
-0.19222 0.15443 0.04570
-0.21145 0.17796 -0.15817
0.31617 0.17693 0.09268
0.05619 -0.14241 -0.09815
-0.03234 0.17796 0.27013
-0.08224 -0.14241 -0.07478
-0.18539 0.15443 0.21373
-0.05660 0.15443 0.30903
0.20515 0.17796 0.06480
0.14845 0.15443 0.12392
-0.11507 0.15443 -0.22914
-0.17668 0.17796 0.22782
-0.01236 0.17796 -0.23726
-0.20995 0.15443 0.20095
0.10818 -0.17796 0.05372
0.15599 0.17796 -0.07749
0.24614 0.17796 -0.09410
0.14890 0.17796 0.02510
0.09535 -0.17796 -0.06592
0.02362 0.01078 0.01002
-0.08573 0.17796 0.11863
0.04856 0.17796 -0.13152
-0.17012 0.15443 0.03640
0.22645 0.17796 -0.08958
-0.03293 0.15443 0.19659
0.04850 -0.17642 0.12964
-0.06848 0.15443 -0.17801
-0.06797 0.15443 -0.02653
0.00419 0.08234 -0.02532
-0.05360 0.17796 0.06094
0.00235 -0.17796 -0.07868
0.04862 0.15443 -0.24253
0.06219 0.17796 -0.12641
-0.10931 0.15443 0.30090
-0.26928 0.16617 -0.18717
-0.08987 0.17796 0.10317
0.02364 0.04985 -0.00997
0.00635 -0.17796 -0.07543
0.25506 0.15443 0.14593
-0.04888 0.17796 -0.21476
0.19277 0.15443 0.00833
-0.03568 0.15443 -0.03822
-0.22087 0.15443 -0.06878
0.08392 0.16556 -0.31935
-0.18419 0.17796 -0.13969
-0.15237 0.17796 -0.13364
0.12592 0.15443 -0.09492
-0.00410 -0.14732 -0.02534
-0.03508 -0.17796 0.11203
-0.12406 0.17796 0.09951
-0.07508 -0.17439 -0.10306
-0.01219 -0.14241 -0.02270
-0.04949 0.17796 -0.13390
0.06388 0.15443 -0.31324
0.08621 0.15443 -0.17231
0.23076 0.17796 0.17672
0.05706 0.17796 0.26535
-0.08083 0.17796 0.05052
0.03381 0.15443 -0.16783
0.26804 0.15443 0.10458
-0.27105 0.17796 -0.17018
0.21292 0.15443 -0.02203
0.26681 0.15443 -0.08751
0.27180 0.15443 0.12716
-0.20369 0.17796 0.03625
-0.01702 -0.01334 -0.01928
0.08643 -0.14241 0.07787
0.10833 0.17796 -0.30048
-0.02359 -0.09073 -0.01009
-0.20222 0.17796 0.08689
0.07632 0.15443 0.28316
-0.18898 0.17796 0.10460
0.25290 0.15443 -0.10820
0.08580 0.15443 -0.17813
-0.28855 0.17796 -0.14006
-0.18541 0.15443 0.01754
-0.17453 0.17796 -0.08794
-0.24660 0.17796 -0.10657
0.05507 -0.17796 0.03026
-0.12573 0.15443 0.25785
-0.20726 0.17796 -0.21014
-0.00484 -0.14241 0.13778
-0.14954 0.17796 0.06971
0.07967 0.17796 0.01421
-0.31920 0.15443 -0.07550
-0.32301 0.15443 -0.02632
-0.04756 0.15443 -0.14776
-0.05989 0.15443 -0.23496
0.20654 0.17796 0.07745
0.06134 -0.14241 -0.11276
-0.00633 0.15443 -0.07473
0.06920 0.15443 -0.22224
0.05213 0.17796 0.20691
0.05445 0.15443 -0.19635
0.10144 0.16203 0.31255
0.15747 0.17796 -0.04075
0.00689 0.17796 0.02377
-0.25039 0.17796 -0.07605
-0.11633 0.15443 -0.25539
-0.30230 0.15443 0.01211
0.21716 0.15489 0.24627
0.18909 0.17796 0.08243
-0.31440 0.15443 0.04861
0.16194 0.17796 -0.16662
0.24712 0.15443 -0.05175
0.26244 0.15443 -0.07454
0.20654 0.17796 0.23188
0.10407 0.15443 0.26123
-0.12325 0.17796 -0.24860
-0.02549 -0.14132 -0.00294
-0.22116 0.15443 0.12222
-0.18916 0.17796 -0.15657
-0.10627 -0.17796 0.03577
-0.24323 0.15443 0.01486
-0.13852 0.15443 0.26316
0.24527 0.17796 0.12891
-0.12451 -0.16216 0.05363
0.07990 -0.14241 -0.00599
-0.01749 -0.14241 0.04508
0.01465 -0.17796 -0.03340
-0.27189 0.17796 0.00341
-0.00655 0.08674 -0.02501
-0.02523 0.15443 0.22260
-0.20810 0.17796 0.09891
0.26355 0.15443 -0.03312
-0.10042 0.15443 0.13279
-0.33015 0.17071 0.00189
0.25596 0.15443 0.05453
0.12502 -0.17796 0.04959
0.19281 0.15443 0.02272
-0.02245 0.15443 -0.21405
0.07333 -0.14241 -0.08883
0.05803 0.17796 0.00412
0.04867 0.15443 -0.29281
0.02319 -0.14241 -0.00639
0.20504 0.17796 0.12890
-0.07329 0.17796 0.01485
-0.20487 0.15443 -0.22734
-0.31785 0.15443 0.08835
-0.02526 0.17796 0.20678
0.28299 0.15443 -0.15967
-0.00282 -0.17796 -0.03032
0.25146 0.15443 -0.01747
-0.02158 0.16547 0.32756
-0.32957 0.17779 -0.00627
0.03528 0.15443 0.15388
-0.13034 0.15443 0.06342
-0.10244 0.15443 -0.27624
0.06177 0.15443 -0.13465
-0.29134 0.17796 0.10845
0.10533 0.17796 0.22695
-0.08779 0.15443 0.20628
0.02822 0.15443 0.27398
-0.13828 0.17796 0.01330
-0.10194 0.17796 -0.16581
-0.06269 0.15443 0.00683
0.19818 0.17796 0.04758
0.13881 0.15443 -0.17719
0.09751 -0.14241 0.06642
0.12982 0.15443 0.25771
0.05683 0.15443 0.22893
-0.28172 0.17796 0.11782
0.02434 0.17796 0.04955
-0.17252 0.15443 -0.08371
-0.10538 -0.14241 0.01637
-0.05091 0.15443 -0.21170
0.32969 0.15463 -0.00542
-0.13360 0.15443 0.08363
-0.06804 0.15443 0.23941
0.09075 0.17796 -0.18551
-0.10610 0.17796 0.15155
-0.10866 0.17796 0.12597
-0.02428 0.01122 -0.00841
-0.04678 0.17796 -0.18022
0.27179 0.15443 0.13335
-0.28211 0.16977 0.17045
-0.00637 0.15443 0.30612
-0.22051 0.15443 -0.11447
-0.03679 -0.14241 -0.01402
0.01645 0.17796 0.18891
-0.10948 0.15443 -0.27040
0.23523 0.17796 -0.13654
0.31480 0.15443 -0.04263
0.15545 0.17796 -0.18673
0.29706 0.15443 0.05719
-0.04353 0.17796 0.11008
-0.24532 0.15443 -0.15527
0.02260 -0.17758 -0.15554
0.28055 0.15443 -0.10938
0.03413 -0.14241 -0.02011
-0.10479 0.17796 -0.27003
0.09123 0.17796 -0.17451
-0.00284 0.16862 -0.33003
-0.12069 0.17796 0.28706
-0.05471 0.17796 -0.24952
-0.12700 0.17796 -0.01564
0.15489 0.15443 0.03424
0.27524 0.15443 0.01998
0.14236 0.17522 -0.29560
-0.23306 0.17796 0.06428
0.04771 0.17796 0.16995
-0.01751 0.17796 0.21205
0.08873 -0.14241 -0.01171
0.05008 0.17796 -0.21115
0.09625 0.15443 -0.22103
-0.20578 0.16217 -0.25500
0.28016 0.16361 -0.17299
0.03002 -0.17796 -0.14351
-0.31481 0.17796 -0.04215
-0.12705 0.17796 0.24800
0.02485 0.17796 -0.04567
-0.31970 0.15502 0.08130
-0.19441 0.15443 -0.13518
-0.01040 0.17796 0.14624
-0.17844 0.15443 -0.23389
0.20449 0.15443 0.16984
-0.17207 0.17796 -0.27582
-0.12930 -0.17661 -0.04884
0.30299 0.15443 0.07116
-0.05757 0.17796 0.20229
0.26533 0.17796 -0.12365
-0.26654 0.17796 -0.09404
-0.24857 0.15443 -0.01684
-0.21209 0.15443 0.01606
-0.10442 0.15443 -0.19441
-0.16621 0.15443 0.04366
0.25922 0.15443 0.00828
0.01409 0.17796 -0.26003
0.03816 -0.15069 -0.13998
0.03848 -0.14550 0.13966
-0.04877 0.15443 0.30161
0.10579 0.17796 -0.20458
0.26678 0.15443 0.06442
-0.12990 0.17796 0.29258
0.15792 -0.14241 0.01528
0.08616 0.17796 0.29529
-0.05011 -0.14241 -0.09747
-0.09201 0.17796 0.09591
0.19687 0.17796 -0.16349
-0.19433 0.15443 0.01764
0.17103 0.17796 0.01727
0.01081 0.15443 -0.25963
-0.19939 0.16214 0.25990
0.23707 0.17796 0.04175
-0.00572 -0.15740 -0.01704
-0.03193 0.17796 0.19814
-0.31872 0.17796 -0.07399
-0.04354 0.17796 0.00275
-0.14377 0.15443 -0.27626
0.07925 0.15443 0.24241
0.17670 0.15443 0.00291
-0.01290 -0.17620 -0.16524
-0.02084 0.15443 0.01674
0.03045 0.17796 0.07951
0.01519 0.00261 0.02068
0.17243 0.15443 0.21826
0.02198 0.17796 0.06919
-0.02249 0.17796 0.15602
0.04115 -0.17796 0.00599
0.03002 -0.14241 -0.05331
0.01011 -0.14241 0.11683
-0.32280 0.15443 0.02094
-0.25016 0.17796 -0.08172
-0.22483 0.15443 -0.22385
0.05483 0.17796 0.10639
0.02401 -0.04731 -0.00907
-0.21256 0.15443 -0.07083
-0.15283 0.15443 0.22478
0.15417 0.17796 -0.05396
-0.28607 0.15443 0.00689
0.25224 0.15443 0.07572
-0.02294 -0.05018 -0.01166
0.00799 -0.14241 0.06669
-0.25280 0.15443 0.20527
0.29459 0.15443 0.09452
-0.16559 0.15443 0.07822
0.25139 0.15443 0.10729
0.18031 0.15443 -0.09604
-0.32322 0.15443 -0.01417
-0.10813 0.17796 -0.14771
-0.30600 0.17796 0.06336
-0.19328 0.17796 -0.26419
0.05804 0.15443 -0.22453
0.07214 0.17796 -0.24980
0.01057 0.16998 -0.32901
0.16339 -0.14872 -0.01475
0.25112 0.15443 0.17444
-0.17693 -0.15607 -0.00120
0.06306 -0.14241 -0.06112
-0.07984 0.17796 -0.05328
-0.21520 0.15443 -0.20423
0.02506 -0.00421 0.00616
0.15265 0.17796 -0.14343
-0.31897 0.16933 0.08593
-0.18123 0.17796 0.14892
0.18052 0.17796 0.09644
-0.17236 0.17796 -0.05591
0.01641 0.11931 -0.01974
0.05254 0.15443 -0.02562
0.09480 0.17796 0.26576
0.13034 0.17796 -0.04736
-0.01591 -0.09229 0.02013
-0.03812 -0.17796 -0.06089
0.21342 0.17796 -0.13269
0.00912 0.10699 -0.02399
0.11423 -0.17343 0.06391
0.01159 0.17796 0.11979
-0.12898 0.15443 0.20692
-0.19819 0.15443 -0.24562
-0.06565 0.17796 0.31898
-0.05667 0.15443 0.03730
0.22943 0.15443 0.17605
0.02511 -0.00416 -0.00579
0.05300 0.16181 0.32342
-0.07607 0.17796 0.06812
-0.15351 -0.16620 0.02463
-0.02341 0.11703 0.01052
-0.05994 -0.17796 -0.11366
0.10016 -0.14241 0.03352
-0.11400 0.15443 0.20690
-0.20195 0.15443 -0.04100
-0.16420 0.17796 -0.16176
-0.13555 -0.17796 0.03626
0.01535 0.17796 -0.04158
-0.10469 0.17796 -0.23958
-0.01650 0.17796 -0.28294
-0.22556 0.16150 -0.23982
0.08069 -0.17796 0.04861
-0.13161 0.15443 0.06850
0.23097 0.17796 -0.09785
-0.11883 0.15443 -0.18233
-0.24912 0.15443 0.13080
-0.14891 0.15443 0.26832
0.30091 0.17576 0.12952
0.08528 0.17796 0.03446
0.09723 0.17796 -0.14920
-0.01584 0.08942 0.02018
0.06310 0.15443 0.13024
-0.19535 0.15443 -0.25822
-0.05957 0.15443 0.19910
0.29545 0.16152 -0.14272
0.00018 0.17796 -0.23059
0.05649 0.17796 -0.05539
0.21422 0.15443 -0.02818
-0.07378 -0.17796 0.05656
-0.00627 0.17796 -0.23261
0.22343 0.17796 -0.12030
0.01749 0.15443 0.32771
-0.15344 0.17796 0.15454
0.10442 0.17796 0.00978
-0.06696 0.17796 0.13849
-0.15344 0.15443 0.13132
-0.05373 -0.17796 0.07382
0.12413 0.17750 0.30315
-0.15694 0.15443 0.23020
-0.27013 0.15443 0.16268
-0.00194 0.11363 0.02562
0.11622 -0.15894 0.06192
0.22550 0.17796 -0.17419
0.04944 0.15443 -0.14505
0.31948 0.15443 -0.05262
0.09947 0.17796 0.30527
-0.21431 0.15443 -0.23262
0.16324 0.17796 0.22060
-0.16043 -0.14927 0.01770
0.21477 0.15443 -0.06062
-0.12052 0.15443 0.23328
-0.13597 0.17796 -0.03048
-0.01266 -0.15740 -0.00107
-0.18528 0.15443 -0.20556
-0.17735 -0.16653 0.00079
-0.12989 0.15443 -0.25866
0.01435 -0.04471 0.02132
-0.06434 0.15443 0.23169
-0.23645 0.17796 -0.04977
-0.31737 0.17796 0.01354
-0.29430 0.16996 0.14548
0.23834 0.15443 -0.15275
-0.01600 0.10913 -0.02006
0.11613 0.17796 0.26977
0.23891 0.17796 0.06678
-0.31700 0.17796 0.05508
0.30090 0.15922 0.12955
-0.08347 0.15443 0.14543
0.02642 0.17796 -0.30887
-0.04161 -0.14466 0.13653
-0.14869 0.15443 0.04754
0.10208 0.15443 0.13737
-0.28599 0.17796 0.01102
-0.13522 0.15443 0.17260
0.16143 0.17796 -0.18956
-0.32447 0.15558 -0.04506
0.15011 0.15443 0.24902
0.07395 0.17796 0.01298
-0.07493 0.17796 0.03792
0.03786 0.15443 -0.02660
0.20691 0.17796 -0.19288
-0.30169 0.15443 0.04918
0.02611 0.15443 0.17721
-0.04639 0.15443 0.14123
0.16040 0.15443 -0.16220
-0.29031 0.17796 -0.03268
-0.27075 0.17796 0.11250
0.11466 0.15443 0.13415
0.21168 0.15443 0.13368
-0.07357 0.17796 -0.27312
-0.07556 0.17796 -0.05769
-0.02520 0.07986 -0.00510
0.28705 0.15967 -0.16298
0.00867 0.15443 -0.32312
0.00966 -0.14241 -0.02851
-0.28808 0.15443 -0.07962
0.07318 0.17796 -0.01246
-0.27249 0.17796 0.13902
-0.32301 0.17796 -0.00065
-0.22298 0.15443 -0.07399
0.05626 0.15443 -0.28709
-0.21615 0.15443 0.04922
0.11861 -0.17796 -0.01950
0.15675 0.17796 0.14018
-0.26298 0.15443 -0.10922
-0.12038 0.17796 -0.26571
0.15256 0.17796 0.21204
0.00007 0.15443 0.02921
-0.12259 0.17796 -0.06542
0.14803 0.17796 0.09989
-0.11570 -0.14241 -0.02882
-0.16758 0.15443 0.01648
-0.09372 0.17796 0.05029
0.10799 0.17796 0.03922
0.17968 0.17796 0.01161
0.18221 0.17796 -0.00914
0.20556 0.15443 0.01261
-0.23610 0.17796 0.01412
-0.29170 0.16940 -0.15177
-0.05250 -0.14241 0.02454
-0.02929 0.17796 -0.18217
-0.00520 -0.17796 0.09606
-0.26037 0.15443 0.13018
-0.06995 -0.17796 -0.09069
0.25466 0.17796 -0.07312
0.13844 0.15443 -0.20898
0.14527 0.15443 -0.11962
-0.21363 0.17796 0.12366
0.16980 0.17796 0.07250
-0.02319 -0.14241 0.00133
-0.13548 0.17796 0.01707
-0.05082 -0.17796 0.02038
-0.09242 -0.16125 0.08572
0.01756 -0.14241 0.03962
-0.18984 0.17796 -0.22315
0.13274 0.15443 -0.14325
0.15991 -0.14241 0.00481
0.30807 0.15443 0.03430
0.05392 -0.14241 -0.04373
-0.16874 0.15443 0.15655
-0.04425 -0.14241 0.05297
-0.14232 -0.17796 -0.02631
0.21959 0.17796 -0.09962
-0.12462 0.17796 -0.09296
0.16301 0.15443 -0.01587
0.07248 -0.17796 -0.09103
-0.23298 0.15443 -0.16179
-0.07058 0.15443 0.14016
-0.27559 0.15443 0.12018
0.08919 0.15443 -0.31301
-0.04590 -0.16889 0.13223
0.31738 0.15443 -0.06629
-0.10013 -0.17796 -0.04439
-0.25274 0.15443 0.07383
0.07019 0.17796 0.13151
-0.01174 -0.15208 0.02290
-0.25733 0.17796 -0.13973
-0.01232 0.09300 0.02267
-0.14047 -0.17796 0.03232
0.17983 0.15443 0.19497
-0.07462 0.15443 -0.11287
0.18566 0.17796 -0.25592
0.03060 0.17796 0.28869
-0.23870 0.15443 0.00919
0.07037 0.15443 0.01336
0.06965 0.17796 -0.27648
0.05528 -0.14241 0.03577
-0.12676 0.17796 0.07645
-0.01984 0.10210 -0.01629
-0.03727 -0.14241 -0.09129
-0.03583 -0.17796 0.08847
0.03476 0.17796 -0.14059
-0.22260 0.15443 0.23252
-0.20614 0.15443 -0.11590
0.29645 0.15443 0.01740
0.22970 0.17796 -0.01682
0.13083 -0.17796 0.02123
-0.20652 0.17796 0.01156
0.09377 0.17796 0.30117
-0.07829 0.17796 -0.18921
0.09963 0.17796 -0.05764
-0.04562 -0.17796 0.01682
0.10041 0.17796 0.24980
-0.10272 -0.14242 0.07541
0.00819 0.17796 -0.08447
-0.16189 -0.17796 0.00726
0.17668 0.17796 -0.10710
-0.01350 -0.12833 0.02197
0.32503 0.15443 -0.02019
-0.01048 -0.16976 -0.16766
-0.18483 0.15443 0.09942
-0.32960 0.17489 0.00610
0.03309 0.15443 -0.03135
-0.18173 0.15443 0.04530
0.12437 -0.17796 -0.04975
-0.20702 0.17796 0.17345
-0.14335 0.15443 0.18585
-0.01084 -0.14241 0.12091
0.13760 0.17796 -0.09696
0.06195 -0.14241 -0.10715
-0.26236 0.15443 -0.18448
0.20902 0.17796 0.18881
0.19898 0.15443 -0.25727
-0.21294 0.17796 0.10337
0.01245 0.17796 -0.21800
-0.15743 0.15443 -0.02874
0.10560 0.15443 0.14993
-0.13659 0.15443 0.16178
-0.22786 0.17796 0.22816
-0.10226 0.15614 -0.31221
-0.11295 0.17796 -0.26172
0.10198 0.15443 0.20713
-0.01404 -0.07628 -0.02156
0.01937 0.17796 0.31443
-0.02426 0.17796 0.03743
0.10069 -0.17796 -0.02260
0.08448 0.17796 0.26654
0.17352 0.17518 -0.27975
-0.19962 0.17796 -0.13691
0.11722 -0.14241 0.01684
0.02378 0.10910 0.00962
0.01741 0.15443 -0.22335
0.14218 0.17796 -0.12157
-0.12874 0.17796 0.13872
0.09479 0.17796 -0.10617
-0.01628 0.04806 0.01984
0.02206 0.15443 0.18016
-0.02912 -0.14241 0.00986
-0.07202 0.17796 0.09887
-0.25504 0.15443 0.18590
0.02201 0.15212 0.01346
-0.13950 0.15443 0.23514
-0.12851 -0.14241 0.01728
0.32090 0.17290 -0.07216
-0.21166 0.15443 0.22238
0.16333 0.17796 -0.15731
-0.15726 0.17796 -0.17660
-0.07640 0.15443 0.20976
-0.07247 -0.14241 0.02381
-0.07518 -0.16098 0.10296
-0.08029 0.17796 0.31709
-0.16779 0.17796 -0.05842
-0.27521 0.15443 -0.01977
0.01116 0.17796 0.29627
0.20630 0.15443 0.12528
-0.07328 -0.14241 0.08348
-0.06712 0.17796 -0.04804
-0.21866 0.17796 0.05400
0.07848 0.15443 -0.22780
-0.00475 0.15443 -0.19705
0.16130 0.15443 -0.26018
0.01883 0.11541 -0.01761
-0.07437 0.17796 -0.21360
-0.02079 0.17796 -0.07496
-0.24064 0.15443 0.15213
-0.10871 -0.16534 0.06942
-0.19902 0.15443 -0.17211
0.02842 -0.14241 0.08715
-0.12477 0.15443 0.29319
0.04289 0.16326 -0.32475
-0.07335 0.15443 0.02565
0.18694 0.17796 -0.20233
0.29139 0.17796 -0.14648
-0.08029 0.17796 0.29126
-0.11180 -0.15698 0.06634
-0.03094 0.17796 0.25754
0.03200 0.17796 0.11330
-0.02356 0.15443 0.17677
-0.04093 -0.17796 0.07105
-0.21597 0.17796 -0.00604
0.03609 -0.14241 -0.05790
-0.23492 0.17796 -0.03757
0.14161 0.17796 0.14272
-0.02546 0.06190 -0.00312
0.10220 0.17796 -0.04211
-0.07311 0.17796 -0.12191
0.12797 0.15443 0.12453
-0.14914 0.17796 0.23906
0.28747 0.17437 0.16199
-0.08007 -0.17796 -0.00563
-0.07428 0.15443 -0.22593
-0.00508 -0.14241 0.03952
-0.02899 0.17796 0.00198
-0.09848 0.17796 0.20975
-0.03240 -0.17796 0.13827
0.04039 0.15443 -0.01991
-0.27745 0.15443 -0.08700
0.06819 0.17796 0.11298
0.07677 -0.14241 0.03659
-0.02578 -0.10166 0.00071
-0.22668 0.17796 -0.17490
0.03529 0.17796 0.24294
-0.07432 0.15443 0.19655
-0.00565 0.15443 -0.21517
0.17961 0.17548 0.27508
0.07061 0.15443 0.19291
0.17087 0.15443 -0.18901
-0.13220 0.15443 -0.27650
0.10228 -0.16504 0.07586
0.03823 0.17796 -0.18279
0.02301 0.05525 0.01149
0.13164 0.17796 -0.28289
-0.22922 0.15443 -0.17375
0.02517 -0.08777 0.00538
-0.06831 -0.14241 -0.08424
-0.16998 0.15443 0.09547
-0.12239 0.15443 0.13207
-0.02481 -0.14241 0.08377
0.13826 0.17796 -0.16815
-0.09739 0.17796 0.06683
-0.31294 0.15443 0.09881
0.04264 -0.17796 0.00034
-0.05146 0.15443 0.19640
-0.23031 0.15443 0.16278
0.10346 0.17796 -0.26295
0.01706 0.15443 0.18713
0.06684 0.17796 -0.31813
0.31980 0.15443 0.07170
-0.23812 0.17796 0.22707
0.00381 -0.17796 -0.05479
0.07476 0.17796 0.14751
-0.00307 0.13977 -0.02547
0.13542 0.17796 -0.07732
-0.02374 -0.13134 -0.00972
-0.16733 -0.16414 0.01080
-0.07913 0.16490 -0.31998
0.07978 0.17796 0.25329
0.03141 -0.14241 -0.07148
0.12224 -0.17796 0.02800
-0.08973 -0.17796 0.02270
0.02082 -0.14241 -0.11740
0.26890 0.17796 0.05801
0.18879 0.17796 0.04098
-0.10559 -0.17796 0.02856
0.28275 0.17796 0.00140
-0.00487 -0.14241 -0.11974
0.30394 0.17796 0.07209
-0.28116 0.15635 -0.17169
-0.31629 0.17796 0.03040
0.02751 -0.17796 -0.00660
-0.22558 0.17796 -0.03503
0.03618 0.17796 0.05515
0.10053 0.16099 -0.31292
0.12165 -0.17796 -0.02771
-0.01314 -0.14959 0.16500
0.29363 0.15907 -0.14711
-0.17947 0.15443 -0.14754
0.01663 0.15443 -0.05273
0.22897 0.15443 0.05829
0.20270 0.15443 0.00009
0.14477 -0.17286 0.03336
0.11010 0.17796 0.13673
0.18642 0.17796 -0.16676
0.19797 0.17796 0.20353
-0.02167 -0.15088 -0.01390
-0.08291 -0.17796 -0.05928
0.12470 0.17796 0.22354
-0.08417 0.15443 0.18106
-0.17642 0.15443 0.03624
-0.00415 0.15443 -0.32845
-0.32626 0.15787 0.03146
-0.12080 0.17796 0.15048
0.00249 0.15443 -0.20238
0.03018 0.17796 -0.18922
0.08061 -0.15501 0.09753
-0.19198 0.17796 -0.14016
-0.32067 0.17416 0.07391
0.25280 0.15443 0.05948
-0.22355 0.17796 -0.05900
0.01223 0.10732 0.02270
-0.17984 0.15443 0.05529
0.14123 -0.17796 -0.02435
0.00996 0.17796 -0.02219
0.05529 0.15443 -0.25486
0.17800 0.17796 -0.05333
0.17632 0.15443 0.16948
0.26118 0.17796 0.02177
0.01084 0.09445 0.02328
0.05464 0.15443 -0.20451
0.17707 0.17796 -0.13716
0.25575 0.16505 -0.20479
0.05282 0.17796 -0.28771
-0.28269 0.17796 -0.16264
0.15614 0.17796 -0.15969
0.04149 -0.17796 -0.13443
0.24186 0.15443 0.15269
-0.08434 -0.16167 0.09380
0.19832 0.17796 0.01381
-0.04708 0.17796 -0.24783
0.23814 0.17796 0.05226
-0.04224 0.17796 -0.05392
-0.13880 0.17796 -0.29300
0.10854 0.17796 -0.15262
-0.01168 0.15443 -0.20534
-0.12172 -0.17796 0.01502
-0.00064 0.15443 0.20692
0.15586 0.15443 -0.15778
-0.30595 0.17329 0.11737
0.30359 0.17796 -0.07541
-0.15257 0.15443 -0.25615
-0.09947 0.16759 0.31336
0.09497 0.15443 -0.21046
0.02319 -0.07123 0.01106
0.08552 0.17796 0.16355
0.09499 0.15443 0.28264
0.28349 0.15443 0.04831
-0.11211 0.15443 0.13210
-0.08594 0.15443 0.21143
-0.12640 0.17796 -0.08343
0.13826 0.17796 0.18734
0.29581 0.15443 0.03530
0.09523 0.17796 0.25561
0.01046 -0.15740 -0.01675
0.01289 0.15443 -0.27238
-0.29366 0.17796 -0.01769
0.01958 -0.12007 -0.01662
-0.01069 0.01272 -0.02334
0.08418 0.17796 -0.10280
-0.18060 0.15443 0.12698
-0.00014 0.15443 0.30415
-0.19287 0.15443 -0.14446
0.25340 0.15443 0.02126
-0.14607 0.17796 0.28894
0.07640 -0.14241 0.06780
0.07019 -0.17796 0.02809
0.17883 0.17796 -0.17515
-0.14648 0.17796 -0.23090
0.23349 0.15443 -0.13303
0.26722 0.17796 -0.16170
-0.15922 0.17796 0.04997
0.23375 0.17796 -0.11847
-0.02232 0.04313 0.01306
-0.12687 -0.17796 0.02175
-0.07265 0.17796 0.12139
0.12389 0.17796 0.24313
-0.19462 0.15443 0.05725
-0.10649 0.15443 -0.28625
-0.22924 0.15443 -0.01012
-0.12221 0.15443 0.15434
-0.24664 0.17796 -0.05496
-0.01209 0.17796 0.22477
-0.24446 0.17796 0.03751
0.13130 0.15443 0.11448
0.27058 0.17796 -0.11478
0.23833 0.15443 -0.04342
-0.18816 0.15443 0.24703
-0.01127 -0.07095 0.02310
0.17616 0.17796 -0.09256
0.03385 0.15443 -0.23787
-0.18956 0.17796 0.17519
-0.01160 0.15443 -0.28267
-0.05317 -0.14241 0.08128
0.18275 0.15443 0.07045
0.01852 -0.14241 -0.07380
0.19136 0.17796 -0.08323
-0.09968 0.15443 0.12527
0.10979 0.17796 0.30801
0.13629 0.17796 0.08803
0.16273 0.17796 -0.19607
-0.08713 0.15443 -0.26644
0.04846 0.17796 0.02526
0.03804 0.15647 0.32539
0.05849 0.17796 0.16265
0.00462 0.02486 -0.02527
0.05689 -0.14241 -0.10623
0.22139 0.15443 -0.16233
-0.05690 0.17796 -0.07159
-0.09293 0.17796 0.04247
-0.07041 0.15443 0.26413
0.01598 0.15443 0.24764
0.15336 0.17796 -0.26249
0.12259 -0.14241 0.02627
0.09972 0.15443 -0.20938
-0.03857 0.17796 0.31146
-0.27457 0.15443 0.00148
-0.01617 -0.17796 0.09411
-0.17367 0.17303 0.27964
-0.29069 0.17796 0.14872
0.02468 0.15443 -0.16368
-0.10994 -0.17796 -0.02651
-0.10349 -0.14241 0.05850
-0.13431 0.15443 0.11027
0.04682 -0.14241 0.01424
-0.03116 0.17796 0.16956
-0.30763 0.15568 -0.11330
-0.12889 0.17796 0.10827
-0.11810 0.17796 -0.20171
-0.08585 0.17796 -0.21636
0.18864 0.15443 -0.14655
0.01756 -0.17796 -0.00066
-0.06431 0.17796 -0.00626
-0.08530 0.17796 -0.04206
0.09691 0.15443 0.16766
0.06326 0.15443 0.22327
-0.10856 0.17796 0.22415
0.01812 -0.01850 -0.01843
0.17246 0.15443 -0.24459
-0.10442 0.16486 0.31131
-0.22479 0.15443 0.22182
0.10459 -0.15521 -0.07354
0.05576 -0.17796 -0.10357
0.06724 -0.14241 -0.07591
0.25401 0.15443 -0.09589
0.07613 0.17796 -0.02722
-0.24432 0.15443 0.16349
-0.09189 0.17796 0.23620
-0.02539 -0.05475 0.00367
-0.24778 0.17796 -0.19846
0.25643 0.15443 -0.18437
0.19155 0.15443 -0.04121
-0.07284 0.17796 -0.11388
0.11233 0.17796 0.26652
-0.13334 0.15443 -0.19986
-0.05128 -0.17796 0.03822
-0.06718 0.15443 -0.27277
0.29094 0.17796 0.07092
-0.16362 0.15443 -0.18316
-0.20365 0.17796 -0.06049
-0.02029 0.00132 -0.01570
0.06711 0.17796 -0.18449
0.16924 -0.16210 -0.00890
0.07167 -0.17796 -0.07344
0.20142 0.15443 -0.02221
-0.16292 0.15443 0.06048
0.26924 0.17796 -0.17873
-0.23248 0.17796 0.04217
-0.02235 -0.15740 0.00207
-0.06245 0.17796 0.26119
-0.11426 0.17796 0.13280
0.02802 -0.14241 -0.13094
0.26608 0.17796 0.02773
0.06469 -0.17528 0.11345
0.01029 0.15443 -0.30293
-0.25676 0.15443 0.15440
-0.10521 0.15443 0.27307
0.09297 -0.15222 0.08516
-0.21557 0.17796 0.21204
0.08576 -0.17796 0.06006
-0.30791 0.15443 0.08880
-0.24696 0.17796 0.16700
0.00922 0.17796 -0.01693
0.27117 0.15443 -0.11322
-0.15688 0.17796 0.24067
0.12999 0.15443 -0.22117
0.02194 -0.14241 -0.05600
-0.30313 0.17796 -0.10329
0.02198 0.10596 -0.01350
-0.17997 0.15443 -0.07330
-0.23069 0.15443 0.19953
-0.21566 0.15443 -0.14000
0.04523 0.17796 -0.09845
-0.00098 -0.14241 0.12570
0.08509 0.17796 -0.16773
-0.02155 -0.06941 0.01405
0.13089 -0.17632 -0.04725
-0.22229 0.15443 -0.09030
-0.12052 0.17796 0.14375
0.12901 0.17796 -0.17671
-0.05724 0.17796 -0.02256
-0.10010 -0.17738 0.07804
0.04635 0.16629 0.32430
0.13006 0.15443 -0.23740
-0.24980 0.17796 -0.00502
-0.12249 -0.17094 0.05565
-0.03450 0.17796 -0.14800
0.19862 0.15443 -0.05251
0.08481 0.15443 0.16858
0.10011 -0.17796 0.02073
-0.11671 0.17796 -0.04330
0.21198 0.17796 -0.21190
-0.27706 0.17796 -0.04486
0.01126 0.15443 0.32758
-0.04918 0.17796 -0.15998
0.23069 0.17796 0.20682
-0.22359 0.15443 -0.21512
0.12704 0.17796 -0.25946
0.11467 -0.14448 0.06347
0.19366 0.17796 -0.18158
-0.07537 0.17796 0.30294
0.19041 0.15443 -0.03517
0.28853 0.17796 -0.06415
0.09247 0.17796 -0.20459
-0.32649 0.16754 0.02972
-0.02267 -0.14241 0.09189
0.18156 0.15443 -0.01094
-0.09616 0.15443 -0.26940
-0.14747 0.15443 -0.04211
0.08755 0.15443 -0.27896
0.20550 0.17796 -0.01882
0.02862 -0.14241 0.11739
-0.00803 0.16432 -0.32934
0.00507 -0.14241 -0.14306
0.03688 -0.17796 -0.08787
-0.09422 0.17796 0.15986
0.07390 0.17796 -0.27260
0.07868 -0.15604 -0.09946
-0.01937 0.15443 -0.07904
0.01265 -0.14241 0.15833
0.20205 0.17796 0.14392
-0.22487 0.17796 -0.08395
-0.03503 -0.17796 -0.10691
-0.08652 -0.14241 -0.00365
0.29887 0.15443 -0.02412
-0.08719 0.15443 0.30191
-0.17988 0.15443 0.03129
0.18769 0.15443 0.08270
0.31191 0.17796 -0.07433
0.13760 0.15443 0.15019
-0.08161 -0.14241 0.04207
0.08328 -0.17796 -0.07244
-0.13522 -0.17796 -0.01149
0.16834 -0.17796 -0.00857
0.26198 0.17796 -0.15321
-0.02601 -0.17244 -0.15213
-0.28195 0.17796 -0.03125
0.02245 0.15443 0.22380
0.24426 0.17796 0.02954
-0.19891 0.15443 -0.10062
-0.07079 -0.14241 -0.01530
-0.26721 0.15443 0.07707
0.26409 0.15443 0.12243
0.17175 -0.17280 0.00638
-0.06561 0.15443 -0.24649
-0.03489 -0.17796 0.08154
0.08039 0.15443 -0.00857
0.25062 0.15443 0.21137
-0.12604 0.17796 0.18475
-0.23199 0.17796 -0.19029
-0.17668 0.15443 0.20085
0.04201 0.17796 0.23605
-0.11692 0.17796 0.08495
-0.05704 0.15443 -0.12380
-0.05325 -0.17796 0.01051
-0.15271 0.15443 -0.10255
-0.04387 0.15443 -0.18038
0.09333 -0.14241 -0.07505
0.25148 0.15443 0.15438
0.12253 0.15443 0.20075
0.17662 0.15443 -0.05613
0.13389 0.15443 -0.06546
-0.18202 0.17796 0.07715
0.00427 -0.11104 -0.02531
0.03871 0.17796 -0.07481
-0.26844 0.17796 -0.17849
0.09951 -0.17097 -0.07863
0.14281 0.15443 -0.24299
0.03007 -0.14241 0.13140
-0.25320 0.17796 -0.05997
0.08071 0.17796 -0.21334
-0.04767 0.17796 -0.23473
-0.19612 0.17796 0.00588
0.27080 0.17796 0.12643
-0.06135 0.17796 0.28438
-0.22106 0.15443 0.00074
-0.00206 0.17796 0.23121
-0.04378 -0.17796 -0.01888
-0.25988 0.17718 0.19942
0.02035 0.17796 0.17492
0.08764 0.17796 -0.21663
-0.25579 0.17796 -0.18647
-0.03575 -0.17796 -0.13578
-0.23371 0.15443 0.23158
-0.29201 0.15443 0.10518
-0.19087 0.15443 0.03743
0.18066 0.15443 -0.13758
0.02583 -0.17796 -0.08586
-0.04266 0.17796 -0.11171
-0.10734 -0.14241 0.05401
-0.04511 0.17796 0.21454
0.21849 0.15443 0.11973
0.05592 0.15443 -0.00679
0.08455 0.17796 0.15366
0.19465 0.15443 0.16192
0.15960 0.17796 -0.18030
-0.00019 -0.14241 -0.14718
-0.15743 0.15443 -0.20475
0.11961 0.15443 -0.30402
-0.22389 0.15443 0.13638
0.11756 0.17796 0.23492
0.20559 0.17796 0.25225
-0.10036 0.15443 0.31298
0.12044 0.17796 0.03445
-0.01206 0.17796 -0.16280
-0.26193 0.15443 -0.01153
0.04076 -0.14241 0.04983
0.02994 0.15443 0.31107
0.02006 -0.14241 0.05078
-0.24313 0.15443 0.14230
-0.05833 0.15443 0.25692
0.02230 -0.00086 0.01308
0.20450 0.15443 0.15551
0.09082 0.15443 -0.27209
-0.08266 -0.14241 0.06493
-0.03972 0.15443 -0.05457
0.02527 0.14212 0.00460
0.04938 -0.15584 -0.12875
-0.05726 0.17796 0.03765
-0.17592 0.17796 -0.01276
0.19354 0.15443 0.19960
-0.20261 0.15443 -0.13749
-0.09370 -0.14833 -0.08443
-0.19907 0.15443 0.24557
0.07218 0.17796 -0.11282
0.25318 0.15443 -0.03317
0.02813 -0.14241 0.02205
0.05366 0.15443 0.23384
0.30172 0.17796 -0.02868
0.29525 0.17675 0.14320
0.03469 0.17796 0.06528
-0.06165 0.15443 0.02488
-0.12348 0.17796 -0.13870
0.11948 0.15443 -0.29722
0.17667 0.15443 -0.26448
0.21375 0.15443 -0.13389
0.00308 0.15443 -0.08608
-0.02050 0.15443 -0.26098
-0.02362 0.12421 0.01001
-0.00325 -0.17796 -0.12097
0.16229 0.17796 -0.04656
-0.21279 0.17796 -0.22573
0.13884 -0.14241 0.01205
-0.20864 0.15443 -0.01532
-0.08857 0.17796 0.01071
0.01153 -0.08096 -0.02299
-0.16865 0.17796 0.02623
-0.05732 0.17796 0.07189
0.04715 0.17796 -0.28650
0.03098 0.17796 -0.12601
0.10055 0.15443 0.22592
-0.29964 0.15443 -0.07485
-0.07812 0.17796 0.10063
0.11519 0.15443 -0.06814
0.08618 -0.17796 -0.06841
-0.13830 0.17796 -0.11186
0.07355 0.17796 0.10161
0.26296 0.15443 0.07867
-0.02965 0.17796 0.29283
-0.26411 0.17796 -0.05273
0.25439 0.15443 -0.11754
-0.14945 0.17796 0.01448
-0.05303 -0.14241 -0.02140
-0.06697 0.17796 0.20530
-0.14586 0.17796 0.13919
-0.07850 0.15443 -0.01307
-0.24135 0.17796 0.05196
-0.04679 0.17796 0.03392
0.03053 0.17796 0.29682
0.18119 0.15443 -0.16393
-0.11983 -0.17796 -0.03441
0.15796 0.17796 -0.28236
0.18854 0.17796 -0.18426
-0.15961 0.17796 -0.22660
0.01058 -0.17796 0.12245
0.09621 -0.14241 -0.01208
0.23199 0.15443 0.00199
-0.20570 0.17796 -0.17198
0.02397 0.15443 -0.15597
-0.10019 0.15443 0.25872
0.01658 -0.17796 0.05688
0.07378 0.15443 0.30693
-0.02440 0.03714 0.00813
-0.01651 0.17796 -0.13777
0.09159 0.15443 -0.00711
-0.23089 0.15443 -0.11902
0.18134 0.17796 -0.06011
0.11884 0.15443 -0.26028
0.10900 0.15443 0.20619
0.18868 0.17341 0.26812
-0.15690 0.15443 0.13902
0.15759 0.17796 -0.22966
-0.06267 0.17796 -0.20121
-0.07003 0.17796 -0.09433
0.12660 0.15443 0.27240
-0.27886 0.16678 0.17467
-0.09127 0.17796 0.27153
-0.30230 0.17796 -0.12280
-0.24714 0.15443 -0.14924
-0.06685 0.17796 0.08399
0.06450 0.17796 0.01728
0.00744 0.17796 0.22304
0.09536 -0.14241 0.04983
-0.12483 -0.17796 0.05049
-0.02859 0.17796 0.27376
0.07525 -0.17796 -0.05576
0.22044 0.15443 -0.11428
-0.25926 0.15443 0.15823
0.22687 0.17796 0.19438
-0.01561 0.15443 0.16497
-0.19203 0.15443 -0.03031
0.11935 0.15443 0.12995
0.10660 0.15443 0.18200
-0.12759 0.17796 0.25442
0.09902 0.15443 -0.09725
0.05927 0.17796 0.04781
-0.13174 0.16231 -0.29999
0.02167 -0.17796 0.15484
-0.02050 -0.07434 0.01543
-0.02292 0.14886 -0.01169
-0.19046 0.15443 -0.16559
-0.18060 0.17796 -0.18192
-0.05633 0.15443 -0.30990
-0.25667 0.15443 -0.15533
0.09024 0.17796 -0.09285
-0.19479 0.17796 -0.00011
-0.18766 0.17796 -0.10744
0.02406 -0.14241 -0.02807
0.09922 0.15443 0.11424
0.09820 -0.17796 0.00212
-0.20097 0.17796 0.04437
-0.01896 0.17796 -0.19837
0.29137 0.17796 -0.05346
-0.23166 0.15443 0.04750
-0.01969 0.17796 0.02824
0.28571 0.17796 0.10958
-0.26737 0.15443 -0.01574
0.30419 0.17796 -0.03731
-0.06091 -0.17796 -0.03348
0.00761 0.17796 -0.17434
0.09670 0.17796 0.09703
-0.20227 0.15443 0.14630
-0.05928 0.17796 -0.22665
0.17407 0.17796 -0.20413
0.07450 0.15656 0.32059
-0.05876 0.17796 0.25799
0.26050 0.15443 -0.07911
-0.32534 0.17697 -0.03839
-0.21951 0.17796 0.15834
-0.22875 0.16398 0.23737
0.13653 0.17796 -0.10660
0.02181 -0.06124 -0.01371
0.01590 -0.17796 0.15599
-0.31113 0.15973 0.10486
-0.10022 0.17796 0.00276
0.10636 0.16679 0.31051
0.01385 0.06080 -0.02171
0.04851 0.17796 -0.15677
-0.07856 0.15443 -0.22935
-0.32236 0.17796 0.01166
0.11559 0.15443 -0.20139
0.07666 0.17796 -0.12732
0.26723 0.15443 -0.14338
-0.01941 0.03674 0.01684
-0.12010 0.17173 -0.30482
0.01203 -0.08819 0.02278
0.07086 0.15443 -0.26165
-0.10052 0.15443 0.18188
-0.04107 -0.14241 0.09195
0.19612 0.17796 0.02247
0.01374 0.15443 -0.22979
-0.02677 -0.14373 -0.15137
0.16515 0.17796 0.00904
-0.03677 0.15443 0.28517
-0.23251 0.17796 -0.18005
-0.01270 -0.14241 0.01528
0.01832 -0.17796 0.00840
-0.08262 0.15443 0.13470
-0.02021 -0.14241 0.13893
-0.06431 0.17796 -0.09363
-0.01215 0.05871 0.02274
-0.07938 -0.16963 -0.09876
0.16396 0.17796 0.19418
-0.14171 0.15443 0.11854
-0.02881 -0.14241 -0.07980
-0.01857 -0.03380 -0.01794
0.08245 -0.14241 0.06148
0.15507 0.17796 -0.24007
-0.05055 0.15443 -0.23838
0.15752 0.15443 -0.25646
0.01889 0.15443 -0.31861
-0.03332 -0.17796 -0.09176
-0.02783 0.15443 -0.05150
0.24492 0.17796 0.00067
0.03361 0.15443 0.03381
-0.07739 0.17796 0.31024
-0.04603 -0.17796 -0.00137
-0.10523 0.15443 -0.18478
-0.25750 0.17796 0.17785
0.03826 0.15443 -0.24744
0.03620 0.17796 0.09668
0.00098 0.00611 -0.02575
0.01195 -0.17796 0.09178
-0.21592 0.15443 -0.22419
0.14945 0.17796 -0.25977
-0.21666 0.17796 0.18127
0.08898 -0.14241 0.04316
-0.01229 0.15443 -0.17030
0.14638 0.15443 0.27132
0.10359 -0.14241 -0.00291
0.22094 0.15443 0.12637
-0.23942 0.15874 -0.22608
0.27350 0.16717 0.18167
0.01420 0.14143 0.02144
-0.05556 0.17796 0.27870
-0.00502 0.17796 0.22409
0.30815 0.17796 0.02253
0.02785 0.15443 0.02294
-0.21071 0.17796 -0.01358
0.01459 0.17796 -0.17230
-0.07160 0.17796 0.14412
0.01778 0.17796 -0.16443
0.20454 0.15443 -0.16856
-0.12499 0.17796 0.06909
0.24344 0.17796 0.03492
0.02708 -0.14241 -0.08677
-0.02149 -0.17796 0.11142
0.05694 -0.17796 -0.05256
-0.14428 0.17796 -0.01983
0.08819 -0.14465 -0.08995
-0.04394 -0.17796 -0.10829
-0.03514 0.17796 -0.18597
-0.09997 -0.17796 -0.01096
-0.05851 0.17796 -0.29008
0.08833 -0.17796 -0.05288
0.14458 0.15443 -0.05903
0.20166 0.17796 0.09479
0.01944 -0.08687 -0.01681
0.32782 0.16953 -0.01958
0.00687 -0.17796 0.05517
-0.19329 0.15485 -0.26458
0.21030 0.15443 0.18442
-0.16884 0.17796 0.24215
-0.10671 0.17796 -0.08953
0.06568 0.17796 0.26627
0.06828 -0.14241 -0.00171
-0.01650 -0.00349 0.01968
-0.12450 0.17796 0.26799
-0.26993 0.17796 0.10763
0.11775 0.15443 0.28268
0.13406 0.15443 0.09094
-0.06859 0.17796 0.01990
0.07643 0.15443 -0.24531
-0.03836 -0.14655 0.13978
0.08402 0.15443 -0.26569
-0.22655 0.17796 0.05511
-0.04998 -0.17796 -0.11728
-0.25994 0.15443 0.09606
-0.04586 0.17796 -0.07148
0.15656 -0.17766 -0.02157
0.06079 0.17796 -0.16810
0.20929 0.17796 -0.12001
-0.05393 -0.14241 -0.08784
-0.32344 0.15489 -0.05289
-0.10342 -0.17796 -0.02889
-0.08008 0.15443 -0.14936
-0.02755 -0.17796 -0.07972
0.07200 0.17796 -0.21156
0.20859 0.15443 0.23368
0.03638 -0.14241 0.05183
-0.16357 0.15443 -0.22372
-0.11392 0.17796 -0.29380
0.00172 0.17796 -0.04001
0.20358 0.16018 0.25668
0.09013 0.15443 0.10672
-0.30301 0.16976 -0.12447
0.04887 -0.16797 0.12927
0.01286 0.17796 -0.25403
-0.16601 0.17796 0.11087
0.12729 -0.14241 0.01486
0.20165 0.17796 -0.19685
-0.27178 0.17396 0.18391
0.00470 0.17586 0.32978
-0.22048 0.17796 -0.02214
-0.15361 -0.16285 -0.02453
0.20767 0.17796 0.22478
0.10502 0.15443 0.25253
-0.11688 -0.17796 -0.00131
0.00417 0.15443 -0.22587
0.02203 0.17796 -0.20887
-0.12959 0.15443 -0.19422
-0.32929 0.16079 -0.00841
0.02357 -0.17796 -0.07640
0.04195 -0.14241 0.01118
-0.09516 -0.14241 0.07473
0.27354 0.15443 0.09868
0.10268 0.15443 0.23251
0.16975 -0.16980 -0.00839
-0.03474 -0.17796 -0.11589
-0.01976 -0.14241 -0.03090
0.03466 -0.14241 0.09726
0.11104 0.17796 -0.19762
-0.25747 0.15443 -0.19618
0.09115 0.17796 -0.14327
-0.09513 0.17479 -0.31516
-0.05079 -0.17337 -0.12735
-0.20193 0.15443 -0.12876
0.19850 0.15443 -0.18298
0.13979 0.17796 0.17899
-0.19811 0.15443 0.05023
-0.02835 0.17796 0.13631
0.22669 0.17796 0.04187
0.17778 0.17796 -0.14772
-0.23101 0.15443 0.07870
0.20150 0.15443 0.08698
0.14939 0.15443 0.04654
-0.07367 -0.14241 -0.04115
-0.26845 0.17796 0.15863
0.30268 0.17796 0.05803
-0.02579 -0.06072 0.00063
-0.15161 0.15443 0.06666
-0.12104 0.17796 0.06263
-0.16607 0.17796 -0.17313
-0.04914 0.17796 -0.17371
0.00011 -0.14241 -0.13445
-0.31474 0.17796 -0.07669
-0.12573 0.15443 -0.28815
-0.15645 0.17796 -0.18885
0.08232 0.15443 -0.23091
0.32615 0.17144 0.03228
0.17641 0.15443 0.23103
-0.06826 0.15443 0.29934
0.01844 0.15443 0.07693
0.06831 0.17796 0.00727
-0.17606 0.17796 -0.23975
0.04139 0.17796 0.27077
0.13336 0.15443 0.13479
0.02743 -0.14241 0.00702
-0.11951 0.15443 -0.25945
0.01824 0.16996 -0.32800
0.16985 0.17796 0.12197
-0.15574 0.15443 -0.23565
0.23594 0.15443 -0.02085
0.01126 0.13306 -0.02310
-0.25293 0.15443 -0.18982
0.14996 0.17796 0.12623
-0.00548 0.13997 0.02515
0.03128 -0.17796 -0.04361
0.03579 -0.14613 -0.14235
0.16576 0.15443 0.16937
-0.20088 0.15443 -0.09508
-0.09182 -0.17796 -0.01914
0.01880 0.07289 0.01763
-0.11245 0.15443 0.28098
0.16687 0.15443 -0.20269
-0.06023 -0.14241 -0.09853
-0.19439 0.17796 0.16231
-0.17403 0.17796 0.13877
0.00918 0.15443 0.05567
0.02528 -0.14241 0.13180
0.04363 0.15443 -0.19941
0.20033 0.15443 0.24425
0.29891 0.17796 -0.08066
-0.04256 0.17796 0.18077
0.24526 0.17796 0.15564
-0.16959 0.15443 0.24140
0.28524 0.17796 0.08725
0.31402 0.17340 -0.09789
-0.28682 0.15443 -0.09553
-0.08137 -0.14241 0.00149
0.19789 0.15443 -0.24227
-0.04773 -0.14241 0.04667
-0.25606 0.15443 -0.18141
-0.04161 -0.14769 -0.13653
0.11747 0.15443 -0.28112
0.06863 0.15443 0.14483
0.00527 -0.15740 0.00344
0.04648 -0.17796 -0.11570
0.15271 0.15443 -0.13690
0.17729 0.15443 0.17693
0.11690 0.17796 -0.09285
-0.00787 0.17796 0.23642
0.06112 0.15443 0.23679
0.02574 -0.10986 0.00099
-0.04529 -0.17796 -0.02947
0.07122 0.17796 -0.06248
0.16172 0.17796 -0.01046
-0.11017 0.15443 -0.14771
0.18907 0.17796 -0.09927
-0.02529 0.01553 0.00447
0.01584 0.17796 -0.23408
-0.10281 0.15443 -0.09925
0.17699 0.17796 -0.07088
0.01394 0.10965 -0.02164
-0.14535 0.15443 -0.06271
-0.22067 0.17796 -0.05308
0.05172 0.17796 -0.15046
-0.26703 0.17796 0.02658
0.13525 0.17796 -0.19170
0.05783 -0.15625 0.12030
-0.00926 -0.14241 0.15175
0.31292 0.16465 0.10053
-0.30750 0.15443 -0.03891
-0.22300 0.15443 -0.05088
0.00743 0.17796 0.03358
-0.16805 0.17796 -0.21098
-0.22726 0.17796 0.10657
-0.17614 0.15443 0.15604
0.04860 0.15443 0.17542
0.16386 -0.17796 0.00135
0.08684 -0.15282 -0.09130
0.01386 -0.02877 -0.02170
0.11124 -0.17796 0.04307
0.18732 0.17796 0.00866
-0.23176 0.17796 -0.22214
0.32561 0.15443 0.02476
-0.12921 -0.15916 -0.04893
-0.20580 0.17796 -0.14184
-0.07583 0.15443 -0.26525
-0.21782 0.17796 0.07518
0.30594 0.17796 0.01784
-0.23080 0.15443 -0.14267
0.05041 -0.14241 -0.07425
-0.09352 0.17796 -0.03213
-0.14946 0.17796 -0.11828
0.24267 0.17796 0.21702
-0.03602 -0.14241 -0.06809
0.00787 0.15443 0.20629
0.15366 0.15443 0.07942
-0.03810 0.15443 -0.30820
0.00181 -0.13690 -0.02564
-0.08833 0.17796 0.08352
0.06499 0.15443 -0.17678
0.14726 -0.14241 -0.01918
0.04752 -0.17796 -0.02322
0.09559 -0.14241 0.03671
-0.04726 0.15443 -0.22163
-0.14000 0.15443 -0.21988
-0.01437 0.15443 0.08551
0.15823 0.15443 0.06386
-0.23594 0.15443 0.14546
0.01771 0.09264 0.01874
-0.04199 0.17796 0.09958
-0.29734 0.17796 -0.04262
-0.05901 -0.17796 -0.07605
-0.01007 0.17796 -0.32649
-0.11282 0.17796 -0.08065
0.28937 0.15443 0.01011
0.14759 0.17796 0.10530
0.05577 0.17796 -0.19734
0.20530 0.15443 0.14380
0.13336 0.15443 -0.21152
0.06783 0.17796 0.21914
-0.06441 0.15443 0.23664
0.08469 0.15443 -0.19423
-0.24149 0.17347 -0.22338
0.13102 0.17796 -0.16806
0.31569 0.15443 0.08474
-0.05231 0.15443 -0.01828
-0.12851 0.17796 -0.13361
0.02550 -0.14715 -0.00282
-0.18831 0.17796 0.12915
-0.00924 -0.14241 0.11277
-0.02560 0.17796 0.21160
-0.08903 -0.17796 -0.08162
-0.05701 0.17796 -0.27705
0.11716 0.15443 -0.27421
-0.01285 -0.14241 -0.10596
-0.30494 0.15443 0.05772
-0.01744 0.17796 -0.02216
0.10021 0.17796 -0.20837
0.24207 0.15443 -0.05628
0.09292 -0.14241 0.03242
-0.30952 0.15443 0.06391
-0.03710 0.15443 -0.26683
0.03071 -0.17796 0.00942
0.21371 0.15443 0.10909
-0.04364 0.17796 -0.25935
-0.25301 0.15443 0.19739
-0.31627 0.16288 -0.09246
-0.11757 0.16207 0.30587
-0.04301 0.16778 0.32474
-0.09490 -0.15813 0.08324
0.06864 0.17796 0.28449
-0.14937 0.17796 0.00447
-0.02288 -0.17796 0.03090
0.01850 -0.02786 -0.01803
0.29149 0.15443 0.03044
-0.15754 0.17796 0.25677
0.03310 0.17796 -0.09187
0.03895 0.17796 -0.09062
0.12743 0.17796 -0.18690
0.17602 0.15443 0.11353
-0.27773 0.17796 -0.16765
-0.32306 0.16492 -0.05578
0.18222 0.15443 0.26594
-0.12579 0.15443 0.21608
-0.00125 -0.14446 0.02571
0.00108 -0.14241 -0.01166
-0.10205 0.15443 -0.10756
0.14636 0.15443 0.14819
-0.12913 0.15443 -0.17610
-0.11847 0.17796 -0.16554
-0.03808 0.17796 -0.01285
0.14315 -0.17796 -0.00045
-0.23715 0.15443 -0.19065
0.22222 0.17796 0.09398
-0.02496 0.17796 0.31923
0.05814 0.17796 -0.21530
0.32495 0.16585 -0.04143
0.06810 0.17796 -0.08718
0.00082 -0.17796 0.08977
0.15915 0.15443 -0.13049
0.02343 -0.01489 0.01047
-0.13804 0.15443 -0.09307
0.02459 -0.03762 0.00767
-0.08784 0.15443 -0.16051
