-0.06148 -0.16546 0.02655
0.00121 -0.16546 0.04659
-0.14243 -0.16546 0.08379
0.00535 -0.16546 0.11007
-0.06839 -0.16546 -0.17542
-0.13340 -0.16546 -0.16905
0.05007 0.16952 -0.24462
-0.02558 -0.00443 0.18120
0.09730 -0.04300 -0.16784
0.21078 0.17358 -0.27234
0.13385 0.17358 -0.35469
-0.04007 0.17358 -0.34740
-0.05322 -0.12798 0.11530
0.07701 0.00391 0.21918
0.26164 0.16007 0.20632
-0.14862 0.01156 0.24633
0.13556 0.11559 0.24564
0.16058 0.16247 -0.25697
-0.03435 -0.16546 -0.19928
0.21982 0.16007 0.23910
-0.07645 -0.06674 0.14299
0.07546 0.00352 0.22849
0.00114 0.16504 0.37810
0.01278 0.17358 -0.24763
-0.10853 0.16415 -0.37001
0.08694 0.00391 -0.15903
0.04579 -0.16633 -0.22592
-0.16192 0.16356 0.14835
-0.16192 0.17004 0.06058
-0.26875 0.17141 -0.23490
0.13441 0.16276 0.23524
0.05296 -0.08284 -0.14659
0.14570 -0.16922 0.17757
-0.07851 -0.16546 -0.16837
0.09197 -0.16546 -0.17291
-0.12215 0.09339 -0.22733
0.16192 0.16680 0.07529
-0.26384 0.16387 -0.25295
0.08595 0.00391 0.15863
0.08482 0.00391 0.16655
-0.15798 0.03526 -0.24076
-0.01443 -0.00443 0.15202
-0.12836 -0.00443 0.14597
-0.27024 0.16178 -0.06068
-0.27024 0.16028 0.01329
0.10084 0.16007 0.36918
-0.12700 0.11392 0.22875
0.09733 0.00391 0.13697
0.13352 0.00391 0.13695
0.07193 -0.11248 0.13822
-0.18055 0.10475 -0.26766
-0.16722 0.12745 0.25116
-0.15985 0.07416 0.24238
0.12711 0.17358 0.18573
0.05017 0.17358 0.19506
-0.07731 -0.16546 -0.19268
-0.08765 0.02077 0.18793
-0.21283 0.17070 0.31980
0.07964 0.17358 0.19562
0.01183 0.17358 0.19285
0.14014 0.13986 0.25110
-0.15328 0.00353 -0.16832
-0.14716 0.00391 -0.13388
-0.15819 0.00391 -0.14167
-0.16149 0.16004 -0.16318
-0.07661 -0.16546 -0.21718
-0.16682 -0.00066 0.10719
-0.06138 -0.03819 0.14213
-0.22326 0.16730 0.30869
-0.12655 0.00383 0.20263
0.02689 -0.17358 -0.21903
0.18114 0.16007 0.26599
0.13946 0.17358 0.36096
-0.08112 -0.07221 0.18015
0.03712 -0.17358 -0.14798
-0.06497 -0.17358 -0.15143
0.08392 0.17358 -0.24572
0.15966 0.16252 -0.24997
-0.13451 0.16952 -0.24353
-0.09322 0.01365 0.17048
0.12237 0.00391 0.00634
0.12763 0.00391 -0.03624
0.13351 0.00391 0.07487
0.08220 0.00391 -0.09090
0.01251 0.00391 -0.05434
0.16234 0.00391 -0.00039
0.11091 0.00391 -0.06160
-0.10511 0.00391 -0.10967
0.15538 0.00391 -0.10589
-0.01376 0.00391 -0.04812
0.10035 0.00391 0.02407
-0.07787 0.00391 -0.06201
0.11609 0.00391 -0.00487
-0.02425 0.00391 -0.08908
0.14596 0.00391 0.07017
0.09129 0.00391 -0.00909
0.16281 0.00391 0.07193
0.13221 0.00391 0.09057
0.13044 0.00391 0.00911
-0.05643 0.00391 -0.06928
0.05914 0.00391 0.03839
0.11677 0.00391 0.04468
0.07676 0.00391 -0.03947
0.10988 0.00391 -0.04762
0.10278 0.00391 -0.07285
0.10666 0.00391 0.00619
0.05794 0.00391 -0.05149
0.05827 0.00391 -0.10036
0.11631 0.00391 -0.10315
-0.13323 0.00391 -0.09396
-0.09600 0.00391 -0.06846
0.11022 0.00391 0.04109
-0.16620 0.17192 -0.35712
-0.05428 0.17358 0.25983
0.16443 -0.17308 -0.04489
0.05097 0.17358 0.34563
-0.07229 0.17358 0.34417
-0.10057 0.17358 -0.21037
-0.12803 0.17358 0.25185
0.05215 -0.06150 -0.14562
-0.08901 0.00391 0.12087
-0.13490 0.00391 0.12232
-0.07407 -0.03704 -0.17236
0.16736 0.06772 -0.27229
-0.10062 -0.16546 0.20066
-0.13862 0.14675 0.22339
-0.16440 0.17358 0.23897
-0.01530 0.16262 0.25649
0.05029 -0.16546 0.20762
0.12476 -0.16546 0.16170
0.10762 -0.16546 0.15812
0.02232 0.17358 -0.27640
-0.14864 0.17358 -0.27170
-0.09643 0.17358 -0.27583
-0.18587 0.17358 -0.27014
0.05365 0.17358 -0.27266
-0.08984 -0.16546 -0.13557
0.05883 -0.16546 -0.12857
-0.11990 0.00391 -0.12643
0.03423 0.00391 -0.11908
-0.05445 -0.05248 0.14837
-0.19280 0.17358 -0.20625
-0.07754 0.17358 0.36998
0.14674 0.11214 -0.25835
0.16972 -0.00325 0.01689
-0.12368 -0.16827 -0.20116
0.06411 -0.09151 -0.12827
-0.03963 -0.16988 -0.22342
0.05244 0.16952 0.22984
0.05320 0.16952 0.21257
-0.03390 -0.16989 -0.22745
0.08292 0.00391 0.13506
-0.05776 0.00391 0.13089
0.03640 -0.17358 0.21691
-0.16945 0.13640 0.25382
0.11139 0.17358 -0.22899
0.26672 0.16199 0.24028
-0.08328 -0.11723 0.15112
0.09106 -0.16546 -0.14893
0.05565 -0.16546 -0.14331
-0.07899 0.16007 0.30201
0.12667 0.16007 0.30408
0.02089 0.16007 0.30153
0.15292 0.17358 -0.24721
-0.22387 0.16040 0.30799
0.02276 0.00391 0.21441
-0.22014 0.16007 -0.18458
-0.27632 0.16391 -0.12470
-0.16232 0.13588 0.27691
0.05611 -0.12792 -0.15035
-0.27297 0.16065 -0.07762
0.08631 0.16952 0.25342
-0.17273 0.12112 0.28074
0.14926 0.17358 0.22847
-0.26993 0.16038 -0.21387
0.16682 -0.00407 -0.01887
0.09983 -0.06517 -0.17084
-0.12279 0.00819 0.19821
-0.03040 0.17358 -0.24356
-0.00965 0.16952 -0.22998
0.03902 -0.16266 0.10404
0.16178 0.16915 0.18433
0.08961 -0.00443 0.21250
-0.07904 -0.17320 -0.22148
0.27569 0.16284 0.12623
-0.07423 0.00391 -0.20678
0.17718 0.12051 -0.27692
-0.00890 0.16952 -0.18656
-0.12178 0.16952 -0.18324
0.12294 0.16744 0.37401
0.00345 -0.00443 -0.19464
0.10147 -0.02459 0.20501
0.11108 0.00391 -0.02383
0.15182 0.00391 -0.04191
-0.10049 0.00391 -0.08884
-0.01206 0.00391 -0.09976
-0.07908 0.00391 -0.09041
0.11670 0.00391 0.07539
0.06936 0.00391 0.01465
0.06513 0.00391 -0.05634
0.08780 0.00391 0.05581
0.01736 0.00391 -0.06291
0.04140 0.00391 -0.05148
0.07757 0.00391 -0.08799
-0.01560 0.00391 -0.08937
-0.06195 0.00391 -0.09303
0.08873 0.00391 0.02627
0.00796 0.00391 -0.02694
0.03142 0.00391 0.01945
-0.00193 0.00391 -0.10625
-0.04522 0.00391 -0.07709
0.09658 0.00391 -0.06008
-0.04396 0.00391 -0.04083
0.10753 0.00391 0.06593
-0.12213 0.00391 -0.08477
-0.14383 0.00391 -0.10022
0.16065 0.00391 -0.07240
-0.06370 0.00391 -0.07780
0.00317 0.00391 -0.00141
0.01128 0.00391 -0.09105
0.02211 0.00391 -0.01618
-0.23488 0.17358 0.18745
-0.16375 -0.16567 0.01530
-0.07131 0.00391 0.15792
-0.15085 0.00391 0.15162
-0.08229 0.17358 0.35017
0.10976 0.17358 0.34714
0.08048 -0.11786 -0.17284
-0.26909 0.17358 0.00192
-0.26960 0.17358 -0.05390
-0.18979 0.17358 -0.11134
-0.21971 0.17358 -0.01902
-0.18860 0.17358 -0.12187
-0.21391 0.17358 -0.07694
-0.20278 0.17358 -0.12917
-0.21653 0.17358 -0.04285
-0.26412 0.17358 0.12138
-0.21420 0.17358 -0.18207
-0.24672 0.17358 -0.03909
-0.25411 0.17358 -0.04664
-0.24775 0.17358 -0.01596
-0.25592 0.17358 -0.08804
-0.25875 0.17358 0.06875
-0.26293 0.17358 0.05905
-0.23780 0.17358 -0.09127
0.07870 -0.13333 -0.16784
0.16248 -0.17206 0.05531
-0.04388 -0.17358 0.20900
0.11211 0.03881 0.18995
0.07611 -0.17358 0.17656
-0.04889 -0.17358 0.16770
-0.22991 0.16007 -0.23730
0.16614 0.09536 0.28104
0.06043 -0.00443 0.18988
0.09072 0.02021 0.18120
-0.04762 -0.00443 0.22043
0.05630 -0.17358 -0.19657
0.13212 0.01301 -0.20933
0.17464 0.17358 -0.18898
-0.16024 0.16952 0.04189
-0.12667 -0.00305 -0.20153
0.15209 0.04379 0.26534
0.19153 0.17358 -0.21235
0.03002 0.17358 0.24703
0.01646 -0.00443 0.19350
0.03824 -0.16546 0.22212
-0.09960 -0.16546 0.19353
0.01830 0.16004 -0.26129
0.06627 -0.12593 0.13147
0.06110 0.17358 0.25693
0.12896 0.08140 0.21664
0.07946 -0.00443 0.21230
-0.09339 -0.08610 0.16318
-0.01822 -0.16546 0.20842
0.14315 0.04658 0.22309
0.08695 -0.17338 -0.21844
0.19676 0.17358 0.27993
-0.01376 0.17358 0.28274
0.07557 0.17358 0.28231
-0.08422 0.17358 0.29010
-0.07700 -0.02373 -0.17585
0.04517 -0.16545 0.12199
0.07369 -0.07162 -0.13969
-0.13035 0.00391 0.13657
-0.13718 0.00391 0.13621
0.22289 0.16007 0.23411
-0.11594 0.01415 -0.19066
-0.13745 0.12792 -0.24790
0.04930 -0.00443 0.04736
-0.13072 -0.00443 -0.06432
-0.15740 -0.00443 0.08120
-0.14503 -0.00443 0.07856
-0.04004 -0.00443 0.01864
-0.11535 -0.00443 0.02341
-0.07989 -0.00443 0.10255
0.11966 -0.00443 0.08265
-0.05771 -0.00443 -0.00298
-0.09210 -0.00443 -0.02555
-0.00293 -0.00443 0.01429
-0.11665 -0.00443 -0.03765
-0.12819 -0.00443 0.01683
-0.03180 -0.00443 0.10499
0.03082 -0.00443 0.03137
-0.06103 -0.00443 0.03189
0.09237 -0.00443 0.07510
0.07769 -0.00443 0.10284
0.00464 -0.00443 0.02789
-0.10033 -0.00443 0.07136
-0.06377 -0.00443 0.10627
-0.07445 -0.00443 -0.01672
-0.00923 -0.00443 0.06047
-0.03523 -0.00443 0.03759
0.03635 -0.00443 0.08816
0.02343 -0.00443 0.10622
-0.04904 -0.00443 0.08413
-0.13558 -0.00443 0.01885
-0.12822 -0.00443 0.09034
0.08055 -0.00443 0.06348
-0.06678 -0.00443 0.03770
-0.05964 -0.00443 -0.03513
0.17610 0.09653 0.26235
-0.05584 -0.09217 -0.15064
-0.03259 0.17358 -0.15044
0.05374 0.17358 -0.14974
-0.01854 0.17358 -0.15694
0.10501 0.17358 -0.11922
0.08092 0.17358 -0.13388
-0.15715 0.17358 -0.13648
-0.11203 0.17358 0.02705
0.11413 0.17358 -0.15913
0.08306 0.17358 -0.10773
-0.06042 0.17358 -0.05952
-0.11035 0.17358 0.08553
-0.01671 0.17358 -0.05820
-0.09660 0.17358 -0.12873
-0.15715 0.17358 -0.07960
-0.08951 0.17358 -0.05639
-0.12858 0.17358 -0.18014
0.00676 0.17358 -0.08450
-0.15368 0.17358 0.05285
-0.12402 0.17358 -0.13531
-0.11845 0.17358 -0.07482
0.01881 0.17358 -0.07452
-0.03879 0.17358 -0.16465
-0.07177 0.17358 -0.12296
-0.15005 0.17358 -0.10049
0.00050 0.17358 -0.13553
-0.11592 0.17358 0.05860
-0.12400 0.17358 -0.16300
0.05270 0.17358 -0.06035
-0.08489 0.17358 -0.05270
0.09876 0.17358 -0.17443
-0.14379 0.17358 -0.11963
-0.04152 0.17358 -0.17873
-0.15071 0.17358 0.12279
-0.14237 0.17358 -0.17374
-0.07938 0.17358 -0.01194
-0.10971 0.17358 0.09190
-0.06085 0.17358 -0.10799
0.04449 0.17358 -0.07219
-0.08941 0.17358 0.09738
-0.07656 0.17358 -0.13318
-0.04134 0.17358 -0.10008
-0.12782 0.17358 -0.00205
0.03276 0.17358 -0.06191
-0.11826 0.17358 0.00703
-0.06783 0.17358 -0.06151
-0.14627 0.17358 0.16345
-0.13261 0.17358 -0.14422
0.02942 0.17358 -0.11777
-0.16125 0.17358 0.03065
-0.05744 -0.16272 -0.15255
-0.19437 0.16007 -0.21813
-0.00584 0.00391 -0.20239
0.09959 -0.07661 -0.17056
0.08259 -0.16821 -0.21862
0.00385 0.17358 0.21321
0.17509 0.16222 0.28106
-0.08635 -0.12528 -0.15539
0.09798 0.17358 0.22887
0.04096 0.17358 -0.35619
0.09413 -0.17358 -0.19153
-0.17257 0.15793 0.28374
0.03187 -0.16546 0.14342
0.07016 0.16209 0.37640
0.19359 0.16696 -0.33584
0.12836 0.04693 -0.23644
-0.27418 0.17099 0.20708
0.05559 -0.16764 -0.22310
0.02015 0.16807 -0.37158
0.03220 -0.11582 0.12246
-0.13208 0.16007 -0.25635
0.08885 -0.16546 0.15730
0.03030 -0.16546 0.15851
0.10903 0.16147 -0.37410
0.07720 0.00391 0.18602
-0.18263 0.17358 0.33215
0.04443 0.17358 0.32153
-0.17022 0.17358 0.33024
-0.07432 -0.00443 0.13574
-0.12306 -0.00443 0.14011
0.15471 -0.00443 0.15538
0.11953 -0.00443 0.14859
0.09085 -0.00443 -0.17052
-0.00376 -0.00443 -0.16612
0.04934 0.17358 0.25030
-0.06467 -0.13840 -0.16116
-0.05785 -0.11143 0.15241
0.06338 -0.17358 0.15230
-0.06401 -0.17358 0.14840
-0.09528 -0.03110 -0.16604
0.05394 -0.04848 -0.14776
-0.08491 0.16007 -0.26618
0.05229 -0.00443 0.16629
-0.20101 0.16007 0.21840
0.04119 -0.14869 -0.10465
0.04480 0.17358 0.20175
-0.09350 -0.00441 0.22190
-0.08427 -0.07922 -0.18452
0.07565 -0.04011 0.17424
0.16105 0.06651 0.24442
-0.04832 -0.12687 -0.11007
-0.15324 0.07194 0.23449
-0.21605 0.16630 -0.31691
-0.24904 0.16952 0.27121
0.00772 0.17358 -0.35893
-0.15938 0.16952 0.12918
0.10668 0.16184 0.37468
-0.15753 0.16007 -0.25482
-0.07209 0.16952 0.25957
-0.01646 0.16952 -0.23853
0.02769 0.00391 -0.22156
-0.07774 -0.12174 -0.17287
0.03602 -0.00443 -0.02159
0.15751 -0.00443 0.09415
0.16679 -0.00443 0.11050
0.14523 -0.00443 0.05362
-0.00462 -0.00443 -0.08362
0.08887 -0.00443 0.01473
0.13753 -0.00443 0.00391
0.16574 -0.00443 -0.08627
0.08111 -0.00443 -0.01136
-0.01686 -0.00443 -0.07217
0.15425 -0.00443 0.01789
0.05244 -0.00443 0.02644
0.14383 -0.00443 -0.10668
0.12488 -0.00443 -0.04829
0.10919 -0.00443 -0.09141
0.12776 -0.00443 0.05764
0.13495 -0.00443 0.04748
0.14358 -0.00443 -0.04509
0.13758 -0.00443 -0.01538
-0.02878 -0.00443 -0.10780
0.06299 -0.00443 -0.08676
-0.03757 -0.00443 -0.07310
0.11083 -0.00443 -0.04819
0.11853 -0.00443 0.01826
-0.06573 -0.00443 -0.05706
-0.07797 -0.00443 -0.06048
0.12996 -0.00443 0.01674
0.16592 -0.00443 -0.00905
-0.07758 -0.00443 -0.05455
0.05683 -0.03507 0.14807
0.01971 0.00391 0.20408
-0.12223 0.17358 0.34695
0.01449 0.17358 0.34736
0.16192 0.16176 0.00566
0.16192 0.17152 0.17229
0.16192 0.16688 0.17591
-0.15652 0.16007 -0.33503
-0.17325 0.16007 -0.34075
-0.04123 -0.12995 -0.10883
-0.13691 0.00391 -0.16553
0.00265 -0.16546 0.17584
0.03495 -0.16546 0.17738
-0.07284 0.16007 -0.29395
0.11719 0.16007 -0.29867
0.17074 0.16007 -0.29148
-0.01494 0.16007 -0.29637
-0.09042 -0.08521 -0.18357
-0.08877 -0.01097 0.15766
-0.18018 0.08427 0.26660
-0.16248 -0.17185 0.00568
0.06551 0.17358 0.22817
-0.14362 0.00540 0.24385
-0.01866 0.17358 -0.24202
-0.16266 0.08726 0.24572
0.14378 0.16007 -0.24383
0.10576 -0.16546 0.13690
0.07912 -0.16546 0.12696
-0.05053 -0.05931 -0.14431
-0.11023 0.16007 0.34978
-0.03016 0.16007 0.35327
-0.08027 -0.09417 -0.17975
0.27011 0.17256 0.18780
0.08453 -0.16546 -0.20542
-0.05206 0.17358 0.27810
0.02782 0.17358 0.27074
0.14960 0.17358 0.27636
0.16192 0.16494 -0.13226
0.16192 0.16086 -0.16649
0.08541 0.00391 -0.20867
0.04886 -0.17358 0.18849
-0.00330 0.16941 -0.37783
0.17590 0.17358 0.27028
-0.10388 -0.17358 -0.19463
0.10286 -0.01453 -0.20605
0.04702 -0.13489 0.10853
-0.11250 -0.16546 -0.18410
-0.20268 0.16007 -0.26913
-0.20732 0.16007 -0.27483
0.16192 0.16825 -0.03018
0.16192 0.16573 -0.15208
0.17572 0.07392 0.26191
-0.13652 0.16782 0.24264
0.24859 0.17164 0.28235
0.20910 0.16007 0.30366
0.16439 0.16007 0.30070
0.07567 0.16007 0.30021
0.15550 0.16007 0.30904
0.18204 0.16344 -0.34356
-0.17034 0.14882 -0.25549
0.03493 -0.15730 0.12325
-0.04891 0.16007 0.27359
0.11856 0.16007 0.27837
0.14244 0.16007 0.27841
0.00459 0.16952 0.22732
-0.13309 0.16952 0.22753
-0.23105 0.17358 0.22334
0.13931 0.16952 -0.16728
0.01414 0.16952 -0.16702
-0.14271 0.16952 -0.13964
-0.15124 0.16952 -0.02846
-0.09284 0.16952 0.03969
-0.10640 0.16952 -0.13720
0.13337 0.16952 -0.17914
-0.05255 0.16952 0.01891
-0.15774 0.16952 0.16940
0.04012 0.16952 -0.09437
-0.10975 0.16952 -0.09094
-0.11202 0.16952 -0.16233
-0.06545 0.16952 -0.08054
0.11286 0.16952 -0.13908
-0.14856 0.16952 -0.10771
-0.09508 0.16952 0.01809
-0.06567 0.16952 0.05147
-0.15945 0.16952 -0.10598
0.04936 0.16952 -0.08194
-0.09925 0.16952 -0.11524
-0.07459 0.16952 -0.01871
-0.09809 0.16952 -0.09892
-0.03950 0.16952 -0.14976
0.07300 0.16952 -0.09553
-0.01847 0.16952 -0.11554
-0.09246 0.16952 0.10220
0.07156 0.16952 -0.10980
-0.01623 0.16952 0.01534
-0.12175 0.16952 -0.16450
-0.11886 0.16952 -0.07231
-0.10622 0.16952 -0.03654
-0.08634 0.16952 -0.14215
-0.00848 0.16952 -0.07883
-0.01439 0.16952 -0.13572
-0.12278 0.16952 -0.01798
-0.02865 0.16952 -0.00107
0.04667 0.16952 -0.12759
0.08680 0.16952 -0.14576
-0.15361 0.16952 -0.07043
0.03648 0.16952 -0.15350
-0.06988 0.16952 -0.06709
-0.07891 0.16952 -0.03375
-0.00310 0.16952 -0.03228
-0.03997 0.16952 -0.17461
0.01554 0.16952 -0.16081
0.00469 0.16952 -0.04321
0.21499 0.16763 -0.32681
-0.17367 0.16007 0.25881
-0.05076 -0.13439 -0.11298
-0.27306 0.17268 0.19424
-0.11688 0.17358 0.24705
-0.07706 -0.06487 -0.17593
-0.07867 -0.13167 0.14563
0.16570 0.16007 -0.26924
-0.03717 0.16007 -0.27325
0.25072 0.16007 -0.26501
-0.11136 0.16007 -0.27793
0.15500 0.17181 -0.36242
-0.20651 0.17358 -0.29804
-0.18967 0.17358 -0.29067
-0.17974 0.17358 -0.29240
-0.16560 0.04608 -0.26187
-0.14616 0.09014 -0.25828
0.13562 0.17358 0.28899
-0.04061 0.17358 0.29715
0.15066 0.17358 0.29820
-0.07515 0.17358 0.29768
-0.27662 0.16902 0.08200
0.17578 0.06253 0.26197
0.13601 -0.00844 -0.23361
0.16537 0.08634 0.24957
0.17625 0.14547 0.26254
-0.08868 -0.00443 0.14683
0.10175 -0.00443 0.14732
0.19086 0.16007 -0.21260
0.11475 0.00391 -0.18963
0.06368 -0.07491 -0.12776
-0.06563 0.16007 0.36805
0.00998 -0.17358 -0.19035
-0.03523 0.17358 0.20981
-0.12620 0.17358 0.20855
-0.10368 0.16952 0.20320
-0.15288 0.16952 0.20454
-0.10292 -0.17358 0.20206
0.13708 0.17358 -0.19540
0.12817 0.17358 -0.19526
-0.16192 0.17043 -0.17830
0.06536 -0.15394 -0.12976
-0.26383 0.16007 -0.22371
0.15228 0.05939 0.23397
0.02946 0.17358 0.32022
-0.07802 0.17358 0.32195
-0.10854 0.17358 0.31885
-0.26095 0.16149 -0.24260
0.05649 -0.15934 -0.12369
0.01570 -0.00443 -0.19315
-0.10218 0.02522 0.20525
0.23962 0.17358 0.19305
-0.00689 -0.00335 -0.23217
-0.06616 0.17358 -0.21793
-0.20996 0.16007 -0.19710
-0.08168 0.16952 0.24786
0.10420 -0.17358 -0.15981
0.01126 0.16004 -0.25701
-0.01596 0.16952 -0.21913
0.05267 -0.17358 0.12826
-0.09477 -0.17358 0.12854
-0.05719 -0.16545 0.13028
-0.16682 0.00250 0.00747
-0.02972 0.16952 -0.25791
0.16557 0.05427 0.26690
-0.15959 -0.00443 -0.15277
0.13885 0.08507 0.24956
-0.26053 0.16007 -0.13988
-0.26431 0.16007 -0.03913
-0.18228 0.16007 -0.11376
-0.26216 0.16007 -0.13177
-0.20017 0.16007 -0.17990
-0.25955 0.16007 -0.11058
-0.23835 0.16007 -0.10968
-0.24325 0.16007 0.02616
-0.16945 0.16007 -0.17150
-0.22655 0.16007 -0.14835
-0.22970 0.16007 -0.02670
-0.24252 0.16007 -0.11904
-0.26651 0.16007 -0.15584
-0.26677 0.16007 -0.14605
-0.24293 0.16007 0.06986
-0.24756 0.16007 -0.11344
-0.18798 0.16007 0.23455
-0.22114 0.16007 -0.29456
-0.16742 0.16007 -0.28488
-0.14157 0.16007 -0.28560
-0.08708 -0.03454 0.15565
0.08940 -0.00443 0.11759
0.11492 -0.00443 0.12503
-0.10294 -0.08288 0.17455
0.03235 -0.16348 -0.12202
0.13313 -0.01782 -0.22333
0.04413 0.16047 -0.37158
0.08919 -0.16546 -0.17825
-0.11747 -0.16546 -0.16960
0.17338 0.17355 -0.34921
0.01921 0.17358 -0.19123
0.16050 0.17358 -0.18441
-0.17056 0.00156 -0.05324
-0.12544 0.00391 -0.14368
0.09896 0.00391 -0.14236
-0.05702 -0.08297 -0.15204
0.24715 0.17358 -0.06126
0.21748 0.17358 -0.09525
0.25901 0.17358 0.12610
0.25802 0.17358 -0.07318
0.26183 0.17358 0.04747
0.24418 0.17358 -0.04357
0.19665 0.17358 -0.09574
0.20926 0.17358 -0.16239
0.23697 0.17358 -0.09777
0.23192 0.17358 -0.12927
0.19241 0.17358 -0.08785
0.23054 0.17358 0.00970
0.23800 0.17358 -0.00529
0.24355 0.17358 -0.14284
0.19838 0.17358 -0.08113
0.21263 0.17358 -0.05733
0.08817 -0.00872 0.18917
-0.03404 0.16952 0.26079
0.03535 0.16007 0.32316
0.07364 0.16007 0.31877
0.09396 0.16007 0.32818
0.13570 -0.00079 0.21421
0.00877 -0.16546 0.22023
-0.06777 0.16952 0.25679
-0.15865 0.00225 -0.16495
-0.06006 -0.17358 -0.13511
0.07262 -0.17358 -0.12928
0.05775 -0.07426 0.15291
-0.05332 0.16952 0.19415
-0.00927 0.16952 0.19123
0.00503 -0.17358 -0.18080
0.11199 -0.04565 -0.20285
0.15515 0.16514 -0.15725
0.05333 -0.16545 0.11776
-0.26370 0.16007 -0.20106
0.04357 -0.08513 0.13602
-0.06589 0.16952 -0.20507
-0.20304 0.16007 0.21163
-0.03779 0.17358 -0.22625
-0.08210 0.00222 -0.18193
0.27024 0.17177 0.03303
0.27024 0.16540 -0.07458
0.12892 0.06750 0.23773
0.15843 0.16004 -0.11388
-0.26879 0.16192 -0.20795
0.15345 -0.00443 0.13937
0.16349 -0.00443 0.13794
0.09448 -0.16546 0.18321
-0.06942 -0.12352 0.16620
-0.17970 0.14600 0.27734
0.07204 0.17358 0.23988
0.03596 -0.11680 -0.11798
0.14307 0.15490 0.25459
-0.02498 -0.17358 -0.15658
-0.12803 0.16952 -0.20683
-0.15515 0.16592 0.11224
0.07587 -0.16545 -0.15423
0.13351 0.07573 0.21160
-0.08831 -0.06283 0.18872
0.06850 -0.00443 -0.22464
-0.16192 0.16251 -0.14973
-0.07765 -0.15884 -0.16100
-0.09065 0.16007 -0.34728
-0.20054 0.16007 0.25324
-0.10225 -0.16546 -0.20120
0.17185 0.15201 0.25730
0.09648 -0.02363 -0.19845
-0.07144 0.17358 0.33669
-0.17284 0.17358 0.34230
-0.15372 0.04758 0.26667
-0.09480 0.02381 0.18352
0.13852 0.16857 0.24088
-0.05477 -0.17358 -0.15114
-0.07029 -0.07989 0.16723
0.05304 -0.11244 -0.11508
-0.06559 -0.03414 -0.16226
-0.15515 0.16679 -0.10485
0.15632 0.06752 -0.26976
0.02617 0.16007 -0.32531
0.12373 0.16007 -0.32134
0.04915 0.16007 -0.32426
-0.06013 0.17358 0.06683
0.04060 0.17358 -0.04706
-0.12059 0.17358 -0.17442
-0.06905 0.17358 -0.14445
0.03324 0.17358 -0.10971
-0.12730 0.17358 -0.09723
-0.09060 0.17358 0.08539
-0.12786 0.17358 0.13834
0.04975 0.17358 -0.10615
-0.14311 0.17358 0.03995
-0.06011 0.17358 -0.14834
-0.00493 0.17358 -0.02466
0.14674 0.17358 -0.17283
-0.00950 0.17358 0.00997
0.09724 0.17358 -0.15215
-0.00154 0.17358 -0.05493
0.06120 0.17358 -0.17740
0.05522 0.17358 -0.12189
-0.08591 0.17358 -0.13487
-0.15518 0.17358 0.10347
-0.09647 0.17358 -0.08114
-0.09196 0.17358 -0.11027
0.12655 0.17358 -0.15957
-0.14110 0.17358 -0.15314
-0.09498 0.17358 -0.03368
0.03094 0.17358 -0.10280
-0.14713 0.17358 -0.14092
-0.10950 0.17358 0.04236
-0.05708 0.17358 0.02472
-0.05212 0.17358 -0.06035
-0.13325 0.17358 -0.08217
-0.10855 0.17358 -0.01633
0.02723 0.17358 -0.09052
-0.13119 0.17358 -0.15917
-0.11146 0.17358 -0.15818
-0.13085 0.17358 0.05045
-0.05999 0.17358 -0.02167
-0.11455 0.17358 0.08004
-0.10475 0.17358 0.05260
0.05181 0.17358 -0.07363
-0.16187 0.17358 0.13205
-0.20473 0.17358 0.24968
-0.15177 0.16007 0.23468
0.12878 0.11067 0.23756
-0.09972 0.00391 0.17297
0.13311 0.09696 -0.24210
0.05032 -0.00443 -0.13538
0.12697 -0.00443 -0.13946
0.20698 0.17358 -0.23027
-0.11798 -0.16546 0.12934
-0.15923 -0.16546 0.13308
-0.10504 0.17358 0.36896
0.08181 -0.02403 -0.14937
-0.21909 0.17283 0.31345
0.08350 0.16531 0.26309
0.25738 0.17351 0.25314
0.23291 0.16007 0.21647
-0.20014 0.17358 -0.19411
0.16020 -0.00443 -0.14212
-0.26763 0.16007 0.20947
-0.18090 0.17358 0.17665
-0.20364 0.17358 -0.01628
-0.16454 0.17358 -0.12308
-0.21390 0.17358 0.07449
-0.21732 0.17358 0.01225
-0.21374 0.17358 0.10697
-0.19731 0.17358 0.12404
-0.16975 0.17358 -0.06408
-0.20385 0.17358 0.06473
-0.19481 0.17358 0.02852
-0.20741 0.17358 0.14164
-0.23494 0.17358 0.11862
-0.23109 0.17358 0.09260
-0.22504 0.17358 0.12597
-0.20786 0.17358 0.08088
-0.17207 0.17358 0.12850
-0.06404 0.16952 -0.23521
0.09619 0.01619 -0.19810
0.11714 0.17091 -0.37380
0.10531 0.16007 -0.32978
-0.09784 0.16007 -0.33218
0.12317 0.17358 -0.26157
-0.20414 0.16007 0.30923
-0.15718 0.16007 0.31405
-0.19146 0.16007 0.30659
-0.27171 0.16024 0.17146
0.13786 0.05961 0.24838
0.08174 0.17358 -0.25217
0.22411 0.17358 -0.19054
0.01283 0.16007 0.34103
-0.08796 0.16007 0.33830
0.17293 0.16059 -0.35176
-0.14747 0.07949 -0.25984
-0.15306 -0.17038 -0.16527
0.15706 0.09171 0.27126
-0.09471 -0.07539 -0.16536
0.15971 0.17358 -0.23446
-0.04566 -0.15651 -0.10725
0.13227 0.16952 -0.14092
0.14363 0.16952 -0.13087
0.05911 0.16952 0.16369
0.01528 0.16952 -0.01566
0.13721 0.16952 -0.06091
0.06433 0.16952 0.05886
0.12878 0.16952 -0.09931
0.08950 0.16952 -0.09645
0.10072 0.16952 0.02595
0.11281 0.16952 0.01486
0.08607 0.16952 -0.06658
0.06087 0.16952 0.03301
-0.03072 0.16952 0.08054
0.13737 0.16952 -0.00417
0.13963 0.16952 0.06572
-0.03872 0.16952 0.15790
-0.06086 0.16952 0.15817
0.01969 0.16952 0.16403
0.09905 0.16952 -0.01364
0.10986 0.16952 -0.08525
-0.04414 0.16952 0.16445
0.08627 0.16952 0.17191
0.06865 0.16952 0.17773
0.09470 0.16952 -0.04616
0.14756 0.16952 0.03936
0.03683 0.16952 -0.01547
0.03427 0.16952 0.02794
0.08285 0.16952 0.07091
0.10126 0.16952 -0.06986
-0.07611 0.16952 0.10508
-0.07182 0.16952 0.13668
0.15682 0.16952 -0.04964
0.15359 0.16952 0.16859
0.09992 0.16952 0.05456
0.15620 0.16952 0.11190
0.14278 0.16952 -0.11596
0.12412 0.16952 0.16959
-0.02395 0.16952 0.07143
0.02286 0.16952 0.03979
0.14010 0.16952 -0.01269
-0.00313 0.16952 0.15760
0.12629 0.16952 0.01714
0.10362 0.16952 0.14680
0.00505 0.16952 0.16644
0.14494 0.16952 -0.04189
-0.09420 0.16952 0.11721
0.09158 0.16952 -0.00912
0.07821 0.16952 0.06904
0.08186 0.16952 0.12836
-0.14357 0.11159 -0.22359
-0.06845 0.16952 0.23545
0.27682 0.16534 -0.03518
-0.04924 0.16952 -0.25166
-0.08825 -0.00443 -0.13515
0.04073 -0.00443 -0.13150
-0.15154 -0.00443 -0.13737
0.12931 0.05493 0.20659
0.10075 0.17358 -0.20906
0.07380 0.17358 -0.20950
-0.00250 -0.16546 -0.20948
-0.17356 0.12755 -0.25934
-0.08527 0.00391 0.21712
0.06935 -0.16354 0.13514
0.04329 -0.16546 0.11658
0.13809 -0.16546 0.12131
-0.08821 -0.17358 0.16120
0.20678 0.16007 0.15705
0.20196 0.16007 0.07740
0.19717 0.16007 0.01422
0.19646 0.16007 -0.01378
0.19590 0.16007 -0.00038
0.20208 0.16007 0.13514
0.19680 0.16007 0.10497
0.17014 0.16007 -0.02440
0.17473 0.16007 0.09632
0.20651 0.16007 0.16974
0.17421 0.16007 -0.06689
0.24378 0.16007 0.11532
0.20739 0.16007 0.09769
0.19365 0.16007 0.06161
0.18998 0.16007 -0.01946
-0.07443 -0.10122 0.14057
-0.06885 -0.17358 0.11883
-0.11822 -0.17358 0.11392
-0.15617 0.16007 0.33089
-0.16165 0.16007 0.32517
0.20076 0.16661 -0.33038
-0.10324 0.02025 -0.17553
-0.05342 -0.17358 0.22173
-0.08518 0.16952 0.26134
-0.05049 -0.09928 0.14365
-0.16282 -0.16548 -0.00169
0.16192 0.16438 -0.14632
0.16192 0.16562 -0.17261
-0.16614 -0.17128 -0.04927
-0.03334 0.16007 -0.34458
-0.03896 0.16007 -0.33913
0.03472 0.17358 -0.22258
0.15838 0.16004 -0.01002
-0.06279 0.17358 -0.34013
-0.00285 0.17358 -0.34378
0.05562 -0.00443 -0.22769
-0.07833 0.17358 0.24751
0.08987 0.17358 0.21347
0.12043 0.17358 0.20737
-0.10609 -0.16546 0.14747
0.16555 0.17358 0.26057
0.18598 0.17358 0.26183
-0.07279 0.17358 0.22272
0.03446 0.16007 0.32818
0.04416 0.16007 0.32914
-0.17072 0.16007 0.32263
0.06575 0.16952 -0.24688
0.14196 0.12114 0.25327
0.16752 0.08138 -0.27671
0.20931 0.16007 -0.22100
0.22597 0.17358 0.27028
0.18687 0.16007 -0.23724
-0.19438 0.17358 -0.22679
0.07777 0.17358 0.33124
0.01613 0.17358 0.32758
-0.10943 0.17358 0.33198
0.04833 0.00391 0.20262
0.08477 0.00391 0.17900
0.13332 0.00391 0.18030
0.06743 -0.00443 0.16930
-0.04990 -0.00443 0.16838
-0.10927 0.16952 0.25545
-0.11375 0.00232 -0.21966
-0.09940 0.17358 -0.36005
0.18005 0.08689 -0.26644
-0.04522 0.16186 -0.26326
-0.02933 0.16007 -0.31891
-0.06983 0.16007 -0.32571
-0.01254 0.16007 -0.32302
-0.16192 0.17112 0.15534
0.07888 -0.16546 0.18624
-0.07284 -0.16546 0.18943
0.19057 0.16007 -0.24928
-0.06108 -0.10459 0.15626
-0.05355 -0.17358 0.11330
-0.00580 -0.17358 0.11842
-0.24628 0.17213 -0.28480
-0.11746 -0.16546 0.16938
-0.09315 -0.16546 0.17282
0.13279 0.14214 0.24235
0.11076 0.02068 -0.18387
0.03210 0.16952 -0.19000
0.08277 0.16952 -0.18636
0.11193 0.00391 0.17095
-0.10140 0.00391 0.16468
0.08049 0.17358 0.30353
0.02369 0.17358 0.30034
-0.03391 0.17358 0.30401
-0.04109 0.17358 0.30964
-0.12374 0.17358 0.24849
0.10024 -0.16546 -0.16125
-0.03138 0.17112 0.37158
0.08788 -0.12935 -0.15660
0.17597 0.17358 -0.07332
0.20279 0.17358 0.16878
0.20868 0.17358 0.17633
0.17695 0.17358 0.07159
0.22217 0.17358 0.12647
0.20432 0.17358 0.07873
0.20332 0.17358 0.01110
0.19849 0.17358 0.16118
0.21025 0.17358 0.16535
0.21971 0.17358 0.09567
0.18448 0.17358 0.16704
0.18158 0.17358 0.05832
0.17885 0.17358 -0.04476
0.23632 0.17358 0.15346
0.17555 0.17358 0.07833
0.19396 0.17358 0.03572
0.17183 0.17358 -0.11705
-0.17083 0.00032 -0.11659
0.06050 0.00391 0.18890
-0.03244 0.16952 0.20672
0.22199 0.16007 -0.04709
0.16969 0.16007 -0.16234
0.25613 0.16007 -0.12569
0.20040 0.16007 -0.08794
0.20096 0.16007 -0.14702
0.23570 0.16007 -0.10645
0.21706 0.16007 -0.15900
0.22313 0.16007 -0.03176
0.21386 0.16007 -0.01809
0.18578 0.16007 -0.13084
0.18821 0.16007 -0.10588
0.21282 0.16007 -0.09467
0.22968 0.16007 -0.05839
0.23761 0.16007 -0.02842
0.22138 0.16007 -0.06007
0.20513 0.16007 -0.12105
0.17163 0.16007 -0.17470
0.18270 0.12470 -0.26960
-0.07606 0.16512 -0.37812
-0.09096 0.17358 0.25948
0.00551 0.17069 0.37158
-0.19265 0.16766 0.33647
0.00701 -0.17358 0.14608
0.16559 0.00232 0.14664
0.17254 0.17358 -0.24855
-0.14170 0.00391 -0.15012
-0.05770 0.00391 -0.15605
-0.12746 0.17358 0.23313
-0.18091 0.16007 0.29464
-0.14493 0.16007 0.28934
-0.01343 0.16007 0.29771
-0.14240 0.16007 0.25700
0.17310 0.13083 0.28120
0.04371 -0.17358 -0.13954
0.16957 0.12582 -0.28401
0.07550 -0.00443 0.21528
-0.08698 -0.16546 -0.12258
0.01845 -0.16546 -0.11206
0.19975 0.16007 0.18765
-0.15827 0.16952 -0.01267
0.15927 -0.16972 0.13764
0.10128 0.03480 -0.19413
-0.24919 0.17316 -0.27611
-0.23250 0.16007 0.24919
-0.13567 0.02324 0.24516
0.20314 0.16007 -0.22304
-0.01898 -0.00443 0.19465
0.09158 -0.09181 0.16164
0.07902 0.16952 0.21993
0.03913 0.16952 0.22171
-0.19016 0.16007 -0.19796
0.08598 -0.16546 -0.11698
0.12589 -0.16546 -0.12471
0.06040 0.16939 -0.26326
0.05591 -0.16949 0.22308
0.04287 -0.17358 0.17759
0.14719 0.06069 -0.25889
-0.16682 -0.00155 -0.00538
-0.16117 0.16931 -0.19368
-0.15880 -0.16546 -0.14012
-0.01155 0.00391 -0.19377
-0.02529 -0.16546 0.18480
-0.06129 -0.16546 0.18310
-0.24804 0.17358 0.25912
-0.24229 0.17358 0.26945
0.10390 -0.17163 0.20979
-0.07392 -0.16546 -0.21050
-0.07352 -0.07480 -0.14010
0.03587 0.16952 0.24363
0.16278 0.17358 0.22245
-0.10938 -0.00527 -0.21444
0.10855 0.16952 -0.20309
-0.08974 0.17358 0.19260
0.00295 0.17358 0.18585
-0.09431 -0.17358 -0.06319
-0.11124 -0.17358 -0.05471
0.08958 -0.17358 0.10407
-0.03362 -0.17358 0.09517
-0.08798 -0.17358 0.10400
-0.01724 -0.17358 -0.01103
-0.01852 -0.17358 0.09067
-0.07907 -0.17358 0.07342
-0.14590 -0.17358 -0.07302
-0.15360 -0.17358 0.04430
-0.11214 -0.17358 -0.03698
-0.05531 -0.17358 0.03252
-0.14426 -0.17358 0.02145
-0.10119 -0.17358 0.10144
-0.08500 -0.17358 0.09135
0.05074 -0.17358 0.08385
-0.03034 -0.17358 0.04071
0.12269 -0.17358 0.09704
-0.01919 -0.17358 0.10164
-0.03719 -0.17358 0.08775
-0.13357 -0.17358 0.00620
0.02614 -0.17358 0.09906
-0.02376 -0.17358 0.03659
-0.09728 -0.17358 -0.05758
0.06682 -0.17358 0.07869
-0.01116 -0.17358 0.00852
0.02197 -0.17358 0.03352
-0.04824 -0.17358 0.01046
-0.16983 0.17358 0.26517
-0.23825 0.17358 0.25851
-0.06460 -0.07780 0.16045
0.13988 -0.16546 -0.13345
0.15662 -0.16546 -0.13214
0.16427 -0.00443 -0.09133
0.11577 -0.00443 -0.09367
-0.00078 -0.00443 -0.08981
0.02406 -0.00443 -0.09254
0.01237 -0.00443 -0.05182
0.14940 -0.00443 -0.03846
-0.08145 -0.00443 -0.06462
0.16282 -0.00443 0.04823
0.10746 -0.00443 0.04809
-0.02144 -0.00443 -0.05318
0.01692 -0.00443 -0.05873
0.12984 -0.00443 0.08389
0.13369 -0.00443 -0.03655
0.10472 -0.00443 -0.05150
0.04386 -0.00443 0.00891
-0.07236 -0.00443 -0.07702
0.15238 -0.00443 0.01145
0.07911 -0.00443 -0.02622
0.10412 -0.00443 -0.06576
0.07245 -0.00443 -0.01573
0.09315 -0.00443 0.05685
-0.00972 -0.00443 -0.03413
-0.10294 -0.00443 -0.09181
0.04888 -0.00443 0.02207
0.14778 -0.00443 0.04003
0.03058 -0.00443 -0.01645
0.02615 -0.00443 -0.00078
-0.12247 -0.00443 -0.10877
0.12953 -0.00443 0.03156
-0.09123 -0.00443 -0.06842
-0.01307 -0.16615 0.22342
-0.10910 -0.16546 0.19508
0.12213 -0.17358 0.19272
-0.07972 -0.16546 -0.15987
-0.04661 -0.16546 -0.15951
-0.09432 0.02065 -0.17883
-0.15475 0.04329 0.23630
-0.05574 -0.16546 -0.20961
0.02196 0.17358 -0.18687
-0.12246 0.17358 -0.19421
0.09424 0.00391 0.16081
0.03880 0.00391 0.16012
-0.05583 0.16299 0.37158
0.07279 0.00391 -0.17244
-0.11852 0.00391 -0.17247
-0.10198 0.16149 -0.37458
0.15515 0.16216 0.12596
0.06637 0.16007 0.26395
0.10890 -0.04912 -0.18166
0.07583 -0.06289 -0.17384
-0.06302 0.00391 0.15407
-0.02587 0.00391 0.15191
-0.15124 -0.17355 -0.16096
0.16498 0.16228 0.28036
0.04358 -0.00120 0.22937
-0.24482 0.16524 0.29130
0.05113 -0.12610 -0.11281
-0.26443 0.16307 -0.23130
0.05046 -0.08079 -0.12211
0.15515 0.16829 -0.10537
0.04017 0.00391 0.14531
0.09970 0.00391 0.15308
-0.15384 0.00391 -0.12928
0.02557 0.00391 -0.12450
-0.21542 0.17358 -0.21896
0.01381 0.17358 0.24082
0.08748 -0.10831 -0.15613
0.00596 0.17358 -0.20104
0.07002 -0.03109 0.14055
0.12665 0.09215 -0.22361
-0.14154 -0.17358 -0.11678
-0.11140 0.05898 0.21624
-0.10119 -0.17358 -0.17026
-0.04681 -0.15545 0.10766
0.23570 0.17358 -0.23725
-0.06078 0.17358 -0.23460
0.15006 0.17358 0.26944
-0.22743 0.17193 0.31060
0.09442 -0.17358 0.19401
-0.07079 -0.17358 -0.16936
-0.13469 0.00089 0.21239
0.16801 0.10458 0.25271
-0.09857 0.17358 0.20293
0.12697 0.16455 -0.36636
0.06949 0.17334 -0.37336
0.01766 -0.17358 -0.20581
-0.13626 0.17358 -0.30693
-0.06257 0.17358 -0.30626
-0.17854 0.17358 -0.30224
-0.27553 0.17102 -0.08166
-0.00256 -0.17358 -0.18193
0.08671 -0.09006 0.15582
-0.03801 -0.17358 -0.14402
-0.13632 -0.17358 -0.14950
0.14819 0.16008 0.36010
-0.03799 -0.11787 0.12874
-0.16706 0.16007 -0.10647
-0.22221 0.16007 0.03790
-0.17821 0.16007 0.16217
-0.16378 0.16007 0.10075
-0.21482 0.16007 0.12492
-0.20537 0.16007 0.08302
-0.22140 0.16007 0.05064
-0.20753 0.16007 0.06714
-0.19884 0.16007 0.13497
-0.25070 0.16007 0.15870
-0.16959 0.16007 0.10771
-0.20886 0.16007 0.09402
-0.23000 0.16007 0.14512
-0.19051 0.16007 0.05631
-0.16835 0.16007 0.01401
-0.20881 0.16007 0.02880
-0.18953 0.16007 0.04604
0.16682 -0.00320 -0.08023
0.05825 -0.13618 -0.15289
0.00884 -0.00443 -0.13613
-0.09484 -0.00443 -0.13342
0.06910 -0.00443 -0.13230
0.10556 0.17042 0.37020
-0.00597 0.16184 0.26326
-0.03248 -0.17358 -0.21559
-0.13239 0.10969 0.22333
-0.15685 -0.17356 0.14691
0.01387 0.16952 0.23503
-0.09019 -0.10856 -0.15998
-0.09290 0.00773 0.19419
0.02095 0.00391 -0.17430
-0.08688 -0.07333 0.15541
-0.08870 0.16952 -0.24009
0.04156 -0.15667 -0.11255
0.13153 0.11204 -0.22457
0.17044 -0.00233 -0.03263
0.10374 -0.07792 -0.17839
-0.04751 -0.11818 0.10849
-0.23875 0.17358 -0.27701
0.11891 0.17358 -0.27403
-0.24855 0.17358 -0.26260
-0.15474 0.17358 -0.26819
-0.08995 0.17358 -0.27536
0.13720 -0.16546 -0.18018
0.16201 -0.16548 -0.12462
-0.04369 -0.17358 -0.20075
0.12903 -0.17358 0.16315
0.05378 -0.17358 0.15938
-0.15689 0.16952 -0.15440
0.25520 0.16007 -0.21430
-0.15279 0.07736 0.23397
0.03331 -0.00443 0.21917
-0.00408 0.00391 -0.13501
-0.13384 0.00391 -0.14081
-0.16620 -0.16948 0.11711
-0.07864 -0.01731 0.17719
0.00784 0.00391 -0.22796
-0.09735 0.16952 0.26105
0.06146 0.17358 0.22384
0.05705 0.16007 0.35992
0.00549 0.17140 0.37654
-0.12067 -0.01876 -0.22790
-0.09364 -0.08548 0.18110
-0.04654 -0.14169 0.13893
-0.00774 0.16007 0.36684
0.13243 0.00391 -0.18721
0.03315 0.00391 -0.19103
0.15554 -0.16706 0.14986
-0.26579 0.17358 -0.21895
0.16132 0.16412 0.19140
-0.12437 0.02687 0.20010
-0.16851 0.00354 0.08456
-0.01005 0.16952 0.22113
0.20802 0.17358 -0.32185
-0.05753 0.17358 -0.31824
0.12818 0.17358 -0.32428
-0.16271 0.07020 -0.27674
-0.09692 -0.00443 0.21262
-0.17316 0.16007 0.22011
-0.25985 0.16011 0.24761
0.06328 -0.16545 -0.13367
-0.06353 -0.16545 -0.13514
0.07581 -0.17358 0.14872
0.13223 -0.17358 0.14663
0.14234 0.10019 -0.25311
-0.02637 -0.00443 0.22083
0.01852 0.17358 0.21875
0.17950 0.11042 -0.27335
-0.10376 -0.17358 0.18899
-0.11591 -0.17358 0.18589
0.08294 -0.17358 0.15794
-0.12143 0.05104 0.22819
-0.05988 0.00391 0.13613
-0.06889 0.00391 0.14003
-0.15658 0.16260 0.24090
-0.04856 0.17358 0.35511
0.19014 0.16031 0.34031
0.10675 0.16004 0.25544
-0.13007 -0.00443 -0.16707
-0.03390 -0.00443 -0.16396
0.10287 -0.17358 -0.17941
0.06698 -0.17358 -0.17244
-0.16385 0.09722 0.27873
-0.05956 -0.05929 -0.12729
-0.04448 0.16952 0.25208
0.12242 0.16134 -0.24497
-0.27109 0.17352 0.03074
-0.06320 -0.16546 0.10139
-0.12851 -0.16546 -0.03862
-0.13062 -0.16546 -0.03046
-0.11458 -0.16546 0.02667
-0.15534 -0.16546 -0.01231
-0.13148 -0.16546 -0.01957
-0.15795 -0.16546 0.09863
0.02880 -0.16546 0.07966
0.00547 -0.16546 0.02955
-0.13196 -0.16546 0.02888
-0.15580 -0.16546 -0.02586
-0.10125 -0.16546 0.04831
-0.12126 -0.16546 0.10245
-0.02019 -0.16546 -0.00520
-0.10617 -0.16546 0.05914
-0.16195 -0.16546 0.08532
-0.13127 -0.16546 0.06747
0.04191 -0.16546 0.03160
-0.03921 -0.16546 0.01234
-0.09006 -0.16546 0.10252
-0.07024 -0.16546 0.04277
-0.15226 -0.16546 0.02396
-0.14356 -0.16546 0.06398
-0.14019 -0.16546 -0.00949
-0.02520 -0.16546 0.11084
-0.07805 -0.16546 0.07185
-0.13850 -0.16546 -0.09302
0.02248 -0.16546 0.09796
0.09045 -0.08637 0.16029
-0.12972 0.07448 0.21206
0.02899 -0.16546 -0.21624
-0.08913 -0.09225 -0.15871
-0.18486 0.16007 -0.27691
-0.06580 0.16007 -0.27760
0.20532 0.16007 -0.26352
-0.04792 0.16007 -0.27199
0.06169 0.17281 -0.37469
-0.01648 0.16009 -0.37194
0.11432 0.00391 0.17764
0.12500 0.00391 0.17949
0.25879 0.16007 0.19546
-0.00089 -0.17326 0.22499
-0.12998 0.06893 -0.23900
0.15911 0.16952 0.04272
0.11206 -0.17358 -0.00511
0.14480 -0.17358 -0.02018
0.14256 -0.17358 0.08023
0.10369 -0.17358 -0.07501
0.06943 -0.17358 -0.04547
0.04708 -0.17358 -0.03935
0.12359 -0.17358 0.02996
-0.09831 -0.17358 -0.09581
-0.02145 -0.17358 -0.09261
-0.00658 -0.17358 -0.04847
-0.00465 -0.17358 -0.10140
0.07172 -0.17358 0.02177
0.04936 -0.17358 -0.10050
0.01209 -0.17358 -0.01083
0.10852 -0.17358 -0.07042
0.01543 -0.17358 -0.04211
-0.00098 -0.17358 -0.10967
0.14506 -0.17358 0.04399
0.10222 -0.17358 0.00523
0.15768 -0.17358 0.00767
0.11705 -0.17358 0.05770
0.13800 -0.17358 -0.05509
0.08584 -0.17358 -0.02635
0.00508 -0.17358 -0.03285
0.09863 -0.17358 0.03476
-0.08147 -0.17358 -0.07987
0.01632 -0.17358 -0.02404
0.06524 -0.00443 0.12167
0.07819 -0.00443 0.11640
0.15817 -0.00443 0.12691
-0.16192 0.16310 0.00780
-0.16192 0.16126 0.07647
0.14872 0.16004 0.22778
-0.13929 0.05095 0.24947
-0.03106 -0.00443 0.13537
0.14724 -0.00443 0.13332
-0.16903 0.10839 0.25331
-0.13342 -0.00443 -0.17582
0.11128 -0.05547 0.19216
-0.08453 -0.05678 -0.18482
-0.06893 -0.05112 0.13402
0.08593 -0.00341 -0.22407
0.16682 -0.00152 -0.06919
-0.03406 -0.14760 -0.12468
-0.04719 0.16007 0.36384
0.26403 0.16426 -0.23331
-0.12618 0.16383 -0.37268
0.06741 -0.01192 -0.16381
-0.09220 0.16817 0.26252
0.12867 0.16952 0.18296
-0.04984 0.16952 0.18396
-0.23980 0.17358 0.19761
0.00093 0.00391 -0.14352
0.15298 0.00391 -0.13495
0.00606 0.16952 -0.25986
-0.07886 -0.10688 0.14585
-0.07260 -0.00443 -0.12010
-0.14609 -0.00443 -0.12555
0.01108 -0.00443 0.20515
0.00297 -0.00443 0.20347
-0.16358 0.02643 -0.24791
-0.14285 0.13153 0.25371
-0.04634 -0.12233 -0.13932
-0.06253 0.16952 -0.25383
-0.11406 -0.00443 -0.20344
0.07267 -0.16445 0.15500
0.03060 0.00391 -0.18248
0.14031 0.16541 -0.22872
-0.27024 0.16082 0.06477
-0.27024 0.16497 -0.18465
-0.12203 0.04818 0.19730
-0.04605 0.00391 -0.21554
0.12282 -0.00476 0.19887
-0.25176 0.16007 0.23460
-0.11501 -0.02714 -0.18955
-0.15742 0.09604 -0.24009
0.27275 0.17309 -0.05239
0.00158 0.16952 -0.24941
-0.22198 0.16007 0.20987
-0.21960 0.17358 -0.00184
-0.21988 0.17358 0.00686
-0.26215 0.17358 -0.02557
-0.26850 0.17358 -0.03066
-0.26227 0.17358 0.14999
-0.20584 0.17358 -0.07028
-0.18151 0.17358 -0.16308
-0.24808 0.17358 0.08080
-0.18104 0.17358 -0.14375
-0.26681 0.17358 -0.11126
-0.26119 0.17358 0.00178
-0.21910 0.17358 -0.11390
-0.19951 0.17358 -0.07549
-0.23424 0.17358 -0.13474
-0.25327 0.17358 -0.03328
-0.26639 0.17358 -0.16191
-0.06042 -0.14670 0.15547
-0.18143 0.11084 0.26809
0.05034 -0.16546 -0.13902
0.00270 -0.16546 -0.13882
-0.12688 0.00957 -0.20370
0.03775 0.00391 -0.22628
0.06747 -0.07411 0.16450
0.08334 0.17358 -0.34231
0.17773 0.17358 -0.33910
-0.09907 -0.16546 0.11527
-0.25266 0.16007 0.18677
-0.15403 0.17147 -0.36313
-0.15596 0.16007 0.35608
-0.14441 0.16200 -0.36621
0.07453 0.16952 -0.21500
-0.05563 0.16952 -0.26106
-0.03722 -0.11005 -0.12845
-0.25309 0.17358 0.25181
0.06263 0.17358 0.28817
0.15738 0.17358 0.29831
-0.10763 0.17358 0.29770
0.08831 0.17358 0.28552
-0.23244 0.17033 0.30697
0.03682 0.16952 0.21049
0.00223 -0.17358 -0.12788
0.04588 -0.17358 -0.13031
-0.27461 0.16169 -0.05435
0.06976 -0.16546 0.17229
-0.09280 0.16952 -0.26056
0.04784 0.17140 -0.26326
-0.07877 0.17358 0.35520
0.16282 0.11935 -0.24591
-0.22071 0.17358 -0.19527
0.04433 0.16007 0.35910
0.12593 0.02308 -0.23355
-0.06417 -0.00443 -0.17658
-0.11095 -0.00443 -0.17253
0.10548 0.17358 -0.34519
-0.27024 0.16635 0.02032
-0.27024 0.16892 0.10329
0.16759 -0.00435 0.00892
0.12166 -0.00443 -0.19480
-0.04353 -0.00443 -0.22671
-0.07849 -0.04067 0.14542
-0.12797 0.16705 0.24941
0.16854 0.16228 -0.27846
-0.04750 0.00391 0.19447
0.13059 -0.00443 -0.11833
-0.01980 -0.00443 -0.12455
-0.08444 -0.01560 0.18410
-0.10252 -0.01667 -0.17467
0.12820 0.14744 0.23688
0.16240 0.13056 0.24603
0.17361 0.16007 -0.33823
0.01427 0.16007 -0.33983
0.01104 0.16952 0.25064
-0.08958 0.16952 0.20291
-0.14697 0.17358 0.20767
-0.10263 0.17358 0.21332
-0.03732 0.16952 0.20791
-0.05484 -0.08435 0.14883
0.15332 0.12920 -0.26619
-0.07211 -0.17358 -0.20426
0.16463 0.16007 0.21108
-0.04348 0.16952 -0.22100
0.05974 -0.00443 0.22709
-0.06363 0.00391 0.20800
-0.11915 0.16952 0.25355
0.13612 0.06227 0.21472
-0.14693 0.04908 -0.22760
0.11969 0.02726 0.22673
0.16248 -0.16927 0.08725
0.05939 0.17358 0.11161
-0.00608 0.17358 0.04398
0.01105 0.17358 0.11819
0.12561 0.17358 -0.01207
0.03789 0.17358 -0.02584
0.08185 0.17358 0.14969
0.07211 0.17358 0.04095
0.09740 0.17358 -0.03776
0.15083 0.17358 0.11597
-0.05703 0.17358 0.14295
0.13443 0.17358 -0.08392
0.16069 0.17358 0.13507
-0.07700 0.17358 0.17457
-0.08388 0.17358 0.14475
-0.01362 0.17358 0.15028
-0.00235 0.17358 0.02416
0.05547 0.17358 -0.03819
-0.02987 0.17358 0.09683
0.12140 0.17358 0.06643
0.01981 0.17358 0.13399
0.05393 0.17358 0.12170
0.00951 0.17358 0.16193
0.15331 0.17358 -0.14035
0.04793 0.17358 0.14647
0.09158 0.17358 -0.05297
0.13822 0.17358 -0.05520
-0.02314 0.17358 0.12776
0.07406 0.17358 0.07700
0.12596 0.17358 -0.02420
-0.02955 0.17358 0.17308
0.02327 0.17358 0.06117
0.09521 0.17358 0.00550
0.13837 0.17358 0.12999
0.12955 0.17358 -0.04285
0.12916 0.17358 0.16285
0.14354 0.17358 0.17437
0.08479 0.17358 -0.01137
0.00409 0.17358 0.17668
0.06804 0.17358 -0.03074
-0.06913 0.17358 0.12768
0.15074 0.17358 0.02965
-0.07913 0.17358 0.16287
-0.13756 0.17358 0.15670
0.04334 0.17358 0.03703
-0.01133 0.17358 0.11048
0.12201 0.17358 0.05770
0.05495 0.17358 0.01156
-0.10860 -0.06631 -0.18380
-0.08956 -0.02872 0.19020
-0.12418 -0.17358 -0.18450
-0.27616 0.17007 -0.07037
-0.00962 0.17358 -0.26408
0.05577 -0.15774 0.15055
0.05360 -0.00443 -0.15542
0.03037 -0.00443 -0.15169
-0.05147 -0.12693 -0.11383
0.14521 0.00756 -0.24489
0.18857 0.16007 -0.20172
0.20073 0.16007 -0.20046
-0.01647 0.17358 -0.28086
-0.12051 0.17358 -0.28366
0.08374 0.17358 -0.27931
0.13289 0.17358 -0.28566
0.16312 -0.16551 0.10323
0.23087 0.16297 0.30840
0.23882 0.17358 -0.24155
-0.12697 0.17358 -0.28093
0.04653 0.17358 -0.28181
0.06629 0.17358 -0.28778
0.21246 0.17358 -0.29257
0.04368 0.17358 -0.29000
0.15804 0.05076 0.27118
0.11879 0.16952 -0.19043
0.07459 -0.00443 0.17215
0.12280 0.09442 0.23043
0.10281 -0.17358 0.12885
0.14069 -0.17358 0.13796
-0.07088 0.16007 -0.34688
0.15019 0.16007 -0.35081
-0.09608 0.00391 -0.20272
-0.12996 0.16952 -0.24170
0.02467 0.00391 -0.14736
-0.01665 0.00391 -0.15051
-0.06721 -0.14141 0.16357
-0.19632 0.17358 0.25645
0.19630 0.17358 0.21574
0.15891 0.16004 -0.20338
-0.16558 -0.16690 -0.08613
-0.11272 0.17358 -0.23999
0.03074 0.00391 -0.16366
0.12719 0.00391 -0.15976
0.04771 0.00391 0.21343
0.08926 -0.00443 0.18417
-0.07304 -0.16546 0.13935
0.14929 0.13306 0.26201
0.15559 0.16004 -0.05737
-0.04043 0.16007 0.33341
0.09813 0.16007 0.33970
0.02927 0.16007 0.33404
0.16192 0.16992 0.03244
0.11290 0.04699 0.19928
-0.12290 0.00443 -0.23056
-0.23552 0.17358 0.25083
-0.10508 0.16007 -0.30483
0.07961 0.16007 -0.31587
-0.02771 0.16007 -0.31422
-0.21185 0.16007 -0.31161
-0.16756 0.12734 0.28316
-0.23631 0.16007 -0.26881
-0.22501 0.16007 -0.27093
0.14474 0.16952 0.19695
0.19089 0.16159 -0.34277
0.22115 0.16007 -0.18735
0.11093 -0.16546 0.12568
-0.10687 -0.16546 0.11997
0.17755 0.16007 -0.19740
-0.19911 0.16007 0.02710
-0.24586 0.16007 0.14824
-0.16753 0.16007 0.13949
-0.17086 0.16007 0.08659
-0.23451 0.16007 0.16528
-0.18796 0.16007 0.04084
-0.20267 0.16007 0.04111
-0.16378 0.16007 -0.06795
-0.16268 0.16007 0.13464
-0.17173 0.16007 -0.02510
-0.21759 0.16007 0.01644
-0.19776 0.16007 0.01323
-0.18552 0.16007 -0.08885
-0.19911 0.16007 0.17272
-0.22537 0.16007 0.18228
-0.14978 0.00392 -0.23657
-0.11300 -0.04223 -0.20563
0.09650 0.16204 -0.37079
0.05717 0.00391 -0.19882
0.08069 0.16952 -0.19894
0.12314 0.16952 -0.20262
0.15787 0.04132 0.24063
0.16956 0.17358 -0.22922
-0.01685 0.00391 0.22591
-0.22994 0.16007 0.25328
-0.22962 0.16007 -0.18651
-0.07651 0.17358 0.22850
0.16192 0.16662 0.10894
0.16192 0.16385 0.03053
0.16192 0.16400 -0.06060
-0.23995 0.17358 -0.18481
-0.21718 0.16007 0.27226
-0.22720 0.16007 0.26938
-0.17590 0.16007 0.33868
-0.14058 0.16007 0.33807
0.13325 0.17300 0.36501
0.06738 0.17358 -0.35223
0.15533 0.13688 0.23761
-0.15202 0.16518 -0.22303
0.01358 0.17354 -0.37224
0.07929 -0.06288 0.17859
0.08499 -0.06627 0.18538
0.11975 0.00235 0.19520
-0.02169 0.16007 -0.36062
0.25171 0.16007 -0.24976
0.17184 0.16007 -0.25287
0.11427 0.05133 0.20300
0.10162 -0.00476 -0.20457
0.20093 0.16007 0.20436
0.26382 0.16007 -0.18681
-0.10776 -0.05275 -0.18091
0.16640 -0.00440 -0.12884
0.07003 -0.10029 -0.13533
-0.10262 0.17358 0.34092
-0.12242 0.17358 0.33896
-0.14242 0.00122 0.24007
-0.05763 0.17358 0.28144
-0.15864 0.17358 0.29449
-0.06193 0.17358 0.27927
0.02301 0.17358 0.28003
-0.04808 -0.16007 0.10918
-0.25979 0.16711 0.24603
-0.03533 0.00391 0.14609
0.07931 0.00391 0.15070
-0.17155 0.09437 0.27669
0.05714 0.17349 0.37264
-0.13218 0.16007 -0.30348
0.01729 0.16007 -0.31643
0.03957 0.16007 -0.31231
-0.27695 0.16763 0.12278
-0.16643 0.15537 -0.28243
0.05334 -0.11586 -0.14704
-0.21555 0.16007 -0.06126
-0.24867 0.16007 -0.03066
-0.21165 0.16007 -0.17781
-0.19544 0.16007 -0.11893
-0.26766 0.16007 0.13966
-0.23256 0.16007 0.05373
-0.25810 0.16007 0.01140
-0.23495 0.16007 0.01684
-0.25705 0.16007 -0.00976
-0.26295 0.16007 0.06857
-0.22400 0.16007 -0.08680
-0.25545 0.16007 -0.14442
-0.21121 0.16007 -0.03493
-0.23707 0.16007 -0.15031
-0.25736 0.16007 0.09083
-0.09157 -0.00203 0.19260
0.09696 0.00391 0.11969
0.13777 0.00391 0.12577
-0.02375 0.17358 -0.32877
-0.10160 0.17358 -0.32965
-0.20295 0.17358 -0.32529
-0.07799 -0.16546 0.15950
-0.23109 0.16434 0.30928
-0.16192 0.16799 0.01853
-0.16192 0.17185 0.09565
0.15300 0.16007 0.34209
0.13478 0.16007 0.33640
-0.27670 0.16878 0.17881
-0.12653 0.16836 0.24223
0.02964 -0.16546 -0.20630
-0.02220 -0.00430 -0.23043
0.22780 0.17358 0.20260
0.14784 0.16007 0.26610
-0.04372 -0.17358 0.02609
-0.09442 -0.17358 0.09205
0.05019 -0.17358 0.10973
0.00303 -0.17358 0.04163
-0.14053 -0.17358 0.06023
-0.07891 -0.17358 -0.04941
-0.10154 -0.17358 0.04037
-0.07646 -0.17358 0.10919
-0.14312 -0.17358 0.03885
-0.05719 -0.17358 -0.03743
0.11067 -0.17358 0.08066
0.08255 -0.17358 0.07945
0.01176 -0.17358 0.02486
-0.12919 -0.17358 0.03885
-0.06398 -0.17358 0.01432
-0.15736 -0.17358 -0.10167
-0.07686 -0.17358 -0.01891
-0.01028 -0.17358 0.01968
-0.11742 -0.17358 0.05038
-0.06997 -0.17358 0.10672
0.09495 -0.17358 0.07658
-0.08936 -0.17358 0.05572
-0.08986 -0.17358 0.04294
-0.13079 -0.17358 -0.02293
-0.13294 -0.17358 -0.01095
-0.06204 -0.17358 -0.00552
-0.10225 -0.02229 -0.20594
-0.04922 -0.00443 -0.18307
0.10389 -0.00443 -0.18054
0.08474 -0.01721 -0.18445
-0.01117 0.16007 -0.36236
0.27024 0.16106 -0.08204
0.27024 0.16088 -0.05348
0.06457 -0.01690 -0.15892
0.07083 -0.05559 -0.16788
-0.08137 0.00391 -0.16247
0.13449 0.16007 -0.29624
0.16977 0.16007 -0.28625
0.11987 0.16007 -0.29045
0.17369 0.16007 -0.29754
-0.05341 -0.17227 -0.22623
-0.24872 0.17358 0.20849
-0.26750 0.16795 -0.21585
-0.04038 0.16013 0.37251
0.01289 0.17358 -0.30253
0.03253 0.17358 -0.30120
0.13756 0.17358 -0.29982
-0.00001 0.17358 -0.30420
-0.04932 -0.11385 -0.11127
0.15357 0.15330 0.23551
-0.14355 0.16647 0.23529
0.20264 0.16007 -0.07592
0.24060 0.16007 0.04165
0.22858 0.16007 -0.15909
0.25112 0.16007 -0.04034
0.22858 0.16007 -0.11233
0.25221 0.16007 -0.13716
0.21385 0.16007 -0.14354
0.24573 0.16007 0.03201
0.21724 0.16007 -0.07981
0.21244 0.16007 -0.17916
0.21879 0.16007 -0.06697
0.25583 0.16007 0.06784
0.22121 0.16007 -0.08838
0.26215 0.16007 -0.00143
0.26213 0.16007 -0.16126
0.25634 0.16007 0.13292
0.11667 -0.17358 -0.12583
-0.01827 -0.17358 -0.12011
-0.05356 -0.11475 0.14730
-0.12803 0.04021 0.23605
-0.06462 -0.16118 -0.16110
0.13085 -0.16546 -0.18740
-0.16483 0.15744 -0.24892
0.22489 0.16007 0.28095
0.12400 0.16007 0.29176
0.19345 0.16007 0.28495
0.17330 0.16007 0.29228
0.02635 0.16952 0.23902
0.14924 0.12125 0.26195
-0.15513 0.03266 -0.23737
-0.12293 0.00391 -0.18258
0.05456 0.00391 -0.18384
0.03494 -0.17358 0.12545
0.12574 0.12226 0.23092
-0.02606 0.17358 0.19006
-0.12355 0.17358 0.18437
0.04709 0.00391 0.11572
0.05379 0.00391 0.11924
0.07903 -0.08069 0.17827
-0.01835 0.16287 -0.26326
0.04386 0.17349 0.37263
-0.10779 0.02236 0.18033
0.13123 -0.17204 -0.18903
0.02550 0.17358 0.01520
-0.04323 0.17358 0.11050
-0.06521 0.17358 0.10975
-0.06910 0.17358 0.09490
0.03462 0.17358 0.15702
-0.07245 0.17358 0.10801
0.03594 0.17358 0.17304
0.01583 0.17358 0.06177
0.13629 0.17358 -0.03172
-0.04168 0.17358 0.06856
0.07299 0.17358 0.13718
0.07717 0.17358 0.10129
0.10864 0.17358 0.08276
-0.02333 0.17358 0.05568
0.13189 0.17358 0.10949
0.13640 0.17358 -0.11500
0.08979 0.17358 0.04544
0.10171 0.17358 0.17867
0.10261 0.17358 0.16814
0.07144 0.17358 0.00365
0.05115 0.17358 0.07978
-0.00426 0.17358 0.03429
0.13247 0.17358 -0.13683
