-0.03632 0.08780 0.42271
0.05686 0.10687 0.42271
0.00017 0.08685 0.42271
-0.06233 0.12331 0.42271
-0.13408 0.12036 0.42271
-0.03104 0.11190 0.42271
0.08749 0.09553 0.42271
-0.04281 0.08172 0.42271
-0.12639 0.14731 0.42271
0.00548 0.08248 0.42271
0.08410 0.08550 0.42271
-0.02282 0.10013 0.42271
-0.03983 0.10677 0.42271
-0.03631 0.09473 0.42271
-0.02384 0.10984 0.42271
-0.13979 0.07644 0.43170
0.13411 0.17902 -0.26360
-0.13660 0.07374 0.08619
0.13660 0.11460 0.06695
0.13660 0.13192 -0.09092
-0.13573 -0.18500 0.41385
0.06129 0.08790 -0.29340
0.01208 0.08785 -0.29742
0.10802 0.08789 -0.29409
0.08260 0.08786 -0.29702
-0.10811 -0.07231 0.41032
-0.11007 -0.14256 0.41228
0.13660 0.10420 -0.37981
0.13660 0.15483 -0.41107
-0.11680 -0.17850 0.41311
-0.13107 -0.02568 -0.42144
0.03102 0.08188 -0.38283
0.03646 0.08199 -0.38187
-0.02851 0.08190 -0.38259
0.00596 0.08149 -0.38611
0.12779 0.08184 -0.38313
-0.11798 0.08932 0.27100
-0.05102 0.08933 0.27191
-0.07186 0.08934 0.27333
-0.06082 0.08937 0.27533
0.05835 0.08947 0.28486
0.08401 0.08947 0.28505
0.13249 -0.08227 -0.40172
0.13932 0.00739 0.40934
-0.12687 -0.03314 0.42338
-0.03251 0.08120 -0.39485
-0.09913 0.08120 -0.38914
-0.11919 0.08120 -0.41488
-0.11349 0.08120 -0.40299
0.13332 0.08566 -0.22038
-0.02399 0.08578 -0.22200
-0.04702 0.08611 -0.22639
-0.00414 0.08620 -0.22754
0.13439 -0.13680 0.41926
-0.00537 0.08592 0.20673
0.07243 0.08635 0.21258
0.07820 0.08638 0.21287
0.09789 0.08643 0.21360
0.05931 0.08672 0.21741
0.09717 0.08706 0.22203
-0.14369 0.09657 0.41371
0.02480 0.08406 0.39790
-0.04050 0.08390 0.39955
-0.12074 -0.11771 -0.39154
-0.08897 0.08774 0.35250
-0.08142 0.08769 0.35348
0.11235 0.08748 0.35747
-0.04778 0.08821 0.34370
0.02623 0.08784 0.35062
0.14237 0.01051 -0.42565
0.13006 -0.18359 -0.41966
-0.13645 0.17283 -0.41762
-0.09904 0.08737 -0.25014
-0.05239 0.08752 -0.25510
-0.13325 0.08763 -0.25835
-0.06926 0.08734 -0.24928
-0.12577 -0.14136 0.42798
-0.08305 0.17527 0.42200
0.09253 0.18593 -0.33420
0.02739 0.18593 -0.24748
-0.08857 0.18593 0.23787
-0.00316 0.18593 0.00029
-0.07312 0.18593 -0.02738
-0.07337 0.18593 0.18078
-0.08462 0.18593 -0.13882
0.01939 0.18593 -0.18818
-0.00260 0.18593 -0.32897
0.02201 0.18593 -0.29530
-0.01032 0.18593 -0.21315
-0.04555 0.18593 -0.12242
-0.03376 0.18593 -0.35083
-0.11453 0.18593 -0.25143
0.01626 0.18593 -0.32549
-0.00043 0.18593 -0.14598
-0.09725 0.18593 -0.07926
-0.10824 0.18593 -0.36972
-0.09797 0.18593 0.19453
-0.02211 0.18593 -0.06815
-0.10673 0.18593 -0.23862
-0.02221 0.18593 0.04616
0.08997 0.18593 -0.27529
-0.01224 0.18593 -0.37238
-0.11245 0.18593 0.02636
0.06868 0.18593 -0.30090
-0.08489 0.18593 -0.09708
0.06075 0.18593 -0.27832
-0.12050 0.18593 0.39215
-0.05998 0.18593 -0.34625
-0.07027 0.18593 -0.20772
-0.10349 0.18593 0.09843
-0.09674 0.18593 -0.05644
-0.05823 0.18593 0.03454
-0.10754 0.18593 -0.16881
-0.09819 0.18593 0.16146
0.00934 0.18593 -0.12683
0.05023 0.18593 -0.22503
-0.06411 0.18593 0.15106
0.04326 0.18593 -0.33628
-0.04278 0.18593 -0.32078
-0.06963 0.18593 0.08403
-0.11368 0.18593 -0.37329
-0.03584 0.18593 0.12522
-0.11619 0.18593 -0.25961
0.02175 0.18593 -0.20343
-0.11503 0.18593 0.08799
-0.09832 0.18593 0.29550
-0.10042 0.18593 -0.19648
-0.06251 0.18593 0.22284
-0.05491 0.18593 -0.04324
-0.05244 0.18593 0.13623
-0.03166 0.18593 -0.30937
-0.06280 0.18593 -0.00967
-0.01434 0.18593 -0.03846
-0.09469 0.18593 0.18666
-0.11130 0.18593 -0.32548
-0.08976 0.18593 -0.23135
-0.02279 0.18593 -0.19599
-0.08057 0.18593 -0.19808
-0.00917 0.18593 -0.10963
-0.00267 0.18593 -0.21454
-0.04330 0.18593 -0.06587
-0.00505 0.18593 -0.34486
-0.11078 0.18593 0.25167
-0.11499 0.18593 0.37712
0.03377 0.18593 -0.20919
-0.10217 0.18593 0.09015
-0.01230 0.18593 -0.33193
-0.01266 0.18593 -0.13692
-0.04319 0.18593 0.08805
-0.06909 0.18593 -0.29324
0.04703 0.18593 -0.24938
-0.07398 0.18593 0.00488
-0.12031 0.18593 -0.28874
0.07333 0.18593 -0.32848
-0.10851 0.18593 -0.24502
-0.05586 0.18593 -0.06852
-0.01389 0.18593 0.01795
-0.05606 0.18593 -0.33049
-0.05661 0.18593 0.18422
0.00872 0.18593 -0.31419
0.01294 0.18593 -0.22143
0.01048 0.18593 -0.07985
-0.11075 0.18593 -0.30046
0.07426 0.18593 -0.35565
-0.02219 0.18593 -0.24199
-0.06770 0.18593 0.09586
0.02212 0.18593 -0.33884
-0.11119 0.18593 0.00355
-0.09220 0.18593 -0.37341
-0.04418 0.18593 -0.19249
-0.11354 0.18593 0.11293
-0.00286 0.18593 -0.35821
-0.10269 0.18593 -0.07619
-0.10360 0.18593 -0.22898
-0.10543 0.18593 0.13204
0.04953 0.18593 -0.16838
-0.11244 0.18593 0.05913
-0.00301 0.18593 -0.23514
-0.04958 0.18593 -0.35680
-0.03237 0.18593 -0.33915
-0.05676 0.18593 -0.14451
-0.00545 0.18593 -0.25286
-0.05758 0.18593 -0.19668
-0.10693 0.18593 -0.04155
-0.00414 0.18593 -0.15171
0.05997 0.18593 -0.30157
-0.00354 0.18593 -0.04421
-0.06721 0.18593 -0.33870
-0.10378 0.18593 -0.01089
-0.10788 0.18593 0.24123
0.07567 0.18593 -0.29935
-0.03499 0.18593 -0.20051
-0.00410 0.18593 -0.36776
-0.09719 0.18593 -0.09485
-0.09384 0.18593 -0.38311
-0.09347 0.18593 0.08643
-0.08713 0.18593 -0.14704
-0.10383 0.18593 -0.13376
-0.02138 0.18593 -0.08877
-0.09744 0.18593 0.32623
-0.11490 0.18593 0.06830
-0.03700 0.18593 -0.04932
-0.04839 0.18593 -0.24410
-0.02128 0.18593 -0.37055
-0.04556 0.18593 0.06045
0.03902 0.18593 -0.17126
-0.05669 0.18593 0.06398
0.00634 0.18593 -0.29236
0.05654 0.18593 -0.28551
-0.07090 0.18593 0.22682
0.04215 0.18593 -0.17782
-0.07318 0.18593 -0.07022
-0.00348 0.18593 -0.26677
-0.03899 0.18593 0.05354
-0.09268 0.18593 -0.18054
-0.04013 0.18593 0.07441
-0.07615 0.18593 -0.37416
-0.08795 0.18593 -0.16877
-0.01670 0.18593 -0.24060
-0.00828 0.18593 -0.32763
-0.07669 0.18593 0.02251
-0.10247 0.18593 0.23196
-0.10119 0.18593 -0.37039
-0.11588 0.18593 -0.09908
-0.02596 0.18593 -0.15223
-0.04517 0.18593 0.02060
-0.03962 0.18593 -0.34365
-0.02792 0.18593 -0.02390
-0.03065 0.18593 -0.30026
0.10135 0.18593 -0.31203
-0.11235 0.18593 0.15243
-0.12019 0.18593 0.24170
0.04456 0.18593 -0.31737
-0.11753 0.18593 -0.28428
-0.05824 0.18593 -0.27842
-0.08630 0.18593 -0.32883
0.01791 0.18593 -0.03631
0.04380 0.18593 -0.22547
-0.08705 0.18593 0.20516
-0.10069 0.18593 0.28400
0.05271 0.18593 -0.20828
-0.11307 0.18593 -0.20912
-0.06068 0.18593 0.20005
-0.07725 0.18593 -0.31527
-0.03978 0.18593 -0.15329
-0.06599 0.18593 0.05281
-0.09095 0.18593 0.05446
-0.01140 0.07851 -0.15320
0.04597 0.07821 -0.15073
-0.06402 0.07942 -0.16091
-0.11924 0.07858 -0.15385
0.02420 0.07924 -0.15944
-0.10325 0.08032 -0.16860
-0.08650 0.07895 -0.15695
0.00073 0.07848 -0.15296
0.13559 0.08935 0.31112
-0.03160 0.08948 0.29944
-0.01205 0.08945 0.30184
0.08400 0.08949 0.29772
0.12826 0.08951 0.29629
-0.11729 -0.00116 -0.42028
0.12240 -0.01980 0.39770
0.13752 0.10185 0.42407
0.07212 0.08482 -0.35499
-0.07583 0.08430 -0.36033
0.12429 0.08493 -0.35380
-0.06641 0.08391 -0.36442
0.12570 0.02903 0.42791
-0.12599 0.04000 0.42820
0.12762 -0.14462 0.39763
0.10217 0.08907 0.32210
0.00444 0.08921 0.31753
0.09716 0.08902 0.32367
-0.01111 0.08910 0.32114
-0.04606 0.08927 0.31575
-0.00400 0.08120 -0.41750
0.06255 0.08120 -0.40423
0.08763 0.08120 -0.40790
0.07550 0.08120 -0.41860
0.11309 0.08120 -0.41001
-0.05770 0.08120 -0.41820
0.08580 0.08120 -0.41896
0.14732 0.05582 0.41734
0.11373 -0.01462 -0.41516
0.13660 0.11612 0.39617
-0.04039 0.07604 0.11520
0.13151 0.07572 0.11182
0.01763 0.07562 0.11074
0.07055 0.07552 0.10972
0.01353 0.07648 0.11974
0.03322 0.07595 0.11421
0.06379 0.07683 0.12339
-0.10813 -0.05807 -0.41112
-0.13311 -0.15803 -0.40391
0.06632 0.17839 -0.41986
0.12030 0.10568 0.40491
-0.11037 0.07042 -0.01340
-0.13644 0.07037 -0.00944
-0.10346 0.07039 -0.01121
0.08255 0.07037 -0.00861
-0.04970 0.07046 -0.01703
-0.06328 0.07039 -0.01056
0.05396 0.07039 -0.01082
-0.13581 -0.17771 -0.40660
0.12995 -0.02144 -0.42446
-0.13660 0.08905 -0.29230
0.12327 0.02434 -0.42470
0.13660 0.13114 -0.37955
0.13660 0.15088 -0.39822
0.12234 -0.05674 -0.39157
-0.02409 0.08801 0.23768
-0.12284 0.08837 0.24437
-0.12978 0.08766 0.23117
-0.07546 0.08842 0.24532
-0.06626 0.08807 0.23871
0.13433 0.17870 0.24081
0.13433 0.17869 0.41160
0.12759 -0.05607 -0.39683
0.08956 0.08792 -0.27339
0.01273 0.08795 -0.27612
0.13581 0.08792 -0.27363
0.12798 0.08801 -0.28200
-0.06335 0.08800 -0.28056
-0.12114 -0.16933 -0.40642
-0.00963 0.08565 -0.34436
0.03647 0.08590 -0.34102
-0.07732 0.08580 -0.34237
0.04004 0.08627 -0.33610
-0.06643 0.08543 -0.34724
-0.13660 0.11869 0.39207
-0.13660 0.09042 0.36905
0.12813 -0.14181 -0.39736
-0.13356 0.07940 -0.16076
0.00781 0.07814 -0.15009
-0.04864 0.07794 -0.14837
-0.05921 0.07907 -0.15802
-0.11526 0.07982 -0.16437
-0.12590 -0.04804 0.41931
-0.13286 -0.05267 0.40287
-0.13660 0.07994 -0.08075
0.10981 -0.03219 0.41203
-0.13462 0.17824 -0.36936
0.13734 0.03867 0.40735
0.13660 0.07474 -0.05627
-0.14408 0.10809 0.41410
0.14808 0.07288 0.41810
0.13660 0.13320 -0.41866
0.13660 0.13965 -0.41489
-0.10615 -0.12156 0.40837
-0.07317 0.08555 -0.21895
-0.08152 0.08560 -0.21963
-0.03058 0.08524 -0.21472
-0.05104 0.08563 -0.21993
-0.13652 0.08541 -0.21698
-0.13554 0.17628 0.20099
-0.13550 0.17640 0.02546
-0.12677 -0.02445 0.42706
0.13660 0.10892 0.41946
0.13660 0.10093 0.41628
-0.10951 0.08135 0.42150
-0.09388 0.08282 0.40896
-0.11501 0.08310 0.40664
0.05611 0.08192 0.41664
-0.01126 0.08220 0.41429
-0.13904 -0.16497 -0.42326
0.11276 0.07608 0.41497
-0.12330 0.01292 0.42551
-0.11799 -0.18593 -0.41164
0.11037 -0.11257 -0.40086
-0.12104 -0.10820 0.41785
0.12916 0.18379 -0.33873
0.12912 0.18383 0.06255
-0.10440 0.08532 -0.34878
-0.07404 0.08612 -0.33801
0.00045 0.08570 -0.34367
-0.05942 0.08548 -0.34657
-0.09056 0.08944 0.30260
-0.05048 0.08943 0.30406
0.01232 0.08934 0.31240
-0.06583 0.08933 0.31332
0.05310 0.08935 0.31112
0.12821 -0.12785 0.39823
-0.10490 -0.10684 0.40711
-0.07170 0.08510 -0.35174
-0.08274 0.08521 -0.35029
0.01807 0.08516 -0.35085
0.14277 -0.00216 -0.42073
0.11058 -0.07535 0.41279
0.12449 0.18558 -0.02089
-0.14022 0.10601 -0.42021
0.13482 0.17783 -0.37261
0.05570 0.08460 -0.35727
-0.04044 0.08471 -0.35606
-0.05032 0.08449 -0.35833
-0.10694 0.08456 -0.35762
0.13039 0.18297 0.16145
0.13456 -0.03168 -0.40379
-0.13381 0.08455 -0.40461
-0.13660 0.08818 0.10451
0.13601 0.08808 -0.43158
0.14177 0.07541 -0.41101
-0.06889 0.07131 0.04217
-0.01072 0.07118 0.03798
0.02945 0.07151 0.04849
0.04044 0.07132 0.04245
-0.08518 0.07133 0.04270
-0.13214 0.07067 0.02215
-0.13643 0.07139 0.04468
0.00649 0.07147 0.04717
-0.09628 0.08610 0.37593
-0.08348 0.08593 0.37818
-0.13048 0.08720 0.36129
0.02639 0.08634 0.37276
-0.11600 0.08728 0.36024
-0.09858 0.17355 -0.42164
0.13660 0.07922 -0.04587
0.12802 0.05293 -0.39993
-0.12164 0.18591 -0.00618
-0.12226 0.18587 -0.23078
-0.00044 0.08439 -0.20523
-0.03519 0.08445 -0.20585
-0.04282 0.08485 -0.20991
0.12150 0.08435 -0.20481
-0.12547 -0.04005 -0.42150
0.11667 0.04231 0.41888
-0.12920 0.17229 0.42261
-0.12579 0.02054 -0.40412
0.13660 0.13562 -0.37329
-0.09027 0.08674 -0.32752
-0.11444 0.08713 -0.32022
-0.06904 0.08683 -0.32580
-0.13598 0.08684 -0.32556
-0.03332 0.08698 -0.32303
-0.11667 -0.05323 0.39768
0.13640 -0.14859 -0.40563
0.12896 0.08693 -0.43040
-0.13660 0.08406 0.00656
0.04945 0.18076 -0.41813
-0.12524 0.00963 -0.40229
0.12700 0.18485 0.21983
-0.03610 0.18581 -0.40855
0.08589 0.08791 -0.29260
0.11671 0.08784 -0.29912
0.03761 0.08789 -0.29460
0.12861 -0.08022 -0.40950
0.12853 -0.05900 -0.41309
0.13660 0.13749 0.38091
0.13660 0.08471 0.18343
-0.13660 0.08712 -0.05969
-0.12103 -0.16489 0.40598
0.13568 0.17586 -0.00260
-0.11598 -0.07785 -0.39413
0.13322 -0.06975 0.40323
0.10937 -0.12790 0.41158
-0.09602 0.07908 0.14443
0.09318 0.08101 0.16082
0.02556 0.08037 0.15535
-0.08869 0.07949 0.14793
-0.12098 0.08084 0.15931
-0.12458 0.07924 0.14579
0.12087 -0.11854 0.41990
0.10583 -0.07127 0.40404
-0.13068 -0.18103 0.40070
-0.13660 0.14911 -0.41763
-0.13660 0.12521 -0.41109
-0.13660 0.08488 -0.39640
-0.13660 0.12806 -0.40140
-0.01596 0.18385 -0.41441
-0.12026 -0.05914 0.39297
0.13206 0.18156 0.09008
-0.13603 -0.15329 -0.42766
-0.12221 0.02690 0.40937
0.13660 0.11985 -0.39486
0.13660 0.14481 -0.41020
-0.13794 -0.16374 -0.40873
-0.03671 0.08710 0.22257
-0.11183 0.08643 0.21362
0.06950 0.08731 0.22540
0.04327 0.08699 0.22103
-0.13660 0.11554 0.03917
-0.13660 0.13592 -0.13228
-0.13034 0.18301 0.05103
-0.13048 0.18292 0.07853
-0.13322 -0.12335 -0.41087
0.02816 0.07057 0.01392
0.02286 0.07058 0.01501
-0.02590 0.07055 0.01191
-0.05000 0.07064 0.02085
0.00313 0.07056 0.01286
-0.07022 0.07046 0.00414
-0.02249 0.07047 0.00506
-0.13999 0.08094 0.41001
-0.13364 0.06209 0.43585
0.11680 -0.05089 -0.41823
-0.12743 0.18468 0.04400
0.07170 0.17312 -0.42173
0.09604 0.08670 -0.23630
-0.06679 0.08705 -0.24282
-0.00816 0.08682 -0.23864
0.05266 0.08689 -0.23986
0.12737 0.08664 -0.23528
0.13136 0.10941 0.42668
-0.12006 -0.09068 0.39041
0.13660 0.10639 -0.34293
-0.13351 0.05072 -0.43650
-0.13660 0.12018 -0.33830
0.13551 0.07031 0.43569
0.10377 -0.09719 0.40529
-0.13660 0.09518 0.02995
-0.13660 0.10539 -0.26492
-0.13660 0.10775 -0.18979
-0.13660 0.12987 -0.10291
-0.13660 0.12459 -0.32240
-0.13660 0.12039 -0.05431
-0.13660 0.11659 -0.03148
-0.13660 0.10995 -0.27562
-0.13660 0.10261 -0.14504
-0.13660 0.14217 -0.28055
-0.13660 0.15575 -0.37204
-0.13660 0.11812 -0.15641
-0.13660 0.13465 -0.13773
-0.13660 0.09307 0.18131
-0.13660 0.11503 -0.16708
-0.13660 0.12661 -0.30729
-0.13660 0.09949 -0.23259
-0.13660 0.11050 -0.11390
-0.13660 0.10546 0.10245
-0.13660 0.11837 -0.18534
-0.13660 0.12855 -0.35007
-0.13660 0.11968 -0.22077
-0.13660 0.12538 -0.26379
-0.13660 0.09231 -0.22921
-0.13660 0.11210 -0.22816
-0.13660 0.14866 -0.36304
-0.13660 0.09159 -0.07102
-0.13660 0.08876 -0.16227
-0.13660 0.12639 -0.20125
-0.13660 0.09053 0.08733
-0.13660 0.10932 -0.09990
-0.13660 0.09414 -0.03625
-0.13660 0.12267 -0.29919
-0.13660 0.13945 -0.19061
-0.13660 0.09559 -0.25065
-0.13660 0.11717 -0.32676
-0.13660 0.09217 -0.16926
-0.13660 0.10752 -0.29544
-0.13660 0.15637 -0.37831
-0.13660 0.12481 -0.04680
-0.13660 0.09473 0.08302
-0.01694 0.08885 0.32891
-0.08672 0.08913 0.32008
-0.01765 0.08867 0.33462
-0.10655 0.08875 0.33191
0.09479 0.08864 0.33536
-0.09321 0.08896 0.32555
-0.02448 0.07183 0.05498
0.07752 0.07252 0.06774
0.10051 0.07258 0.06890
0.02359 0.07228 0.06337
0.06937 0.07162 0.05096
0.05904 0.07257 0.06875
0.11394 0.07165 0.05149
-0.10758 0.07802 -0.41057
0.13504 0.08195 0.16872
0.04711 0.08163 0.16608
0.12474 0.08228 0.17159
0.08122 0.08170 0.16667
0.06447 0.08222 0.17104
0.12753 0.06151 -0.42896
0.13649 0.00162 -0.42844
0.13516 0.17713 -0.41268
-0.13249 0.18111 -0.36044
-0.13279 0.18076 -0.16061
-0.13268 0.07609 -0.43567
0.14763 0.03996 0.41764
-0.04881 0.08282 0.40901
0.02349 0.08181 0.41759
-0.10196 0.08325 0.40532
-0.11847 0.08147 0.42047
0.11710 0.02787 -0.41375
-0.12266 -0.12773 0.42487
0.13618 0.17419 -0.04665
0.13624 0.17389 0.24404
-0.14450 0.07693 0.41452
0.05736 0.17928 0.42005
-0.12532 0.18542 0.19943
-0.12507 0.18547 -0.26349
0.03998 0.08393 -0.36413
0.11240 0.08378 -0.36577
0.05882 0.08411 -0.36228
-0.08743 0.08347 -0.36894
-0.13337 0.18010 -0.26277
-0.13342 0.18005 0.23088
0.12537 0.12614 0.42271
0.01992 0.16046 0.42271
-0.04434 0.14369 0.42271
0.02373 0.16461 0.42271
0.10045 0.14501 0.42271
0.03650 0.15723 0.42271
0.09741 0.11560 0.42271
0.08398 0.11883 0.42271
0.00567 0.12627 0.42271
0.05670 0.12027 0.42271
-0.09594 0.16489 0.42271
0.13008 0.09733 0.42271
0.11276 0.14278 0.42271
-0.02569 0.13749 0.42271
0.12955 0.11921 0.42271
0.03363 0.12905 0.42271
0.07995 0.10029 0.42271
0.11850 0.13481 0.42271
0.06954 0.14519 0.42271
0.08565 0.13422 0.42271
0.13461 0.17826 0.21507
0.10124 0.07250 -0.08116
0.09372 0.07194 -0.07060
0.03491 0.07287 -0.08809
0.04894 0.07236 -0.07840
0.00573 0.07295 -0.08953
0.10387 0.07276 -0.08602
0.08600 0.07289 -0.08846
0.02960 0.07290 -0.08860
-0.13189 0.18171 0.02022
0.10456 0.17885 0.42034
-0.12834 0.18422 -0.05899
0.07877 0.08782 0.35112
0.13425 0.08790 0.34950
0.07092 0.08807 0.34645
0.12627 0.08766 0.35397
-0.00475 0.08830 0.34201
-0.13041 -0.07503 0.40909
-0.12649 0.10296 -0.39728
0.13159 -0.12072 0.41025
-0.13528 -0.13769 0.42067
-0.02919 0.08801 -0.28336
0.00245 0.08798 -0.28582
0.11392 -0.16610 -0.41270
-0.11540 0.09513 -0.42193
-0.02532 0.13697 -0.42193
-0.12607 0.16124 -0.42193
0.02952 0.16836 -0.42193
-0.03443 0.15285 -0.42193
-0.10592 0.14142 -0.42193
-0.02303 0.14342 -0.42193
0.07739 0.15769 -0.42193
-0.05592 0.11414 -0.42193
0.03594 0.14266 -0.42193
-0.08185 0.15994 -0.42193
-0.07176 0.15289 -0.42193
0.00137 0.14468 -0.42193
0.03291 0.15456 -0.42193
-0.11048 0.10592 -0.42193
-0.03508 0.12607 -0.42193
-0.10791 0.12222 -0.42193
0.05381 0.16536 -0.42193
-0.12685 0.04843 -0.40233
0.13660 0.08300 0.13214
0.12508 -0.08143 0.39509
0.13660 0.08390 0.01278
0.12995 -0.12845 0.41675
-0.08288 0.07801 0.13539
0.11768 0.08056 0.15699
0.09220 0.07890 0.14294
0.08627 0.07954 0.14834
0.05190 0.07940 0.14718
-0.04818 0.07878 0.14193
0.05817 0.07996 0.15186
0.13019 0.07001 0.40021
0.13235 0.18126 0.01371
0.13314 0.18036 0.34506
0.13343 0.09624 -0.43123
-0.13655 -0.03020 -0.41410
0.05624 0.08925 0.26859
-0.11116 0.08898 0.26027
-0.01231 0.08920 0.26714
0.07530 0.08924 0.26847
0.02211 0.07088 -0.04217
0.06153 0.07075 -0.03812
-0.04137 0.07097 -0.04501
-0.00919 0.07097 -0.04514
-0.01768 0.07103 -0.04696
0.00822 0.07069 -0.03634
-0.06942 0.07071 -0.03688
-0.10376 -0.07632 -0.40675
-0.11795 0.08518 -0.39549
-0.13660 0.14390 -0.40138
-0.13660 0.12718 -0.39059
0.14147 -0.15422 0.41149
-0.03553 0.07491 -0.11628
0.11891 0.07341 -0.09626
0.13488 0.07321 -0.09355
0.02977 0.07431 -0.10827
0.10707 0.07400 -0.10416
0.11599 0.07455 -0.11150
0.10735 0.07494 -0.11673
0.12818 -0.02592 0.42344
0.00627 0.07131 -0.05571
0.05561 0.07130 -0.05549
0.05862 0.07150 -0.06157
0.03055 0.07154 -0.06297
-0.03838 0.07149 -0.06151
0.11232 0.07123 -0.05321
0.08142 0.07127 -0.05442
0.11086 -0.07242 -0.41229
0.02337 0.08706 -0.24317
0.03198 0.08705 -0.24299
-0.04305 0.08704 -0.24264
-0.01344 0.08705 -0.24282
-0.12966 0.18346 -0.03943
-0.12996 0.18326 -0.09774
0.11451 -0.05730 0.41672
0.14046 0.04386 0.41047
-0.13073 0.18274 -0.31204
-0.13168 0.18190 -0.28374
-0.12980 -0.12888 -0.41801
0.13564 0.17600 0.20691
-0.12142 -0.08640 0.41692
-0.11817 0.07045 0.42038
-0.13660 0.13302 0.40411
-0.13693 -0.03389 0.40695
-0.05870 0.07070 0.02297
0.01011 0.07066 0.02180
0.10332 0.07137 0.04411
0.12431 0.07094 0.03059
0.06757 0.07077 0.02521
0.08737 0.07103 0.03330
0.09474 0.07084 0.02738
-0.14503 -0.14884 -0.41582
0.13082 -0.17047 -0.42840
-0.01277 0.08699 -0.32281
-0.01683 0.08718 -0.31919
-0.10781 0.08642 -0.33342
-0.10699 0.08718 -0.31921
0.08985 0.08713 -0.32020
-0.12008 -0.18593 0.41994
0.12747 0.09725 -0.39671
0.11540 -0.18137 -0.41392
0.13863 -0.16885 0.40864
-0.01579 0.07060 -0.03023
0.09383 0.07064 -0.03458
0.04641 0.07061 -0.03174
-0.00936 0.07062 -0.03197
0.02526 0.07063 -0.03317
-0.02176 0.07057 -0.02787
0.13660 0.13977 0.22089
0.13660 0.11113 0.31480
0.13660 0.17041 0.30628
0.13660 0.15210 0.17128
0.13660 0.14278 0.19127
0.13660 0.16514 0.26784
0.13660 0.13175 0.29342
0.13660 0.15956 0.31402
0.13660 0.10849 0.24020
0.13660 0.13294 0.33287
0.13660 0.14146 0.35069
0.13660 0.14969 -0.00942
0.13660 0.13304 0.17515
0.13660 0.15032 -0.19717
0.13660 0.13176 0.03373
0.13660 0.12784 0.21250
0.13660 0.13156 0.05501
0.13660 0.11470 0.26552
0.13660 0.10610 0.17419
0.13660 0.16626 -0.06034
0.13660 0.13711 0.10321
0.13660 0.15928 0.21059
0.13660 0.15219 0.07946
0.13660 0.16802 -0.05540
0.13660 0.12257 0.16830
0.13660 0.14076 -0.08237
0.13660 0.16720 -0.15960
0.13660 0.14526 0.20736
0.13660 0.16531 0.38596
0.13660 0.17047 -0.31048
0.13660 0.15967 0.16715
0.13660 0.15743 -0.00886
0.13660 0.10544 0.24958
0.13660 0.11701 0.28615
0.13660 0.16568 -0.14157
0.13660 0.15671 0.33986
0.13660 0.16905 0.41475
0.13660 0.16223 -0.33469
0.13660 0.16541 0.22920
0.13660 0.16681 -0.19075
0.13660 0.15907 0.15394
0.13660 0.15354 -0.02782
0.13660 0.11733 0.19033
0.13660 0.15301 0.18424
0.13660 0.15459 -0.16494
0.13660 0.12548 0.25980
0.13660 0.11277 0.32967
0.13660 0.16631 0.32512
0.13660 0.12162 0.05921
0.13660 0.13932 0.28516
0.13660 0.14727 0.08990
0.13660 0.09936 0.20829
0.13660 0.15680 -0.27604
0.13660 0.16923 0.04240
0.13660 0.16795 -0.33565
0.13660 0.16695 0.21024
0.13660 0.12969 0.25216
-0.13536 -0.01971 0.42060
0.13460 0.01838 -0.40383
-0.13660 0.09676 -0.36460
-0.12090 -0.02780 0.39899
0.13805 -0.15833 0.40806
-0.14740 0.03150 0.41742
-0.12521 -0.15518 0.42743
-0.13537 -0.13361 0.40538
0.12830 0.18424 0.03571
0.12891 0.18394 -0.29873
-0.13894 -0.01035 -0.40973
-0.09330 0.07042 -0.01342
-0.09834 0.07045 -0.01631
-0.11469 0.07047 -0.01854
0.00182 0.07045 -0.01653
0.02702 0.07037 -0.00916
0.08343 0.18582 0.40921
-0.13660 0.07934 -0.01115
-0.12490 0.18550 0.06366
-0.13634 -0.00435 -0.40714
-0.13660 0.12890 -0.37439
-0.13660 0.09196 -0.32820
0.11690 -0.10321 0.41911
0.08257 0.08740 0.22662
0.11931 0.08746 0.22734
-0.00176 0.08694 0.22048
-0.09746 0.08668 0.21699
-0.04160 0.08695 0.22051
0.00622 0.17421 0.42229
0.13660 0.09013 -0.34721
0.13660 0.10691 -0.36855
0.13660 0.09048 0.26875
0.13660 0.14766 -0.22523
-0.09212 0.08768 -0.25989
-0.02812 0.08740 -0.25113
0.05095 0.08734 -0.24940
0.11729 0.04381 -0.41281
0.12487 -0.11299 0.41373
-0.12712 -0.08026 0.39713
0.13476 0.17794 0.19648
0.13660 0.11143 0.07776
0.13660 0.11662 0.03643
-0.13213 -0.04023 -0.41477
-0.13660 0.09310 0.32135
0.11984 -0.00109 -0.40525
0.14113 0.10159 -0.41036
0.11108 0.07321 -0.09364
-0.09530 0.07375 -0.10083
0.01330 0.07328 -0.09455
-0.04713 0.07369 -0.10005
-0.09068 0.07422 -0.10703
-0.00190 0.07361 -0.09887
0.08365 0.17446 0.42224
0.13103 0.18247 -0.39350
0.14046 0.03590 0.41047
0.07062 0.17357 0.42242
-0.11124 0.07966 0.41345
-0.00359 0.18192 -0.41699
0.12640 -0.09212 0.39641
-0.06344 0.07897 0.14348
0.05637 0.08063 0.15758
-0.05560 0.07895 0.14331
-0.04967 0.08059 0.15721
-0.06906 0.08002 0.15239
-0.00477 0.07972 0.14988
-0.14978 0.05335 -0.42391
-0.12387 0.18571 -0.35103
0.13055 0.07630 -0.13149
0.10925 0.07561 -0.12434
-0.00940 0.07664 -0.13497
-0.12532 0.07782 -0.14723
0.12161 0.07720 -0.14083
-0.09567 0.07757 -0.14463
-0.06886 0.08940 0.27877
0.11255 0.08954 0.29163
-0.13305 0.09392 -0.40384
-0.14558 0.06284 0.41560
-0.04717 0.08888 0.32800
-0.13312 0.08866 0.33490
0.01425 0.08871 0.33324
-0.10725 0.08892 0.32666
0.11541 0.00623 0.41056
-0.13648 -0.17158 0.40650
-0.12544 0.08689 -0.23988
-0.11802 0.08711 -0.24404
-0.13224 0.08697 -0.24138
-0.10961 0.08659 -0.23432
-0.12842 0.08899 0.26056
-0.10232 0.08924 0.26844
-0.02889 0.08925 0.26874
0.02865 0.08921 0.26753
-0.04072 0.08921 0.26741
0.10807 -0.06073 0.40330
-0.11692 0.01700 0.41308
-0.13660 0.08455 0.14368
0.06108 0.08936 0.27438
0.03146 0.08938 0.27689
0.12460 0.08948 0.28611
0.14564 0.00666 -0.42121
0.15143 0.04735 -0.42067
0.08915 0.18518 -0.41137
0.12758 0.08520 0.19903
0.06714 0.08402 0.18679
-0.03426 0.08394 0.18598
0.08991 0.08530 0.20009
0.11564 0.08518 0.19886
-0.07391 0.18096 0.41873
0.13660 0.10466 -0.39446
-0.13076 -0.10996 0.40853
0.04714 0.17380 -0.42159
-0.07357 0.07177 -0.06734
-0.03454 0.07186 -0.06900
-0.01763 0.07172 -0.06640
-0.00387 0.07203 -0.07219
0.00149 0.07202 -0.07204
-0.13463 0.07194 -0.07050
-0.08494 0.07191 -0.07005
-0.01933 0.07199 -0.07153
0.11986 -0.00122 0.40441
0.13353 0.17989 0.10954
0.11363 -0.12248 0.39842
0.13335 0.18012 0.29682
-0.11192 -0.02576 -0.41491
0.13262 -0.06293 0.40263
-0.12162 -0.01996 0.42383
0.11039 0.12167 0.42271
0.10559 0.09427 0.42271
0.04000 0.16450 0.42271
0.06210 0.13572 0.42271
0.08670 0.15377 0.42271
0.09637 0.16670 0.42271
0.10734 0.14361 0.42271
0.11498 0.11280 0.42271
0.09187 0.15680 0.42271
-0.00678 0.16442 0.42271
0.10236 0.16407 0.42271
0.00923 0.15762 0.42271
0.06804 0.10991 0.42271
0.10401 0.13559 0.42271
0.12109 0.16236 0.42271
-0.02308 0.15112 0.42271
0.09558 0.12634 0.42271
0.05540 0.16204 0.42271
0.03357 0.16850 0.42271
-0.10395 0.17029 0.42271
0.11357 0.15303 0.42271
-0.13378 -0.11947 0.40899
0.11653 0.07884 -0.15605
0.06482 0.08115 -0.17564
-0.00336 0.08034 -0.16875
-0.03282 0.08068 -0.17167
-0.04088 0.08062 -0.17113
-0.05781 0.08027 -0.16818
0.09891 0.08084 -0.17302
-0.15180 0.03628 0.42221
0.13660 0.11697 0.41852
0.07606 0.14181 -0.42193
0.12717 0.14456 -0.42193
-0.06678 0.08175 -0.42193
-0.05210 0.09013 -0.42193
-0.02805 0.09616 -0.42193
0.12332 0.08587 -0.42193
0.10269 0.11063 -0.42193
-0.02531 0.10383 -0.42193
0.05841 0.10614 -0.42193
0.10104 0.14630 -0.42193
-0.01777 0.11356 -0.42193
0.11190 0.08156 -0.42193
0.06117 0.13503 -0.42193
0.00994 0.09194 -0.42193
-0.00438 0.09141 -0.42193
-0.04542 0.09958 -0.42193
-0.10097 0.08260 -0.42193
0.12828 0.09064 -0.42193
0.00130 0.08429 -0.42193
0.11231 0.13532 -0.42193
0.13202 0.16628 -0.42193
0.14414 0.06199 -0.41338
-0.12936 0.18366 0.14242
-0.12962 0.18349 -0.33068
0.11587 -0.13665 0.41808
0.02574 0.07321 0.07996
0.00354 0.07373 0.08687
0.13072 0.07366 0.08594
0.06746 0.07324 0.08037
0.09730 0.07369 0.08633
0.00961 0.07377 0.08740
0.06580 0.07383 0.08823
0.11922 0.10534 0.42143
0.13660 0.10018 0.31988
0.12020 -0.09602 -0.38961
0.13660 0.08720 -0.06539
-0.06671 0.07548 0.10932
0.11385 0.07637 0.11854
0.13135 0.07768 0.13220
0.03669 0.07540 0.10853
-0.12589 0.08227 0.17143
0.08568 0.08358 0.18259
-0.12284 0.08340 0.18107
-0.01474 0.08296 0.17731
-0.13703 0.04922 0.40705
-0.13660 0.12653 0.38050
-0.13660 0.14475 0.40078
0.12329 0.08790 0.23560
0.00322 0.08765 0.23091
0.03048 0.08788 0.23525
0.07938 0.08798 0.23714
0.13071 0.08820 0.24114
0.01597 0.08792 0.23590
0.12949 0.18357 0.32788
0.13232 -0.04753 0.41148
0.01996 0.08669 -0.32850
0.07492 0.08682 -0.32605
-0.04629 0.08653 -0.33144
0.13608 -0.03198 0.40609
0.12387 0.18571 0.31624
-0.12277 0.07522 0.39506
-0.13311 0.18039 0.36427
-0.14306 0.04036 0.41307
-0.06681 0.07301 -0.09053
0.11175 0.07200 -0.07169
-0.01017 0.07239 -0.07908
0.06092 0.07276 -0.08594
-0.04927 0.07265 -0.08395
0.06860 0.07212 -0.07404
-0.11889 0.01052 0.40962
-0.06195 0.07059 -0.02976
0.12455 0.07037 -0.00919
-0.01006 0.07054 -0.02454
0.07280 0.07057 -0.02727
0.09653 0.07050 -0.02070
-0.08878 0.07063 -0.03299
-0.13540 0.17665 -0.33433
-0.13539 0.17667 0.13251
0.12111 0.08538 0.42332
0.13660 0.14966 -0.38748
-0.14299 0.00821 0.41300
0.11787 -0.10690 -0.41931
0.00753 0.18593 0.29601
0.06137 0.18593 0.16109
0.00703 0.18593 0.25984
-0.00159 0.18593 0.14793
-0.08716 0.18593 0.39332
0.03939 0.18593 0.08302
0.10873 0.18593 -0.24220
0.11084 0.18593 -0.21808
0.08257 0.18593 -0.15781
0.09447 0.18593 0.17020
-0.03944 0.18593 0.37659
-0.01503 0.18593 0.23873
-0.05634 0.18593 0.31241
0.11593 0.18593 -0.25449
-0.05519 0.18593 0.34348
0.01915 0.18593 -0.02377
0.11913 0.18593 -0.04814
0.02230 0.18593 0.06609
0.01024 0.18593 0.27929
0.10651 0.18593 -0.16009
0.08216 0.18593 -0.14708
0.04200 0.18593 0.05675
-0.08158 0.18593 0.33434
0.07339 0.18593 0.37686
-0.02826 0.18593 0.25993
-0.01281 0.18593 0.15309
0.10015 0.18593 -0.08731
-0.10626 0.18593 0.37396
0.09993 0.18593 0.03963
0.06419 0.18593 0.29536
-0.04154 0.18593 0.28598
0.07750 0.18593 0.17194
-0.02256 0.18593 0.13565
0.07907 0.18593 -0.11853
-0.03813 0.18593 0.16607
0.04314 0.18593 0.36443
0.09719 0.18593 0.14455
0.05968 0.18593 0.23707
0.04642 0.18593 0.34172
0.09026 0.18593 0.05279
0.12022 0.18593 0.35885
0.08747 0.18593 -0.02578
-0.05585 0.18593 0.27148
0.08631 0.18593 -0.09113
0.03629 0.18593 0.30944
0.03632 0.18593 0.19659
0.09237 0.18593 -0.16866
-0.00881 0.18593 0.25942
0.10235 0.18593 0.13336
0.02341 0.18593 -0.02800
0.06077 0.18593 0.07236
-0.03017 0.18593 0.18005
0.06563 0.18593 0.18251
-0.02003 0.18593 0.30780
0.10255 0.18593 -0.04621
-0.00226 0.18593 0.30408
-0.03903 0.18593 0.15603
0.07538 0.18593 0.25118
0.11002 0.18593 -0.04931
0.09058 0.18593 -0.24738
-0.02607 0.18593 0.31424
0.09854 0.18593 0.02700
0.00933 0.18593 0.05312
0.06874 0.18593 -0.07289
-0.01123 0.18593 0.27391
0.11265 0.18593 -0.12125
0.06308 0.18593 0.12196
-0.01647 0.18593 0.15750
0.00240 0.18593 0.14321
0.08894 0.18593 0.26495
-0.09059 0.18593 0.32813
0.04634 0.18593 0.07480
0.08575 0.18593 0.19775
0.09549 0.18593 0.35218
-0.00616 0.18593 0.21241
0.06996 0.18593 -0.18335
0.05580 0.18593 0.08675
0.01527 0.18593 -0.00037
0.09915 0.18593 0.36158
0.09894 0.18593 0.33002
0.01873 0.18593 0.15456
0.03367 0.18593 0.02185
0.10851 0.18593 0.18094
-0.06858 0.18593 0.34468
0.11145 0.18593 0.00723
0.02838 0.18593 0.13878
0.11808 0.18593 -0.22153
-0.03484 0.18593 0.18610
0.10650 0.18593 0.38514
0.05658 0.18593 -0.03783
0.11142 0.18593 -0.17646
0.08104 0.18593 0.16774
0.11021 0.18593 0.07023
0.09470 0.18593 0.33725
0.07323 0.18593 0.19279
0.05118 0.18593 -0.00094
0.08451 0.18593 0.09950
-0.04477 0.18593 0.36423
0.06693 0.18593 0.34105
0.05216 0.18593 0.18141
0.09214 0.18593 0.24697
-0.05813 0.18593 0.36478
0.11821 0.18593 -0.08403
0.08424 0.18593 0.38422
0.03946 0.18593 0.17511
0.05106 0.18593 0.31666
0.09160 0.18593 0.27246
0.11804 0.18593 0.29243
0.05180 0.18593 0.11625
0.05754 0.18593 0.35901
0.03746 0.18593 0.09115
-0.01068 0.18593 0.09771
0.08284 0.18593 -0.06333
0.11972 0.18593 0.21525
-0.02691 0.18593 0.34887
0.10573 0.18593 -0.12052
0.08878 0.18593 0.11958
0.03376 0.18593 0.01186
0.11661 0.18593 -0.19507
0.07201 0.18593 0.01209
-0.01812 0.18593 0.12580
-0.00668 0.18593 0.10169
-0.02730 0.18593 0.22838
-0.04992 0.18593 0.32293
-0.05059 0.18593 0.31261
-0.02568 0.18593 0.21047
0.00055 0.18593 0.16897
0.08574 0.18593 0.09130
0.01568 0.18593 0.30597
-0.09720 0.18593 0.36732
0.00971 0.18593 0.13259
0.02127 0.18593 0.23314
0.06749 0.18593 0.09524
0.08491 0.18593 -0.22777
0.07108 0.18593 0.26979
0.08714 0.18593 -0.10039
0.10091 0.18593 -0.25789
0.12748 -0.12708 -0.39671
0.12243 0.18586 0.20209
-0.13660 0.07658 -0.04962
-0.13660 0.11800 -0.34765
-0.11382 -0.01270 0.40943
-0.02885 0.07142 0.04550
-0.09393 0.07126 0.04046
0.08538 0.07150 0.04817
-0.10618 0.07120 0.03864
-0.07557 0.07143 0.04575
-0.08451 0.07092 0.02986
-0.04351 0.07103 0.03322
-0.14492 0.06090 -0.41572
0.13730 -0.00593 0.40732
0.00421 0.08555 -0.21887
-0.11632 0.08564 -0.22011
-0.09356 0.08557 -0.21924
-0.15108 0.05978 0.42109
0.12737 -0.17654 0.42650
0.12196 -0.12329 0.39198
-0.13660 0.07787 0.01504
0.10678 -0.05685 -0.40821
-0.04027 0.07076 -0.03861
-0.04742 0.07095 -0.04447
-0.07988 0.07124 -0.05351
-0.01913 0.07087 -0.04196
-0.08495 0.07095 -0.04444
-0.10771 0.07073 -0.03778
-0.01426 0.07068 -0.03618
-0.11489 0.08532 -0.41788
-0.13286 -0.08613 0.40550
-0.13660 0.13137 0.41642
-0.13660 0.11124 0.41309
-0.14318 0.04029 -0.41397
0.12259 -0.06532 0.41693
-0.11511 -0.11730 0.39756
-0.13528 0.17688 -0.16729
0.07595 0.08824 0.24191
0.09442 0.08821 0.24135
-0.01624 0.08773 0.23238
0.13485 0.08782 0.23407
-0.08309 0.08749 0.22794
0.13658 0.17100 0.27427
0.07411 0.08843 0.33966
0.04970 0.08849 0.33842
0.08012 0.08819 0.34414
0.12265 -0.16049 -0.40187
0.12946 0.18360 -0.26139
-0.14557 0.02635 -0.42631
0.11826 -0.14798 0.40067
0.12917 0.08781 -0.26412
0.08812 0.08764 -0.25877
0.10597 0.08768 -0.25985
0.06500 0.08768 -0.26010
0.13686 -0.18230 0.40687
0.13660 0.07728 0.02313
-0.12738 0.02482 -0.43037
-0.13660 0.10992 -0.37007
-0.13325 -0.01320 -0.40405
-0.11678 0.06111 0.41899
0.13501 0.17743 -0.17927
0.11443 0.03718 0.41664
-0.14716 0.09304 -0.41872
0.13622 0.17400 -0.36289
-0.12158 -0.03443 -0.39608
-0.13660 0.07999 -0.04161
0.13288 0.05909 -0.43431
-0.11690 -0.00616 0.41911
0.14024 -0.17794 -0.40947
0.12042 0.09228 0.42264
-0.12707 0.18483 -0.28235
-0.12673 0.18494 0.29272
0.14802 0.01563 -0.41725
0.13644 0.17286 0.32378
0.13645 0.17285 -0.10007
-0.02378 0.08885 0.25632
0.09029 0.08869 0.25119
0.06654 0.08912 0.26463
0.06129 0.08904 0.26213
0.12602 0.18518 -0.32855
-0.13204 0.09371 0.43425
-0.11577 0.08778 0.35169
-0.01342 0.08791 0.34929
-0.02592 0.08754 0.35620
-0.06952 0.08794 0.34885
0.06570 0.07586 -0.12696
-0.05850 0.07543 -0.12245
-0.12211 0.07722 -0.14102
0.04912 0.07563 -0.12455
0.02465 0.07624 -0.13092
-0.07543 0.07581 -0.12640
-0.01106 0.07554 -0.12362
-0.13680 0.00825 0.40681
0.13736 -0.03963 0.40737
0.13660 0.09005 0.32986
0.00028 0.18409 0.41473
-0.13660 0.08142 -0.07052
-0.09976 0.08454 -0.20672
-0.00384 0.08386 -0.19966
-0.04552 0.08334 -0.19433
-0.08459 0.08328 -0.19370
-0.04605 0.08184 -0.18143
-0.04053 0.08223 -0.18480
-0.03097 0.08199 -0.18275
-0.08755 0.08199 -0.18272
-0.09815 0.08159 -0.17938
-0.12620 0.18512 -0.13850
-0.12646 0.18504 -0.24785
0.13724 0.03100 0.43455
0.12374 0.05083 0.42595
-0.13467 0.17813 -0.17534
-0.13478 0.17792 0.14700
0.13660 0.10595 0.38677
0.13660 0.12638 0.39880
-0.12762 0.06162 0.39787
0.02735 0.18013 0.41945
0.11348 0.08912 0.32057
-0.05911 0.08915 0.31963
0.08490 0.08876 0.33164
-0.01414 0.08926 0.31611
-0.12679 -0.04466 0.39680
-0.12943 0.18362 0.37929
-0.01288 0.08654 0.21513
-0.02446 0.08644 0.21371
0.02028 0.08632 0.21218
0.10937 0.08595 0.20726
0.13633 0.09424 0.40635
-0.12834 0.08951 0.29633
-0.10247 0.08944 0.30326
-0.02103 0.08935 0.31153
0.05991 0.08937 0.30958
0.11397 0.07777 -0.41540
-0.13660 0.12355 0.41065
-0.13426 0.08743 -0.43352
0.12849 0.05283 0.43071
-0.11113 0.17751 -0.42031
-0.13447 0.17849 -0.11364
-0.13435 0.17867 0.30850
0.14075 0.08508 -0.40998
-0.12663 0.04690 0.40369
-0.13654 0.17163 -0.10091
-0.13647 0.17268 0.32309
0.10576 -0.07183 -0.40719
0.13576 0.17563 -0.27758
-0.11310 -0.13146 0.41531
-0.13381 0.08682 0.43493
-0.13212 -0.16746 0.40214
0.14070 -0.15606 -0.40993
-0.10767 -0.10296 -0.41066
0.12102 -0.14275 -0.39690
-0.13660 0.14668 -0.21175
0.12925 -0.07898 0.39927
-0.12656 0.18500 0.17576
0.12578 -0.17689 -0.42721
0.14295 -0.15244 -0.42059
0.13413 0.04579 -0.43556
-0.13190 0.02122 0.43412
0.00218 0.08711 0.36250
0.10829 0.08696 0.36446
0.12272 0.08714 0.36208
-0.04263 0.08731 0.35973
0.00903 0.08663 0.36880
-0.02323 0.08693 0.36481
-0.10536 -0.09659 0.40524
0.12178 -0.03755 0.39441
-0.13660 0.09338 0.30102
0.13039 0.18298 -0.34561
-0.13660 0.11273 -0.34701
0.13926 0.01993 0.40928
0.13660 0.09661 0.38470
0.13660 0.09139 0.37666
-0.12067 0.10734 -0.40958
0.13660 0.10457 0.36617
0.13660 0.14963 0.40546
-0.13660 0.10498 0.33489
-0.13660 0.14528 0.38523
-0.12228 0.18210 0.41756
0.12455 -0.02712 -0.39471
-0.13112 0.11004 0.42266
0.12395 0.18569 -0.39773
-0.12337 -0.04597 -0.42171
-0.13660 0.13578 0.38035
-0.13660 0.10576 0.35163
-0.09669 0.07447 0.09679
-0.07286 0.07423 0.09357
-0.10251 0.07398 0.09027
-0.05962 0.07395 0.08983
0.12157 0.07508 0.10496
-0.11704 0.07427 0.09405
0.04806 0.07480 0.10121
-0.03852 0.07479 0.10105
-0.11834 0.10952 -0.42031
-0.11434 -0.03049 -0.41733
-0.11023 -0.04063 0.41244
0.13514 0.05329 -0.43658
0.11600 0.07147 -0.06069
0.12341 0.07147 -0.06073
0.08827 0.07104 -0.04728
0.11110 0.07102 -0.04665
0.07363 0.07095 -0.04438
0.06318 0.07123 -0.05318
-0.05976 0.07134 -0.05669
-0.12289 0.08303 0.42510
-0.09196 0.08730 0.35989
0.08888 0.08634 0.37277
-0.08225 0.08716 0.36172
0.13660 0.07527 -0.07130
0.12677 0.18493 -0.24099
0.11489 -0.11157 -0.39620
0.12416 0.18565 0.09530
-0.11411 0.06010 0.41205
0.13091 -0.18038 0.42021
0.07683 0.18208 0.41758
-0.10892 -0.04457 -0.40652
0.01475 0.08499 0.38825
0.12738 -0.17790 -0.40171
0.13660 0.13231 0.40580
-0.11398 -0.05798 0.41619
-0.13291 0.09629 0.40292
-0.12922 -0.06265 -0.40002
0.12399 0.08225 -0.37961
0.12333 0.08125 -0.38810
0.13567 0.08198 -0.38194
0.02655 0.08226 -0.37961
0.12969 -0.08971 -0.40767
-0.11285 -0.01709 0.41507
0.13684 0.05439 -0.40608
-0.08991 0.08570 0.38083
-0.04714 0.08572 0.38069
0.04034 0.08560 0.38187
-0.13408 0.08195 0.16874
-0.11397 0.08144 0.16448
0.04340 0.08348 0.18174
-0.10035 0.08259 0.17420
-0.02962 0.08301 0.17771
0.06421 0.08482 -0.20968
0.09782 0.08478 -0.20921
-0.12597 0.08782 -0.26435
-0.01272 0.08759 -0.25703
0.13342 0.08740 -0.25116
0.13503 0.10137 -0.40427
-0.13655 0.17158 0.36890
-0.13586 0.00532 -0.43048
-0.13660 0.10062 0.41657
-0.13660 0.09118 0.41867
-0.11690 0.17676 0.42146
0.10596 -0.11984 0.40817
-0.13660 0.08633 0.03022
0.11058 -0.01491 0.41279
0.12848 -0.07094 0.39849
-0.09122 0.08248 -0.37768
-0.00725 0.08225 -0.37968
0.05038 0.08306 -0.37278
-0.13536 -0.18593 -0.41270
0.06779 0.07208 0.05961
0.08472 0.07269 0.07107
0.03710 0.07246 0.06667
0.12880 0.07196 0.05738
0.00564 0.07188 0.05576
0.03156 0.07211 0.06009
0.11547 0.07512 -0.11914
0.07876 0.07497 -0.11706
0.03905 0.07466 -0.11288
0.09338 0.07479 -0.11467
-0.13180 0.07312 0.40182
-0.13182 0.00283 0.40184
-0.10768 -0.09456 -0.41067
-0.11586 -0.13498 -0.41885
0.11391 0.01204 -0.41534
-0.11826 0.05484 -0.42125
0.12242 0.18586 -0.16764
-0.14391 -0.17333 0.41393
-0.11066 -0.14270 -0.41365
0.13660 0.08185 0.12423
-0.13658 0.17113 0.12262
-0.13577 0.17560 0.22055
-0.13576 0.17562 0.34357
-0.14772 0.00743 -0.41939
0.11684 -0.02496 -0.41827
-0.12573 0.02566 -0.40492
0.11996 -0.17514 -0.40878
0.12783 -0.10725 0.40930
-0.10630 -0.06616 -0.40504
0.13126 0.18227 0.05648
0.13660 0.15124 -0.01554
0.13660 0.12223 0.10488
0.13660 0.14255 -0.09649
0.13660 0.15928 -0.16178
0.13660 0.14913 -0.16429
0.13660 0.09724 0.24089
0.13660 0.09926 0.30063
0.13660 0.12800 0.19593
0.13660 0.15666 -0.25582
0.13660 0.14943 0.15606
0.13660 0.16896 0.24588
0.13660 0.16343 -0.29798
0.13660 0.15700 0.01540
0.13660 0.16919 -0.27027
0.13660 0.16452 -0.31694
0.13660 0.14059 -0.07220
0.13660 0.13853 0.26968
0.13660 0.14990 0.06485
0.13660 0.11900 0.12737
0.13660 0.15613 0.31957
0.13660 0.15659 0.24152
0.13660 0.16496 -0.17731
0.13660 0.13844 0.32797
0.13660 0.15791 0.21827
0.13660 0.16345 -0.12476
0.13660 0.17017 -0.31579
0.13660 0.16654 0.07950
0.13660 0.12902 0.09850
0.13660 0.11349 0.16173
0.13660 0.15483 -0.03369
0.13660 0.15287 -0.05448
0.13660 0.14714 0.22789
0.13660 0.12593 0.06739
0.13660 0.16374 0.21641
0.13660 0.15991 0.25178
0.13660 0.13282 0.06259
0.13660 0.15257 0.37909
0.13660 0.15992 -0.17338
0.13660 0.15240 -0.10575
0.13660 0.15221 0.37332
0.13660 0.16728 -0.37372
0.13660 0.14209 -0.13286
0.13660 0.14969 0.12593
0.13660 0.11047 0.20838
0.13660 0.15880 -0.18821
0.13660 0.15734 -0.21176
0.13660 0.12806 0.34531
0.13660 0.15510 0.10274
0.13660 0.14878 0.08355
0.13660 0.13798 0.30312
0.13748 -0.16221 -0.42575
-0.13676 -0.00520 0.40677
-0.02408 0.08179 0.16736
-0.00544 0.08146 0.16464
0.09397 0.08174 0.16694
0.12986 0.08287 0.17657
0.11751 0.07058 0.01470
-0.05874 0.07042 0.00025
0.09568 0.07045 0.00269
0.12539 0.07055 0.01252
-0.04796 0.07043 0.00133
0.00518 0.07050 0.00710
-0.13998 0.09441 0.42616
-0.08715 0.18005 -0.41874
0.13705 -0.01016 -0.40628
0.12891 -0.18593 -0.41017
0.10932 -0.12160 0.40257
-0.13618 0.17420 0.40947
0.03591 0.08383 0.40024
0.05040 0.08406 0.39794
0.07661 0.07470 0.09988
0.10525 0.07339 0.08237
0.05895 0.07312 0.07871
-0.03913 0.07379 0.08774
-0.06345 0.07330 0.08114
0.05821 0.07374 0.08699
-0.00103 0.07353 0.08421
0.00027 0.07628 -0.13125
0.03679 0.07542 -0.12236
-0.13385 0.07704 -0.13917
0.05465 0.07520 -0.12012
0.01006 0.07533 -0.12144
0.08197 0.07537 -0.12179
-0.13213 0.07575 -0.12581
-0.04870 0.07655 -0.13407
-0.13660 0.11236 -0.01443
-0.13660 0.10654 -0.00493
-0.13660 0.10829 -0.12369
-0.13660 0.11453 -0.22283
-0.13660 0.14483 -0.27489
-0.13660 0.12163 -0.27156
-0.13660 0.09323 0.20814
-0.13660 0.11464 -0.20537
-0.13660 0.11602 -0.26653
-0.13660 0.13218 -0.29025
-0.13660 0.10756 0.04437
-0.13660 0.13921 -0.34200
-0.13660 0.09859 0.04971
-0.13660 0.08893 -0.06485
-0.13660 0.09251 -0.14743
-0.13660 0.11687 0.01679
-0.13660 0.10796 0.08406
-0.13660 0.13270 -0.30491
-0.13660 0.12594 -0.11117
-0.13660 0.08922 -0.18328
-0.13660 0.14687 -0.34913
-0.13660 0.10354 -0.18558
-0.13660 0.09134 0.15704
-0.13660 0.15320 -0.33165
-0.13660 0.10639 0.02797
-0.13660 0.15080 -0.26921
-0.13660 0.15732 -0.35412
-0.13660 0.12539 -0.15189
-0.13660 0.11411 -0.13821
-0.13660 0.12673 -0.06970
-0.13660 0.14175 -0.36576
-0.13660 0.09419 -0.28350
-0.13660 0.08829 -0.19480
-0.13660 0.15144 -0.27637
-0.13660 0.11101 -0.06602
-0.13660 0.09917 -0.04255
-0.13660 0.14632 -0.23710
-0.13660 0.16706 -0.40122
-0.13697 0.03889 -0.43651
0.02295 0.08478 0.39046
0.04189 0.08495 0.38863
-0.13272 0.08536 0.38444
-0.13660 0.08580 0.08478
-0.12677 -0.13444 -0.39756
0.00596 0.08539 -0.34785
-0.02788 0.08509 -0.35182
0.08877 0.08545 -0.34705
0.06593 0.08577 -0.34273
-0.13571 0.17577 -0.03862
-0.13598 0.17499 -0.39403
0.00719 0.08521 0.19917
-0.13187 0.08446 0.19135
0.06950 0.08563 0.20353
-0.08279 0.08494 0.19633
-0.11082 0.08463 0.19313
-0.01508 0.08492 0.19614
-0.13640 0.17308 -0.14284
-0.13630 0.17358 0.30916
-0.12256 -0.07719 0.41664
0.03112 0.18499 -0.41193
-0.08378 0.07411 -0.10557
-0.05436 0.07350 -0.09747
-0.04773 0.07416 -0.10621
-0.04943 0.07315 -0.09280
0.01557 0.07395 -0.10343
-0.10041 0.07363 -0.09916
0.09962 0.07308 -0.09188
-0.14883 0.08851 0.41885
0.12072 0.07089 0.39831
-0.10792 -0.09879 -0.40198
-0.13138 0.18217 0.06786
0.14389 0.03496 -0.41313
0.12684 0.04222 0.40275
-0.03058 0.18592 -0.40694
-0.14036 -0.13800 -0.41507
0.11180 -0.14942 -0.41323
-0.12280 0.08942 -0.42579
0.00859 0.08677 -0.32687
0.09294 0.08639 -0.33399
0.09666 0.08660 -0.33011
0.02992 0.08686 -0.32531
-0.14647 0.00729 0.42138
-0.12521 0.08840 -0.39600
-0.13409 -0.00137 0.40410
-0.13660 0.11545 0.05209
-0.13660 0.13034 -0.42112
-0.13660 0.12079 -0.39926
-0.13660 0.10921 -0.41592
-0.13660 0.09635 -0.39991
-0.12338 0.18580 -0.06900
-0.12319 0.18581 -0.15581
-0.05768 0.18393 -0.41429
-0.14323 0.08931 0.42478
-0.12428 0.18497 -0.41198
-0.11579 -0.04716 -0.41879
-0.11803 -0.06733 0.42024
-0.11864 0.04540 -0.42163
0.07933 0.08788 -0.26981
-0.08375 0.08799 -0.27960
-0.14982 0.07569 0.42182
0.04239 0.07161 -0.06438
-0.11902 0.07293 -0.08904
0.01852 0.07206 -0.07277
-0.00961 0.07193 -0.07038
-0.13660 0.11619 0.37748
-0.13660 0.11391 0.36293
-0.11299 -0.09326 -0.39676
-0.13213 -0.05224 -0.40292
0.02548 0.07260 0.06922
-0.08804 0.07185 0.05521
-0.03525 0.07212 0.06034
-0.10808 0.07257 0.06879
-0.03889 0.07282 0.07333
-0.12762 0.07232 0.06410
0.13993 0.07720 -0.43062
-0.09423 0.07048 0.00552
-0.00568 0.07055 0.01254
-0.09176 0.07041 -0.00085
-0.08694 0.07047 0.00435
-0.01891 0.07063 0.01928
-0.14294 -0.15626 0.41295
0.12937 -0.05121 -0.41420
0.08879 0.08900 0.26093
0.12599 0.08926 0.26892
0.09892 0.08887 0.25673
0.01835 0.08862 0.24921
0.06580 0.08888 0.25713
-0.13577 -0.05151 -0.40772
0.13660 0.08735 0.20358
-0.13660 0.15817 0.08021
-0.13660 0.15748 0.34291
-0.13660 0.16090 0.22211
-0.13660 0.09523 0.26615
-0.13660 0.16509 0.23497
-0.13660 0.15504 0.36504
-0.13660 0.12707 0.02579
-0.13660 0.10267 0.27169
-0.13660 0.14132 -0.00569
-0.13660 0.15173 0.21604
-0.13660 0.13627 0.18503
-0.13660 0.14156 0.09565
-0.13660 0.14356 0.15999
-0.13660 0.14938 0.06550
-0.13660 0.16855 0.01643
-0.13660 0.10359 0.23782
-0.13660 0.16296 0.21657
-0.13660 0.15667 0.25044
-0.13660 0.16891 0.27642
-0.13660 0.15962 0.02080
-0.13660 0.16139 0.37258
-0.13660 0.15958 0.03756
-0.13660 0.11270 0.15835
-0.13660 0.14843 -0.14427
-0.13660 0.16357 0.19284
-0.13660 0.15983 -0.20372
-0.13660 0.10185 0.30121
-0.13660 0.14117 -0.12355
-0.13660 0.16841 0.22479
-0.13660 0.16144 -0.01680
-0.13660 0.14785 -0.19021
-0.13660 0.15691 0.39997
-0.13660 0.12171 0.30935
-0.13660 0.15147 0.05212
-0.13660 0.16585 0.12127
-0.13660 0.16593 0.07809
-0.13660 0.13705 0.14031
-0.13660 0.16684 0.06802
-0.13660 0.16350 -0.26153
-0.13660 0.12207 0.09677
-0.13660 0.15390 0.38178
-0.13660 0.16678 0.09256
-0.13660 0.16275 -0.09514
-0.13660 0.13576 0.09207
-0.13660 0.13996 -0.07651
-0.13660 0.14243 0.21348
-0.13660 0.13525 0.19912
-0.13660 0.12550 0.18262
-0.13660 0.13004 0.29575
-0.13660 0.16239 -0.33454
-0.13660 0.13315 0.13017
-0.13660 0.11540 0.13891
-0.13660 0.10738 0.24448
-0.13660 0.14900 0.32192
-0.13660 0.13267 0.07206
-0.13660 0.15704 -0.13978
-0.13660 0.15426 -0.00724
-0.13660 0.15285 0.11425
-0.13660 0.14219 0.10363
-0.12329 -0.17763 -0.40577
0.14576 0.08147 -0.42377
0.10946 -0.09750 0.41168
-0.12426 0.08792 -0.27300
-0.07778 0.08795 -0.27571
-0.09372 0.08795 -0.27647
-0.06842 0.08793 -0.27384
0.02862 0.08619 -0.22749
-0.09555 0.08622 -0.22783
-0.00641 0.08570 -0.22090
0.11303 0.08515 -0.21360
0.13334 0.08612 -0.22648
0.12728 -0.18414 0.40128
0.03853 0.08242 0.41239
-0.10861 0.08353 0.40301
0.06640 0.08375 0.40115
0.01158 0.08360 0.40241
0.12982 0.08197 0.41621
0.06418 0.08213 0.41484
-0.11574 0.10174 0.40386
-0.09036 0.08441 -0.20539
-0.11994 0.08348 -0.19570
-0.04010 0.08417 -0.20291
-0.11628 0.08460 -0.20737
0.13660 0.08209 -0.11851
0.11887 -0.04625 0.39542
0.13660 0.10183 0.06466
0.13660 0.14932 -0.27171
0.13660 0.09163 0.04453
0.13660 0.09937 -0.28567
0.13660 0.13131 -0.13705
0.13660 0.13418 -0.19863
0.13660 0.10408 -0.18901
0.13660 0.11502 -0.20338
0.13660 0.12853 -0.20391
0.13660 0.11778 -0.23483
0.13660 0.09309 0.12461
0.13660 0.12673 -0.27107
0.13660 0.08999 -0.01798
0.13660 0.10316 0.10090
0.13660 0.14999 -0.33826
0.13660 0.10617 0.05564
0.13660 0.12643 -0.15487
0.13660 0.09439 -0.28164
0.13660 0.13909 -0.36705
0.13660 0.11834 -0.01613
0.13660 0.12061 -0.30227
0.13660 0.11755 -0.28476
0.13660 0.08857 -0.07890
0.13660 0.11850 -0.12400
0.13660 0.15231 -0.28234
0.13660 0.09475 -0.01373
0.13660 0.12787 -0.10450
0.13660 0.14010 -0.33898
0.13660 0.11711 -0.27044
0.13660 0.15720 -0.39044
0.13660 0.09774 -0.02941
0.13660 0.09679 -0.09038
0.13660 0.08980 0.18798
0.13660 0.12907 -0.29894
0.13660 0.08949 -0.03728
0.13660 0.12560 -0.23773
0.13660 0.13750 -0.17699
0.13660 0.13526 -0.28646
0.06463 0.18593 -0.32041
-0.11400 0.18593 -0.00333
0.07854 0.18593 -0.30576
-0.01374 0.18593 0.05037
-0.11187 0.18593 -0.38055
-0.02330 0.18593 -0.25187
-0.05858 0.18593 0.16151
-0.03702 0.18593 -0.36517
-0.09496 0.18593 -0.26741
-0.03899 0.18593 -0.18890
-0.04848 0.18593 0.07496
0.07937 0.18593 -0.32546
-0.11195 0.18593 -0.21578
-0.08422 0.18593 0.15110
-0.11819 0.18593 -0.09238
-0.10767 0.18593 0.30240
0.03027 0.18593 -0.09397
-0.07474 0.18593 -0.02084
-0.06834 0.18593 0.03362
-0.07447 0.18593 -0.14327
-0.04335 0.18593 -0.09231
-0.06266 0.18593 -0.11394
-0.05158 0.18593 -0.17865
-0.09410 0.18593 -0.24290
-0.06964 0.18593 0.23468
0.03711 0.18593 -0.28227
0.05381 0.18593 -0.23051
0.07339 0.18593 -0.22030
0.00262 0.18593 -0.12574
-0.11822 0.18593 0.28094
-0.11770 0.18593 0.15645
-0.09135 0.18593 -0.28278
0.02124 0.18593 -0.05637
0.02986 0.18593 -0.23752
-0.05705 0.18593 -0.21814
-0.10224 0.18593 0.22435
-0.03984 0.18593 -0.07502
-0.10507 0.18593 0.29676
0.04057 0.18593 -0.15274
-0.05127 0.18593 -0.25343
-0.05446 0.18593 -0.36255
-0.05968 0.18593 0.08050
-0.05314 0.18593 -0.17256
-0.06080 0.18593 -0.30769
-0.11749 0.18593 -0.18209
-0.03662 0.18593 -0.38145
-0.07786 0.18593 0.12476
-0.05461 0.18593 0.11844
-0.10418 0.18593 -0.39608
-0.08453 0.18593 -0.30396
-0.04162 0.18593 -0.24356
-0.06145 0.18593 0.02303
0.05292 0.18593 -0.29103
-0.08722 0.18593 0.07988
-0.08503 0.18593 0.26823
-0.08687 0.18593 0.02033
-0.07070 0.18593 0.10303
0.00186 0.18593 -0.11472
-0.11508 0.18593 0.01686
-0.07229 0.18593 0.10816
-0.11478 0.18593 0.13047
-0.03628 0.18593 -0.17569
-0.04984 0.18593 0.16891
-0.10301 0.18593 -0.26159
0.06612 0.18593 -0.33819
-0.01471 0.18593 -0.12279
-0.08307 0.18593 0.23632
-0.11607 0.18593 -0.22679
-0.05151 0.18593 -0.10191
-0.06313 0.18593 0.06197
-0.07757 0.18593 -0.30303
-0.07615 0.18593 0.09777
0.01215 0.18593 -0.19772
-0.10652 0.18593 -0.00203
-0.12138 0.18593 0.33260
0.03520 0.18593 -0.08460
0.06387 0.18593 -0.29302
0.01083 0.18593 -0.32832
-0.09479 0.18593 0.01624
-0.00878 0.18593 -0.20740
0.00508 0.18593 -0.09018
0.00985 0.18593 -0.22717
-0.02664 0.18593 -0.30801
-0.10619 0.18593 -0.31415
-0.00218 0.18593 -0.07655
-0.01889 0.18593 -0.14576
-0.09203 0.18593 0.10230
0.00431 0.18593 -0.02508
-0.08805 0.18593 -0.21813
0.01586 0.18593 -0.17181
-0.10851 0.18593 -0.34389
0.05814 0.18593 -0.18318
-0.05345 0.18593 -0.30115
-0.00914 0.18593 -0.14643
-0.02384 0.18593 -0.29636
0.08456 0.18593 -0.26433
-0.09777 0.18593 0.07696
-0.11753 0.18593 0.30143
0.04513 0.18593 -0.32925
-0.06482 0.18593 0.02732
0.02361 0.18593 -0.16573
-0.11164 0.18593 0.07352
0.02220 0.18593 -0.13358
0.08595 0.18593 -0.29957
-0.03783 0.18593 -0.02607
0.03370 0.18593 -0.19201
-0.06466 0.18593 -0.38363
-0.00032 0.18593 -0.06365
-0.06496 0.18593 -0.21346
-0.09640 0.18593 0.22354
0.02227 0.18593 -0.31952
-0.09978 0.18593 -0.02106
-0.10356 0.18593 0.32492
