-0.22482 0.03633 0.06943
-0.24118 0.03633 0.21170
-0.19440 0.03633 -0.14989
-0.21956 0.03633 0.14959
-0.23251 0.03633 0.06388
-0.21060 0.03633 -0.17583
-0.23527 0.03633 0.25672
-0.20197 0.03633 0.02312
-0.23787 0.03633 0.22748
-0.20705 0.03633 0.26335
-0.22141 0.03633 -0.05855
-0.23384 0.03633 0.31993
-0.14166 -0.00296 -0.22402
-0.14166 -0.01184 -0.20535
-0.14166 -0.06252 -0.19703
-0.14166 -0.05974 -0.19064
-0.12638 -0.10441 -0.38895
0.25904 0.09210 0.34192
0.26099 0.00749 0.40938
-0.14166 -0.03966 -0.12370
-0.14166 -0.09287 -0.08646
-0.14166 0.00266 -0.12396
-0.14166 -0.08479 -0.08187
-0.17966 0.09380 0.32813
-0.17503 0.01577 -0.37517
-0.17337 0.01577 -0.28344
-0.16190 0.01577 -0.27274
-0.13589 -0.05237 -0.07649
-0.22467 0.09010 0.13967
-0.24598 0.09010 0.10841
-0.22424 0.09010 0.12701
-0.24393 0.04042 0.33975
-0.24310 -0.07921 0.34143
-0.16303 0.09010 0.38135
-0.16088 -0.09873 -0.08744
-0.04562 -0.09513 0.40948
0.09160 -0.00605 0.40948
0.24441 -0.04423 0.40948
0.25358 0.08988 0.40948
0.19610 -0.07551 0.40948
0.02955 -0.08722 0.40948
0.10954 0.01778 0.40948
0.21173 0.02936 0.40948
0.25925 0.03176 0.40948
0.02618 -0.06650 0.40948
0.02691 -0.02499 0.40948
-0.03012 -0.05937 0.40948
-0.08746 -0.08876 0.40948
-0.01888 -0.06748 0.40948
0.14946 -0.05924 0.40948
0.02808 -0.05279 0.40948
0.10164 -0.07520 0.40948
0.08876 0.00304 0.40948
0.07174 -0.01870 0.40948
0.22829 -0.09764 0.40948
0.18269 -0.02737 0.40948
-0.00929 -0.09692 0.40948
0.06691 -0.04591 0.40948
-0.01474 -0.04550 0.40948
0.17473 -0.04693 0.40948
0.20040 0.05306 0.40948
0.18368 0.03469 0.40948
0.12503 0.02609 0.40948
0.09190 -0.04836 0.40948
0.11015 -0.08098 0.40948
0.18443 -0.09083 0.40948
0.08586 -0.03443 0.40948
0.09747 -0.04994 0.40948
0.16946 -0.04033 0.40948
0.17285 0.00590 0.40948
0.20766 0.01089 0.40948
0.03809 -0.06145 0.40948
0.01426 -0.07787 0.40948
0.22325 -0.09409 0.40948
0.09121 0.09010 0.39881
0.12445 0.09010 0.36829
0.11442 0.09010 0.37269
-0.03057 0.09010 0.39065
-0.02959 0.09010 0.39827
0.14580 0.09010 0.38953
0.16411 0.09010 0.38476
0.10265 0.09010 0.37814
0.17984 0.09010 0.36001
0.19492 0.09010 0.39988
0.18321 0.09010 0.38993
-0.01703 0.09010 0.39664
-0.14333 -0.09873 -0.18917
-0.15620 -0.09873 -0.12429
-0.12580 0.02270 0.14713
-0.13860 -0.04655 -0.05746
-0.25328 0.01519 -0.27218
-0.25328 -0.06714 -0.36602
-0.25328 -0.05030 -0.38495
-0.25328 -0.03804 -0.35344
-0.25328 0.00817 -0.29697
-0.25328 0.01278 -0.35808
-0.25328 -0.02329 -0.33864
-0.25328 0.00710 -0.34189
-0.25328 0.00120 -0.27464
-0.25328 -0.04085 -0.34009
-0.26099 -0.05297 0.27176
-0.26099 0.01696 0.26720
-0.19489 -0.09629 0.25390
-0.07406 0.01577 0.27935
-0.22571 0.05240 0.36496
-0.22299 -0.02533 0.36807
-0.20686 0.03633 -0.12422
-0.19738 0.03633 -0.03371
-0.19369 0.03633 -0.37139
-0.22585 0.03633 0.15792
-0.20771 0.03633 0.15644
-0.20791 0.03633 -0.18399
-0.21657 0.03633 -0.02607
-0.22257 0.03633 -0.00884
-0.22590 0.03633 0.22015
-0.19476 0.03633 -0.29482
-0.22950 0.03633 0.02717
-0.22870 0.03633 0.01175
-0.21870 0.03633 -0.04640
-0.20891 0.03633 0.08332
-0.21175 0.03633 -0.05259
-0.20549 0.03633 -0.10472
-0.19954 0.03633 -0.19871
-0.20781 0.03633 0.03739
-0.15307 -0.11541 -0.02308
-0.15307 -0.11299 -0.19681
-0.15307 -0.10623 -0.11481
-0.15307 -0.10772 -0.19446
-0.21964 0.09010 0.23114
-0.24646 0.09010 0.21146
-0.23198 0.09010 0.23246
-0.22483 0.09010 0.27229
-0.14941 0.09380 0.37235
-0.15307 -0.09877 -0.20664
-0.12580 0.01601 0.16603
-0.24985 0.11758 -0.10227
-0.06755 0.01577 0.29194
-0.25174 0.08859 -0.26737
-0.25174 0.08873 -0.29065
-0.25174 0.08313 -0.22154
-0.25174 0.05878 0.03415
-0.25174 0.04341 0.19365
-0.25174 0.08370 -0.25465
-0.22082 0.09380 0.02114
-0.12580 -0.07769 0.26323
-0.12580 -0.09837 0.26481
-0.25328 -0.09706 -0.27147
-0.25328 -0.02515 -0.25289
-0.25328 -0.07566 -0.29769
-0.25328 -0.05529 -0.27736
-0.24428 0.00781 -0.38902
-0.20055 -0.06777 -0.38902
-0.21518 -0.04625 -0.38902
-0.22608 -0.02569 -0.38902
-0.20765 -0.09228 -0.38902
-0.21529 0.09010 0.29660
-0.22633 0.09010 0.29475
-0.20616 0.09010 0.27988
-0.06991 -0.11919 0.33326
-0.10761 -0.11919 0.33491
-0.01914 -0.11919 0.33436
-0.07177 -0.11919 0.32425
-0.05876 -0.11919 0.38533
0.14831 -0.11919 0.33153
0.10163 -0.11919 0.34291
0.00428 -0.11919 0.35129
-0.03299 -0.11919 0.32699
0.08656 -0.11919 0.32192
0.16023 -0.11919 0.32914
0.12419 -0.11919 0.33206
0.02007 -0.11919 0.35150
0.04892 -0.11919 0.33219
-0.03054 -0.11919 0.33718
0.03800 -0.11919 0.34447
-0.25030 0.04908 0.32685
-0.24649 -0.07424 0.33456
-0.24931 -0.09874 0.21597
-0.24928 -0.08722 0.18135
-0.24928 -0.02660 0.13003
-0.24928 0.00008 0.11112
-0.24928 -0.05889 0.19383
-0.24928 -0.06143 0.18625
-0.24928 -0.01948 0.15005
-0.24928 -0.03488 0.13577
-0.24928 -0.08931 0.11936
-0.24928 -0.08866 0.22673
0.15258 -0.01011 0.30880
0.18255 -0.00715 0.30880
0.17891 -0.03687 0.30880
0.18143 -0.07146 0.30880
-0.23404 -0.11919 -0.15208
-0.19595 -0.11919 -0.21304
-0.23777 -0.11919 0.12387
-0.25001 -0.11919 -0.21276
-0.24844 -0.11919 -0.06598
-0.22194 -0.11919 -0.14359
-0.25155 -0.11919 0.20930
-0.23083 -0.11919 -0.06564
-0.25100 -0.11919 -0.12994
-0.22318 -0.11919 0.04844
-0.21838 -0.11919 -0.13214
-0.20410 -0.11919 -0.08037
-0.24295 -0.11919 -0.20723
-0.24439 -0.11919 -0.02028
-0.21573 -0.11919 -0.20153
-0.22976 -0.11919 -0.08605
-0.25248 -0.11919 0.16623
-0.24458 -0.11919 -0.16286
-0.22604 -0.11919 0.00054
-0.25091 0.09010 -0.37216
-0.23771 0.09010 -0.29221
-0.24847 0.09010 -0.29548
-0.21876 0.09010 -0.30427
-0.24478 0.09010 -0.30425
-0.24739 0.09010 -0.35826
-0.24067 0.09380 -0.06130
-0.23265 0.09380 -0.01431
-0.24366 0.09380 -0.08385
-0.25947 0.09380 -0.22040
-0.24375 0.09380 0.00862
-0.24038 0.09380 -0.00850
-0.24966 0.09380 -0.01139
-0.24137 0.09380 -0.07640
-0.26055 0.09380 0.16759
-0.22896 0.09380 0.05603
-0.23583 0.09380 -0.06754
-0.24793 0.09380 0.02318
-0.24267 0.09380 -0.01933
-0.22945 0.09010 0.03641
-0.21979 0.09010 0.03907
-0.21189 0.09010 0.11307
-0.20125 0.09010 0.03158
-0.20179 0.09010 0.12627
-0.22363 0.03753 -0.40948
-0.24532 -0.05408 -0.40948
-0.25685 -0.05958 -0.40948
-0.24972 -0.01499 -0.40948
-0.20551 0.01934 -0.40948
-0.21780 0.03556 -0.40948
-0.22023 0.05595 -0.40948
-0.22070 0.03633 0.34758
-0.20631 0.09010 -0.30533
-0.19656 0.09010 -0.37059
-0.21669 0.09010 -0.34619
-0.19870 0.09010 -0.36281
-0.21467 0.09010 -0.34072
-0.20509 0.09010 -0.34200
0.24110 -0.04159 0.27437
-0.12580 0.03539 0.08902
-0.06630 0.11776 0.37316
-0.01447 0.11776 0.37393
-0.05385 0.11776 0.37605
-0.05466 0.11776 0.35304
0.06365 0.11776 0.35815
-0.12258 0.03633 0.38481
-0.23001 0.11428 -0.19827
-0.23777 0.11428 -0.11557
-0.24647 0.11428 -0.15888
-0.21709 0.11428 -0.11523
-0.22380 0.11428 -0.10045
-0.21625 0.11428 -0.20390
-0.22324 0.11428 -0.07578
-0.22410 0.11428 -0.15984
-0.14166 0.01318 -0.12004
-0.14166 -0.03351 -0.09010
-0.14166 -0.05643 -0.07405
-0.15184 0.09010 0.38567
-0.16809 0.03633 0.34872
-0.22626 0.07382 -0.40948
-0.19921 0.06068 -0.40948
-0.22198 0.06158 -0.40948
-0.05748 0.11437 0.39869
-0.24985 0.11722 -0.18956
-0.22544 -0.09503 0.24405
-0.23410 -0.09503 0.21950
-0.23020 -0.09502 0.16500
-0.22018 -0.09503 0.18931
-0.24272 -0.09502 0.12382
-0.23090 -0.09503 0.19279
-0.24422 -0.09503 0.19131
-0.17879 -0.09874 0.18292
-0.22269 -0.09503 0.23107
-0.20996 -0.09503 0.22547
-0.21463 -0.09503 0.23791
-0.24172 -0.09503 0.22454
-0.21939 -0.09502 0.18074
-0.23930 0.09010 0.31538
-0.26047 -0.02182 0.28235
-0.26097 0.01298 0.27473
0.07448 -0.00310 0.30880
0.08811 -0.05529 0.30880
0.11306 -0.07727 0.30880
0.08107 -0.05343 0.30880
-0.14166 -0.03929 -0.20508
-0.14166 0.01088 -0.20083
-0.14166 -0.01986 -0.21974
-0.14166 -0.03579 -0.21278
0.07879 0.09380 0.34816
-0.04219 0.09380 0.34526
0.23490 0.09380 0.35463
0.20903 0.09380 0.34662
0.15824 0.09380 0.36394
-0.07627 0.09380 0.34298
0.19464 0.09380 0.37026
0.17868 0.09380 0.39320
0.21501 0.09380 0.35569
0.16549 0.09380 0.37203
0.16423 0.09380 0.36539
0.25740 0.09380 0.35694
0.14310 0.09380 0.37704
-0.25328 -0.09907 -0.36048
0.26099 -0.08725 0.39074
-0.25543 0.04893 0.31210
-0.25368 -0.06997 0.31726
-0.21152 -0.11919 0.26656
-0.26099 -0.02677 -0.35099
-0.26099 0.04513 -0.34341
-0.26099 0.07747 -0.00567
-0.26099 0.05135 -0.27639
-0.26099 0.08514 -0.33471
-0.26099 0.04659 0.03200
-0.26099 0.01908 -0.33400
-0.26099 0.02587 -0.31651
-0.26099 0.01114 -0.37624
-0.26099 -0.04284 -0.26194
-0.26099 0.06557 -0.04827
-0.26099 0.02661 -0.25240
-0.26099 -0.01894 -0.28203
-0.26099 -0.00838 -0.37486
-0.26099 -0.07037 -0.36252
-0.26099 0.07368 0.00404
-0.26099 0.08618 -0.03838
-0.26099 -0.06699 -0.32353
-0.26099 0.08165 0.17342
-0.26099 0.08930 -0.16701
-0.26099 0.08034 -0.25026
-0.26099 -0.02773 -0.38657
-0.26099 0.07907 -0.13417
-0.26099 -0.01832 -0.17438
-0.26099 -0.01879 -0.19598
-0.26099 0.03983 0.05771
-0.26099 0.04663 -0.16873
-0.26099 0.05920 -0.17996
-0.26099 0.02709 -0.03822
-0.26099 0.03237 -0.09818
-0.26099 0.08982 -0.15810
-0.26099 0.06050 0.07973
-0.26099 -0.02876 -0.25626
-0.26099 0.02932 0.00202
-0.26099 0.07174 -0.22674
-0.26099 0.04870 -0.09284
-0.26099 0.07109 0.16294
-0.26099 0.07842 0.11207
-0.26099 0.04191 -0.16447
-0.26099 -0.05433 -0.39914
-0.26099 -0.02032 -0.29342
-0.26099 0.05790 0.02023
-0.26099 -0.00332 -0.13887
-0.26099 0.06815 -0.06291
-0.26099 0.01011 -0.10999
-0.26099 -0.02579 -0.38103
-0.26099 0.01026 -0.29014
-0.26099 0.01881 -0.09339
-0.26099 0.03521 -0.17415
-0.26099 -0.00868 -0.13142
-0.26099 0.06344 -0.05427
-0.26099 0.07249 0.01254
-0.26099 -0.01435 -0.29525
-0.26099 0.03924 -0.06014
-0.26099 0.06560 -0.08583
-0.26099 0.04140 -0.03843
-0.26099 0.00101 -0.11817
-0.26099 0.08156 0.14872
-0.26099 0.01424 -0.27626
-0.26099 0.05410 0.05305
-0.26099 0.02519 0.02302
-0.26099 0.07395 0.17699
-0.26099 0.01254 -0.19777
-0.26099 0.06016 0.06177
-0.26099 -0.00044 -0.19305
-0.26099 -0.06675 -0.31082
-0.26099 0.03457 -0.33517
-0.26099 -0.05410 -0.38491
-0.26099 0.00069 -0.09277
-0.26099 -0.01702 -0.21616
-0.26099 0.06520 0.04146
-0.26099 0.09115 -0.06242
-0.26099 0.03643 -0.06970
-0.26099 0.05013 0.00430
-0.26099 0.06542 -0.32050
-0.24032 -0.07011 0.25390
-0.22965 0.00411 0.25390
-0.13511 0.01322 0.25390
-0.20694 -0.04489 0.25390
-0.17940 -0.01441 0.25390
-0.22562 -0.04465 0.25390
-0.25328 -0.10738 -0.29094
-0.16402 -0.08320 0.40378
-0.16340 -0.02526 0.40399
0.19065 -0.03426 0.30177
-0.25957 -0.09874 0.12597
-0.15643 -0.09873 -0.14602
-0.26087 0.03089 0.27619
-0.26018 -0.04556 0.28669
-0.20577 0.05135 -0.40580
-0.20134 0.08188 -0.40580
-0.15113 -0.10014 -0.38899
-0.25174 0.07062 -0.12396
-0.25174 0.07485 -0.11085
-0.25174 0.07925 -0.19935
-0.25174 0.06321 -0.02689
-0.25174 0.08317 -0.24094
-0.25174 0.06823 -0.08684
-0.24947 0.09010 0.06654
-0.24897 0.09010 0.16684
-0.24135 0.09010 0.11771
-0.24869 0.09010 0.14419
-0.21506 0.09010 0.13643
-0.25328 -0.09175 -0.40740
-0.21190 0.11428 0.00929
-0.20835 0.11428 -0.11891
-0.22228 0.11428 -0.00612
-0.20603 0.11428 0.00909
-0.21074 0.11428 -0.05624
-0.21074 0.11428 -0.02696
-0.22639 0.11428 0.00212
-0.22096 0.11428 0.03242
-0.06243 0.10598 0.36560
-0.01454 0.03092 0.27437
0.13413 0.02354 0.27437
-0.04611 0.03431 0.27437
0.18952 0.02139 0.27437
-0.13300 0.03633 0.29552
-0.17586 0.03633 0.28015
-0.13262 0.03633 0.38614
-0.15635 0.03633 0.33261
-0.15307 -0.10970 0.07988
-0.00834 -0.09874 0.31052
-0.26099 0.07004 -0.28399
-0.26099 -0.01126 -0.30757
-0.26099 0.09233 -0.39281
-0.26099 0.07230 -0.38709
-0.26099 -0.02635 -0.27058
-0.26099 0.02946 -0.31038
-0.26099 0.02789 -0.34101
-0.26099 0.06538 -0.35039
-0.26099 0.01302 -0.22632
-0.26099 0.01904 -0.18710
-0.26099 0.08303 -0.32116
-0.26099 0.06315 0.10754
-0.26099 0.03544 -0.15598
-0.26099 -0.02964 -0.36032
-0.26099 -0.01741 -0.40787
-0.26099 0.08613 -0.09108
-0.26099 -0.05308 -0.31251
-0.26099 0.07088 -0.12037
-0.26099 -0.01794 -0.18989
-0.26099 -0.06654 -0.39955
-0.26099 0.03018 -0.06768
-0.26099 0.03329 -0.36159
-0.26099 0.04898 -0.11739
-0.26099 0.09155 -0.19947
-0.26099 -0.02726 -0.30187
-0.26099 0.07120 -0.34452
-0.26099 -0.03454 -0.20603
-0.26099 0.08328 -0.10775
-0.26099 -0.07509 -0.34353
-0.26099 0.09231 -0.22985
-0.26099 -0.09373 -0.39902
-0.26099 0.00376 -0.29624
-0.26099 -0.04773 -0.27695
-0.26099 0.05444 -0.01935
-0.26099 0.04182 -0.33197
-0.26099 -0.01940 -0.34109
-0.26099 -0.00808 -0.39257
-0.26099 0.05746 -0.04544
-0.26099 0.01640 -0.17353
-0.26099 0.08886 0.04956
-0.26099 -0.01103 -0.28797
-0.26099 0.02254 -0.10268
-0.26099 0.08131 0.10540
-0.26099 0.08831 -0.00032
-0.26099 -0.02767 -0.19429
-0.26099 0.07314 -0.36581
-0.26099 -0.05193 -0.24610
-0.26099 0.00337 -0.26826
-0.26099 0.04702 -0.19763
-0.26099 0.06781 -0.31102
-0.26099 0.06750 -0.00474
-0.26099 0.02317 -0.02327
-0.26099 -0.01935 -0.26657
-0.26099 0.01803 -0.20488
-0.26099 0.01705 -0.11585
-0.26099 0.02981 -0.08657
-0.26099 0.04680 -0.25128
-0.26099 -0.00017 -0.12862
-0.26099 0.03758 0.00099
-0.26099 -0.05071 -0.40784
-0.26099 0.05786 0.10340
-0.26099 0.04079 -0.24956
-0.26099 0.04184 -0.09872
-0.26099 0.08667 -0.29547
-0.26099 0.05615 0.03617
-0.26099 0.08061 -0.21051
-0.21565 -0.01254 0.37492
-0.21870 -0.02224 0.37225
-0.20723 0.09010 0.17679
-0.21491 0.09010 0.18735
-0.19651 0.09010 0.22278
-0.24985 0.11747 -0.12795
0.02811 0.01637 0.27437
-0.10858 0.02165 0.27437
-0.24928 -0.08874 0.20081
-0.24928 -0.09164 0.23336
-0.24928 -0.06068 0.17514
-0.24928 -0.04314 0.14501
-0.24928 -0.08856 0.21311
-0.24928 -0.03678 0.17484
-0.24928 -0.06495 0.15325
-0.24928 -0.07527 0.22026
-0.16259 -0.09873 -0.20761
-0.17736 0.03633 0.31411
0.26099 -0.07095 0.35034
0.26099 -0.05927 0.33650
0.26099 -0.07370 0.36721
0.26099 -0.03471 0.35104
0.26099 -0.06918 0.33525
0.26099 -0.03495 0.32475
0.26099 -0.05389 0.34528
0.26099 -0.11643 0.32923
0.26099 -0.11220 0.28267
0.26099 -0.10023 0.36345
0.26099 -0.04930 0.35923
0.26099 -0.02428 0.36130
-0.12580 0.01702 0.25567
0.25322 0.00422 0.27437
0.25143 -0.02225 0.27437
-0.12580 0.02706 -0.34673
-0.23058 0.04218 0.34670
0.25729 0.03683 0.34700
0.25729 0.04361 0.34272
-0.19833 -0.02640 0.38808
-0.20064 -0.03980 0.38653
-0.12580 -0.10121 0.25969
-0.12580 -0.08811 0.26729
0.04460 -0.03294 0.30880
0.03547 -0.00855 0.30880
0.03168 0.01554 0.30880
0.05387 -0.02088 0.30880
-0.15937 0.09380 0.38968
-0.16042 0.01577 -0.32558
-0.14267 0.01577 -0.35322
0.06350 0.01577 0.27510
0.04526 0.01577 0.27731
0.18234 0.01577 0.29227
-0.01279 0.01577 0.28345
0.14498 0.01577 0.29327
0.21713 0.01577 0.27674
0.06292 0.01577 0.28907
-0.24913 -0.09826 0.25390
0.26099 0.07446 0.37067
0.26099 0.06893 0.34314
-0.13942 0.01577 -0.13676
-0.13911 0.01577 -0.01225
-0.14159 0.01577 -0.06233
-0.22922 0.09010 -0.00250
-0.24673 0.09010 -0.04040
-0.23640 0.09010 -0.11903
-0.21586 0.09010 -0.00025
-0.22419 0.09010 -0.04739
-0.21537 0.09010 -0.00951
-0.23491 0.09010 -0.12816
-0.17674 0.07515 0.39947
-0.17501 0.08664 0.40005
0.07703 -0.09448 0.30880
0.07033 -0.02128 0.30880
0.09433 -0.05171 0.30880
-0.20610 -0.11919 0.14651
-0.20697 -0.11919 0.09710
-0.22339 -0.11919 0.07623
-0.24380 -0.11919 0.21855
-0.20682 -0.11919 0.04820
-0.23058 -0.11919 0.15199
-0.18519 -0.11919 0.09658
-0.18945 -0.11919 -0.09549
-0.20727 -0.11919 0.12754
-0.18931 -0.11919 -0.17704
-0.21707 -0.11919 0.16365
-0.21133 -0.11919 0.03557
-0.21476 -0.11919 0.11789
-0.22257 -0.11919 0.10469
-0.20952 -0.11919 0.04278
-0.19340 0.09051 0.00390
0.11750 0.03633 0.29786
0.12262 0.03633 0.30781
0.06235 0.03633 0.29630
0.15582 0.03633 0.30027
0.23397 0.03633 0.32864
-0.06635 0.03633 0.28047
0.08815 0.03633 0.30384
0.14040 0.03633 0.29887
0.18230 0.03633 0.28196
0.23199 0.03633 0.29293
-0.11847 0.03633 0.27473
0.20047 0.03633 0.27971
0.13510 0.03633 0.30828
-0.17814 -0.11919 0.25586
-0.16865 -0.09788 -0.24318
0.24053 -0.10896 0.30834
-0.25328 -0.10130 -0.24918
-0.21909 0.09010 0.33997
-0.23543 0.09010 0.28821
-0.21645 0.09010 0.32152
-0.18244 -0.09495 -0.27962
-0.20660 -0.09495 -0.25893
-0.18777 -0.09495 -0.30495
-0.18359 -0.09495 -0.31511
-0.19844 -0.09495 -0.30284
-0.20276 0.09380 0.31658
-0.21307 0.09380 0.30935
-0.25350 0.09380 0.28126
-0.22432 0.09380 0.27718
-0.12657 -0.02535 0.40943
-0.13728 -0.08823 0.40873
-0.17887 -0.11565 -0.24318
0.03226 0.09121 0.34192
-0.17044 -0.09874 0.05259
-0.14331 0.01577 -0.29063
-0.13260 0.01577 -0.38188
-0.13593 0.01577 -0.35886
-0.14628 0.01577 -0.30697
0.24053 -0.05638 0.28687
0.24053 -0.03260 0.28524
-0.01866 0.06699 0.40027
-0.05953 0.07631 0.40027
-0.03458 0.07497 0.40027
0.02073 0.03778 0.40027
-0.00370 0.05054 0.40027
0.19031 0.04110 0.40027
-0.08771 0.04527 0.40027
-0.08147 0.05548 0.40027
0.07368 0.05056 0.40027
0.22262 0.04074 0.40027
0.02340 0.05238 0.40027
-0.19340 0.09025 -0.39408
0.05748 -0.05274 0.30145
-0.16373 0.03633 0.38197
-0.21722 0.09380 0.36476
-0.14166 -0.05348 0.01644
-0.14166 0.00025 -0.00404
-0.14166 -0.08585 0.00664
-0.14166 -0.09353 -0.22119
-0.14166 -0.09628 -0.20200
-0.14166 -0.04870 -0.23097
-0.14166 -0.01376 -0.23214
0.06053 -0.08711 0.30880
0.01694 -0.00257 0.30880
0.02152 -0.02905 0.30880
0.03499 -0.05359 0.30880
-0.24577 0.09010 -0.33535
-0.23750 0.09010 -0.33815
-0.20716 0.09010 -0.27505
-0.24192 0.09010 -0.35264
-0.24953 0.09010 -0.33019
-0.24562 0.04738 0.31612
-0.23818 0.09010 -0.19583
-0.19518 0.09010 -0.15345
-0.21442 0.09010 -0.13562
-0.21692 0.09010 -0.08518
-0.22697 0.09010 -0.15968
-0.20711 0.09010 -0.23284
-0.19813 0.09010 -0.21948
-0.22012 0.09010 -0.16322
-0.21533 0.09010 -0.11963
0.11326 -0.00144 0.30880
0.10276 -0.01513 0.30880
0.12241 -0.00982 0.30880
-0.25704 -0.09873 -0.15792
-0.06506 0.09160 0.34192
0.19775 -0.08493 0.30880
0.20317 -0.09826 0.30880
0.18993 -0.09739 0.30880
-0.24475 -0.09495 -0.29569
-0.23207 -0.09495 -0.36087
-0.20340 -0.09495 -0.38098
-0.21874 -0.09495 -0.33910
-0.22159 -0.09495 -0.38422
-0.19309 -0.09495 -0.38512
-0.20376 -0.09495 -0.37522
-0.17773 -0.09874 0.24835
-0.17684 0.03633 -0.16061
-0.18671 0.03633 -0.28742
-0.18762 0.03633 0.01267
-0.16917 0.03633 -0.22608
-0.13672 0.03633 -0.37374
-0.18854 0.03633 0.10562
-0.16471 0.03633 -0.31531
-0.17799 0.03633 -0.20111
-0.17229 0.03633 -0.06206
-0.19098 0.03633 0.03462
-0.17888 0.03633 -0.21894
-0.14995 0.03633 -0.18154
-0.17406 0.03633 -0.05554
-0.18336 0.03633 0.07963
-0.18647 0.03633 -0.20643
-0.14187 0.03633 -0.38300
-0.13666 0.03633 -0.36056
-0.13479 0.03633 -0.33909
-0.19109 0.03633 -0.01785
-0.18855 0.03633 -0.32964
-0.15797 0.03633 -0.22523
-0.17369 0.03633 -0.04303
-0.18432 0.03633 0.09820
-0.18431 0.03633 0.02687
-0.17975 0.03633 -0.02535
-0.16686 0.03633 -0.12565
-0.20215 0.07637 0.37653
-0.24727 0.08593 0.31068
-0.24967 0.05777 0.30039
-0.18061 -0.08781 -0.24318
-0.21438 -0.04779 -0.24318
-0.23554 -0.03644 -0.24318
-0.21140 -0.08616 -0.24318
-0.20969 -0.05442 -0.24318
-0.13900 0.03633 0.34894
-0.13856 0.03633 0.36635
-0.14727 0.03633 0.32534
-0.14666 0.03633 0.34795
-0.14099 0.03633 0.30566
-0.23311 0.07058 0.34279
-0.18350 0.01577 0.17485
-0.20151 0.01577 0.20833
-0.17214 0.01577 0.23174
-0.16847 0.01577 0.23771
-0.18184 0.01577 0.23998
-0.16414 0.01577 0.15377
-0.17909 0.01577 0.25133
-0.14086 0.01577 0.12185
-0.17023 0.01577 0.20603
-0.15936 0.01577 0.24540
0.22226 -0.09874 0.31311
-0.14850 -0.02706 -0.38902
-0.16416 -0.00061 -0.38902
-0.16132 -0.02216 -0.38902
-0.16847 -0.04268 -0.38902
-0.18981 -0.08144 0.39314
-0.18123 0.04672 0.39737
0.08046 0.03633 0.33550
0.22492 0.03633 0.35502
0.16701 0.03633 0.36855
0.05188 0.03633 0.31860
0.08905 0.03633 0.34448
0.03260 0.03633 0.32035
0.04591 0.03633 0.32486
0.07544 0.03633 0.32412
0.11027 0.03633 0.31994
0.17282 0.03633 0.35167
0.03556 0.03633 0.31354
0.18539 0.03633 0.36908
0.20012 0.03633 0.33935
-0.24985 0.11776 0.04525
-0.12580 0.01764 -0.17178
-0.19948 0.08245 0.37826
-0.02846 0.01577 0.29603
-0.22662 0.01577 0.23735
-0.15717 0.01577 0.21599
-0.14810 0.01577 0.20705
-0.20860 0.01577 0.20915
-0.15335 0.01577 0.16091
-0.16011 0.01577 0.14554
-0.13528 0.01577 0.24595
-0.22947 0.01577 0.24244
-0.15545 0.01577 0.23226
-0.24034 0.08331 0.32942
-0.11437 -0.08605 0.27437
-0.12027 -0.01762 0.27437
-0.18919 0.09380 0.37488
-0.17691 -0.09873 -0.40592
-0.01041 -0.10013 0.31920
0.04718 -0.10229 0.31920
0.06053 -0.10113 0.31920
-0.21334 -0.09874 0.14207
-0.18507 -0.09874 0.15667
-0.18925 -0.09874 0.18403
-0.20681 -0.09874 0.19264
-0.23834 -0.09874 0.11098
-0.14789 0.01278 -0.40948
-0.23427 -0.08481 -0.40948
0.05177 -0.11919 0.36932
0.06672 -0.11919 0.36902
0.23096 -0.11919 0.35912
-0.06572 -0.11919 0.39950
0.09977 -0.11919 0.36686
0.18454 -0.11919 0.37708
0.03290 -0.11919 0.36955
0.21966 -0.11919 0.33918
0.25224 -0.11919 0.37095
0.10273 -0.11919 0.35535
0.08339 -0.11919 0.36104
0.17561 -0.11919 0.36390
0.21196 -0.11919 0.33232
-0.09602 -0.11919 0.39572
0.05404 -0.11919 0.38901
0.14590 -0.11919 0.38105
0.14222 -0.11919 0.39525
0.21871 -0.11919 0.35019
0.14547 -0.09874 0.31022
-0.12580 0.02093 -0.38144
-0.12580 0.03358 -0.37926
-0.25713 0.05055 0.30555
-0.25763 -0.00961 0.30302
-0.15627 -0.09873 -0.08087
0.23381 -0.09874 0.30973
-0.21517 0.10548 0.09293
-0.19328 -0.09874 0.20004
-0.20756 -0.09874 0.17008
-0.19248 -0.09874 0.14244
-0.18975 -0.09874 0.20791
-0.22716 -0.09874 0.14250
-0.12399 0.09380 0.34421
-0.01646 0.09380 0.38231
-0.01260 0.09380 0.39220
-0.12311 0.09380 0.40149
-0.03610 0.09380 0.37904
-0.09505 0.09380 0.36080
0.02082 0.09380 0.40577
-0.09883 0.09380 0.35029
0.07317 0.09380 0.38307
-0.08897 0.09380 0.34883
0.05421 0.09380 0.39643
-0.00105 0.09380 0.40671
0.06842 0.09380 0.39343
-0.10820 0.09380 0.38242
0.04442 0.09380 0.40268
-0.18007 -0.11878 0.38935
-0.11233 -0.11919 0.32029
-0.24928 -0.09547 0.11670
-0.26099 -0.06621 -0.22677
-0.26099 -0.05837 -0.24773
-0.26099 -0.02395 -0.11676
-0.26099 -0.06372 -0.28296
-0.26099 -0.09278 -0.30935
-0.26099 -0.07019 -0.27080
-0.26099 -0.06075 -0.25487
-0.26099 -0.08350 -0.33658
-0.26099 -0.06939 -0.24552
-0.26099 -0.02882 -0.10376
0.26099 0.02305 0.31536
0.26099 0.01298 0.27769
0.26099 -0.01345 0.30375
0.26099 -0.01687 0.29200
0.26099 -0.06342 0.28000
0.26099 -0.01016 0.29746
-0.12580 0.02286 -0.11174
-0.12580 0.02510 -0.08102
-0.03737 -0.03418 0.30827
-0.06882 -0.07850 0.30880
-0.08790 -0.03527 0.30880
-0.09410 -0.07320 0.30880
-0.22500 0.09380 -0.01536
-0.15450 0.09380 0.39499
-0.24909 -0.03250 -0.40688
-0.26099 -0.03612 0.04649
-0.26099 -0.06786 -0.14568
-0.26099 -0.09276 0.01439
-0.26099 -0.03958 0.08250
-0.26099 -0.02658 0.09442
-0.26099 -0.08028 -0.12733
-0.26099 -0.06380 -0.10040
-0.26099 -0.07782 0.04117
-0.26099 0.06246 0.20903
-0.26099 0.03368 0.15279
-0.26099 -0.05226 -0.04997
-0.26099 -0.08126 -0.08013
-0.26099 -0.08323 0.02656
-0.26099 0.01850 0.10404
-0.26099 -0.08856 0.00153
-0.26099 -0.01965 0.06150
-0.26099 -0.05121 0.11488
-0.26099 -0.08381 -0.09435
-0.26099 -0.00943 0.08570
-0.26099 -0.00721 0.04782
-0.26099 -0.08433 -0.03827
-0.26099 -0.05250 -0.03244
-0.26099 -0.07784 -0.16965
-0.26099 -0.00110 0.15112
-0.26099 -0.04769 0.03901
-0.26099 0.02273 0.10988
-0.26099 -0.07928 -0.05827
-0.26099 0.00516 0.15702
-0.26099 -0.05766 0.00015
-0.26099 -0.07260 -0.06181
-0.13207 0.09237 0.34184
-0.18084 -0.10290 -0.37442
-0.18084 -0.11296 -0.36145
-0.20875 0.05138 0.38098
-0.21100 -0.05926 0.37900
-0.07159 0.09010 0.35481
0.02439 0.09010 0.36086
-0.03302 0.09010 0.36516
0.04561 0.09010 0.36581
-0.06697 0.09010 0.38029
-0.06356 0.09010 0.37534
0.11667 0.09010 0.34557
0.03031 0.09010 0.36932
-0.03808 0.09010 0.34958
-0.05823 0.09010 0.36140
-0.01392 0.09010 0.34296
0.00458 0.09010 0.35509
-0.09942 0.09010 0.38351
0.03974 0.09010 0.37425
-0.12749 0.05518 0.40025
-0.23174 0.11776 0.11558
-0.23949 0.11776 -0.00514
-0.23901 0.11776 -0.06912
-0.21118 0.11776 0.09013
-0.22997 0.11776 0.02909
-0.21826 0.11776 0.07835
-0.22648 0.11776 0.09723
-0.23576 0.01577 0.19009
-0.20294 0.01577 0.16903
-0.22382 0.01577 0.18293
-0.17887 0.01577 0.11082
-0.24895 0.01577 0.15505
-0.23000 0.01577 0.16446
-0.15332 0.01577 0.12218
-0.14166 -0.03518 -0.06337
-0.14166 -0.07660 -0.03716
-0.14166 -0.06563 -0.06335
-0.14166 0.00446 -0.06205
-0.14166 -0.06386 0.05488
-0.14166 -0.08656 0.10007
-0.14166 -0.08491 0.06271
0.14753 0.09380 0.36540
0.01038 0.09380 0.35234
0.14922 0.09380 0.38272
0.06449 0.09380 0.34856
0.12723 0.09380 0.37839
0.18573 0.09380 0.36960
0.12714 0.09380 0.34826
0.22791 0.09380 0.40166
0.16771 0.09380 0.35814
0.25999 0.09380 0.40533
-0.07983 0.09380 0.34779
0.21486 0.09380 0.38506
-0.25825 -0.09874 0.21451
-0.19433 0.09380 0.29405
-0.22349 0.00223 0.36749
-0.23018 0.06155 0.35987
-0.18455 -0.09873 -0.30985
-0.20812 -0.09873 -0.35493
-0.20023 -0.09873 -0.28914
-0.20731 -0.09873 -0.34476
-0.18760 -0.09873 -0.27975
-0.19337 -0.08972 0.25390
-0.22141 -0.07379 0.25390
-0.19520 -0.07479 0.25390
-0.19826 -0.06046 0.25390
0.16400 0.11566 0.35509
0.23923 0.01577 0.28098
-0.23469 -0.08267 0.35414
-0.24254 -0.00006 0.34241
-0.23965 -0.11919 0.26219
-0.18516 -0.11919 0.16837
-0.18413 -0.11919 0.22737
-0.20256 -0.11919 0.17117
-0.19610 -0.11919 0.23056
-0.22590 -0.11919 0.21601
-0.20126 -0.09874 0.22588
-0.23287 -0.09874 0.23310
-0.20566 -0.09874 0.23683
-0.23010 -0.09874 0.21275
-0.23964 -0.09874 0.24052
-0.24272 -0.09874 0.14498
-0.21344 0.08115 0.37687
-0.22036 -0.03043 0.37080
-0.16003 0.00117 -0.40948
-0.14166 0.00255 0.06377
-0.14166 -0.03691 0.09844
-0.14166 -0.01917 0.07613
-0.14166 -0.04066 0.09091
-0.16433 -0.11919 -0.16275
-0.17527 -0.11919 0.02466
-0.17843 -0.11919 -0.00533
-0.18030 -0.11919 0.05673
-0.17777 -0.11919 -0.10586
-0.18041 -0.11919 -0.05236
-0.13130 0.01577 0.02389
-0.13106 0.01577 -0.10590
-0.12958 0.01577 -0.31620
-0.13414 0.01577 -0.07891
-0.12902 0.01577 -0.20594
-0.23066 -0.08848 -0.38902
-0.19320 -0.07843 -0.38902
-0.20535 -0.05994 -0.38902
-0.18475 -0.09090 -0.38902
-0.15387 0.03633 0.06707
-0.13497 0.03633 -0.03627
-0.13566 0.03633 -0.12911
-0.13401 0.03633 -0.04649
-0.12673 0.03633 -0.09061
-0.14134 0.03633 -0.11255
-0.12963 0.03633 -0.17692
-0.15026 0.03633 0.01291
-0.13468 0.03633 -0.29708
-0.14436 0.03633 -0.21049
-0.13355 0.03633 -0.06172
-0.15186 0.03633 -0.02152
-0.13267 0.03633 -0.15620
-0.14166 0.00227 0.02066
-0.14166 -0.08670 0.04657
-0.14166 -0.00047 0.03557
-0.14166 0.01226 0.02057
-0.14166 -0.01336 0.01891
-0.07807 0.09380 0.39804
0.05841 0.09380 0.40580
0.13581 0.09380 0.40935
-0.07733 0.09380 0.35912
0.08557 0.09380 0.40880
-0.12396 0.09380 0.37724
0.09441 0.09380 0.39145
-0.03896 0.09380 0.39988
-0.12296 0.09380 0.35799
0.01835 0.09380 0.38509
0.10556 0.09380 0.39254
0.15715 0.09380 0.40065
-0.05295 0.09380 0.35620
0.06519 0.09380 0.37631
-0.25347 -0.09265 0.16158
-0.25347 -0.02662 0.12266
-0.25347 -0.01000 0.11364
-0.25347 -0.05949 0.16115
-0.25346 0.00357 0.11945
-0.25347 -0.04069 0.12082
-0.25347 -0.06192 0.20223
-0.25347 -0.06927 0.16101
-0.25347 -0.04866 0.15364
-0.15307 -0.10918 -0.02796
-0.23059 -0.08854 0.35940
-0.22808 -0.04565 0.36226
-0.14166 -0.01025 -0.03297
-0.14166 -0.09528 -0.01014
-0.14166 -0.02388 -0.01685
-0.14166 -0.03261 -0.02892
-0.25174 0.04878 0.18781
-0.25174 0.08063 -0.03757
-0.25174 0.08089 -0.01933
-0.25174 0.07127 0.03076
-0.25174 0.06838 0.10494
-0.25174 0.07336 -0.03354
-0.25174 0.08635 -0.05568
-0.25174 0.08863 -0.08661
0.03739 0.01577 0.30238
-0.22302 -0.03642 -0.40948
-0.21106 -0.04635 -0.40948
-0.17002 0.02779 -0.40948
-0.24170 -0.06356 -0.40948
-0.16637 0.03530 -0.40948
-0.19589 0.00381 -0.40948
0.25628 0.05270 0.40948
0.19327 -0.06814 0.40948
0.23894 -0.08796 0.40948
0.13542 -0.07133 0.40948
0.15944 -0.05081 0.40948
0.21029 0.01805 0.40948
-0.02872 -0.07694 0.40948
0.16574 0.02543 0.40948
0.25107 0.07531 0.40948
0.12947 -0.05168 0.40948
0.02436 -0.08071 0.40948
0.24738 -0.05290 0.40948
-0.05845 -0.09014 0.40948
0.13691 -0.04777 0.40948
0.08702 -0.05521 0.40948
0.19041 -0.00057 0.40948
0.22121 0.02876 0.40948
0.06885 -0.03608 0.40948
0.06126 -0.07178 0.40948
0.24681 -0.06540 0.40948
0.13308 -0.07848 0.40948
0.00238 -0.08806 0.40948
0.23189 0.00473 0.40948
0.04630 -0.02163 0.40948
0.12546 0.00559 0.40948
-0.05246 -0.06849 0.40948
0.06280 -0.05347 0.40948
0.24020 0.07788 0.40948
0.26032 -0.00038 0.40948
-0.07621 -0.09158 0.40948
-0.04091 -0.08490 0.40948
0.04261 -0.05116 0.40948
0.04999 -0.05139 0.40948
0.24059 0.05386 0.40948
0.08535 -0.08744 0.40948
0.21609 -0.04767 0.40948
0.11534 0.00391 0.40948
0.01212 -0.08951 0.40948
0.25945 -0.04242 0.40948
-0.23424 0.09010 -0.18619
-0.22147 0.09010 -0.14825
-0.19856 0.09010 -0.12917
-0.20850 0.09010 -0.12852
-0.20621 0.09010 -0.11687
-0.19428 0.09010 -0.05571
-0.19922 0.09010 -0.05958
-0.19948 0.09010 -0.10382
-0.24238 0.06454 0.34264
-0.23715 -0.04541 0.35046
-0.22327 0.07154 0.35638
-0.26099 -0.09556 0.09031
-0.26099 -0.09705 0.07621
-0.26099 -0.03105 0.14283
-0.26099 0.02849 0.21140
-0.21612 0.09380 -0.09333
-0.23154 0.09380 -0.16904
-0.21144 0.09380 -0.37648
-0.23168 0.09380 -0.32759
-0.25340 0.09380 -0.34673
-0.21245 0.09380 -0.22032
-0.24194 0.09380 -0.23055
-0.21178 0.09380 -0.39176
-0.23124 0.09380 -0.09454
-0.19909 0.09380 -0.33712
-0.21669 0.09380 -0.35544
-0.21919 0.09380 -0.18528
-0.21155 0.09380 -0.14955
-0.21383 0.09380 -0.40044
-0.23418 0.09380 -0.36839
-0.17147 0.09010 0.34287
0.12944 0.06188 0.40948
-0.04935 0.01945 0.40948
-0.02396 0.09232 0.40948
0.16679 0.07280 0.40948
-0.06888 -0.04800 0.40948
0.01495 0.08310 0.40948
-0.00848 0.02851 0.40948
0.13498 0.05887 0.40948
0.10090 0.06263 0.40948
-0.09655 -0.03338 0.40948
-0.10954 0.02743 0.40948
-0.08972 0.07941 0.40948
0.06279 0.01807 0.40948
-0.05925 0.04026 0.40948
-0.04007 0.07377 0.40948
-0.09054 -0.06486 0.40948
0.07878 0.01815 0.40948
0.02350 0.06448 0.40948
0.02106 0.02725 0.40948
-0.04119 -0.03672 0.40948
-0.03947 -0.00413 0.40948
0.03601 -0.00885 0.40948
-0.04590 0.03540 0.40948
-0.08200 -0.05928 0.40948
0.15279 0.07091 0.40948
-0.11985 0.06909 0.40948
-0.04937 0.01060 0.40948
-0.04471 0.06585 0.40948
0.04839 0.07976 0.40948
-0.11589 0.01283 0.40948
-0.08312 -0.04824 0.40948
-0.04800 0.07685 0.40948
0.01342 -0.00351 0.40948
-0.05693 0.01731 0.40948
0.07633 0.00599 0.40948
-0.18340 0.09010 0.31318
-0.22983 0.09010 -0.12344
-0.21098 0.09010 0.00394
-0.20978 0.09010 -0.03164
-0.23858 0.09010 -0.00281
-0.24898 0.09010 -0.01774
-0.20609 0.09010 0.01090
-0.20547 0.09010 -0.01121
-0.14849 -0.00593 0.40732
-0.15638 -0.06389 0.40575
-0.15687 -0.04573 -0.24318
-0.20020 0.09380 -0.15667
-0.20046 0.09380 -0.22635
-0.21006 0.09380 0.05846
-0.19717 0.09380 -0.28534
-0.20669 0.09380 0.09109
-0.20362 0.09380 0.13718
-0.10534 -0.01114 0.29763
-0.10534 -0.02552 0.28249
-0.10534 -0.03475 0.29439
-0.20659 0.11428 0.07256
-0.20377 0.11428 -0.04917
-0.20305 0.11428 0.06116
-0.22975 0.11428 0.05699
-0.20341 0.11428 -0.03641
-0.21354 0.11428 0.08230
-0.21600 0.11428 0.06482
-0.20440 0.11428 -0.05544
-0.21968 0.11428 0.09933
-0.24985 0.11756 0.07302
-0.16443 -0.03278 -0.38902
-0.15260 0.01432 -0.38902
-0.15661 -0.00297 -0.38902
-0.20691 0.01966 0.38234
-0.20491 -0.01914 0.38368
-0.13524 0.09380 0.35136
-0.19553 -0.06832 -0.39309
-0.18169 -0.01224 -0.39309
-0.20270 0.11680 0.07917
0.16710 -0.08201 0.30880
0.12935 0.00164 0.30880
0.15637 -0.07814 0.30880
0.13959 -0.05897 0.30880
-0.12580 0.00243 -0.39931
-0.23634 0.11776 -0.13491
-0.23108 0.11776 -0.17006
-0.22298 0.11776 -0.09562
-0.20448 0.11776 0.03195
-0.21213 0.11776 -0.16409
-0.20890 0.11776 -0.01013
0.02357 -0.06571 0.30880
0.04561 -0.06958 0.30880
0.04119 -0.05975 0.30880
0.02113 -0.04841 0.30880
-0.23038 -0.08728 0.10816
-0.22647 -0.08203 0.10816
-0.23505 -0.05068 0.10816
-0.22726 -0.03290 0.10816
-0.23879 -0.02675 0.10816
-0.13046 -0.11919 0.31127
-0.15107 -0.11095 -0.38899
0.24053 -0.00703 0.28997
0.24053 -0.01370 0.30120
-0.24909 -0.05958 -0.36731
-0.24909 -0.08758 -0.38691
-0.24909 -0.00309 -0.28487
-0.24909 -0.03948 -0.32377
-0.24909 -0.04332 -0.33522
-0.17862 -0.06915 0.39866
-0.18510 -0.09401 0.39546
0.08213 0.11556 0.35154
-0.16678 0.09380 0.33393
-0.13308 0.03633 0.25496
-0.14367 0.03633 0.21910
-0.16452 0.03633 0.27029
-0.17573 0.03633 0.25581
-0.13723 0.03633 0.21247
-0.12602 0.03633 -0.00421
-0.14791 0.03633 0.06181
-0.12962 0.03633 0.01352
-0.18056 0.03633 0.23508
-0.15294 0.03633 0.16556
-0.15352 0.03633 0.14910
-0.13836 0.03633 0.05249
-0.12814 0.03633 0.11360
-0.13445 0.03633 0.02024
-0.25174 0.07646 -0.33080
-0.25174 0.05210 -0.13942
-0.25174 0.06912 -0.16920
-0.25174 0.07407 -0.26732
-0.25174 0.06475 -0.19520
-0.25174 0.05594 -0.31434
-0.25174 0.06460 -0.26978
-0.25174 0.04801 -0.29324
-0.25174 0.04868 -0.17385
-0.25174 0.03895 -0.23387
-0.25174 0.08738 -0.38790
-0.25174 0.05220 -0.01325
-0.25174 0.07545 -0.25274
-0.25174 0.05664 -0.15738
-0.25174 0.06815 -0.33137
-0.25174 0.05058 -0.27995
-0.25174 0.07328 -0.34604
-0.25174 0.05577 -0.23731
-0.25174 0.04237 0.16883
-0.25174 0.03669 0.08223
-0.25174 0.07121 -0.32098
-0.15653 -0.03385 -0.08081
-0.24928 -0.05224 0.24887
-0.24928 -0.02311 0.16638
-0.24927 0.01028 0.22539
-0.24928 -0.00528 0.25044
-0.24928 -0.06773 0.23637
-0.24927 0.00971 0.19066
-0.24928 -0.01140 0.22822
0.06495 -0.09874 0.31236
-0.19631 -0.11919 0.27089
-0.20213 -0.09495 -0.36629
-0.19578 -0.09495 -0.36536
-0.21129 -0.09495 -0.34115
-0.24148 -0.09495 -0.26038
-0.21474 -0.09495 -0.31184
-0.22729 -0.09495 -0.38046
-0.22103 -0.09495 -0.32993
0.00047 0.01577 0.30055
-0.14765 0.04481 0.39886
0.20495 0.07419 0.40027
0.10670 0.07069 0.40027
0.19170 0.06165 0.40027
0.10589 0.07943 0.40027
0.13727 0.05927 0.40027
0.24293 0.06383 0.40027
0.12121 0.08424 0.40027
0.16128 0.08055 0.40027
0.07745 0.06860 0.40027
0.06497 0.07465 0.40027
0.21975 0.07755 0.40027
-0.18016 -0.07099 -0.24318
-0.21999 -0.00354 -0.24318
-0.17008 -0.00582 -0.24318
-0.16858 0.01563 -0.24318
-0.18463 -0.04535 -0.24318
-0.20764 0.01504 -0.24318
-0.16583 -0.05413 -0.24318
-0.25135 -0.11834 0.29507
-0.14166 -0.04881 0.10439
-0.14166 0.00060 0.09142
-0.14166 0.00680 0.10446
-0.21350 0.04327 0.36689
0.26099 -0.01670 0.27786
0.26099 -0.02705 0.30895
0.26099 -0.04101 0.27697
0.26099 -0.01130 0.28731
0.26099 0.01576 0.30544
0.26099 -0.02655 0.30200
-0.24239 -0.11919 -0.07891
-0.25152 -0.11919 -0.17041
-0.21160 -0.11919 -0.21211
-0.25071 -0.11919 -0.12219
-0.20075 -0.11919 -0.17141
-0.25026 -0.11919 0.05780
-0.20505 -0.11919 -0.23189
-0.24283 -0.11919 0.01639
-0.22551 -0.11919 -0.23711
-0.24898 -0.11919 0.13748
-0.24821 -0.11919 0.03466
-0.24540 -0.11919 0.12177
-0.24046 -0.11919 -0.06263
-0.25312 -0.11919 0.00846
-0.24923 -0.11919 0.21596
-0.22599 -0.11919 0.01305
-0.25027 -0.11919 -0.00053
-0.22227 -0.11919 -0.10640
-0.23628 -0.11919 -0.10796
-0.23316 -0.11919 0.11556
-0.18147 -0.08078 0.25390
-0.17754 -0.06377 0.25390
-0.19283 -0.05120 0.25390
-0.16246 -0.06130 0.25390
-0.17172 -0.04128 0.25390
-0.26052 -0.09874 0.20472
-0.09196 0.01577 0.28637
-0.25328 -0.09862 -0.30669
-0.25328 -0.08254 -0.24652
-0.25328 -0.01826 -0.26110
-0.25328 -0.05024 -0.25659
-0.18084 -0.09979 -0.34147
-0.18084 -0.10206 -0.29960
-0.12835 0.07927 0.40024
-0.12662 0.02379 0.40943
-0.13209 0.00871 0.40907
-0.02501 0.11776 0.39022
0.12445 0.11776 0.36108
0.16006 0.11776 0.36203
0.15854 0.11776 0.36963
0.14109 0.11776 0.36004
-0.00173 0.11776 0.38483
0.11007 0.11776 0.39463
0.23231 0.03633 0.33938
0.20864 0.03633 0.34654
0.23037 0.03633 0.37560
0.24715 0.03633 0.35938
0.16461 0.03633 0.32765
0.15737 0.03633 0.32492
0.14490 0.03633 0.35270
0.01607 0.03633 0.31894
0.24009 0.03633 0.34603
-0.14166 -0.05303 -0.13031
-0.14166 -0.01786 -0.15563
-0.14166 -0.02540 -0.12732
-0.03964 0.01577 0.29647
-0.00048 -0.10598 0.40179
-0.12472 -0.10292 0.40179
0.09391 -0.10181 0.40179
-0.07809 -0.10276 0.40179
-0.05447 -0.10265 0.40179
-0.19800 -0.11919 0.00542
-0.20459 -0.11919 0.07692
-0.22278 -0.11919 0.15835
-0.22959 -0.11919 0.19986
-0.23006 -0.11919 0.15982
-0.23746 -0.11919 0.23536
-0.19443 -0.11919 0.06852
-0.22646 -0.11919 0.12784
-0.19130 -0.11919 -0.14100
-0.20085 -0.11919 -0.09712
-0.20481 -0.11919 0.06114
-0.20585 -0.11919 0.11188
-0.23357 -0.11919 0.21734
-0.14166 -0.02585 -0.22612
-0.14166 -0.07211 -0.20076
-0.14166 -0.08604 -0.24121
-0.19340 0.07802 -0.40823
-0.12580 0.02622 -0.09129
-0.12580 0.02129 -0.21934
-0.12580 0.02326 -0.20821
-0.15307 -0.09980 -0.07183
-0.24549 -0.09874 0.17991
-0.23856 -0.09874 0.13864
-0.22927 -0.09874 0.15761
-0.20092 -0.09874 0.21999
-0.12580 0.02481 0.15815
-0.21221 -0.01670 -0.24318
-0.17786 0.00519 -0.24318
-0.21231 -0.03345 -0.24318
-0.17605 -0.05443 -0.24318
-0.19131 0.00856 -0.24318
-0.18132 -0.05096 -0.24318
-0.12580 0.03095 -0.33411
0.26099 -0.08304 0.33047
0.26099 -0.10396 0.35357
0.26099 -0.10755 0.32849
0.26099 -0.08045 0.37640
0.26099 -0.11480 0.33548
0.26099 -0.04058 0.36939
0.26099 -0.11159 0.29223
0.26099 -0.09008 0.37254
0.26099 -0.06115 0.37184
0.26099 -0.07121 0.37847
0.26099 -0.06362 0.38022
-0.15307 -0.10955 -0.00579
-0.18084 -0.11669 -0.31645
-0.18084 -0.11595 -0.28131
-0.15523 -0.11919 0.39169
-0.18084 -0.11047 0.21355
0.17342 0.03447 0.27437
0.07927 0.02509 0.27437
0.11663 0.02725 0.27437
0.21737 0.02119 0.27437
0.01142 0.03113 0.27437
-0.23652 -0.00313 -0.38902
-0.20408 -0.00749 -0.38902
-0.17996 -0.06267 -0.38902
-0.21592 -0.00415 -0.38902
-0.06218 -0.03125 0.30880
-0.08115 0.00626 0.30880
-0.08263 -0.02085 0.30880
-0.04805 -0.09016 0.30880
-0.00432 0.01577 0.28745
-0.17461 0.09010 0.35187
-0.26099 -0.04358 -0.10499
-0.26099 -0.07240 -0.17837
-0.26099 -0.08351 -0.24609
-0.26099 -0.02038 -0.03394
-0.26099 -0.00613 -0.00874
-0.26099 -0.02540 -0.04959
-0.26099 -0.04247 -0.12767
-0.14067 0.03633 0.14150
-0.12808 0.03633 0.04346
-0.17577 0.03633 0.21098
-0.14108 0.03633 0.02745
-0.17652 0.03633 0.26582
-0.15020 0.03633 0.23275
-0.16521 0.03633 0.25342
-0.13898 0.03633 0.12721
-0.12682 0.03633 0.19286
-0.12916 0.03633 0.16318
-0.13274 0.03633 -0.01172
0.26073 -0.11919 0.28747
0.19007 -0.08996 0.30880
0.18387 -0.09024 0.30880
0.20488 -0.03817 0.30880
0.21619 -0.07386 0.30880
0.11284 -0.04797 0.30880
0.08727 -0.01272 0.30880
0.11633 -0.06872 0.30880
-0.12580 0.02905 -0.13131
-0.12580 0.03228 -0.16880
-0.16255 -0.04696 -0.08091
-0.12043 -0.02370 0.27437
-0.16360 -0.05467 0.40392
-0.16230 -0.03722 0.40436
-0.13689 -0.04046 -0.17300
0.24336 -0.11919 0.31463
-0.24315 0.03633 -0.26811
-0.24566 0.03633 -0.38339
-0.21588 0.03633 -0.36671
-0.23562 0.03633 -0.15648
-0.22146 0.03633 -0.22060
-0.24741 0.03633 0.21945
-0.22472 0.03633 -0.38962
-0.22679 0.03633 -0.11363
-0.23333 0.03633 -0.29678
-0.24665 0.03633 0.13296
-0.19794 0.03633 -0.36478
-0.23331 0.03633 -0.13345
-0.23229 0.03633 -0.20384
-0.24909 0.03633 -0.06824
-0.20911 0.03633 -0.36426
-0.24475 0.03633 -0.39917
-0.20770 0.03633 -0.29707
-0.23969 0.03633 0.00314
-0.23681 0.03633 -0.02078
-0.23613 0.03633 -0.39240
-0.08352 0.03633 0.39219
0.19407 0.03633 0.38782
-0.03274 0.03633 0.35082
0.03329 0.03633 0.38312
-0.10964 0.03633 0.34866
0.03933 0.03633 0.34510
0.02044 0.03633 0.35884
0.05908 0.03633 0.35140
0.10865 0.03633 0.39504
0.15802 0.03633 0.39690
0.09469 0.03633 0.37174
-0.11021 0.03633 0.30429
-0.07255 0.03633 0.36438
-0.03758 0.03633 0.39589
0.05835 0.03633 0.35926
-0.01091 0.03633 0.32494
0.07327 0.03633 0.38700
0.20993 0.03633 0.38631
-0.08223 0.03633 0.37384
-0.09337 0.03633 0.30718
0.10029 0.03633 0.35209
0.02753 0.03633 0.38938
-0.11525 0.03633 0.31993
0.15123 0.03633 0.36707
-0.01814 0.11428 0.39295
0.08270 0.11428 0.39639
-0.04212 0.11428 0.39641
-0.03325 0.11428 0.39247
-0.06588 0.11428 0.36173
-0.06377 0.11428 0.38868
-0.15090 -0.09873 -0.21319
-0.18652 0.09380 0.36245
-0.15307 -0.10744 -0.13081
-0.15307 -0.11141 -0.18876
-0.15307 -0.10534 -0.17135
-0.14166 -0.01752 -0.17520
-0.14166 -0.06995 -0.17025
-0.14166 -0.07064 -0.14888
-0.14166 -0.09025 -0.15966
-0.16275 -0.07470 -0.38902
-0.12769 -0.00620 -0.38902
-0.13996 -0.07928 -0.38902
-0.17476 0.03633 0.36886
0.25729 0.05934 0.40009
0.25729 0.08794 0.36612
-0.22954 0.05621 0.34830
-0.16580 -0.11919 0.06777
-0.16659 -0.11919 -0.06240
-0.16143 -0.11919 -0.06823
-0.17244 -0.11919 0.03741
-0.15401 -0.11919 0.03008
-0.15708 -0.11919 -0.19238
-0.23544 0.11592 -0.20568
-0.22158 0.09010 -0.39671
-0.23710 0.09010 -0.37843
-0.22910 0.09010 -0.40502
-0.20208 0.09010 -0.31122
-0.21740 0.09010 -0.37227
-0.20081 0.09010 -0.37863
0.25161 -0.11919 0.27652
-0.25632 -0.09873 -0.22761
-0.23706 0.06571 0.33648
-0.19783 0.09380 0.37380
-0.15125 0.01577 -0.24960
-0.17053 0.01577 -0.26926
-0.26099 -0.06506 0.11865
-0.26099 -0.08426 0.11179
-0.26099 0.00576 0.19719
-0.26099 -0.05212 0.13984
-0.26099 -0.05615 0.12574
-0.10534 -0.06380 0.30333
-0.10534 -0.07882 0.29633
0.24053 -0.11613 0.28082
-0.17050 0.09380 0.38976
-0.02546 -0.11386 0.31920
0.12632 -0.11261 0.31920
-0.05982 -0.11874 0.31920
-0.08555 -0.06139 0.30880
-0.10132 -0.00332 0.30880
-0.07377 -0.06796 0.30880
-0.06236 -0.09600 0.30880
-0.20486 0.03633 0.28286
-0.21645 0.03633 0.31474
-0.22129 0.03633 0.28485
-0.21542 0.03633 0.33112
-0.26099 -0.01481 0.19958
-0.26099 -0.08799 0.22024
-0.26099 0.00256 0.21292
-0.26099 -0.05171 0.18376
-0.26099 0.04523 0.26397
-0.26099 -0.07300 0.19970
-0.26099 -0.03026 0.20461
-0.26099 -0.06787 0.16474
-0.26099 -0.02457 0.23306
-0.26099 -0.03125 0.25088
-0.26099 0.00356 0.20717
-0.26099 -0.04387 0.25837
-0.26099 -0.07377 0.24587
-0.26099 -0.07473 0.21940
-0.26099 -0.01564 0.22747
-0.26099 -0.03431 0.23857
-0.20270 0.11542 -0.17818
-0.21037 0.06946 -0.40580
-0.19843 0.04972 -0.40580
-0.10984 -0.00666 0.27437
-0.12292 0.02844 0.27437
-0.12580 0.02860 -0.31456
-0.17564 -0.09740 -0.35790
-0.14768 0.02955 -0.40948
-0.13590 0.02959 -0.40948
-0.17213 0.00243 -0.40948
-0.18375 0.00746 -0.40948
-0.15699 0.03170 -0.40948
-0.26099 0.03221 0.07915
-0.26099 0.01212 -0.00883
-0.26099 0.07119 0.19426
-0.26099 -0.07698 -0.33140
-0.26099 -0.00777 -0.05477
-0.26099 -0.02607 -0.14971
-0.26099 -0.05945 -0.26891
-0.26099 -0.08667 -0.36250
-0.26099 -0.07496 -0.25761
-0.19364 -0.07954 0.10816
-0.22118 -0.02805 0.10816
-0.21205 -0.07057 0.10816
-0.21907 -0.07187 0.10816
-0.24909 -0.04328 -0.28501
-0.24909 -0.04828 -0.26593
-0.24909 -0.08391 -0.35585
-0.24909 -0.08373 -0.29378
-0.24909 -0.03762 -0.25365
-0.24909 -0.07829 -0.28600
-0.24909 -0.07008 -0.27050
-0.24909 -0.05108 -0.28643
-0.25174 0.07224 0.22311
-0.25174 0.05497 0.26886
-0.25174 0.08050 0.20645
-0.20674 -0.11919 0.34319
-0.14166 -0.08688 0.03220
-0.14166 -0.08204 0.03889
-0.25079 0.03633 -0.15590
-0.22014 0.03633 -0.14440
-0.23919 0.03633 -0.06874
-0.22421 0.03633 -0.21437
-0.22389 0.03633 -0.29801
-0.24495 0.03633 0.14502
-0.23103 0.03633 -0.05865
-0.21281 0.03633 -0.39674
-0.22545 0.03633 -0.16681
-0.21299 0.03633 -0.31878
-0.24243 0.03633 0.10606
-0.24592 0.03633 0.12324
-0.23988 0.03633 -0.19487
-0.22921 0.03633 -0.40501
-0.25146 0.03633 -0.04149
-0.24774 0.03633 -0.03264
-0.19540 0.03633 -0.38354
-0.20858 0.03633 -0.31396
-0.24263 0.03633 -0.07988
-0.20313 0.03633 -0.36201
0.02996 0.00909 0.30880
0.02391 -0.01053 0.30880
-0.02166 -0.11919 0.34547
-0.02932 -0.11919 0.36383
0.08437 -0.11919 0.34054
-0.06400 -0.11919 0.33476
-0.07916 -0.11919 0.34612
-0.08103 -0.11919 0.36885
-0.04045 -0.11919 0.33693
0.02906 -0.11919 0.36173
-0.00170 -0.11919 0.34636
-0.05102 -0.11919 0.32148
0.12102 -0.11919 0.32213
-0.08851 -0.11919 0.33664
0.08484 -0.11919 0.33481
0.11411 -0.11919 0.34589
-0.09637 -0.11919 0.37998
0.06574 -0.11919 0.32739
-0.25174 0.06076 -0.32208
-0.25174 0.03980 0.12181
-0.25174 0.08171 -0.32511
-0.25174 0.05817 -0.36553
-0.25174 0.05920 -0.24748
-0.25174 0.04125 -0.11630
-0.25174 0.06440 -0.12266
-0.25174 0.05035 -0.37665
-0.25174 0.06761 -0.18999
-0.25174 0.05758 -0.22298
-0.25174 0.03887 -0.28082
-0.25174 0.04269 -0.25471
-0.25174 0.03886 -0.16425
-0.25174 0.05980 -0.09600
-0.25174 0.04675 0.03481
-0.25174 0.04080 -0.01037
-0.25174 0.08704 -0.38070
-0.16093 -0.09873 0.03827
-0.15816 0.03875 0.40540
-0.16309 -0.02612 -0.40948
-0.15085 -0.08907 -0.40948
-0.14687 -0.04240 -0.40948
-0.13112 -0.03316 -0.40948
-0.23658 -0.11692 -0.40948
-0.15665 -0.11661 -0.40948
-0.19776 -0.09324 -0.40948
-0.17730 -0.07691 -0.40948
-0.13061 -0.04824 -0.40948
0.14155 0.10546 0.38915
-0.21260 -0.09495 -0.39523
-0.17813 -0.09873 -0.33385
-0.26099 0.02926 0.23815
-0.26099 0.00573 0.25621
-0.26099 0.05915 0.26156
-0.26099 -0.08787 0.25290
-0.26099 -0.04956 0.20404
-0.26099 -0.00708 0.22145
-0.26099 -0.09855 0.23596
-0.26099 -0.01731 0.25425
-0.26099 -0.04932 0.16984
-0.26099 0.03447 0.24181
-0.26099 -0.02158 0.25962
-0.26099 -0.03633 0.18347
-0.26099 -0.09520 0.19296
-0.26099 -0.09115 0.18224
-0.26099 0.00094 0.25128
-0.26099 -0.02545 0.22051
0.18597 0.01577 0.30696
-0.23251 0.09380 -0.19609
-0.22992 0.09380 -0.21788
-0.21730 0.09380 -0.11229
-0.23017 0.09380 -0.25013
-0.24203 0.09380 -0.36729
-0.21235 0.09380 -0.25345
-0.22073 0.09380 -0.31570
-0.21879 0.09380 -0.03541
-0.22621 0.09380 -0.29658
-0.23706 0.09380 -0.16458
-0.23071 0.09380 -0.21000
-0.22003 0.09380 -0.32189
-0.21028 0.09380 -0.31833
-0.23109 0.09380 -0.11111
-0.21365 0.09380 -0.20628
-0.20554 -0.00833 0.10816
-0.16799 0.00528 0.10816
-0.18879 -0.05972 0.10816
-0.22756 0.00568 0.10816
-0.16913 -0.01399 0.10816
-0.16318 -0.04280 0.10816
-0.15590 -0.00251 0.10816
-0.21207 -0.02457 0.10816
0.04492 0.11776 0.39483
0.01322 0.11776 0.39570
0.09049 0.11776 0.38579
0.10348 0.11776 0.38143
0.16451 0.06346 0.40027
0.11619 0.06832 0.40027
0.18264 0.07516 0.40027
0.02967 0.06883 0.40027
0.15424 0.08776 0.40027
0.20002 0.05555 0.40027
-0.08628 0.08619 0.40027
0.16236 0.07333 0.40027
0.25353 0.04995 0.40027
0.04992 0.08753 0.40027
0.08571 0.07650 0.40027
-0.15307 -0.11261 0.09752
-0.25328 -0.05368 -0.40854
-0.10534 -0.11124 0.28537
-0.19273 -0.09502 0.11642
-0.22265 -0.09502 0.13758
-0.19344 -0.09502 0.16177
0.10190 0.11428 0.38744
-0.07452 0.11428 0.36195
-0.00016 0.11428 0.37029
-0.04771 0.11428 0.38444
-0.06191 0.11428 0.36767
-0.18084 -0.10187 0.11320
-0.20456 0.09380 0.25241
-0.22299 0.09380 0.18603
-0.22406 0.09380 0.20836
-0.23741 0.09380 0.21045
-0.21604 0.09380 0.14175
-0.25668 0.09380 0.26376
-0.22739 0.09380 0.25211
0.22038 0.09258 0.34192
-0.15723 0.08347 0.39728
-0.14834 -0.06695 0.40735
-0.26096 -0.09873 -0.14089
-0.25473 -0.09873 0.01821
-0.10534 -0.10686 0.27574
-0.10534 0.00573 0.28872
-0.10534 0.01508 0.28678
-0.12580 0.02918 0.06900
-0.12580 0.02946 0.04525
-0.12338 0.07069 0.40027
-0.25174 0.08810 -0.00970
-0.25174 0.05370 0.15966
-0.25174 0.07827 0.02291
-0.25174 0.08825 -0.15454
-0.25174 0.06785 0.00243
-0.25174 0.07454 -0.05796
0.11660 0.11689 0.35154
-0.23104 0.11776 -0.02118
-0.23799 0.11776 0.10185
-0.22050 0.11776 0.01834
-0.22025 0.11776 0.03879
-0.22923 0.11776 0.07868
-0.21067 0.11776 0.11789
-0.24516 0.11776 -0.13334
-0.23463 0.11776 -0.02638
-0.20270 0.11500 0.11637
-0.26056 0.03474 0.28087
-0.25987 0.07709 0.29138
-0.19002 -0.11204 -0.24318
-0.03681 0.01577 0.27632
0.17449 0.01577 0.27953
0.13674 0.01577 0.29137
0.09901 0.01577 0.27492
0.09213 0.01577 0.27861
0.15707 0.01577 0.27450
0.12157 0.01577 0.29131
0.24145 -0.11919 0.30656
-0.02211 0.06046 0.40027
-0.04231 0.06780 0.40027
0.09642 0.05388 0.40027
0.11594 0.05551 0.40027
0.10169 0.04262 0.40027
-0.06711 0.07912 0.40027
0.09093 0.04455 0.40027
-0.02392 0.03737 0.40027
-0.15512 0.09380 0.37577
-0.14166 -0.09577 -0.05285
-0.14166 -0.09774 -0.01564
-0.14166 -0.08444 -0.03277
-0.23074 0.03633 0.29567
-0.19679 0.03633 0.28376
-0.12580 0.03100 -0.02761
-0.12580 0.03288 -0.07448
-0.24995 0.03570 0.32756
-0.24654 -0.03866 0.33446
-0.03466 -0.09874 0.30969
-0.16002 -0.06206 0.10816
-0.14170 0.00020 0.10816
-0.25328 -0.11697 -0.24845
-0.14166 -0.05980 0.03207
-0.14166 -0.01486 0.00956
-0.21928 -0.04936 -0.39309
-0.24086 -0.06188 -0.39309
-0.21571 -0.03196 -0.39309
-0.23651 -0.01898 -0.39309
-0.19334 0.00227 -0.39309
-0.19340 0.09162 0.18842
-0.16823 -0.09874 -0.22989
-0.16326 -0.09874 -0.13085
-0.17067 -0.09874 -0.15669
-0.01367 0.11776 0.35644
0.05879 0.11776 0.36825
-0.07204 0.11776 0.38786
0.09537 0.11776 0.35290
0.01239 0.11776 0.36696
-0.06573 0.11776 0.39294
-0.00601 0.11776 0.35157
-0.14166 -0.02888 -0.08410
-0.14166 -0.01858 -0.08117
-0.14166 0.00077 -0.08787
-0.23971 0.11885 0.09282
-0.08369 0.01577 0.30829
-0.25196 -0.01022 0.32232
-0.12580 0.02259 0.23390
-0.24909 -0.04270 -0.40739
-0.23833 0.08749 0.33373
-0.25347 -0.08770 0.14855
-0.25347 -0.09426 0.18913
-0.25347 -0.06670 0.13458
-0.25347 -0.08791 0.22029
-0.25347 -0.09647 0.15474
