0.30283 0.25384 -0.25444
0.07939 0.25384 -0.04941
-0.05253 0.25384 -0.23954
0.19516 0.25384 0.17800
0.26224 0.25384 -0.09315
-0.08619 0.25384 -0.30334
0.12243 0.25384 -0.14876
0.23060 0.25384 0.08888
-0.06129 0.25384 -0.27450
0.07960 0.25384 -0.01162
0.01629 0.25384 -0.20896
0.24909 0.25384 0.04496
0.02970 0.25384 -0.30090
-0.03353 0.25384 -0.07681
0.16661 0.25384 -0.03726
0.20889 0.25384 -0.15772
0.29037 0.25384 -0.24154
0.13884 0.25384 -0.11374
-0.13086 0.25384 -0.15292
0.25769 0.25384 -0.22155
0.11477 0.25384 -0.11351
0.14972 0.25384 0.13008
0.06198 0.25384 -0.02040
0.15527 0.25384 0.13407
-0.09618 0.25384 -0.21580
0.30260 0.25384 0.10544
0.24183 0.25384 0.18610
0.10020 0.25384 -0.09261
0.23473 0.25384 0.02038
0.27879 0.25384 -0.17983
0.04401 0.25384 -0.24649
0.30126 0.25384 -0.26093
0.12842 0.25384 -0.11886
0.28806 0.25384 -0.22129
0.25384 0.25384 0.22606
0.26122 0.25384 -0.00823
0.12590 0.25384 -0.06067
0.16967 0.25384 0.00010
0.16243 0.25384 0.07181
0.26085 0.25384 0.25283
0.07403 0.25384 -0.12357
0.27074 0.25384 -0.05638
0.29571 0.25384 -0.07741
0.18679 0.25384 -0.23765
0.26087 0.25384 -0.29065
0.19405 0.25384 -0.04983
0.10926 0.25384 -0.22817
0.17098 0.25384 -0.05188
-0.05696 0.25384 -0.09999
-0.07832 0.25384 -0.20778
0.06068 0.25384 -0.28963
0.25657 0.25384 -0.29627
0.23254 0.25384 -0.10847
0.17125 0.25384 -0.28778
-0.00560 0.25384 -0.21486
0.27481 0.25384 -0.24709
0.02004 0.25384 -0.08044
-0.18858 0.25384 -0.22253
0.25912 0.25384 0.19782
0.18132 0.25384 -0.05436
-0.05685 0.25384 -0.09065
0.22364 0.25384 -0.29491
0.24915 0.25384 -0.19710
-0.07901 0.25384 -0.25238
0.21288 0.25384 -0.17723
-0.14217 0.25384 -0.20923
0.10314 0.25384 -0.08679
0.21327 0.25384 -0.24777
-0.27363 0.25384 -0.27655
-0.00738 0.25384 -0.10374
-0.04544 0.25384 -0.04922
-0.05387 0.25384 -0.07030
-0.04824 0.25384 -0.18288
0.09957 0.25384 -0.12934
0.27477 0.25384 -0.11662
0.14815 0.25384 -0.16183
0.10967 0.25384 -0.08455
0.24047 0.25384 -0.08955
0.26934 0.25384 0.25365
0.20053 0.25384 -0.12747
0.09220 0.25384 -0.14947
0.13573 0.25384 -0.06757
-0.13470 0.25384 -0.17400
0.24036 0.25384 0.13829
-0.14170 0.25384 -0.16221
0.15944 0.25384 -0.23054
0.27571 0.25384 -0.06755
-0.08857 0.25384 -0.21229
0.25146 0.25384 0.09824
0.04065 0.25384 -0.20924
0.24870 0.25384 0.20221
0.09702 0.25384 -0.18099
0.01127 0.25384 0.00197
0.24737 0.25384 0.21462
0.00809 0.25384 -0.04824
0.25230 0.25384 -0.21870
0.04120 0.25384 -0.06906
0.10024 0.25384 -0.07034
0.25437 0.25384 0.19414
0.30231 0.25384 0.27169
0.10570 0.25384 -0.28431
-0.02980 0.25384 -0.03579
0.15597 0.25384 -0.18221
0.26783 0.25384 -0.12675
0.17367 0.25384 0.12847
0.21881 0.25384 -0.09513
0.25984 0.25384 0.02874
0.29893 0.25384 0.14422
0.04457 0.25384 0.00964
0.18137 0.25384 -0.26952
0.00752 0.25384 -0.03795
0.23489 0.25384 -0.18712
0.07585 0.25384 0.06303
0.26169 0.25384 -0.20648
0.27219 0.25384 0.09972
-0.05116 0.25384 -0.30253
-0.06720 0.25384 -0.18649
0.29208 0.25384 -0.14065
0.05178 0.25384 0.01110
0.20590 0.25384 0.17064
0.06360 0.25384 -0.11797
0.24304 0.25384 -0.01468
0.14264 0.25384 -0.24937
0.11001 0.25384 0.04215
-0.03371 0.25384 -0.26534
0.27277 0.25384 -0.03192
-0.00497 0.25384 -0.14089
0.18789 0.25384 -0.10627
-0.14211 0.25384 -0.14914
0.06263 0.25384 -0.07783
0.18999 0.25384 -0.24993
0.13202 0.25384 -0.14670
0.29016 0.25384 0.28547
0.26864 0.25384 -0.11866
0.21266 0.25384 0.19889
0.06451 0.25384 -0.28099
0.15543 0.25384 -0.28167
0.29198 0.25384 0.25807
0.01039 0.25384 -0.19867
0.17532 0.25384 -0.04031
0.07877 0.25384 -0.17530
0.17247 0.25384 -0.09261
0.25152 0.25384 -0.06179
0.20975 0.25384 -0.10783
0.17146 0.25384 -0.20843
0.22170 0.25384 0.16801
-0.12082 0.25384 -0.24822
0.14142 0.25384 0.03426
-0.15743 0.25384 -0.19010
-0.14259 0.25384 -0.29724
0.20101 0.25384 -0.19842
0.26830 0.25384 0.07790
0.12093 0.25384 -0.24763
-0.04188 0.25384 -0.13228
0.25094 0.25384 -0.16372
-0.04517 0.25384 -0.19748
0.28956 0.25384 -0.16909
0.20861 0.25384 -0.04732
-0.01338 0.25384 -0.26658
0.05124 0.25384 -0.27915
-0.01429 0.25384 -0.07282
0.30460 -0.18953 -0.29633
0.30460 -0.06453 -0.30311
0.30460 -0.24484 -0.30134
0.30460 0.10606 -0.30427
0.30460 -0.08791 -0.29916
0.30460 -0.15200 -0.29903
-0.28305 -0.08722 0.30460
-0.30296 -0.21511 0.30460
-0.29359 0.03292 0.30460
-0.30210 -0.14594 0.30460
-0.29218 -0.17907 0.30460
-0.29973 -0.06437 0.30460
-0.30396 -0.01031 0.30460
-0.28793 -0.04684 0.30460
-0.28435 -0.19614 0.30460
-0.28473 -0.06425 0.30460
-0.28219 -0.10296 0.30460
-0.23164 0.22389 -0.30460
0.02520 0.21999 0.16395
-0.13069 0.21999 0.27352
-0.07768 0.21999 0.22949
-0.07509 0.21999 0.17701
-0.20769 0.21999 -0.10701
0.04534 0.21999 0.23674
-0.00986 0.21999 0.14396
-0.12055 0.21999 0.09295
-0.05902 0.21999 0.25210
0.25514 0.21999 0.28145
-0.30386 0.21999 0.11976
-0.20950 0.21999 0.06605
0.01096 0.21999 0.20037
-0.01469 0.21999 0.01804
0.01078 0.21999 0.11685
0.21444 0.21999 0.27965
-0.22069 0.21999 0.18689
-0.13571 0.21999 0.26877
-0.17976 0.21999 -0.15411
-0.14406 0.21999 0.19246
0.05643 0.21999 0.16285
-0.26577 0.21999 0.13034
-0.01916 0.21999 0.26416
-0.00041 0.21999 0.20122
-0.24183 0.21999 0.02107
-0.21630 0.21999 0.27600
-0.18028 0.21999 0.15675
-0.23617 0.21999 -0.12875
-0.14337 0.21999 -0.01461
0.11540 0.21999 0.22276
0.09964 0.21999 0.24368
-0.17615 0.21999 0.25822
-0.11630 0.21999 -0.07952
-0.26801 0.21999 -0.21479
0.22553 0.21999 0.28064
-0.09764 0.21999 -0.04293
-0.09934 0.21999 0.06300
-0.07880 0.21999 0.13895
-0.18492 0.21999 0.02859
-0.13440 0.21999 -0.00002
-0.02815 0.21999 0.27416
0.15653 0.21999 0.17666
-0.00849 0.21999 0.10902
-0.27326 0.21999 -0.07234
-0.22717 0.21999 0.07438
-0.26340 0.21999 0.14647
-0.05167 0.21999 -0.01753
-0.02284 0.21999 0.09176
-0.23186 0.21999 -0.19542
-0.29122 0.21999 0.12310
-0.13995 0.21999 -0.06804
-0.14552 0.21999 -0.10437
0.17873 0.21999 0.22603
0.07144 0.21999 0.11418
-0.00388 0.21999 0.26734
-0.27224 0.21999 0.20093
0.00962 0.21999 0.14032
-0.30026 0.21999 -0.00866
-0.23822 0.21999 0.26872
-0.25032 0.21999 -0.00256
-0.29409 0.21999 0.20604
-0.04854 0.21999 0.21107
-0.20185 0.21999 0.23872
-0.14990 0.21999 0.08507
-0.24579 0.21999 -0.02773
-0.26189 0.21999 -0.13488
-0.26297 0.21999 0.10088
-0.29970 0.21999 0.01833
-0.29090 0.21999 -0.27268
-0.16265 0.21999 0.24839
-0.01423 0.21999 0.02717
-0.15179 0.21999 0.27815
-0.18946 0.21999 0.07156
0.10268 0.21999 0.18980
0.06599 0.21999 0.10517
-0.18653 0.21999 0.05518
-0.11778 0.21999 0.05824
0.03588 0.21999 0.25911
-0.05831 0.21999 0.10013
-0.27600 0.21999 -0.11421
-0.16353 0.21999 0.10312
-0.16539 0.21999 0.03709
-0.12993 0.21999 0.15100
0.07181 0.21999 0.26286
-0.27911 0.21999 -0.23050
-0.19583 0.21999 -0.16576
-0.27788 0.21999 0.19935
-0.26582 0.21999 0.04600
-0.26392 0.21999 0.12392
-0.02109 0.21999 0.02683
0.01084 0.21999 0.19494
0.09302 0.21999 0.16875
-0.28776 0.21999 -0.25723
-0.20510 0.21999 0.10544
-0.01247 0.21999 0.18756
-0.21908 0.21999 0.22594
-0.21658 0.21999 0.22145
0.05989 0.21999 0.10348
-0.08484 0.21999 0.06472
0.03519 0.21999 0.27724
-0.27820 0.21999 -0.24445
-0.10970 0.21999 0.17344
-0.20773 0.21999 0.02396
-0.30249 0.21999 -0.20813
0.03975 0.21999 0.11536
-0.03295 0.21999 0.18679
-0.27615 0.21999 0.13978
0.07304 0.21999 0.14224
0.16959 0.21999 0.23000
-0.15625 0.21999 -0.09643
-0.21040 0.21999 0.03173
-0.16477 0.21999 -0.03241
-0.09417 0.21999 -0.00103
0.14329 0.21999 0.18344
-0.07534 0.21999 -0.01840
0.11438 0.21999 0.24364
0.03695 0.21999 0.20143
-0.23336 0.21999 -0.07108
-0.21668 0.21999 -0.18205
-0.06181 0.21999 0.23208
-0.22444 0.21999 -0.07569
0.15641 0.21999 0.20635
-0.28168 0.21999 -0.13123
-0.20258 0.21999 -0.03432
-0.17371 0.21999 -0.07418
0.07109 0.21999 0.12957
0.08392 0.21999 0.21718
-0.18057 0.21999 0.13157
-0.19756 0.21999 0.27189
-0.23944 0.21999 0.11836
-0.11819 0.21999 0.14418
-0.28028 0.21999 0.10206
0.13150 0.21999 0.25461
0.03882 0.21999 0.05967
0.05068 0.21999 0.16031
-0.29578 0.21999 0.14630
0.00546 0.21999 0.25710
-0.27739 0.21999 0.23955
-0.07780 0.21999 0.02689
-0.11257 0.21999 0.22813
0.15954 0.21999 0.19055
-0.22830 0.21999 -0.06458
-0.12663 0.21999 0.07320
-0.25478 0.21999 0.15899
-0.15309 0.21999 0.00514
-0.29850 0.21999 -0.13433
0.09661 0.21999 0.14619
-0.07160 0.21999 0.28423
-0.18724 0.21999 -0.07565
-0.15413 0.21999 -0.07075
-0.00256 0.21999 0.23373
-0.07673 0.21999 0.18140
0.16859 0.21999 0.24816
-0.12053 0.21999 0.04538
-0.16851 0.21999 0.12718
-0.19545 0.21999 -0.17270
0.02683 0.21999 0.18916
-0.08457 0.21999 0.03174
0.00512 0.21999 0.20714
0.05249 0.21999 0.12999
-0.15441 0.21999 0.25441
-0.04267 0.21999 0.13556
-0.19113 0.21999 -0.00433
-0.17059 0.21999 0.20685
-0.05528 0.21999 -0.02708
-0.08871 0.21999 0.06741
-0.03263 0.21999 0.09184
-0.24035 0.21999 0.08766
0.01921 0.21999 0.26859
0.04636 0.21999 0.27981
0.03616 0.21999 0.22231
-0.04751 0.21999 0.17024
-0.06109 0.21999 0.08163
-0.18527 0.21999 -0.13619
-0.24909 0.21999 -0.06335
-0.05350 0.21999 0.10248
-0.18094 0.21999 -0.13435
-0.17956 0.21999 0.14394
-0.20511 0.21999 0.11618
-0.26587 0.21999 -0.06832
-0.07058 0.21999 0.21589
0.09015 0.21999 0.22154
0.20659 0.21999 0.27172
0.06330 0.21999 0.25541
-0.30266 0.21999 -0.06380
0.00215 0.21999 0.06260
-0.18118 0.21999 -0.05548
-0.05612 0.21999 0.04765
-0.15558 0.21999 -0.12646
-0.26980 0.21999 -0.04979
-0.05291 0.21999 0.13652
-0.06634 0.21999 0.12891
-0.09478 0.21999 -0.01860
0.07094 0.21999 0.22032
-0.19128 0.21999 0.14956
-0.24177 0.21999 0.03593
0.15301 0.21999 0.24639
-0.25668 0.21999 0.24036
-0.20508 0.21999 0.22399
0.06049 0.21999 0.21731
-0.09224 0.21999 -0.07072
-0.08560 0.21999 -0.01605
-0.28448 0.21999 0.24168
-0.06098 0.21999 0.17086
-0.10516 0.21999 0.03268
-0.03537 0.21999 0.15846
-0.14799 0.21999 0.16870
-0.28592 0.21999 -0.08807
-0.24230 0.21999 -0.04146
-0.23191 0.21999 0.05608
0.01706 0.21999 0.05216
0.03878 0.21999 0.09559
-0.21283 0.21999 -0.16073
-0.30191 -0.15951 -0.28768
-0.27557 -0.18788 -0.28768
-0.28383 -0.22154 -0.28768
-0.29845 -0.00805 -0.28768
-0.30370 -0.19169 -0.28768
-0.29979 0.14127 -0.28768
-0.30222 -0.09939 -0.28768
-0.29575 0.05578 -0.28768
-0.27762 -0.24080 -0.28768
-0.30460 0.24081 -0.00016
-0.30460 0.25301 -0.22916
-0.30460 0.24826 -0.20826
-0.30460 0.24528 -0.29485
-0.30460 0.24327 -0.05650
-0.30460 0.24154 -0.24238
-0.30460 0.24610 -0.26223
-0.30460 0.25314 0.07086
-0.30460 0.25209 0.25353
-0.30460 0.24565 -0.10255
-0.30460 0.22376 -0.24479
-0.30460 0.23802 -0.05396
-0.30460 0.24419 -0.17307
0.30460 0.24944 -0.22708
0.30460 0.19840 0.28895
0.30460 -0.03830 0.30378
0.30460 -0.07526 0.30075
0.30460 0.20594 0.29339
0.30460 -0.09112 0.30350
0.30460 0.18502 0.29970
-0.27076 -0.08646 0.30282
-0.27076 0.01379 0.29692
-0.27076 0.16500 0.29318
-0.27076 0.20263 0.30247
-0.27076 -0.08030 0.30209
-0.27076 0.08775 0.29478
0.30460 0.24251 -0.30251
-0.27076 0.15208 0.29422
-0.27076 0.18483 0.30236
-0.27076 0.03264 0.30182
-0.27076 0.14880 0.30160
-0.27076 -0.04121 0.30388
-0.27076 0.08112 0.30281
0.00499 0.21999 -0.29296
0.08073 0.21999 -0.28874
-0.10943 0.21999 -0.29826
-0.25230 0.21999 -0.29731
0.17500 0.21999 -0.28885
0.30460 -0.21620 0.29759
0.30460 -0.20874 0.30205
0.30460 -0.05022 0.29016
0.30460 -0.13467 0.29424
0.30460 -0.22672 0.28950
0.30460 -0.13038 0.28842
0.27363 0.06532 -0.28768
0.28888 -0.12987 -0.28768
0.27997 -0.14214 -0.28768
0.27817 -0.16046 -0.28768
0.27504 -0.08446 -0.28768
0.27785 -0.18115 -0.28768
0.28132 -0.00926 -0.28768
0.27213 -0.22941 -0.28768
0.29257 -0.14461 -0.28768
0.27772 0.06213 -0.28768
0.29961 0.21999 -0.27913
0.30238 0.21999 0.09027
0.27875 0.21999 -0.23074
0.27920 0.21999 -0.23540
0.30352 0.21999 -0.13980
0.29240 0.21999 -0.02730
0.28326 0.21999 -0.12285
0.28692 0.21999 -0.18948
0.29578 0.21999 0.03103
0.29470 0.21999 0.04968
0.28971 0.21999 -0.00532
0.27870 0.21999 -0.22405
0.28758 0.21999 -0.07571
0.29890 -0.25384 -0.29834
0.29186 0.23861 0.30460
-0.18984 0.22268 -0.30460
-0.13639 0.22656 -0.30460
0.06552 0.23248 -0.30460
0.21237 0.22069 -0.30460
0.25451 0.24525 -0.30460
0.03144 0.22398 -0.30460
-0.00292 0.22885 -0.30460
-0.04134 0.23038 -0.30460
0.19026 0.22324 -0.30460
-0.07522 0.22573 -0.30460
0.16436 0.22082 -0.30460
0.07165 0.23204 -0.30460
0.15041 0.22555 -0.30460
0.30460 0.24410 0.12302
0.30460 0.24737 0.16002
0.30460 0.24211 0.30312
0.30460 0.24853 0.20528
0.30460 0.25159 0.06857
0.30460 0.24546 0.00316
0.30460 0.25019 -0.01331
0.30460 0.24412 0.27556
0.30460 0.25341 -0.17951
0.30460 0.24421 0.19742
0.30460 0.23859 0.04862
0.30460 0.24116 0.14538
0.30460 0.25087 -0.08874
0.30460 0.24864 -0.16528
0.30233 -0.25384 -0.28781
-0.01516 0.21999 0.29152
0.15755 0.21999 0.29508
0.25576 0.21999 0.29202
0.15429 0.21999 0.30090
0.21861 0.21999 0.28878
-0.11549 0.21999 0.29122
0.30424 0.21716 -0.28768
0.30216 -0.17962 -0.28768
0.30247 -0.17103 -0.28768
0.28661 0.07172 -0.28768
0.30414 -0.23476 -0.28768
0.29966 -0.11098 -0.28768
0.30321 -0.14110 -0.28768
0.29462 -0.05164 -0.28768
0.28867 0.00873 -0.28768
0.30171 -0.01748 -0.28768
0.29569 0.09013 -0.28768
0.18842 0.25384 0.29181
-0.05817 0.25384 0.21646
-0.10549 0.25384 0.14424
0.01620 0.25384 0.09860
0.23966 0.25384 0.26088
-0.21009 0.25384 0.05762
0.04296 0.25384 0.08540
-0.22668 0.25384 0.05955
0.04079 0.25384 0.30196
-0.17443 0.25384 0.18594
0.11061 0.25384 0.27521
-0.08004 0.25384 0.23861
-0.05966 0.25384 -0.01836
-0.20764 0.25384 -0.02139
-0.08235 0.25384 -0.07450
-0.09215 0.25384 0.19255
-0.24419 0.25384 0.03330
-0.06655 0.25384 0.16548
-0.02886 0.25384 0.14067
-0.12674 0.25384 0.07457
-0.10937 0.25384 0.21025
0.07331 0.25384 0.27804
0.06284 0.25384 0.21326
0.06299 0.25384 0.23045
-0.19497 0.25384 0.01778
-0.27436 0.25384 0.24037
-0.28485 0.25384 -0.04465
0.03250 0.25384 0.14827
-0.21757 0.25384 -0.17477
-0.26309 0.25384 0.16706
-0.26107 0.25384 0.17566
0.12647 0.25384 0.18932
-0.29828 0.25384 -0.10996
-0.13998 0.25384 0.19187
-0.07856 0.25384 0.06733
-0.07863 0.25384 0.08733
-0.30085 0.25384 -0.25398
0.15549 0.25384 0.17842
-0.27645 0.25384 -0.22966
0.04082 0.25384 0.16540
0.10393 0.25384 0.19078
-0.25367 0.25384 0.27747
0.04672 0.25384 0.08967
-0.25665 0.25384 -0.07145
0.03607 0.25384 0.08793
-0.09274 0.25384 0.14652
-0.25218 0.25384 0.00217
-0.12350 0.25384 -0.09793
-0.22065 0.25384 0.03817
-0.02919 0.25384 0.11663
-0.26443 0.25384 0.00867
0.09563 0.25384 0.23472
-0.26755 0.25384 -0.06140
-0.05746 0.25384 0.30289
-0.14265 0.25384 0.24038
-0.07490 0.25384 0.04224
-0.14066 0.25384 -0.02599
-0.23658 0.25384 -0.10016
-0.02126 0.25384 0.14414
-0.23795 0.25384 0.06896
-0.20083 0.25384 -0.04059
-0.02136 0.25384 -0.00203
-0.28117 0.25384 0.23035
-0.05102 0.25384 0.19011
-0.19899 0.25384 0.04620
-0.04089 0.25384 -0.01774
0.19752 0.25384 0.28228
-0.05152 0.25384 -0.01155
-0.03583 0.25384 0.07581
0.16812 0.25384 0.18741
0.09049 0.25384 0.27953
-0.28595 0.25384 -0.01695
-0.05149 0.25384 0.07373
-0.17112 0.25384 -0.13142
-0.20603 0.25384 -0.08358
-0.09697 0.25384 0.11942
-0.04369 0.25384 0.03728
-0.11073 0.25384 0.05969
-0.09275 0.25384 0.15623
0.01172 0.25384 0.12956
-0.00284 0.25384 0.01317
0.04522 0.25384 0.23155
-0.14516 0.25384 -0.01572
0.00320 0.25384 0.25877
-0.27610 0.25384 0.17739
0.13042 0.25384 0.14964
-0.29190 0.25384 -0.20338
-0.18637 0.25384 0.24583
-0.27473 0.25384 -0.03190
0.19358 0.25384 0.23307
-0.12176 0.25384 -0.05884
-0.03343 0.25384 0.22839
-0.14585 0.25384 0.28448
-0.03285 0.25384 0.16767
-0.12197 0.25384 0.29614
0.09674 0.25384 0.19089
0.14006 0.25384 0.14234
-0.02803 0.25384 0.21340
0.12109 0.25384 0.21360
-0.24009 0.25384 0.24185
-0.16123 0.25384 0.00789
-0.04932 0.25384 -0.00436
-0.02062 0.25384 0.25018
-0.25469 0.25384 0.17181
0.01906 0.25384 0.22759
-0.15855 0.25384 0.30056
0.21178 0.25384 0.29424
-0.03130 0.25384 0.13070
0.02352 0.25384 0.07002
-0.05821 0.25384 -0.04100
-0.14738 0.25384 0.29176
-0.22185 0.25384 -0.11823
-0.16970 0.25384 0.25462
-0.28901 0.25384 0.19197
-0.29275 0.25384 -0.17264
-0.10343 0.25384 0.25324
-0.17011 0.25384 0.30084
-0.01889 0.25384 0.17502
0.14902 0.25384 0.16850
-0.18255 0.25384 0.07785
0.02687 0.25384 0.10518
-0.26585 0.25384 -0.04576
0.03970 0.25384 0.13048
-0.16475 0.25384 0.18230
-0.18204 0.25384 0.06092
0.05129 0.25384 0.17972
0.14261 0.25384 0.18844
-0.20259 0.25384 0.11454
0.25995 0.25384 0.29338
0.06635 0.25384 0.16117
-0.20980 0.25384 -0.04759
-0.27946 0.25384 0.01322
-0.13110 0.25384 0.14754
-0.06266 0.25384 0.26874
0.11599 0.25384 0.11768
-0.13775 0.25384 -0.05323
-0.21813 0.25384 -0.00199
0.16137 0.25384 0.27479
-0.23640 0.25384 0.15056
0.08642 0.25384 0.16993
-0.27553 0.25384 0.04284
-0.27316 0.25384 -0.21490
-0.04856 0.25384 0.22627
-0.10780 0.25384 -0.08946
-0.27159 0.25384 0.23095
-0.27379 0.25384 0.20919
-0.18162 0.25384 0.14588
-0.16694 0.25384 0.16277
-0.16641 0.25384 0.13584
0.16450 0.25384 0.21399
-0.02037 0.25384 0.01369
-0.22942 0.25384 -0.09862
-0.03035 0.25384 0.23222
-0.30296 0.25384 0.01076
0.07829 0.25384 0.14193
-0.17336 0.25384 -0.10754
-0.08078 0.25384 0.27561
-0.27251 0.25384 0.10486
0.06285 0.25384 0.27018
0.05073 0.25384 0.28974
-0.07883 0.25384 0.26857
0.15197 0.25384 0.20175
-0.16039 0.25384 0.16685
-0.14694 0.25384 0.10100
-0.07592 0.25384 -0.00216
-0.21648 0.25384 -0.07177
-0.28699 0.25384 0.29373
0.08834 0.25384 0.15007
-0.17714 0.25384 0.09812
-0.27506 0.25384 0.03323
-0.24289 0.25384 -0.04101
-0.08740 0.25384 0.23825
-0.13451 0.25384 -0.07006
0.23442 0.25384 0.28394
-0.23423 0.25384 0.21533
0.18787 0.25384 0.26883
-0.19942 0.25384 0.20886
-0.16500 0.25384 0.11139
-0.26294 0.25384 -0.04188
-0.16542 0.25384 0.14111
-0.07280 0.25384 0.23587
-0.23063 0.25384 -0.11197
-0.23009 0.25384 0.04502
-0.11215 0.25384 -0.10536
-0.29751 0.25384 0.04221
0.11434 0.25384 0.17568
-0.28674 0.25384 -0.03609
-0.07303 0.25384 -0.03271
0.05806 0.25384 0.28588
0.07230 0.25384 0.15332
-0.20596 0.25384 0.03015
-0.24039 0.25384 -0.11428
-0.03841 0.25384 -0.02757
0.04796 0.25384 0.09469
-0.04376 0.25384 0.12801
-0.22407 0.25384 0.21273
0.16224 0.25384 0.17674
0.15063 0.25384 0.27592
-0.08506 0.25384 0.04980
-0.26198 0.25384 -0.20330
0.24160 0.25384 0.25277
0.11463 0.25384 0.25195
-0.25261 0.25384 -0.10239
-0.26111 0.25384 -0.22395
0.09009 0.25384 0.11263
-0.10502 0.25384 0.02864
-0.27410 0.25384 0.29073
0.11476 0.25384 0.20479
-0.29838 0.25384 0.19623
0.00918 0.25384 0.24621
-0.28813 0.25384 -0.23557
-0.16415 0.25384 -0.10498
-0.22898 0.25384 -0.04330
-0.17947 0.25384 -0.02397
0.02356 0.25384 0.19106
-0.18557 0.25384 0.08343
-0.29693 0.25384 0.02107
-0.12518 0.25384 -0.01611
0.01562 0.25384 0.03574
-0.28153 0.25384 0.04033
-0.04049 0.25384 -0.00754
0.10509 0.25384 0.27202
-0.01299 0.25384 -0.01199
-0.11788 0.25384 0.05112
-0.12652 0.25384 0.12006
-0.15700 0.25384 0.13849
-0.24462 0.25384 -0.06503
-0.17600 0.25384 0.24186
-0.27699 0.25384 0.19254
-0.05057 0.25384 0.03451
0.03435 0.25384 0.24857
-0.14348 0.25384 0.27645
-0.17449 0.25384 -0.11564
-0.28908 0.25384 -0.27242
-0.27078 0.25384 -0.24352
-0.06551 0.25384 0.25947
-0.07574 0.25384 0.29232
-0.29330 0.25384 0.07505
-0.20915 0.25384 -0.00013
-0.19600 0.25384 0.28236
-0.18624 0.25384 0.02354
-0.06575 0.25384 -0.03728
0.01084 0.25384 0.18720
-0.28773 0.25384 -0.18824
-0.17082 0.25384 0.02467
-0.08200 0.25384 0.29298
-0.26765 0.25384 -0.10521
-0.23957 0.25384 0.27427
0.08720 0.25384 0.14472
-0.19307 0.25384 0.24493
-0.04306 0.25384 0.19383
-0.08436 0.25384 0.23435
-0.21630 0.25384 0.30320
-0.16810 0.25384 -0.05834
-0.15924 0.25384 0.25215
-0.28291 0.25384 -0.24496
-0.18449 0.25384 0.04219
-0.23935 0.25384 -0.01709
-0.24698 0.25384 0.26018
-0.10708 0.25384 -0.02646
-0.17902 0.25384 0.12245
0.19264 0.25384 0.29916
-0.13624 0.25384 0.26160
-0.29318 0.25384 0.24709
0.10737 0.25384 0.24546
-0.16754 0.25384 0.04397
-0.28937 -0.02255 0.28768
-0.28932 0.13706 0.28768
-0.28102 0.13258 0.28768
-0.28147 0.15611 0.28768
-0.29522 0.03868 0.28768
-0.27612 0.17184 0.28768
-0.28861 0.18398 0.28768
-0.30442 -0.09437 0.28768
-0.29434 0.04403 0.28768
0.00022 0.21999 -0.04134
0.09344 0.21999 -0.09770
0.23166 0.21999 0.04689
0.10873 0.21999 -0.24401
0.22080 0.21999 -0.28304
0.25132 0.21999 -0.08975
0.20933 0.21999 -0.09098
0.20225 0.21999 -0.26240
0.15987 0.21999 0.08358
0.22627 0.21999 0.06095
-0.02776 0.21999 -0.28647
0.08518 0.21999 -0.06944
0.17967 0.21999 0.14459
0.12145 0.21999 -0.23368
0.14803 0.21999 -0.16460
0.21291 0.21999 -0.25173
0.00442 0.21999 -0.05411
-0.04084 0.21999 -0.12362
0.11527 0.21999 -0.03304
0.21373 0.21999 -0.13901
0.13838 0.21999 -0.07460
0.13486 0.21999 -0.14157
0.04048 0.21999 -0.10004
0.21391 0.21999 -0.10909
0.22476 0.21999 -0.01701
0.12918 0.21999 0.03887
0.21994 0.21999 0.01015
-0.08866 0.21999 -0.27756
0.00357 0.21999 -0.10947
-0.15453 0.21999 -0.18598
0.16591 0.21999 -0.10718
0.24219 0.21999 -0.22508
0.21590 0.21999 0.05154
-0.00569 0.21999 -0.17429
-0.05423 0.21999 -0.19340
0.00203 0.21999 -0.03420
0.07444 0.21999 -0.00123
0.13270 0.21999 -0.06641
-0.05010 0.21999 -0.13752
0.03466 0.21999 -0.10112
-0.00793 0.21999 -0.12155
0.15002 0.21999 -0.04335
0.16668 0.21999 -0.13314
0.03984 0.21999 0.00025
0.05454 0.21999 -0.19213
-0.11929 0.21999 -0.20393
0.11309 0.21999 -0.01059
0.05604 0.21999 -0.09712
0.21475 0.21999 0.14406
0.22943 0.21999 0.10245
0.12950 0.21999 -0.08001
0.08892 0.21999 -0.13248
-0.05255 0.21999 -0.07925
0.09263 0.21999 0.00034
-0.10740 0.21999 -0.16208
0.22648 0.21999 -0.17407
0.27149 0.21999 0.00547
0.14566 0.21999 -0.09508
0.03193 0.21999 -0.26337
0.07873 0.21999 -0.20135
0.12029 0.21999 -0.11434
0.09592 0.21999 -0.09076
-0.13958 0.21999 -0.19067
-0.01685 0.21999 -0.27808
0.09634 0.21999 -0.11766
0.01914 0.21999 -0.17557
0.16137 0.21999 -0.17079
0.18025 0.21999 -0.05164
0.25250 0.21999 0.18395
0.10331 0.21999 -0.20267
0.23491 0.21999 -0.13653
-0.07957 0.21999 -0.15385
0.21247 0.21999 -0.03606
0.12215 0.21999 0.04158
0.28008 0.21999 0.02496
0.23126 0.21999 -0.24854
0.21263 0.21999 0.15746
0.14051 0.21999 -0.12718
0.07334 0.21999 -0.06800
0.20055 0.21999 0.03497
0.24481 0.21999 0.15114
0.24948 0.21999 0.07612
-0.10953 0.21999 -0.21679
0.17410 0.21999 -0.11744
-0.19135 0.21999 -0.25893
0.23801 0.21999 -0.01345
0.12180 0.21999 -0.05242
0.14749 0.21999 -0.26111
0.08518 0.21999 -0.16639
0.18514 0.21999 0.09668
-0.18303 0.21999 -0.22092
-0.06107 0.21999 -0.25713
0.21093 0.21999 -0.15800
0.01588 0.21999 -0.17140
0.00474 0.21999 -0.06157
0.10072 0.21999 0.01531
0.19716 0.21999 -0.24893
-0.09934 0.21999 -0.16465
-0.01750 0.21999 -0.22072
0.19577 0.21999 -0.21898
-0.13078 0.21999 -0.23178
0.07595 0.21999 -0.17363
-0.03702 0.21999 -0.19381
0.26127 0.21999 0.04594
0.11264 0.21999 -0.28249
0.28116 0.21999 0.17905
0.14465 0.21999 -0.07219
0.15362 0.21999 -0.19871
0.21096 0.21999 -0.24217
0.26325 0.21999 0.14901
-0.05139 0.21999 -0.09558
-0.06286 0.21999 -0.14727
0.09520 0.21999 -0.28437
-0.07850 0.21999 -0.25212
-0.10281 0.21999 -0.19954
0.18160 0.21999 -0.18868
0.10306 0.21999 0.07517
0.18175 0.21999 0.03534
-0.19930 0.21999 -0.22709
0.14381 0.21999 -0.04549
0.27642 0.21999 -0.04951
0.09869 0.21999 -0.02866
-0.12007 0.21999 -0.16278
0.20494 0.21999 0.13822
-0.03348 0.21999 -0.07195
0.15870 0.21999 0.07087
0.09708 0.21999 -0.08294
-0.02828 0.21999 -0.24699
0.19483 0.21999 0.08062
-0.00547 0.21999 -0.16557
0.18129 0.21999 -0.15050
-0.15559 0.21999 -0.23006
-0.05360 0.21999 -0.26833
0.02170 0.21999 -0.04183
-0.25312 0.21999 -0.27693
0.20588 0.21999 0.14893
0.28023 0.21999 0.06599
-0.17753 0.21999 -0.25303
0.20249 0.21999 -0.17407
0.26044 0.21999 -0.16637
0.14012 0.21999 -0.13548
0.01247 0.21999 -0.21836
0.20357 0.21999 -0.19524
-0.11190 0.21999 -0.22453
0.23812 0.21999 -0.05086
0.18822 0.21999 -0.11220
0.27430 0.21999 -0.18322
0.10524 0.21999 -0.09163
0.20443 0.21999 -0.05544
0.19016 0.21999 -0.19195
0.09235 0.21999 0.03946
0.28490 0.21999 0.03826
0.23757 0.21999 0.09660
-0.02449 0.21999 -0.23388
0.04515 0.21999 -0.18065
0.09004 0.21999 0.04811
0.06093 0.21999 -0.21930
0.02390 0.21999 -0.25125
0.02919 0.21999 -0.00468
-0.11639 0.21999 -0.19293
0.23355 0.21999 0.06630
-0.05312 0.21999 -0.10035
0.22640 0.21999 -0.00244
0.27924 0.21999 -0.06967
0.27373 0.21999 -0.22114
0.27754 0.21999 -0.01981
0.07475 0.21999 -0.21438
0.26328 0.21999 -0.08906
-0.11908 0.21999 -0.17696
-0.08273 0.21999 -0.19787
-0.01677 0.21999 -0.08495
0.06972 0.21999 0.03984
0.13350 0.21999 -0.17341
0.03505 0.21999 -0.00360
0.24239 0.21999 0.09588
-0.13293 0.21999 -0.15924
0.02931 0.21999 -0.23878
0.21627 0.21999 0.16994
0.17528 0.21999 0.06349
0.14994 0.21999 -0.22241
0.14733 0.21999 -0.11825
0.07653 0.21999 -0.28131
-0.04648 0.21999 -0.11227
0.24132 0.21999 0.04700
0.18896 0.21999 0.04549
0.10114 0.21999 -0.16376
0.07352 0.21999 -0.08604
0.16269 0.21999 -0.20740
0.14037 0.21999 -0.24112
-0.07240 0.21999 -0.19690
-0.06681 0.21999 -0.15497
0.19900 0.21999 -0.11219
0.17012 0.21999 -0.16709
-0.07784 0.21999 -0.27742
0.10660 0.21999 -0.23175
0.19911 0.21999 -0.22559
0.23336 0.21999 0.15464
0.18332 0.21999 -0.10248
0.13181 0.21999 0.09080
0.20099 0.21999 -0.13738
0.13538 0.21999 0.05137
0.06823 0.21999 0.00806
0.13066 0.21999 -0.12555
0.20265 0.21999 -0.06980
0.25752 0.21999 -0.25824
0.28221 0.21999 -0.02344
0.00604 0.21999 -0.02320
-0.16400 0.21999 -0.26832
0.29495 0.21999 0.13300
-0.18116 0.21999 -0.27099
0.26992 0.21999 -0.26498
0.03967 0.21999 -0.14356
0.03776 0.21999 -0.27573
-0.04509 0.21999 -0.20853
-0.23077 0.21999 -0.27639
0.13251 0.21999 -0.28735
0.03741 0.21999 -0.02703
-0.07553 0.21999 -0.08996
-0.11787 0.21999 -0.11360
-0.08110 0.21999 -0.08387
-0.22513 0.21999 -0.23099
-0.25157 0.21999 -0.24444
-0.09188 0.21999 -0.08698
-0.29093 0.21999 -0.28665
0.09153 0.21999 0.08258
-0.22568 0.21999 -0.22179
-0.24199 0.21999 -0.24768
-0.13559 0.21999 -0.14045
-0.29007 0.21999 -0.27853
0.09972 0.25384 0.23810
0.22003 0.25384 0.29491
-0.21845 0.25384 0.26360
0.07438 0.25384 0.17578
0.15590 0.25384 0.18342
-0.07593 0.25384 0.03200
-0.07085 0.25384 0.10919
-0.04166 0.25384 0.15309
-0.02506 0.25384 0.09988
-0.01348 0.25384 0.25973
-0.25425 0.25384 -0.12181
-0.04227 0.25384 0.03158
0.12853 0.25384 0.24788
-0.28066 0.25384 -0.14244
-0.03483 0.25384 0.25659
-0.27664 0.25384 -0.13950
0.08041 0.25384 0.13650
-0.22394 0.25384 0.27257
0.13442 0.25384 0.21886
0.08779 0.25384 0.09951
-0.25588 0.25384 0.13004
0.01585 0.25384 0.18989
0.04423 0.25384 0.21474
0.08887 0.25384 0.25921
-0.25817 0.25384 -0.19669
-0.13112 0.25384 -0.09176
-0.03846 0.25384 0.08251
0.12319 0.25384 0.22896
-0.28456 0.25384 0.00052
-0.25002 0.25384 -0.09841
0.10750 0.25384 0.19842
0.18003 0.25384 0.22768
0.08708 0.25384 0.30408
-0.27885 0.25384 -0.00862
0.15645 0.25384 0.16728
-0.18542 0.25384 0.28372
-0.26583 0.25384 0.00266
-0.05339 0.25384 0.22064
-0.19541 0.25384 0.05579
-0.18032 0.25384 -0.01322
-0.28681 0.25384 0.25426
-0.10492 0.25384 0.09724
-0.24535 0.25384 -0.10955
0.06921 0.25384 0.20265
0.01441 0.25384 0.06799
0.01346 0.25384 0.29047
-0.18254 0.25384 -0.12828
-0.28891 0.25384 0.30395
-0.14396 0.25384 0.20984
0.10505 0.25384 0.23394
-0.12617 0.25384 0.02928
-0.17742 0.25384 0.21878
-0.24317 0.25384 -0.12743
0.00916 0.25384 0.20576
-0.22429 0.25384 0.02147
-0.26987 0.25384 0.06109
-0.04999 0.25384 0.07991
-0.20330 0.25384 -0.07544
0.06707 0.25384 0.13059
-0.24664 0.25384 -0.03332
-0.23335 0.25384 -0.08769
0.20594 0.25384 0.25214
-0.29779 0.25384 0.10464
-0.09409 0.25384 0.16803
-0.04519 0.25384 0.10281
-0.10789 0.25384 0.18679
-0.19303 0.25384 -0.15140
-0.22773 0.25384 -0.16073
-0.07104 0.25384 0.10260
-0.00039 0.25384 0.13952
0.14872 0.25384 0.23964
-0.27795 0.25384 -0.10403
-0.28340 0.25384 0.18002
0.00900 0.25384 0.07264
-0.25176 0.25384 -0.21875
-0.24103 0.25384 -0.21705
-0.03956 0.25384 0.16450
-0.29046 0.25384 0.00028
-0.14264 0.25384 0.11568
-0.21554 0.25384 0.17278
-0.04301 0.25384 0.21302
-0.25571 0.25384 -0.19057
-0.22458 0.25384 -0.05705
-0.27033 0.25384 -0.01449
0.14202 0.25384 0.21049
-0.24961 0.25384 -0.02455
-0.12721 0.25384 0.24277
-0.25455 0.25384 0.07885
0.06798 0.25384 0.11353
-0.29846 0.25384 -0.24266
-0.08053 0.25384 0.18456
-0.06020 0.25384 0.06931
-0.10624 0.25384 0.10460
-0.21698 0.25384 0.11933
0.00433 0.25384 0.27156
-0.19145 0.25384 0.00705
-0.29061 0.25384 0.20817
0.14154 0.25384 0.15339
-0.27829 0.25384 -0.23946
0.05493 0.25384 0.16434
-0.08317 0.25384 0.22104
0.11890 0.25384 0.17969
-0.22436 0.25384 -0.10003
-0.24340 0.25384 -0.17102
-0.30086 0.25384 0.28778
0.11683 0.25384 0.15775
-0.17397 0.25384 -0.05993
-0.28989 0.25384 0.17868
-0.23526 0.25384 -0.21715
-0.16455 0.25384 0.23301
0.12853 0.25384 0.17784
0.17990 0.25384 0.29413
-0.04818 0.25384 0.00841
-0.07674 0.25384 0.12022
0.07457 0.25384 0.10869
-0.02660 0.25384 0.05325
0.08492 0.25384 0.23487
-0.27710 0.25384 0.14180
-0.13346 0.25384 -0.10138
-0.22682 0.25384 -0.06692
-0.21087 0.25384 0.26741
-0.24119 0.25384 0.26178
0.24786 0.25384 0.27358
0.12294 0.25384 0.28104
-0.05399 0.25384 0.04907
-0.26166 0.25384 -0.10637
0.07118 0.25384 0.23065
-0.10883 0.25384 0.08861
-0.15470 0.25384 0.11525
-0.14908 0.25384 -0.08152
0.19680 0.25384 0.20352
-0.02671 0.25384 0.11090
-0.10237 0.25384 0.11946
0.03775 0.25384 0.08298
-0.18616 0.25384 0.05761
-0.21840 0.25384 -0.18427
-0.22297 0.25384 -0.11339
-0.21923 0.25384 -0.19592
-0.29964 0.25384 0.03629
-0.26524 0.25384 0.01613
-0.10868 0.25384 0.24089
-0.29610 0.25384 -0.22144
-0.13081 0.25384 0.12203
-0.14298 0.25384 0.16949
-0.17954 0.25384 0.18948
-0.10665 0.25384 -0.05718
-0.09061 0.25384 0.09586
-0.03899 0.25384 0.11526
0.05315 0.25384 0.21639
-0.17792 0.25384 0.12792
-0.22268 0.25384 0.15465
-0.24284 0.25384 0.11172
0.23690 0.25384 0.28862
-0.05494 0.25384 0.12049
-0.11293 0.25384 0.09768
-0.14095 0.25384 0.03264
-0.06503 0.25384 0.04871
-0.30257 0.25384 -0.19408
0.09296 0.25384 0.10113
-0.15885 0.25384 0.22538
-0.23951 0.25384 -0.09370
-0.26952 0.25384 -0.08698
-0.08059 0.25384 -0.04145
-0.07774 0.25384 -0.03014
-0.16109 0.25384 0.15677
-0.29345 0.25384 0.16017
0.12568 0.25384 0.29356
-0.07245 0.25384 0.04797
-0.23997 0.25384 0.29667
-0.19949 0.25384 0.04121
-0.22319 0.25384 -0.14613
-0.29370 0.25384 0.03160
-0.17694 0.25384 0.00449
-0.10411 0.25384 -0.02156
-0.28305 0.25384 0.14662
0.25830 0.25384 0.26243
0.02656 0.25384 0.29185
-0.06701 0.25384 0.17570
-0.21421 0.25384 -0.13599
-0.21648 0.25384 0.20012
-0.23354 0.25384 0.08015
-0.15569 0.25384 0.23351
-0.16893 0.25384 0.26128
0.11186 0.25384 0.11455
-0.12888 0.25384 -0.07106
-0.19186 0.25384 0.13954
-0.21722 0.25384 0.18354
-0.05120 0.25384 0.29479
-0.04237 0.25384 0.23875
-0.08887 0.25384 0.28505
-0.28162 0.25384 -0.09312
0.01827 0.25384 0.17625
-0.28189 0.25384 0.28298
-0.23964 0.25384 0.14155
0.11799 0.25384 0.22329
-0.30454 0.25384 -0.06027
-0.11726 0.25384 -0.08355
-0.18437 0.25384 0.25722
-0.13732 0.25384 0.17382
-0.15197 0.25384 0.03770
-0.17907 0.25384 0.13423
-0.09689 0.25384 -0.06550
-0.11078 0.25384 -0.01074
-0.24795 0.25384 0.20111
-0.11985 0.25384 -0.09077
-0.24794 0.25384 0.22697
-0.27403 0.25384 0.29708
-0.27525 0.25384 0.05948
-0.00389 0.25384 0.17060
-0.29631 0.25384 -0.24843
0.27953 0.25384 0.30048
-0.24221 0.25384 -0.19768
-0.02371 0.25384 0.15237
0.19938 0.25384 0.23206
-0.13545 0.25384 -0.03544
-0.27981 0.25384 -0.19151
-0.19144 0.25384 0.20366
0.26254 0.25384 0.28740
-0.12528 0.25384 0.03551
-0.09162 0.25384 0.10809
0.20437 0.25384 0.22743
-0.10867 0.25384 0.11005
-0.25117 0.25384 0.16090
-0.25754 0.25384 0.08603
-0.14814 0.25384 0.20050
-0.29861 0.25384 0.00295
-0.07519 0.25384 0.07588
-0.06217 0.25384 0.08613
-0.24455 0.25384 0.02070
-0.23722 0.25384 0.23452
-0.14193 0.25384 -0.08513
-0.29438 0.25384 -0.18227
-0.27910 0.07146 -0.30460
-0.27332 -0.19408 -0.30460
-0.27383 0.04802 -0.30460
-0.27110 0.10184 -0.30460
-0.28820 -0.18844 -0.30460
-0.27678 -0.12599 -0.30460
-0.28212 -0.25334 -0.30460
-0.27412 -0.02842 -0.30460
-0.27130 0.07920 -0.30460
-0.29192 -0.22650 -0.30460
0.30460 -0.22756 0.30129
0.30460 -0.10996 0.29545
0.30460 -0.24322 0.28797
0.30460 0.07130 0.28824
0.30460 -0.17725 0.29103
0.30460 -0.07744 0.28828
0.30460 0.22176 0.26275
0.29779 0.21472 0.30460
0.29150 0.21251 0.30460
0.28985 0.02490 0.30460
0.29849 0.02475 0.30460
0.29123 -0.01848 0.30460
0.30367 0.12400 0.30460
0.30361 -0.02847 0.30460
0.30248 0.16104 0.30460
0.30368 -0.19337 0.30460
0.28155 0.19055 0.30460
0.30360 0.04794 0.30460
0.29600 -0.06498 0.30460
-0.18206 0.21999 -0.29964
-0.22682 0.21999 -0.28900
-0.05403 0.21999 -0.29543
0.10349 0.21999 -0.29235
-0.10927 0.21999 -0.29229
-0.21705 0.21999 -0.28800
0.29840 -0.25384 0.29272
0.27076 0.08168 -0.29711
0.27076 -0.08724 -0.29934
0.27076 -0.04953 -0.30410
0.27076 0.02399 -0.30257
0.27076 -0.07986 -0.29868
0.27076 -0.07469 -0.30244
0.27227 -0.19411 -0.30460
0.28603 0.18366 -0.30460
0.28714 0.06021 -0.30460
0.29844 0.17658 -0.30460
0.27114 0.10687 -0.30460
0.27552 0.10061 -0.30460
0.28055 0.15128 -0.30460
0.27508 0.07606 -0.30460
0.29513 0.15232 -0.30460
0.28639 0.02547 -0.30460
0.28618 0.19653 -0.30460
0.30460 0.23742 0.03963
0.30460 0.22833 0.17589
0.30460 0.24832 0.05529
0.30460 0.23872 0.02458
0.30460 0.25023 0.18305
0.30460 0.24779 -0.02960
0.30460 0.23855 0.13882
0.30460 0.25332 0.28881
0.30460 0.24677 -0.13416
0.30460 0.25160 0.25503
0.30460 0.24359 0.22579
0.30460 0.22165 0.28223
0.30460 0.22997 0.24164
0.30460 0.24825 -0.00674
0.30460 0.24498 -0.12417
0.27076 -0.21440 0.28802
0.27076 0.13802 0.30064
0.27076 0.12297 0.29331
0.27076 0.16875 0.29918
-0.27602 -0.02694 -0.28768
-0.28360 -0.04478 -0.28768
-0.28263 0.15857 -0.28768
-0.29441 0.19470 -0.28768
-0.28527 -0.01712 -0.28768
-0.29714 0.12495 -0.28768
-0.28960 0.17135 -0.28768
-0.27619 -0.12983 -0.28768
-0.29494 0.15986 -0.28768
-0.29278 0.14431 0.30460
-0.27097 0.00830 0.30460
-0.28134 -0.00756 0.30460
-0.27805 -0.12164 0.30460
-0.27306 0.02247 0.30460
-0.27089 -0.24702 0.30460
-0.28613 0.10114 0.30460
-0.27461 0.00007 0.30460
-0.28872 0.18274 0.30460
-0.28099 0.17673 0.30460
-0.28670 0.11176 0.30460
-0.29137 0.20261 0.30460
-0.29408 -0.25384 -0.28780
-0.27076 0.10431 -0.29730
-0.27076 0.11037 -0.29936
-0.27076 -0.07796 -0.29313
-0.27076 0.19156 -0.29690
-0.27076 0.17630 -0.29934
0.05197 0.21999 -0.12600
-0.21945 0.21999 -0.26025
0.13510 0.21999 -0.07108
0.11313 0.21999 0.07039
0.19921 0.21999 0.09957
0.01705 0.21999 -0.21684
0.00760 0.21999 -0.08683
0.16327 0.21999 -0.22687
0.20114 0.21999 -0.11789
0.13259 0.21999 0.01793
0.07540 0.21999 -0.13727
-0.04566 0.21999 -0.10532
0.08051 0.21999 -0.01818
0.14499 0.21999 -0.25487
0.16751 0.21999 -0.09449
0.00842 0.21999 -0.01062
0.09510 0.21999 0.01439
-0.17010 0.21999 -0.22159
-0.01045 0.21999 -0.20041
0.29677 0.21999 0.26093
-0.18099 0.21999 -0.27580
0.29206 0.21999 0.15254
-0.00513 0.21999 -0.23312
0.16311 0.21999 -0.27621
0.13726 0.21999 0.06097
-0.10586 0.21999 -0.24224
-0.06287 0.21999 -0.21534
0.07063 0.21999 0.03263
-0.01545 0.21999 -0.07717
0.13607 0.21999 -0.15077
-0.08405 0.21999 -0.23520
-0.10611 0.21999 -0.14676
0.07262 0.21999 0.01181
0.25524 0.21999 -0.00800
0.23310 0.21999 -0.22769
0.23014 0.21999 0.09668
0.21732 0.21999 0.18981
0.10624 0.21999 -0.27984
0.18334 0.21999 -0.08496
0.27652 0.21999 -0.14358
0.20290 0.21999 -0.18716
0.17952 0.21999 -0.04036
0.12448 0.21999 -0.07280
0.07234 0.21999 -0.05829
-0.01211 0.21999 -0.05152
0.24459 0.21999 0.13089
-0.11598 0.21999 -0.27207
-0.14963 0.21999 -0.21185
0.15697 0.21999 -0.05444
0.11945 0.21999 -0.26729
0.22046 0.21999 -0.22527
0.21073 0.21999 -0.21453
0.19091 0.21999 -0.18256
0.26193 0.21999 -0.16022
-0.05847 0.21999 -0.11405
-0.24763 0.21999 -0.28357
0.16067 0.21999 0.05685
0.00213 0.21999 -0.27407
0.05709 0.21999 -0.11328
0.24443 0.21999 -0.26312
0.19869 0.21999 -0.14838
0.23597 0.21999 0.21166
0.16401 0.21999 -0.14590
0.11277 0.21999 -0.10123
0.04103 0.21999 -0.24515
0.06684 0.21999 -0.28339
0.19064 0.21999 -0.11990
-0.17966 0.21999 -0.28683
0.17043 0.21999 0.12329
0.22494 0.21999 -0.08857
-0.03609 0.21999 -0.23007
0.24449 0.21999 -0.16295
0.27670 0.21999 -0.15749
-0.00795 0.21999 -0.09164
-0.02282 0.21999 -0.27016
0.29331 0.21999 0.14562
0.04753 0.21999 -0.05525
-0.01585 0.21999 -0.18701
0.20435 0.21999 0.18739
-0.02653 0.21999 -0.13508
0.24329 0.21999 0.08366
0.25732 0.21999 0.08427
0.21172 0.21999 0.01412
0.28922 0.21999 0.18283
0.21387 0.21999 -0.12606
-0.05504 0.21999 -0.22230
0.02299 0.21999 0.00108
0.13797 0.21999 -0.20600
0.17232 0.21999 -0.25870
0.13676 0.21999 -0.10082
0.25204 0.21999 -0.06523
-0.07924 0.21999 -0.21773
-0.17709 0.21999 -0.22264
0.11042 0.21999 -0.11732
0.14708 0.21999 -0.03887
-0.06941 0.21999 -0.16872
0.16953 0.21999 -0.17921
0.18882 0.21999 -0.09936
0.05408 0.21999 -0.27131
0.26834 0.21999 0.08551
0.14242 0.21999 0.01809
-0.15698 0.21999 -0.18024
0.23431 0.21999 0.14788
0.26398 0.21999 -0.01201
0.03725 0.21999 -0.05708
0.13018 0.21999 -0.18106
-0.22223 0.21999 -0.27414
0.12183 0.21999 -0.05987
0.15769 0.21999 0.10574
-0.16283 0.21999 -0.25279
0.03749 0.21999 -0.16790
0.06175 0.21999 -0.13588
0.20734 0.21999 0.12198
0.00685 0.21999 -0.28419
0.29118 0.21999 0.15880
0.23520 0.21999 -0.23441
0.28388 0.21999 0.17402
0.04099 0.21999 -0.08867
0.24665 0.21999 -0.28249
0.25529 0.21999 -0.19634
0.28234 0.21999 0.26158
0.15997 0.21999 -0.14197
0.23117 0.21999 0.18196
0.25907 0.21999 0.01312
0.12588 0.21999 -0.24487
-0.01898 0.21999 -0.07040
0.23314 0.21999 -0.11935
0.23764 0.21999 -0.14558
-0.04258 0.21999 -0.07759
0.11080 0.21999 -0.07423
-0.13728 0.21999 -0.25410
0.20079 0.21999 -0.00030
0.04022 0.21999 -0.22740
0.28278 0.21999 0.25322
-0.13552 0.21999 -0.15446
0.24287 0.21999 -0.21291
0.24405 0.21999 -0.12208
-0.19356 0.21999 -0.23448
0.17775 0.21999 -0.21325
-0.07024 0.21999 -0.26826
-0.10924 0.21999 -0.20598
0.09039 0.21999 -0.14315
-0.10109 0.21999 -0.27013
-0.14334 0.21999 -0.22388
0.12847 0.21999 0.10089
0.12269 0.21999 0.03430
0.08657 0.21999 0.03334
0.09830 0.21999 -0.09692
-0.00731 0.21999 -0.21953
-0.05306 0.21999 -0.09061
0.22929 0.21999 -0.16689
-0.06349 0.21999 -0.24479
0.01002 0.21999 -0.22800
-0.18801 0.21999 -0.26239
0.25594 0.21999 -0.17958
0.00664 0.21999 -0.17534
0.00945 0.21999 -0.27504
0.25378 0.21999 0.11293
-0.04072 0.21999 -0.17887
-0.07678 0.21999 -0.15834
0.01267 0.21999 -0.24862
0.08856 0.21999 -0.26695
0.06900 0.21999 -0.20310
0.25192 0.21999 -0.15869
0.05522 0.21999 -0.05747
0.15444 0.21999 -0.00618
-0.02216 0.21999 -0.23958
0.17298 0.21999 0.13746
-0.06846 0.21999 -0.11115
0.22934 0.21999 0.03315
0.27741 0.21999 0.07991
-0.06405 0.21999 -0.23186
0.05054 0.21999 -0.18105
0.22657 0.21999 0.17458
0.12908 0.21999 -0.16829
-0.11580 0.21999 -0.23169
-0.06192 0.21999 -0.12473
0.05281 0.21999 0.02297
0.17441 0.21999 0.04462
-0.12463 0.21999 -0.14311
0.24438 0.21999 -0.03231
0.24372 0.21999 0.21885
0.07553 0.21999 0.03721
0.19851 0.21999 -0.05964
0.22774 0.21999 -0.25505
0.15244 0.21999 0.09032
0.22947 0.21999 0.07802
0.20938 0.21999 -0.04325
-0.09223 0.21999 -0.17992
0.23886 0.21999 0.14542
0.14498 0.21999 0.10265
0.04756 0.21999 -0.26168
0.25195 0.21999 -0.01725
0.21161 0.21999 0.07817
0.21099 0.21999 -0.18022
0.22325 0.21999 0.17052
0.08255 0.21999 -0.08433
-0.30460 0.23275 0.29569
0.27288 0.04986 -0.28768
0.28950 -0.23557 -0.28768
0.27294 -0.02770 -0.28768
0.27715 0.10149 -0.28768
0.28622 -0.04270 -0.28768
0.27426 -0.01645 -0.28768
0.27366 -0.13589 -0.28768
0.28406 0.00554 -0.28768
0.28326 -0.07368 -0.28768
0.27773 0.11371 -0.28768
0.16858 0.21999 -0.29963
0.13864 0.21999 -0.30393
0.20272 0.21999 -0.29303
0.15325 0.21999 -0.29699
0.08982 0.21999 -0.30134
0.18295 0.21999 -0.29996
0.26017 0.21999 -0.29650
-0.29277 -0.16347 -0.30460
-0.27081 -0.21734 -0.30460
-0.27789 -0.16674 -0.30460
-0.28233 -0.02615 -0.30460
-0.29325 -0.20769 -0.30460
-0.27370 -0.22880 -0.30460
-0.28525 -0.15249 -0.30460
-0.28247 -0.19976 -0.30460
-0.29146 -0.10701 -0.30460
-0.28658 -0.06439 -0.30460
-0.28996 -0.19637 -0.30460
0.30460 -0.07882 -0.30189
0.30460 0.05016 -0.29876
0.30460 0.14328 -0.30319
0.30460 -0.19440 -0.29863
0.30460 -0.08459 -0.29395
0.30460 -0.09883 -0.30039
-0.30460 0.23075 -0.03858
-0.30460 0.24031 0.16492
-0.30460 0.22516 -0.16379
-0.30460 0.22243 0.03311
-0.30460 0.23101 0.02250
-0.30460 0.22470 0.24707
-0.30460 0.22209 -0.13763
-0.30460 0.22931 0.15402
-0.30460 0.23090 0.17269
-0.30460 0.22753 -0.00136
-0.30460 0.23935 0.13091
-0.30460 0.24360 0.18789
-0.30460 0.23311 0.21918
-0.30460 0.22873 -0.04364
0.28016 0.17699 -0.28768
0.30262 -0.19342 -0.28768
0.29697 0.01586 -0.28768
0.28610 0.02780 -0.28768
0.27843 0.14955 -0.28768
0.28007 0.09510 -0.28768
0.28056 0.20220 -0.28768
0.28837 0.09850 -0.28768
0.28309 0.19435 -0.28768
0.28897 -0.00094 -0.28768
0.29318 0.18519 -0.28768
0.30460 0.23205 -0.01164
0.30460 0.23311 -0.13082
0.30460 0.23763 -0.29373
0.30460 0.24254 -0.27009
0.30460 0.22265 -0.00770
0.30460 0.22657 0.05642
0.30460 0.22315 0.17847
0.30460 0.22184 0.25145
0.30460 0.22953 -0.01814
0.30460 0.23461 -0.07307
0.30460 0.22698 0.04239
0.30460 0.23510 -0.28222
0.30460 0.22776 -0.19120
0.30460 0.24075 -0.07676
0.30460 0.23585 -0.09294
0.30460 0.22802 -0.14218
0.30460 0.23189 -0.21976
0.30460 0.22925 0.09470
0.30460 0.23083 -0.26173
0.30460 0.23652 -0.26475
0.30460 0.22358 0.13336
0.30460 0.22185 -0.18832
0.30460 0.23518 -0.14869
0.30460 0.22822 0.01250
0.30460 0.23737 -0.01710
0.30460 0.22038 0.00363
0.30460 0.22433 -0.28536
-0.30460 -0.07013 0.29066
-0.30460 -0.17021 0.28944
-0.30460 0.18549 0.29232
-0.30460 0.09992 0.29916
0.30460 -0.16293 -0.28779
0.30460 -0.01401 -0.28926
0.30460 0.10339 -0.29238
0.30460 0.12621 -0.29270
0.30460 0.13605 -0.29980
0.30460 0.10880 -0.29356
-0.27874 0.02657 0.28768
-0.29373 -0.22397 0.28768
-0.27151 -0.00540 0.28768
-0.29040 -0.23197 0.28768
-0.27206 -0.02239 0.28768
-0.28984 -0.16834 0.28768
-0.27441 0.01941 0.28768
-0.29449 -0.14520 0.28768
-0.27658 -0.21460 0.28768
-0.27340 -0.12586 0.28768
-0.27665 0.12552 0.28768
-0.27076 0.02637 0.28831
-0.27076 -0.16511 0.29392
-0.27076 -0.16977 0.29686
-0.27076 -0.07117 0.29299
-0.27076 0.01713 0.29274
0.27076 -0.20246 -0.30181
0.27076 -0.23766 -0.30077
0.27076 -0.09660 -0.28864
0.27076 0.05792 -0.29338
0.16495 0.22569 -0.30460
0.13362 0.22689 -0.30460
0.14362 0.22572 -0.30460
-0.10322 0.22111 -0.30460
0.19738 0.23637 -0.30460
0.17604 0.24454 -0.30460
0.14496 0.22077 -0.30460
0.08811 0.22465 -0.30460
0.23085 0.22295 -0.30460
0.01234 0.23592 -0.30460
-0.21014 0.21999 0.29525
0.06133 0.21999 0.30082
-0.21453 0.21999 0.29902
0.00787 0.21999 0.30254
-0.13620 0.21999 0.29680
0.01260 0.21999 0.30057
-0.30460 0.04251 0.30220
-0.30460 -0.06505 0.29788
-0.30460 0.06060 0.30440
-0.30460 -0.21286 0.30027
-0.30460 0.02994 0.30114
-0.08845 0.21999 0.30172
-0.06553 0.21999 0.29996
0.03444 0.21999 0.29776
-0.14704 0.21999 0.29277
-0.05757 0.21999 0.29666
-0.13971 0.21999 0.30210
0.27076 0.18997 -0.29806
0.27076 -0.04045 -0.29767
0.27076 0.02211 -0.29726
0.27076 0.01420 -0.30345
0.27076 0.13290 -0.30064
-0.16810 0.24668 -0.30460
-0.23443 0.23686 -0.30460
-0.24507 0.24059 -0.30460
-0.21335 0.23614 -0.30460
0.05758 0.24086 -0.30460
-0.03297 0.24048 -0.30460
-0.17315 0.24652 -0.30460
-0.12500 0.23425 -0.30460
-0.13358 0.25349 -0.30460
0.01689 0.25204 -0.30460
-0.11720 0.23319 -0.30460
0.04877 0.24165 -0.30460
-0.07051 0.24651 -0.30460
-0.30460 0.22660 0.03024
-0.30460 0.24268 0.14719
-0.30460 0.22577 0.23519
-0.30460 0.22669 -0.05094
-0.30460 0.22739 0.07819
-0.30460 0.22192 -0.13126
-0.30460 0.24687 0.21763
-0.30460 0.22376 0.22098
-0.30460 0.24502 0.15481
-0.30460 0.22839 0.25729
-0.30460 0.23695 0.29013
-0.30460 0.22740 0.14847
-0.30460 0.23844 0.19490
0.27076 0.01802 0.30434
0.27076 -0.04858 0.29628
0.27076 -0.03808 0.29914
0.27076 -0.07710 0.29845
0.27076 -0.00536 0.30395
-0.29403 -0.25384 -0.29774
0.13913 0.21999 0.29502
-0.13266 0.21999 0.29096
-0.02511 0.21999 0.29218
0.04262 0.21999 0.28812
0.17595 0.21999 0.29671
-0.03279 0.21999 0.28864
0.13966 0.25384 -0.07053
-0.16183 0.25384 -0.20991
0.28834 0.25384 -0.19804
-0.13516 0.25384 -0.16777
0.09199 0.25384 -0.25067
0.02617 0.25384 -0.28648
0.23890 0.25384 0.23803
0.21683 0.25384 -0.19025
0.07483 0.25384 -0.14352
0.08181 0.25384 -0.28971
0.24160 0.25384 -0.15879
0.14027 0.25384 -0.04859
0.15916 0.25384 -0.15207
0.05108 0.25384 -0.10565
-0.01206 0.25384 -0.10129
0.11481 0.25384 -0.25329
0.10550 0.25384 0.07036
0.12839 0.25384 -0.25855
0.00786 0.25384 -0.00590
0.13075 0.25384 -0.00006
0.12698 0.25384 -0.24337
0.13685 0.25384 -0.21726
0.21661 0.25384 0.16331
0.15599 0.25384 0.07796
0.15013 0.25384 0.04907
0.01457 0.25384 -0.26292
0.18897 0.25384 -0.20977
0.16572 0.25384 -0.13317
0.09952 0.25384 -0.25060
-0.06464 0.25384 -0.14334
0.05204 0.25384 -0.06312
0.18488 0.25384 0.00380
0.21544 0.25384 -0.01201
0.21796 0.25384 -0.28164
0.23817 0.25384 0.05184
0.08939 0.25384 -0.14039
0.19925 0.25384 -0.18972
0.26513 0.25384 0.17029
0.29837 0.25384 -0.10724
-0.01625 0.25384 -0.10551
0.28677 0.25384 0.15912
0.11476 0.25384 -0.01280
0.15946 0.25384 0.10334
0.24349 0.25384 0.15613
0.24304 0.25384 0.00019
0.11089 0.25384 -0.12865
0.00387 0.25384 -0.21800
0.19792 0.25384 -0.22510
0.20089 0.25384 -0.07294
-0.00574 0.25384 -0.09706
0.06105 0.25384 -0.13629
0.08548 0.25384 0.06536
0.27788 0.25384 -0.09475
0.28425 0.25384 0.06591
0.00012 0.25384 -0.29678
0.26360 0.25384 -0.27650
0.26228 0.25384 0.23821
-0.05723 0.25384 -0.28818
-0.04438 0.25384 -0.23907
-0.06030 0.25384 -0.15025
0.16966 0.25384 0.11864
0.24007 0.25384 0.01114
0.09400 0.25384 -0.17196
-0.11280 0.25384 -0.20879
0.27563 0.25384 -0.01105
0.24546 0.25384 -0.13345
0.26387 0.25384 -0.21186
0.19285 0.25384 0.00533
0.25459 0.25384 -0.06598
0.07337 0.25384 -0.29720
0.00718 0.25384 -0.17452
0.23690 0.25384 -0.30384
0.15415 0.25384 0.11790
0.19509 0.25384 0.05321
0.20492 0.25384 0.11328
0.08876 0.25384 0.04757
0.27767 0.25384 0.12374
0.27523 0.25384 0.16419
0.29378 0.25384 -0.27132
0.28917 0.25384 0.15003
-0.09029 0.25384 -0.11027
0.04461 0.25384 -0.28282
0.05793 0.25384 -0.11605
0.30194 0.25384 0.03798
0.25611 0.25384 -0.28412
0.07957 0.25384 0.04454
0.17894 0.25384 -0.24899
0.27376 0.25384 -0.30429
-0.07364 0.25384 -0.09211
0.08127 0.25384 -0.27228
0.07495 0.25384 0.04937
0.16367 0.25384 -0.21848
0.28170 0.25384 0.23109
0.10371 0.25384 -0.22921
-0.06736 0.25384 -0.09204
0.06613 0.25384 -0.17536
-0.12139 0.25384 -0.14209
-0.23784 0.25384 -0.28857
0.03433 0.25384 -0.11456
0.28080 0.25384 -0.10042
-0.24980 0.25384 -0.29563
-0.17522 0.25384 -0.29295
0.05051 0.25384 -0.15453
0.23341 0.25384 0.16105
-0.10373 0.25384 -0.13894
0.24205 0.25384 0.21665
0.21735 0.25384 0.19721
0.13799 0.25384 -0.09713
0.04471 0.25384 -0.08875
-0.07306 0.25384 -0.19113
0.01235 0.25384 -0.28625
-0.16362 0.25384 -0.16953
0.29359 0.25384 -0.11933
-0.02382 0.25384 -0.18306
0.26875 0.25384 0.00078
0.11973 0.25384 -0.09702
-0.12150 0.25384 -0.25689
-0.12943 0.25384 -0.26345
0.04024 0.25384 -0.29394
0.14971 0.25384 -0.15060
0.21448 0.25384 0.14147
-0.02099 0.25384 -0.28810
0.11195 0.25384 -0.20847
0.09205 0.25384 -0.28835
0.15967 0.25384 -0.01328
0.09031 0.25384 -0.02730
-0.01211 0.25384 -0.22543
0.13355 0.25384 -0.09033
0.21077 0.25384 -0.26981
-0.04573 0.25384 -0.29892
0.09991 0.25384 0.08439
0.05996 0.25384 -0.02845
0.18442 0.25384 -0.04100
0.16361 0.25384 -0.13846
0.05931 0.25384 -0.09536
0.06594 0.25384 -0.12346
0.24354 0.25384 -0.02892
0.12847 0.25384 0.06453
0.18107 0.25384 -0.29371
0.15831 0.25384 -0.16684
0.06701 0.25384 -0.24594
0.22136 0.25384 0.11321
-0.07122 0.25384 -0.15838
-0.10631 0.25384 -0.14516
-0.00896 0.25384 -0.22138
0.29606 0.25384 -0.04628
-0.01796 0.25384 -0.08865
0.24359 0.25384 -0.04613
0.16238 0.25384 0.01217
0.05711 0.25384 -0.14584
0.27233 0.25384 -0.18634
-0.02524 0.25384 -0.26897
0.24836 0.25384 0.19469
-0.07831 0.25384 -0.21937
0.19411 0.25384 -0.11366
0.21050 0.25384 -0.19701
0.20988 0.25384 0.17533
0.26434 0.25384 -0.25882
0.14985 0.25384 -0.19755
-0.07409 0.25384 -0.22544
0.18695 0.25384 0.09790
0.01704 0.25384 -0.19315
0.29681 0.25384 -0.02887
0.09492 0.25384 -0.11853
0.12867 0.25384 -0.11214
-0.25648 0.25384 -0.30003
0.20991 0.25384 -0.20165
0.06738 0.25384 -0.17088
0.27577 0.25384 -0.20298
0.10378 0.25384 -0.20805
0.05118 0.25384 -0.13485
-0.16222 0.25384 -0.24510
0.12971 0.25384 -0.25208
0.20053 0.25384 -0.28938
0.21210 0.25384 -0.01814
0.07832 0.25384 -0.28576
0.28837 0.25384 -0.28599
-0.23793 0.25384 -0.27204
0.11748 0.25384 0.01877
0.29296 0.25384 -0.19983
