-0.11180 0.05485 -0.15816
0.05050 0.05485 -0.21091
0.09315 0.05485 0.01223
0.12664 0.05485 -0.08554
0.15802 0.05485 0.06755
0.23228 0.05485 0.15571
0.11623 0.05485 -0.24192
0.07496 0.05485 0.05848
0.12898 0.05485 -0.29958
0.18761 0.05485 -0.18333
0.07416 0.05485 -0.00100
0.02724 0.05485 -0.26328
0.10257 0.05485 0.06811
-0.17707 0.05485 -0.30333
-0.03613 0.05485 -0.34154
0.08462 0.05485 0.11138
0.14345 0.05485 -0.26876
0.00869 0.05485 -0.11319
0.10844 0.05485 -0.01750
0.24688 0.05485 0.28114
-0.00364 0.05485 -0.18207
0.16493 0.05485 0.04897
0.25189 0.05485 -0.16856
-0.17502 0.05485 -0.27986
-0.08872 0.05485 -0.32397
-0.06924 0.05485 -0.11608
0.23030 0.05485 0.06992
0.18824 0.05485 -0.28194
-0.20466 0.05485 -0.28307
0.15628 0.05485 0.14230
0.01603 0.05485 -0.24901
0.02915 0.05485 -0.29182
-0.19660 0.05485 -0.33644
0.24465 0.05485 0.04277
0.07581 0.05485 -0.29033
0.19987 0.05485 -0.00209
0.22345 0.05485 0.19142
0.22170 0.05485 -0.10393
0.05783 0.05485 -0.00194
0.12898 0.05485 -0.11834
0.24445 0.05485 0.26823
0.00602 0.05485 -0.26792
0.02425 0.05485 -0.11751
-0.05571 0.05485 -0.15430
0.10375 0.05485 -0.04752
-0.15806 0.05485 -0.34510
0.10920 0.05485 -0.31207
0.23190 0.05485 0.26066
-0.01218 0.05485 -0.19690
0.22789 0.05485 0.27472
-0.06715 0.05485 -0.24871
0.21698 0.05485 0.16884
0.08025 0.05485 -0.15320
-0.06572 0.05485 -0.10525
0.06756 0.05485 -0.08874
-0.18409 0.05485 -0.29177
-0.00653 0.05485 -0.12573
-0.21307 0.05485 -0.30083
0.13476 0.05485 0.13861
-0.09778 0.05485 -0.19282
-0.01735 0.05485 -0.33349
-0.04356 0.05485 -0.09423
0.25061 0.05485 -0.32026
0.04598 0.05485 -0.31718
-0.03167 0.05485 -0.27301
0.08794 0.05485 -0.09107
0.21787 0.05485 0.25999
0.08787 0.05485 0.08938
0.20432 0.05485 -0.13211
0.10184 0.05485 0.03232
0.00998 0.05485 -0.29113
0.16735 0.05485 0.14971
-0.23364 0.05485 -0.32544
0.12069 0.05485 0.14628
-0.12713 0.05485 -0.27464
0.25439 0.05485 0.00973
0.07900 0.05485 0.04005
0.00428 0.05485 -0.10409
-0.01003 0.05485 -0.31911
0.24926 0.05485 -0.25530
0.18275 0.05485 0.13815
0.22925 0.05485 0.04942
-0.16557 0.05485 -0.29916
-0.06872 0.05485 -0.28736
0.11024 0.05485 0.13509
0.11891 0.05485 -0.25170
0.02598 0.05485 -0.18100
-0.04943 0.05485 -0.09695
0.02863 0.05485 0.00038
0.20722 0.05485 -0.02773
0.16285 0.05485 0.01796
-0.02650 0.05485 -0.34378
0.15905 0.05485 0.09499
0.21475 0.05485 0.09118
-0.03044 0.05485 -0.05478
0.01051 0.05485 -0.32346
-0.18133 0.05485 -0.30642
0.01460 0.05485 -0.21976
0.25654 0.05485 0.11040
-0.05551 0.05485 -0.23340
0.00794 0.05485 -0.24034
0.09578 0.05485 -0.32184
0.21673 0.05485 0.05567
-0.02158 0.05485 -0.11255
0.22653 0.05485 0.16993
-0.00194 0.05485 -0.11662
0.17443 0.05485 -0.12868
0.21907 0.05485 -0.18016
0.05230 0.05485 -0.22386
-0.09997 0.05485 -0.26507
0.16250 0.05485 -0.07515
0.01696 0.05485 -0.25642
0.24375 0.05485 -0.23376
0.24230 0.05485 -0.06221
0.21505 0.05485 -0.31087
0.03047 0.05485 -0.21340
-0.14170 0.05485 -0.25401
0.12650 0.05485 0.15334
0.24535 0.05485 -0.14221
0.15332 0.05485 -0.17278
0.07808 0.05485 -0.24188
0.12103 0.05485 -0.01195
0.24896 0.05485 0.28946
-0.08097 0.05485 -0.28906
0.01851 0.05485 -0.05212
-0.19092 0.05485 -0.29377
0.21799 0.05485 0.15255
0.08199 0.05485 -0.12399
0.16859 0.05485 0.18117
0.03902 0.05485 -0.13404
0.14712 0.05485 -0.00004
-0.16522 0.05485 -0.33222
0.23960 0.05485 -0.08526
0.11934 0.05485 0.07890
0.05749 0.05485 -0.07185
0.19261 0.05485 0.08907
0.08549 0.05485 -0.29929
-0.02422 0.05485 -0.30646
0.07554 0.05485 -0.08093
-0.20156 0.05485 -0.33502
0.03711 0.05485 -0.28926
0.10883 0.05485 -0.02325
-0.18725 0.05485 -0.33985
-0.10441 0.05485 -0.33728
-0.13455 0.05485 -0.24569
0.24269 0.05485 0.24456
0.03105 0.05485 -0.08854
0.21191 0.05485 -0.05478
-0.15698 0.05485 -0.22413
0.23394 0.05485 -0.19402
-0.03513 0.05485 -0.23765
-0.08001 0.05485 -0.27171
0.20591 0.05485 -0.10515
0.10275 0.05485 -0.21466
0.17636 0.05485 -0.24370
0.19401 0.05485 -0.13254
0.06325 0.05485 0.00656
-0.00913 0.05485 -0.05696
-0.11753 0.05485 -0.34341
0.24596 0.05485 -0.32624
0.16638 0.05485 0.03365
-0.00284 0.05485 -0.19941
-0.35142 0.04121 -0.13345
-0.35142 0.05238 -0.27918
-0.35142 0.04506 -0.26377
-0.35142 0.05334 -0.28887
0.34869 0.01398 0.35142
0.32991 -0.01511 -0.35142
0.28984 -0.04564 -0.35142
-0.28592 0.00203 -0.29474
-0.30862 0.00203 -0.31051
-0.33816 0.04063 0.08537
-0.32699 0.04063 0.16826
-0.30969 0.04063 0.20992
-0.33247 0.04063 0.25691
-0.33915 0.04063 0.10484
-0.31959 0.04063 0.24484
-0.32795 0.04063 0.29349
-0.30573 0.04063 0.10832
-0.33636 0.04063 0.30436
-0.30385 0.04063 0.26949
-0.33753 0.04063 0.14839
-0.32631 0.04063 0.01270
-0.32355 0.04063 -0.07480
-0.31312 0.04063 0.23103
-0.30961 0.04063 0.28549
-0.32291 0.04063 0.26130
-0.31041 0.04063 0.29069
-0.30289 0.04063 0.15085
-0.32600 0.04063 0.03452
-0.31723 0.04063 0.26915
0.28399 -0.02995 0.30212
0.28399 -0.04860 0.28762
0.31011 -0.05485 -0.29170
0.29662 -0.05485 -0.33571
0.30294 -0.05485 -0.31681
-0.34743 -0.01665 0.28168
-0.29131 -0.00040 0.28168
-0.28173 -0.05140 0.28704
-0.28173 -0.03209 0.29571
-0.28438 -0.03875 -0.32107
-0.28438 -0.04885 -0.30750
0.30478 -0.05485 0.33388
0.29023 -0.05485 0.29364
0.30763 -0.05485 0.34530
-0.30145 0.00203 0.32754
-0.28787 0.00203 0.30956
-0.33694 0.04063 -0.03143
-0.32537 0.04063 0.19964
-0.32553 0.04063 -0.14961
-0.33034 0.04063 -0.21358
-0.33918 0.04063 -0.09147
-0.30006 0.04063 0.33455
-0.31010 0.04063 0.17970
-0.31773 0.04063 0.27959
-0.29379 0.04063 0.24630
-0.30913 0.04063 0.14556
-0.31488 0.04063 0.20189
-0.31824 0.04063 0.31992
-0.31818 0.04063 0.16422
-0.32908 0.04063 -0.01611
-0.29827 0.04063 0.18503
-0.31919 0.04063 0.20657
-0.33811 0.04063 -0.13910
-0.33119 0.04063 -0.00745
-0.30275 0.04063 0.11741
0.29156 0.05485 0.14883
0.31086 0.05485 0.30941
0.30530 0.05485 0.28597
0.29188 0.05485 0.13440
0.28647 0.05485 -0.24832
0.29996 0.05485 0.14555
0.30871 0.05485 0.06361
0.30998 0.05485 0.18567
0.29153 0.05485 -0.08252
0.31719 0.05485 0.08208
0.29552 0.05485 0.05085
0.31223 0.05485 0.14020
0.30318 0.05485 0.00737
0.31908 0.05485 0.14017
0.29222 0.05485 0.29597
0.28950 0.05485 -0.29387
0.29842 0.05485 -0.10184
0.31270 0.05485 0.00022
0.33073 0.05485 0.24650
0.29854 0.05485 0.09453
0.29266 0.05485 -0.13380
0.30338 0.05485 0.30115
0.31082 0.05485 0.17540
0.31190 0.05485 -0.03913
0.31558 0.05485 0.03444
-0.32121 0.03617 -0.33923
-0.30665 0.03784 -0.33923
0.07616 0.03990 -0.33923
-0.19074 0.03823 -0.33923
-0.25872 0.04229 -0.31732
-0.25872 0.05299 -0.01141
-0.25872 0.05045 -0.29158
-0.25872 0.04633 -0.08808
-0.25872 0.05228 -0.21651
-0.25872 0.04929 -0.23595
-0.28864 0.04063 0.13127
-0.31167 0.04063 -0.04764
-0.30145 0.04063 0.06888
-0.31969 0.04063 -0.16713
-0.26723 0.04063 0.32166
-0.31971 0.04063 -0.11004
-0.31364 0.04063 -0.03747
-0.29080 0.04063 0.21347
0.28937 0.02844 0.34356
0.01716 0.02844 0.34424
0.28425 0.02844 0.34226
-0.05470 0.03987 -0.33923
-0.24566 0.03237 -0.33923
-0.10836 0.04038 -0.33923
0.33854 0.01315 0.35142
-0.35142 0.05066 -0.02963
-0.35142 0.04228 0.28635
-0.35142 0.05464 -0.10588
-0.35142 0.05426 0.18832
-0.35142 0.05155 0.13993
-0.35142 0.05202 -0.19457
0.34624 0.04063 -0.19141
0.34982 0.04063 -0.16085
0.34641 0.04063 -0.33462
0.35125 0.04063 -0.21818
-0.33134 0.00203 0.34062
-0.34226 0.00203 0.34171
-0.32275 0.00203 0.31045
0.28179 0.00203 -0.33386
0.25348 0.00203 -0.30822
-0.02978 0.00203 -0.34530
0.19574 0.00203 -0.32624
0.22401 0.00203 -0.29203
0.12479 0.00203 -0.32533
0.27001 0.00203 -0.29275
0.03514 0.00203 -0.32347
0.08817 0.00203 -0.34236
-0.19005 0.00203 -0.34719
0.27024 0.00203 -0.31754
0.09097 0.00203 -0.32400
0.14506 0.00203 -0.32480
0.27363 0.00203 -0.32918
0.00522 0.00203 -0.32502
0.19181 0.00203 -0.31939
0.25797 0.00203 -0.33886
0.33312 -0.00886 -0.35142
0.29947 0.00130 -0.35142
0.12954 0.00203 -0.01590
0.26372 0.00203 -0.21260
0.01210 0.00203 -0.05244
0.25755 0.00203 0.02513
-0.08364 0.00203 -0.20626
-0.05641 0.00203 -0.10167
0.19287 0.00203 -0.25390
-0.09957 0.00203 -0.28179
0.14856 0.00203 -0.05855
0.02175 0.00203 -0.08255
0.17183 0.00203 0.03745
0.00401 0.00203 -0.17122
0.04163 0.00203 -0.09037
0.26153 0.00203 0.18111
0.33279 0.00203 0.14033
0.26001 0.00203 -0.12746
-0.08257 0.00203 -0.25482
-0.23941 0.00203 -0.27270
0.18753 0.00203 -0.24077
0.00502 0.00203 -0.09055
-0.20412 0.00203 -0.26029
0.10777 0.00203 -0.15232
0.17964 0.00203 -0.24229
-0.18886 0.00203 -0.24718
0.16031 0.00203 -0.27440
0.05489 0.00203 -0.19678
0.04829 0.00203 -0.10962
0.07524 0.00203 -0.10655
0.24480 0.00203 -0.04618
0.30533 0.00203 0.00760
0.17532 0.00203 -0.10734
0.18648 0.00203 -0.21043
-0.04093 0.00203 -0.13441
0.24485 0.00203 -0.19570
-0.12455 0.00203 -0.26450
0.18961 0.00203 0.09698
-0.07170 0.00203 -0.09536
0.27378 0.00203 -0.00642
0.21755 0.00203 -0.01908
0.27599 0.00203 0.12374
0.18728 0.00203 -0.02989
0.30637 0.00203 0.11389
0.12870 0.00203 -0.16833
0.28597 0.00203 0.05302
-0.00617 0.00203 -0.18589
0.20904 0.00203 -0.01338
0.24729 0.00203 -0.17589
-0.10567 0.00203 -0.15947
-0.13680 0.00203 -0.23155
-0.14694 0.00203 -0.27884
-0.03276 0.00203 -0.10088
0.23309 0.00203 -0.03255
-0.06230 0.00203 -0.11263
0.17605 0.00203 -0.21181
0.20980 0.00203 0.13695
0.06521 0.00203 0.00045
0.01657 0.00203 -0.13353
0.32167 0.00203 0.08584
0.22685 0.00203 -0.11482
0.05603 0.00203 -0.04129
0.28644 0.00203 -0.10670
0.02343 0.00203 -0.27679
0.24470 0.00203 -0.10958
0.25440 0.00203 0.16973
0.13701 0.00203 0.01221
0.32653 0.00203 0.20224
0.23367 0.00203 -0.11721
0.01014 0.00203 -0.21349
-0.01285 0.00203 -0.12667
0.26560 0.00203 -0.24910
0.11403 0.00203 -0.23151
0.21698 0.00203 -0.23570
-0.07426 0.00203 -0.18816
0.02027 0.00203 -0.04582
0.24547 0.00203 -0.18489
0.21545 0.00203 -0.00204
-0.05249 0.00203 -0.23920
0.23213 0.00203 -0.27559
-0.06817 0.00203 -0.23566
0.15540 0.00203 0.04501
-0.08651 0.00203 -0.21618
-0.03662 0.00203 -0.06933
0.14576 0.00203 0.07062
-0.13312 0.00203 -0.20329
-0.02217 0.00203 -0.15959
0.13955 0.00203 0.02925
-0.05586 0.00203 -0.19626
0.25549 0.00203 0.06260
0.16840 0.00203 -0.15845
0.28983 0.00203 -0.02669
-0.01043 0.00203 -0.26240
0.09309 0.00203 -0.19392
0.32683 0.00203 0.23038
0.00811 0.00203 -0.03538
0.29252 0.00203 0.16162
0.29973 0.00203 -0.00151
0.01019 0.00203 -0.19220
0.03398 0.00203 -0.05758
0.11739 0.00203 -0.19229
-0.16362 0.00203 -0.20059
0.20848 0.00203 -0.17376
0.03553 0.00203 -0.02256
0.23576 0.00203 0.17500
0.07696 0.00203 -0.27073
0.16976 0.00203 0.08139
-0.03112 0.00203 -0.24532
-0.18275 0.00203 -0.19444
0.27188 0.00203 -0.08032
0.24632 0.00203 -0.22606
0.28715 0.00203 -0.21381
0.24183 0.00203 -0.16454
0.10953 0.00203 -0.07141
0.20335 0.00203 0.10830
0.27392 0.00203 0.16474
-0.12392 0.00203 -0.16906
0.15936 0.00203 -0.10627
0.06970 0.00203 -0.25547
0.12309 0.00203 -0.17037
0.30496 0.00203 0.19993
0.18894 0.00203 0.01858
-0.02826 0.00203 -0.22974
0.13722 0.00203 0.07281
0.15576 0.00203 -0.20255
-0.01033 0.00203 -0.24102
0.22839 0.00203 -0.06237
0.04053 0.00203 -0.13092
-0.09589 0.00203 -0.23229
-0.06942 0.00203 -0.16136
0.21452 0.00203 -0.26903
-0.01944 0.00203 -0.14538
0.30200 0.00203 0.22816
0.09970 0.00203 -0.08227
0.05743 0.00203 -0.19211
0.07969 0.00203 -0.06714
0.19739 0.00203 -0.13864
0.34054 0.00203 0.26805
0.00967 0.00203 -0.15742
0.12232 0.00203 -0.20864
0.10860 0.00203 -0.02581
0.11738 0.00203 -0.26743
-0.01449 0.00203 -0.22004
0.28947 0.00203 -0.06448
0.19109 0.00203 -0.16353
-0.02520 0.00203 -0.12362
-0.03410 0.00203 -0.08013
0.24297 0.00203 0.13617
0.15649 0.00203 0.03792
0.12755 0.00203 -0.04115
0.15104 0.00203 -0.11880
-0.02602 0.00203 -0.09152
0.26467 0.00203 -0.23411
0.29440 0.00203 0.09850
0.25927 0.00203 -0.13940
0.14479 0.00203 -0.02044
0.17072 0.00203 -0.27810
0.28804 0.00203 -0.15781
0.05147 0.00203 -0.13143
-0.20041 0.00203 -0.27979
0.05494 0.00203 -0.01291
0.17756 0.00203 -0.13349
0.22901 0.00203 0.09444
0.26383 0.00203 0.19409
0.33278 0.00203 0.16713
0.17823 0.00203 -0.01523
0.17217 0.00203 -0.20368
-0.20615 0.00203 -0.27820
0.04372 0.00203 -0.23379
0.13862 0.00203 -0.17797
0.06067 0.00203 -0.07543
-0.16756 0.00203 -0.24885
0.34549 -0.05485 -0.28942
0.29319 -0.05485 -0.28962
0.33009 0.04452 0.35142
-0.27269 0.04063 -0.17494
-0.26758 0.04063 -0.25999
-0.26461 0.04063 -0.25297
-0.27754 0.04063 -0.22751
-0.26734 0.04063 0.08210
-0.25948 0.04063 0.29448
-0.26653 0.04063 -0.33881
-0.25900 0.04063 0.14183
0.31262 0.02844 0.34735
0.21260 0.02844 0.34811
0.23215 0.02844 0.34675
-0.19726 0.02844 0.34120
0.22476 0.02844 0.34161
0.32369 0.04837 -0.35142
-0.35142 0.02466 0.27064
-0.35142 0.01914 0.14399
-0.35142 0.01059 0.15293
-0.35142 0.02247 0.25837
-0.35142 0.01731 -0.00810
-0.35142 0.00627 0.33703
-0.35142 0.02720 -0.15311
-0.35142 0.01583 0.01342
-0.35142 0.02139 0.05801
-0.34388 0.02025 -0.35142
-0.17579 0.03256 0.33874
-0.27098 0.03504 0.33874
0.09387 0.02861 0.33874
-0.32816 0.03575 0.33874
0.28650 -0.05485 0.29933
0.32397 -0.05485 0.32641
0.19046 0.05255 -0.35142
-0.11725 0.04384 -0.35142
0.22669 0.04185 -0.35142
0.15441 0.04234 -0.35142
-0.28173 0.05026 -0.29587
-0.28173 0.04407 0.01701
-0.28173 0.04221 0.25265
-0.28173 0.04314 0.05485
-0.28173 0.04980 -0.31164
0.28399 -0.03303 -0.34790
0.28399 -0.00760 -0.34780
0.31791 -0.01498 -0.28439
0.28558 0.00183 -0.28439
-0.11026 0.04063 0.34368
-0.02200 0.04063 0.34414
0.01825 0.04063 0.34656
-0.30632 0.05485 0.22512
-0.28588 0.05485 0.33887
-0.34982 0.05485 0.15213
-0.34436 0.05485 0.21758
-0.32124 0.05485 0.14544
-0.34258 0.05485 0.17438
-0.30920 0.05485 0.23237
-0.32611 0.05485 -0.05305
-0.34652 0.05485 -0.26503
-0.34675 0.05485 -0.04299
-0.31433 0.05485 0.04929
-0.33796 0.05485 -0.14631
-0.33212 0.05485 0.23686
-0.31483 0.05485 0.13417
-0.30552 0.05485 0.13745
-0.34605 0.05485 0.30805
-0.32318 0.05485 0.17646
-0.34446 0.05485 -0.00953
-0.35009 0.05485 0.29500
-0.32003 0.05485 0.05235
-0.32832 0.05485 -0.02630
-0.32556 0.05485 0.06125
-0.34053 0.05485 0.18152
-0.34138 0.05485 -0.02538
-0.34151 -0.02944 0.28168
-0.31560 -0.00493 0.28168
0.30237 0.00203 0.29972
0.32735 0.00203 0.31533
-0.28301 -0.01712 0.28168
-0.32724 -0.04800 0.28168
-0.35142 -0.03477 0.33322
-0.35142 -0.00005 0.29552
0.26127 0.04535 0.27255
0.26127 0.04732 0.25902
0.26127 0.05104 0.34326
0.26127 0.05199 -0.20769
0.26127 0.05093 -0.00785
0.26127 0.05447 -0.12496
-0.30915 0.00191 -0.35142
-0.33200 -0.00951 -0.35142
-0.31133 -0.05485 0.32364
-0.31886 -0.05485 0.32853
-0.35130 -0.05485 0.30220
0.23414 0.00203 0.18095
-0.26699 0.00203 -0.25722
-0.17778 0.00203 -0.14585
-0.00170 0.00203 -0.02741
-0.11770 0.00203 -0.13573
-0.22371 0.00203 -0.20826
-0.10400 0.00203 -0.12042
-0.00255 0.00203 -0.00477
0.14799 0.00203 0.11123
-0.28389 0.00203 -0.23658
0.25569 0.00203 0.20428
-0.26272 0.00203 -0.21864
-0.27411 0.00203 -0.22241
-0.03525 0.00203 -0.04314
0.22343 0.00203 0.16939
-0.01942 0.00203 -0.04424
-0.28989 0.00203 -0.27896
-0.23335 0.00203 -0.18993
0.17483 0.00203 0.13926
-0.28438 -0.05330 -0.29280
-0.28438 -0.01783 -0.33203
-0.33796 0.04063 -0.18782
-0.34277 0.04063 0.34711
-0.32221 0.04063 0.18647
-0.30833 0.04063 0.31888
-0.32804 0.04063 0.11080
-0.33431 0.04063 -0.11231
-0.29940 0.04063 0.24950
-0.32069 0.04063 0.03504
-0.33882 0.04063 -0.09991
-0.33459 0.04063 0.34521
-0.34710 0.04063 0.19424
-0.29920 0.04063 0.21586
-0.34891 0.04063 0.04386
-0.32984 0.04063 -0.09371
-0.34637 0.04063 -0.06287
-0.35006 0.04063 0.31153
-0.34839 0.04063 -0.02310
-0.34525 0.04063 -0.00518
-0.30270 0.04063 0.21173
-0.33965 0.04063 -0.16292
-0.32384 0.04063 0.19308
-0.32209 0.04063 0.33254
-0.29074 0.04063 0.31489
-0.32605 0.04063 0.28798
-0.28438 -0.01218 -0.29886
-0.28438 -0.02699 -0.29917
-0.30371 -0.05485 0.29013
-0.30215 -0.05485 0.30104
-0.31178 -0.05485 0.30150
-0.35142 0.04416 -0.06997
-0.35142 0.05079 -0.29562
-0.35142 0.04355 0.09315
-0.35142 0.04737 -0.13401
-0.35142 0.04649 -0.20496
0.23069 0.05205 -0.35142
0.19523 0.05011 -0.35142
0.05102 0.04531 -0.35142
-0.02072 0.04505 -0.35142
0.31049 0.02844 -0.34503
0.21278 0.02844 -0.34529
0.18927 0.02844 -0.34257
0.34433 0.02844 -0.34607
0.28168 0.02844 -0.34636
0.28399 -0.01446 -0.34942
0.28399 -0.00879 -0.32477
-0.32633 0.05485 -0.14423
-0.31036 0.05485 -0.16391
-0.31901 0.05485 -0.10287
-0.31537 0.05485 -0.00802
-0.28775 0.05485 0.01446
-0.29039 0.05485 0.17646
-0.30632 0.05485 -0.13675
-0.29400 0.05485 -0.19177
-0.29703 0.05485 -0.29509
-0.30024 0.05485 -0.02685
-0.30340 0.05485 -0.26664
-0.29831 0.05485 -0.01870
-0.30795 0.05485 -0.05796
-0.32032 0.05485 -0.31991
-0.30722 0.05485 -0.27309
-0.31533 0.05485 -0.11031
-0.33874 0.05485 -0.24888
-0.29407 0.05485 -0.22645
-0.32408 0.05485 -0.16977
-0.29584 0.05485 -0.28858
-0.29707 0.05485 0.05023
-0.29241 0.05485 -0.24573
-0.29223 0.05485 0.00922
-0.30509 0.05485 0.01072
0.28399 0.05273 0.25165
0.28399 0.04658 -0.00234
0.28399 0.04243 -0.02776
0.28399 0.04934 0.22260
0.28399 0.04714 0.15915
0.30444 0.00148 -0.28439
0.31086 -0.00547 -0.28439
0.26127 0.04360 0.08659
0.26127 0.04705 -0.16501
0.26127 0.04210 0.25366
0.26127 0.05393 -0.34153
0.26127 0.05143 -0.19715
0.26127 0.04178 -0.12007
-0.30990 -0.05020 -0.35142
-0.30150 -0.03118 -0.35142
0.33940 0.03145 0.12970
0.33940 0.03597 0.19892
0.33940 0.03827 0.22028
0.18955 0.04063 0.34194
0.26246 0.04063 0.34377
0.18120 0.04063 0.33890
0.35142 0.04508 -0.20215
0.35142 0.05354 -0.31727
0.35142 0.04106 -0.23434
0.35142 0.04707 -0.02798
0.35142 0.04568 -0.27591
-0.32673 0.01283 0.35142
0.33957 0.04063 -0.28125
0.34485 0.04063 0.06752
0.34580 0.04063 0.08256
0.34342 0.04063 0.16460
0.28399 -0.04813 -0.29104
0.28399 -0.03584 -0.30439
0.32003 0.00203 -0.34257
0.33620 0.00203 -0.33134
0.32842 0.00203 -0.31279
0.06369 0.02844 -0.34827
-0.11652 0.02844 -0.34637
-0.12919 0.02844 -0.35099
-0.20082 0.02844 -0.34523
0.33706 0.00203 -0.28582
0.28703 0.00203 -0.31401
0.31224 0.00203 -0.30950
0.35142 0.01193 -0.28681
0.35142 0.01017 -0.20455
0.35142 0.00313 0.12173
0.35142 0.00975 -0.19209
0.35142 0.02329 -0.27418
0.35142 0.01750 -0.21460
-0.29066 -0.03955 0.35142
-0.31708 -0.01986 0.35142
-0.28938 0.00203 -0.33323
-0.29560 0.00203 -0.33022
0.35142 0.02166 0.28237
0.35142 0.01608 0.19858
0.35142 0.01048 0.20534
0.35142 0.01209 0.33869
0.35142 0.02506 -0.09020
0.35142 0.01784 0.21832
0.35142 0.01886 0.16452
0.35142 0.02603 0.24640
0.32854 0.04291 -0.35142
-0.31842 0.00203 -0.30498
-0.34219 0.00203 -0.30463
0.12083 0.01923 0.35142
-0.08368 0.01586 0.35142
-0.27137 0.01690 0.35142
-0.27608 0.00885 0.35142
-0.05265 0.01331 0.35142
0.02095 0.01716 0.35142
-0.24434 0.02193 0.35142
-0.12648 0.02567 0.35142
0.09426 0.02363 0.35142
-0.28980 0.01145 0.35142
0.35142 -0.02527 -0.33479
0.35142 -0.01693 -0.33935
-0.34450 0.02844 0.12401
-0.34424 0.02844 0.29901
-0.34342 0.02844 0.00868
0.33390 0.03601 -0.33923
-0.35142 -0.03248 -0.32109
-0.35142 -0.05008 -0.30877
-0.21222 0.00469 -0.35142
0.26121 0.00971 -0.35142
0.10896 0.00207 -0.35142
0.09255 0.01715 -0.35142
0.16821 0.02034 -0.35142
0.05987 0.00696 -0.35142
0.13007 0.00942 -0.35142
0.24326 0.01287 -0.35142
-0.22718 0.04063 0.35111
-0.12756 0.04063 0.34750
0.12955 0.04063 0.34944
-0.04629 0.04063 0.34977
-0.05642 0.05485 -0.03893
-0.23461 0.05485 -0.22815
-0.21139 0.05485 0.26151
-0.12179 0.05485 0.31864
0.10842 0.05485 0.15746
-0.00671 0.05485 0.21697
0.00343 0.05485 0.22307
-0.07396 0.05485 0.20664
-0.14300 0.05485 -0.11849
-0.24226 0.05485 -0.24669
-0.22062 0.05485 -0.26782
0.09631 0.05485 0.20466
-0.06470 0.05485 0.26265
-0.04873 0.05485 0.24285
-0.25386 0.05485 0.19083
-0.21940 0.05485 -0.29561
-0.19687 0.05485 -0.12473
-0.13961 0.05485 0.09889
-0.06574 0.05485 0.34159
-0.25575 0.05485 -0.16859
0.03662 0.05485 0.07684
0.03662 0.05485 0.29892
-0.20871 0.05485 0.06861
-0.12203 0.05485 -0.16265
0.18077 0.05485 0.31462
0.05852 0.05485 0.35105
0.08584 0.05485 0.22809
-0.24588 0.05485 0.18275
0.14146 0.05485 0.27211
-0.12241 0.05485 0.02585
0.13881 0.05485 0.34675
0.14577 0.05485 0.32750
0.11793 0.05485 0.21657
-0.24336 0.05485 -0.18523
-0.24820 0.05485 0.09064
-0.12129 0.05485 0.22696
-0.02171 0.05485 0.23598
-0.20021 0.05485 -0.10254
-0.22789 0.05485 0.04451
-0.05057 0.05485 0.07517
0.04104 0.05485 0.13731
-0.03068 0.05485 0.13901
0.06601 0.05485 0.29194
-0.18175 0.05485 -0.21214
-0.20329 0.05485 0.18117
-0.01603 0.05485 0.13484
-0.10702 0.05485 0.28877
-0.17005 0.05485 0.14613
-0.20418 0.05485 0.32582
-0.21119 0.05485 -0.17649
-0.04503 0.05485 0.20528
-0.21161 0.05485 0.23886
-0.11749 0.05485 -0.03567
-0.21072 0.05485 -0.18829
-0.02560 0.05485 0.22349
0.04266 0.05485 0.19704
0.24209 0.05485 0.34868
-0.23495 0.05485 -0.15728
0.17417 0.05485 0.33927
-0.12766 0.05485 0.26783
0.00284 0.05485 0.02157
0.14841 0.05485 0.34024
0.01000 0.05485 0.06100
-0.18795 0.05485 -0.05664
0.04554 0.05485 0.10454
-0.00920 0.05485 0.12533
-0.16567 0.05485 -0.00827
0.06866 0.05485 0.17307
0.23913 0.05485 0.32505
-0.22136 0.05485 0.19349
0.13464 0.05485 0.19918
-0.09154 0.05485 0.17716
-0.15746 0.05485 0.17271
0.10033 0.05485 0.15819
-0.15869 0.05485 0.30378
-0.25484 0.05485 0.29886
-0.13298 0.05485 0.02000
0.06085 0.05485 0.24337
0.04995 0.05485 0.23348
0.20184 0.05485 0.30454
0.04585 0.05485 0.21084
-0.18377 0.05485 0.09789
-0.12647 0.05485 0.25649
-0.10298 0.05485 -0.10818
-0.24616 0.05485 -0.19268
-0.04122 0.05485 0.00325
-0.13940 0.05485 0.07271
-0.14203 0.05485 -0.05041
-0.09022 0.05485 -0.02066
-0.02562 0.05485 0.05739
-0.23048 0.05485 0.02924
-0.16600 0.05485 0.27630
-0.12210 0.05485 -0.12776
-0.04139 0.05485 0.02506
-0.14761 0.05485 0.09020
-0.17635 0.05485 -0.19583
-0.11830 0.05485 0.01630
0.07041 0.05485 0.34519
-0.00038 0.05485 0.00608
-0.23967 0.05485 -0.05472
0.04561 0.05485 0.12983
-0.25004 0.05485 -0.29050
-0.08808 0.05485 0.26655
0.24323 0.05485 0.33223
-0.11600 0.05485 0.26109
0.04682 0.05485 0.25195
-0.05300 0.05485 0.03871
-0.18583 0.05485 0.34958
-0.13068 0.05485 0.14008
-0.23965 0.05485 0.28846
-0.01498 0.05485 -0.00764
-0.14651 0.05485 -0.16814
-0.03626 0.05485 0.25269
-0.25857 0.05485 0.10926
-0.20597 0.05485 -0.04147
0.04550 0.05485 0.33758
0.09215 0.05485 0.31205
-0.10953 0.05485 -0.07413
-0.21481 0.05485 0.30134
-0.10067 0.05485 0.29895
-0.22632 0.05485 0.35056
-0.06090 0.05485 0.04791
-0.21721 0.05485 0.04499
-0.17281 0.05485 0.16035
-0.15312 0.05485 0.12380
0.06335 0.05485 0.27979
-0.16662 0.05485 -0.17361
-0.02242 0.05485 0.03506
-0.14283 0.05485 0.14130
-0.20833 0.05485 -0.23796
-0.10537 0.05485 0.09686
-0.15732 0.05485 -0.17567
0.00926 0.05485 0.04811
-0.07889 0.05485 0.33633
-0.24972 0.05485 -0.16011
-0.10865 0.05485 0.01875
-0.23989 0.05485 -0.26425
-0.07161 0.05485 0.27642
-0.04178 0.05485 0.34767
-0.11324 0.05485 -0.02269
-0.11360 0.05485 0.17217
0.04664 0.05485 0.18358
-0.18868 0.05485 0.31273
-0.15354 0.05485 0.08437
0.03100 0.05485 0.11172
-0.13660 0.05485 0.04232
0.01229 0.05485 0.27629
-0.08957 0.05485 0.30294
-0.13925 0.05485 0.31206
-0.19898 0.05485 0.21872
0.04052 0.05485 0.22978
-0.25188 0.05485 -0.12793
-0.10330 0.05485 0.03510
-0.17862 0.05485 0.00610
-0.18317 0.05485 0.33657
-0.11214 0.05485 -0.13194
-0.09722 0.05485 0.10654
0.04757 0.05485 0.34263
-0.19263 0.05485 -0.01699
-0.21907 0.05485 0.17834
-0.23239 0.05485 0.24010
-0.16706 0.05485 0.04510
0.17022 0.05485 0.25605
-0.02521 0.05485 0.14201
-0.18552 0.05485 -0.07220
0.20490 0.05485 0.34043
-0.15256 0.05485 -0.00433
-0.13048 0.05485 -0.05393
-0.14469 0.05485 0.12352
-0.11043 0.05485 0.03735
0.05621 0.05485 0.19593
0.17947 0.05485 0.25736
0.05841 0.05485 0.09171
0.00032 0.05485 0.03094
0.07856 0.05485 0.14486
-0.01031 0.05485 0.30383
-0.25184 0.05485 0.24493
-0.18109 0.05485 0.22456
-0.16478 0.05485 -0.22413
0.05245 0.05485 0.11083
-0.20455 0.05485 -0.24517
0.18695 0.05485 0.33603
-0.13311 0.05485 0.18315
-0.11586 0.05485 0.18185
0.07951 0.05485 0.29843
-0.20854 0.05485 0.09871
-0.31522 0.04063 0.18269
-0.32864 0.04063 0.08571
-0.33261 0.04063 0.07526
-0.33521 0.04063 -0.16614
-0.34074 0.04063 -0.12661
-0.30772 0.04063 0.16863
-0.31349 0.04063 0.22083
-0.33952 0.04063 0.33532
-0.34892 0.04063 -0.04053
-0.32007 0.04063 0.10558
-0.34966 0.04063 -0.25882
-0.31477 0.04063 0.19645
-0.34514 0.04063 0.26293
-0.31669 0.04063 0.00029
-0.30628 0.04063 0.25222
-0.33799 0.04063 -0.06344
-0.34702 0.04063 0.30679
-0.31410 0.04063 0.06186
-0.33970 0.04063 0.30013
-0.34057 0.04063 -0.04402
0.35142 0.00829 -0.31801
0.33772 -0.00503 0.28168
0.32167 -0.01734 0.28168
-0.27947 0.04063 0.33767
-0.27461 0.04063 0.18666
-0.27633 0.04063 0.13016
-0.26943 0.04063 0.31167
-0.27359 0.04063 0.03972
-0.26893 0.04063 0.26561
0.32771 -0.05485 -0.31476
0.32090 -0.05485 -0.32129
0.35142 0.01175 0.24132
0.35142 0.02542 0.01529
0.35142 0.00428 0.29988
0.35142 0.02526 0.05816
0.35142 0.02493 -0.25092
0.35142 0.01099 0.18838
0.35142 0.02349 -0.07668
0.35142 0.02827 -0.14499
0.35142 0.02387 -0.11544
-0.32834 0.05179 0.35142
-0.28173 -0.01728 0.33934
-0.28173 -0.02128 0.33341
0.35142 0.00042 0.31018
0.35142 -0.00798 0.29497
-0.31626 -0.01977 -0.28439
-0.33460 -0.00379 -0.28439
0.35142 -0.00634 -0.30901
0.35142 -0.05423 -0.28447
0.34447 -0.05485 0.33840
0.34407 -0.05485 0.29300
-0.00296 0.00203 0.09045
-0.00598 0.00203 0.07543
-0.26356 0.00203 -0.07219
-0.15032 0.00203 0.20096
-0.22678 0.00203 0.17547
-0.28754 0.00203 -0.21228
-0.25161 0.00203 -0.04070
0.13533 0.00203 0.16157
-0.22631 0.00203 0.12973
-0.17457 0.00203 0.26995
-0.28080 0.00203 0.28117
0.03596 0.00203 0.12518
-0.16227 0.00203 0.17736
0.11575 0.00203 0.21714
-0.29255 0.00203 -0.07639
-0.09286 0.00203 0.01490
-0.29361 0.00203 -0.05417
-0.34461 0.00203 -0.00352
-0.26372 0.00203 0.17720
-0.25082 0.00203 0.12189
-0.08046 0.00203 0.22672
-0.29120 0.00203 0.18130
-0.19964 0.00203 0.17882
-0.06111 0.00203 0.10788
-0.33606 0.00203 -0.09068
-0.33810 0.00203 -0.17165
-0.07063 0.00203 0.00708
-0.03638 0.00203 0.19983
-0.12792 0.00203 0.10279
0.03025 0.00203 0.06018
-0.05250 0.00203 0.03834
-0.23254 0.00203 -0.13601
-0.28201 0.00203 0.12625
-0.26858 0.00203 -0.14127
0.07091 0.00203 0.19547
-0.24393 0.00203 -0.04113
-0.26985 0.00203 -0.07242
-0.30776 0.00203 0.21021
-0.31419 0.00203 -0.20182
0.02593 0.00203 0.16090
-0.14137 0.00203 -0.00664
-0.18201 0.00203 0.08542
0.10672 0.00203 0.25197
0.21979 0.00203 0.18649
0.03820 0.00203 0.27200
-0.10758 0.00203 0.11811
-0.19230 0.00203 -0.13529
-0.13462 0.00203 0.04980
-0.18705 0.00203 0.21654
-0.15043 0.00203 0.27464
-0.30780 0.00203 0.15594
-0.11176 0.00203 -0.02169
-0.05129 0.00203 0.19751
-0.33833 0.00203 0.19273
-0.21062 0.00203 0.19168
0.02098 0.00203 0.21799
-0.02696 0.00203 0.27523
0.06177 0.00203 0.07437
0.26847 0.00203 0.24957
-0.19526 0.00203 0.00941
-0.28161 0.00203 0.14337
-0.29601 0.00203 -0.08432
-0.18191 0.00203 0.13030
-0.01446 0.00203 0.00894
0.12322 0.00203 0.18747
0.01048 0.00203 0.07564
-0.25870 0.00203 0.21145
0.07693 0.00203 0.20475
0.02409 0.00203 0.14892
-0.04421 0.00203 0.03384
-0.28123 0.00203 -0.10085
-0.19123 0.00203 -0.01487
0.04477 0.00203 0.23747
-0.13932 0.00203 -0.05781
-0.27551 0.00203 0.10726
0.10162 0.00203 0.15172
0.16690 0.00203 0.17314
-0.34346 0.00203 -0.07784
-0.30300 0.00203 0.17618
-0.23150 0.00203 0.11265
-0.25411 0.00203 -0.18600
-0.31840 0.00203 0.04917
-0.23382 0.00203 0.17094
-0.24343 0.00203 0.09738
0.21689 0.00203 0.24495
0.13085 0.00203 0.22850
-0.25493 0.00203 0.16056
0.19618 0.00203 0.17060
0.00296 0.00203 0.24508
-0.21238 0.00203 -0.02781
0.05120 0.00203 0.19454
-0.24076 0.00203 -0.05664
0.09907 0.00203 0.09461
-0.08196 0.00203 -0.01449
-0.17842 0.00203 -0.10799
-0.34687 0.00203 -0.02694
-0.15558 0.00203 0.25051
-0.02502 0.00203 0.22970
-0.01240 0.00203 -0.00997
-0.31934 0.00203 0.01271
-0.15234 0.00203 0.14799
-0.24224 0.00203 0.24671
-0.23878 0.00203 0.23561
0.13868 0.00203 0.24463
-0.15860 0.00203 0.13548
-0.32680 0.00203 0.11841
0.24586 0.00203 0.26775
0.20783 0.00203 0.16875
-0.12602 0.00203 0.09016
-0.26150 0.00203 -0.11516
-0.27154 0.00203 0.27548
-0.11834 0.00203 0.25415
-0.16421 0.00203 0.04695
-0.16384 0.00203 -0.01766
-0.20424 0.00203 0.09872
-0.03865 0.00203 0.01126
-0.18025 0.00203 -0.07296
0.08783 0.00203 0.19827
-0.09918 0.00203 0.15418
-0.29913 0.00203 -0.18385
-0.05019 0.00203 0.25706
-0.24921 0.00203 -0.00874
0.26432 0.00203 0.27241
0.00580 0.00203 0.03265
0.25385 0.00203 0.25741
0.01191 0.00203 0.10151
-0.27209 0.00203 -0.09687
-0.23887 0.00203 -0.17506
-0.16850 0.00203 -0.04129
-0.17042 0.00203 0.12596
-0.00028 0.00203 0.02849
-0.29174 0.00203 0.15869
-0.12402 0.00203 0.19955
0.08085 0.00203 0.13864
0.10129 0.00203 0.15807
-0.23580 0.00203 0.01166
-0.32344 0.00203 0.15453
0.17766 0.00203 0.20206
-0.21105 0.00203 0.14093
-0.26831 0.00203 -0.03572
-0.32698 0.00203 -0.20514
0.16004 0.00203 0.16706
-0.33926 0.00203 -0.14095
-0.03893 0.00203 0.14197
-0.30388 0.00203 -0.14120
-0.32065 0.00203 0.08482
-0.31502 0.00203 -0.24505
-0.33302 0.00203 -0.02112
0.08242 0.00203 0.23328
-0.32304 0.00203 -0.25126
0.00154 0.00203 0.27217
-0.12220 0.00203 0.04748
-0.25639 0.00203 0.11462
-0.25600 0.00203 0.26301
0.00536 0.00203 0.25478
-0.24710 0.00203 0.19367
-0.28066 0.00203 0.24831
-0.04249 0.00203 0.16615
-0.05679 0.00203 0.17400
-0.21013 0.00203 0.06389
0.30091 0.00203 0.24825
-0.22335 0.00203 -0.14803
-0.26916 0.00203 -0.00470
-0.15387 0.00203 0.19744
-0.06764 0.00203 0.25521
-0.20489 0.00203 -0.04020
0.04467 0.00203 0.12019
0.00388 0.00203 0.20147
-0.21865 0.00203 0.22866
-0.01470 0.00203 0.01476
0.01240 0.00203 0.20160
-0.22882 0.00203 0.04778
-0.13026 0.00203 -0.09439
-0.18881 0.00203 0.08979
-0.02915 0.00203 0.19356
-0.10178 0.00203 0.24521
-0.15999 0.00203 -0.01165
-0.15940 0.00203 0.13036
-0.23535 0.00203 0.26056
-0.08008 0.00203 0.04102
-0.09898 0.00203 0.20533
0.07638 0.00203 0.22715
-0.23949 0.00203 0.21195
-0.02111 0.00203 0.11241
-0.17309 0.00203 0.08321
0.27153 0.00203 0.25951
0.01969 0.00203 0.16413
-0.01868 0.00203 -0.00495
-0.28799 0.00203 -0.14209
-0.21210 0.00203 0.24217
-0.07091 0.00203 0.01740
0.10628 0.00203 0.17868
-0.28494 0.00203 -0.12347
-0.27684 0.00203 -0.14651
-0.18630 0.00203 -0.07506
-0.15918 0.00203 -0.07443
0.24643 0.00203 0.19738
-0.16198 0.00203 0.15348
-0.31291 0.00203 0.01128
0.16111 0.00203 0.17495
0.08318 0.00203 0.24630
-0.28365 0.00203 -0.15344
-0.26168 0.00203 0.23176
-0.11172 0.00203 -0.04363
-0.06785 0.00203 0.19666
0.29514 0.04063 -0.35014
-0.29671 -0.05485 0.34236
-0.33470 -0.05485 0.33181
0.35142 -0.02687 0.29776
0.35142 -0.01327 0.29178
-0.00414 0.01079 0.35142
0.18638 0.01914 0.35142
0.18829 0.01440 0.35142
0.30850 0.02354 0.35142
0.21194 0.00654 0.35142
0.16698 0.00668 0.35142
0.24300 0.00837 0.35142
-0.14980 0.00203 -0.14557
-0.14908 0.00203 -0.13028
-0.08160 0.00203 -0.07881
-0.08541 0.00203 -0.10061
-0.18180 0.00203 -0.16302
0.08500 0.00203 0.05809
-0.23582 0.00203 -0.23670
-0.14585 0.00203 -0.14877
-0.21911 0.00203 -0.18692
0.18484 0.00203 0.14543
-0.30366 0.00203 -0.27564
0.08265 0.00203 0.05206
-0.14770 0.00203 -0.15630
-0.15784 0.00203 -0.16526
-0.07250 0.00203 -0.06216
-0.21082 0.00203 -0.18214
-0.17687 0.00203 -0.18454
-0.12321 0.00203 -0.13629
-0.16203 0.00203 -0.17276
-0.28173 0.05024 0.09453
-0.28173 0.05136 -0.14410
-0.28173 0.05038 0.13899
-0.28173 0.05425 0.17581
-0.28173 0.05049 0.07560
-0.12014 0.01658 0.35142
-0.22973 0.02708 0.35142
-0.11518 0.01515 0.35142
-0.03677 0.01295 0.35142
0.07788 0.02188 0.35142
-0.10608 0.02336 0.35142
-0.25939 0.02732 0.35142
-0.00164 0.02740 0.35142
-0.02694 0.01508 0.35142
-0.23588 0.00926 0.35142
-0.34542 0.02844 -0.34083
-0.34451 0.02844 -0.23135
-0.34455 0.02844 -0.29574
-0.34101 0.02844 -0.33352
-0.34944 0.02844 0.00108
0.33892 -0.01625 0.35142
0.35142 0.04546 0.20933
0.35142 0.05459 -0.15493
0.35142 0.04898 0.07678
0.35142 0.05070 0.05353
0.34376 0.04063 0.12263
0.34669 0.04063 0.33207
0.34697 0.04063 0.31256
0.34055 0.04063 -0.11191
0.30785 0.04063 -0.34916
0.05386 0.03370 -0.33923
0.11985 0.03600 -0.33923
0.17295 0.03137 -0.33923
0.29290 0.03034 -0.33923
0.30459 -0.04435 -0.35142
0.17258 0.01372 -0.35142
0.23833 0.01410 -0.35142
0.17797 0.02044 -0.35142
0.18476 0.01433 -0.35142
0.10558 0.01211 -0.35142
-0.13606 0.00610 -0.35142
-0.31950 0.04063 -0.13757
-0.28035 0.04063 0.29798
-0.31598 0.04063 -0.09918
-0.30618 0.04063 -0.05276
-0.27367 0.04063 0.34149
-0.28629 0.04063 0.22228
-0.33702 0.04063 -0.31133
-0.28028 0.04063 0.20685
0.28399 -0.00753 0.30094
0.28399 -0.01163 0.32573
0.28399 -0.00368 0.30779
0.21806 0.00203 -0.08392
0.16228 0.00203 -0.11864
-0.02126 0.00203 -0.13492
-0.15499 0.00203 -0.19488
0.19885 0.00203 -0.05263
-0.12072 0.00203 -0.22491
0.27379 0.00203 -0.28170
0.10371 0.00203 0.00388
0.31983 0.00203 0.21438
-0.06914 0.00203 -0.17761
0.27860 0.00203 0.08204
0.27941 0.00203 0.04503
-0.07355 0.00203 -0.18179
0.13803 0.00203 -0.09868
0.27531 0.00203 0.15552
-0.07100 0.00203 -0.27520
0.21949 0.00203 -0.05889
-0.11170 0.00203 -0.24386
0.26852 0.00203 0.09895
0.20444 0.00203 -0.27719
0.21526 0.00203 -0.21562
0.10310 0.00203 0.01114
0.11489 0.00203 0.01337
0.24020 0.00203 -0.04982
0.33542 0.00203 0.26223
-0.03181 0.00203 -0.13508
0.13270 0.00203 -0.26141
0.27223 0.00203 -0.11081
0.18703 0.00203 -0.11266
0.32226 0.00203 0.18683
-0.09331 0.00203 -0.24723
-0.20553 0.00203 -0.26625
0.30575 0.00203 0.06539
0.08096 0.00203 -0.00812
0.25839 0.00203 -0.25955
-0.08862 0.00203 -0.19862
0.15180 0.00203 -0.19662
-0.03669 0.00203 -0.24255
0.10629 0.00203 -0.21826
0.11641 0.00203 -0.10180
0.28172 0.00203 0.11129
-0.05253 0.00203 -0.15333
0.20971 0.00203 -0.14450
0.28933 0.00203 -0.21991
0.00307 0.00203 -0.22417
0.15438 0.00203 -0.04062
0.10222 0.00203 0.03988
0.29014 0.00203 -0.02048
0.01876 0.00203 -0.16076
0.12822 0.00203 0.04333
0.32819 0.00203 0.23718
0.04997 0.00203 -0.19635
0.16863 0.00203 -0.22781
0.09644 0.00203 0.04250
0.00805 0.00203 -0.14297
0.29545 0.00203 -0.02576
0.04951 0.00203 -0.27733
0.19606 0.00203 -0.06327
0.30029 0.00203 0.15655
0.06249 0.00203 -0.19405
0.17720 0.00203 -0.17974
0.16902 0.00203 0.02571
0.11808 0.00203 0.02746
0.21030 0.00203 0.03517
0.16209 0.00203 0.07738
0.22228 0.00203 0.10709
0.02866 0.00203 -0.19019
0.24516 0.00203 0.10680
0.08062 0.00203 -0.00039
0.17840 0.00203 -0.15172
-0.06221 0.00203 -0.17081
0.25914 0.00203 0.11007
-0.06020 0.00203 -0.18142
0.11314 0.00203 -0.02176
0.03476 0.00203 -0.21775
-0.15699 0.00203 -0.18285
0.03965 0.00203 -0.03583
-0.08826 0.00203 -0.17330
-0.10930 0.00203 -0.14243
0.28591 0.00203 0.09930
0.18294 0.00203 -0.23814
0.01046 0.00203 -0.02401
0.23537 0.00203 0.16332
0.09079 0.00203 0.00491
0.32842 0.00203 0.08893
0.29518 0.00203 0.16614
0.17022 0.00203 -0.04088
0.24533 0.00203 0.09637
0.22439 0.00203 -0.24174
0.21864 0.00203 -0.06552
0.08748 0.00203 0.02109
0.05632 0.00203 -0.26402
0.31137 0.00203 -0.01560
-0.11552 0.00203 -0.15327
0.30220 0.00203 -0.04913
-0.02465 0.00203 -0.23996
0.22131 0.00203 -0.10251
-0.14635 0.00203 -0.26108
0.15474 0.00203 -0.24657
0.19709 0.00203 0.02691
0.01649 0.00203 -0.24846
-0.07147 0.00203 -0.23093
0.06967 0.00203 -0.04240
-0.05978 0.00203 -0.15824
0.06058 0.00203 -0.18332
0.04920 0.00203 -0.22062
0.13896 0.00203 -0.18411
0.15402 0.00203 -0.15356
0.24591 0.00203 0.04838
-0.16474 0.00203 -0.21052
-0.19621 0.00203 -0.23220
0.29394 0.00203 0.19498
-0.05899 0.00203 -0.27184
0.21452 0.00203 -0.04158
-0.02569 0.00203 -0.06782
0.26513 0.00203 -0.25827
0.17487 0.00203 0.12391
0.25155 0.00203 -0.28387
-0.02551 0.00203 -0.16472
0.27447 0.00203 0.02231
-0.01851 0.00203 -0.22960
0.19063 0.00203 -0.27851
0.18155 0.00203 -0.20056
0.27662 0.00203 -0.19308
0.12427 0.00203 -0.20098
0.02951 0.00203 -0.13845
0.29566 0.00203 -0.09184
-0.16064 0.00203 -0.25185
0.08291 0.00203 -0.21936
-0.03662 0.00203 -0.22222
0.01377 0.00203 -0.07719
0.30349 0.00203 -0.00901
0.21828 0.00203 0.13477
0.12216 0.00203 0.06712
-0.08389 0.00203 -0.19059
0.24474 0.00203 0.01102
0.24804 0.00203 0.08508
0.02043 0.00203 -0.03266
0.17956 0.00203 -0.08121
-0.07685 0.00203 -0.25648
0.13512 0.00203 -0.20239
-0.04241 0.00203 -0.23511
0.23325 0.00203 -0.14083
0.11210 0.00203 0.02349
0.13749 0.00203 0.08546
-0.09204 0.00203 -0.18797
0.05465 0.00203 -0.09075
-0.16559 0.00203 -0.28166
0.15460 0.00203 -0.03530
0.19489 0.00203 0.09408
0.14772 0.00203 -0.00602
0.24998 0.00203 -0.02907
0.08610 0.00203 -0.19142
-0.03109 0.00203 -0.25433
0.33665 0.00203 0.22308
0.16746 0.00203 -0.12676
0.28401 0.00203 -0.07286
0.23795 0.00203 -0.16935
0.12065 0.00203 -0.16307
-0.02173 0.02844 0.34853
0.12082 0.02844 0.34749
0.03305 0.02844 0.34799
-0.06968 0.02844 0.34567
-0.33319 0.02844 0.34607
-0.22714 0.01343 -0.35142
-0.30731 0.01510 -0.35142
-0.13952 0.01895 -0.35142
-0.02591 0.02724 -0.35142
-0.29815 0.02255 -0.35142
0.06026 0.02577 -0.35142
-0.27819 0.02034 -0.35142
-0.22072 0.01381 -0.35142
0.06756 0.02579 -0.35142
0.35142 0.02123 -0.16820
0.19783 0.04063 0.34222
0.03107 0.04063 0.34214
0.35111 0.04063 0.12994
0.34823 0.04063 -0.18199
0.34868 0.04063 -0.03725
0.28399 0.04131 0.22187
0.28399 0.04758 0.10078
0.28399 0.04296 -0.16393
0.33958 0.02844 -0.09951
0.34518 0.02844 0.28061
0.34288 0.02844 0.07286
0.35142 -0.01152 0.28280
0.35142 -0.05306 0.33426
-0.32155 0.00796 -0.35142
-0.35142 -0.05032 0.31466
-0.35142 -0.02675 0.28569
-0.29396 0.03808 0.33874
0.03879 0.03339 0.33874
-0.26005 0.03078 0.33874
-0.19191 0.03321 0.33874
-0.34800 -0.05485 -0.28960
-0.32314 -0.05485 -0.29666
0.10783 0.00203 0.32871
0.08881 0.00203 0.32555
0.12047 0.00203 0.28747
-0.05370 0.00203 0.29325
0.26848 0.00203 0.32973
0.27981 0.00203 0.35035
0.20476 0.00203 0.28185
0.22798 0.00203 0.31615
0.12922 0.00203 0.28485
0.07100 0.00203 0.31379
0.06472 0.00203 0.31159
0.21380 0.00203 0.29552
0.21272 0.00203 0.28636
-0.00800 0.00203 0.29934
0.07668 0.00203 0.30473
0.21989 0.00203 0.29344
0.06204 0.00203 0.30001
-0.09944 0.00203 0.28269
-0.28896 -0.01387 -0.35142
-0.28880 -0.00718 -0.35142
-0.29728 -0.03411 -0.35142
0.28399 -0.03017 0.33425
0.28399 -0.02820 0.32373
-0.29310 -0.05485 -0.33054
-0.32343 -0.05485 -0.33054
-0.32978 -0.01548 0.35142
-0.30043 -0.01435 0.35142
-0.35142 0.02661 -0.09263
-0.35142 0.02830 0.21399
-0.35142 0.02760 0.01519
-0.35142 0.00813 0.21334
-0.35142 0.01013 0.32067
-0.35142 0.02567 -0.03638
-0.35142 0.02336 0.24550
-0.35142 0.02579 0.02242
-0.35142 0.02722 -0.09877
0.31397 0.04318 0.35142
0.00205 0.04793 0.35142
-0.09148 0.05100 0.35142
0.13682 0.04811 0.35142
-0.34943 -0.05485 -0.34928
-0.28649 -0.05485 -0.28527
-0.28173 -0.05001 0.29323
-0.34343 -0.05485 0.28174
-0.31706 -0.05485 0.29457
-0.31944 -0.05485 0.30475
-0.35142 -0.01140 -0.29691
-0.35142 0.00018 -0.30478
0.14213 0.02344 -0.35142
-0.17222 0.00867 -0.35142
-0.19475 0.02076 -0.35142
-0.09588 0.02446 -0.35142
-0.24485 0.02777 -0.35142
0.11400 0.02585 -0.35142
-0.26820 0.01386 -0.35142
0.15816 0.02319 -0.35142
0.30694 -0.03699 -0.35142
0.33997 -0.01051 -0.35142
-0.35142 0.04815 0.26384
-0.35142 0.05030 0.20442
-0.35142 0.05135 -0.03660
-0.35142 0.05296 -0.10124
-0.02825 0.05485 0.01730
0.04549 0.05485 0.16672
0.07035 0.05485 0.14521
-0.13556 0.05485 -0.00398
-0.07455 0.05485 0.00053
-0.11663 0.05485 0.08029
-0.07795 0.05485 0.34242
-0.19241 0.05485 0.20515
-0.07247 0.05485 0.25676
-0.02211 0.05485 0.15633
-0.23834 0.05485 -0.21896
-0.15985 0.05485 -0.01927
0.19694 0.05485 0.30318
-0.21368 0.05485 0.11033
-0.16515 0.05485 0.09319
0.01980 0.05485 0.07570
-0.21929 0.05485 -0.01375
0.03508 0.05485 0.19779
-0.08886 0.05485 -0.08457
-0.06537 0.05485 0.03692
-0.01549 0.05485 0.17303
-0.04143 0.05485 0.25392
0.03215 0.05485 0.21261
-0.13675 0.05485 -0.10698
-0.02931 0.05485 0.06335
-0.02494 0.05485 0.10300
-0.06274 0.05485 0.08148
0.03491 0.05485 0.17434
-0.08909 0.05485 -0.03845
-0.24745 0.05485 0.23426
-0.24059 0.05485 -0.20980
0.15738 0.05485 0.22950
-0.09035 0.05485 0.08609
-0.23062 0.05485 0.17441
-0.15372 0.05485 0.00171
-0.08616 0.05485 0.28045
0.01867 0.05485 0.30189
0.14527 0.05485 0.28506
-0.24428 0.05485 -0.10502
-0.11578 0.05485 -0.04641
-0.08742 0.05485 0.08075
-0.19156 0.05485 -0.17905
-0.21665 0.05485 -0.27795
0.11953 0.05485 0.19332
0.04053 0.05485 0.28977
0.00780 0.05485 0.30072
-0.17227 0.05485 0.00733
-0.06898 0.05485 0.17651
-0.12995 0.05485 0.33574
-0.03917 0.05485 0.16225
-0.24294 0.05485 0.02957
-0.20438 0.05485 0.05753
-0.16032 0.05485 0.33414
-0.25190 0.05485 -0.20744
0.02974 0.05485 0.18926
-0.08432 0.05485 0.05217
-0.23043 0.05485 -0.00535
0.01935 0.05485 0.25462
-0.23346 0.05485 -0.22331
-0.13605 0.05485 -0.04788
-0.23951 0.05485 -0.06166
-0.00604 0.05485 0.16054
-0.02589 0.05485 0.04017
-0.10132 0.05485 0.14043
-0.11782 0.05485 0.15823
0.05065 0.05485 0.16756
0.00381 0.05485 0.32978
-0.22555 0.05485 0.03836
-0.05252 0.05485 0.29987
-0.12137 0.05485 0.10656
0.03750 0.05485 0.10922
0.05056 0.05485 0.24809
0.08573 0.05485 0.31742
-0.16704 0.05485 0.06351
-0.00839 0.05485 0.19139
-0.14461 0.05485 -0.15801
-0.10960 0.05485 0.22625
-0.09357 0.05485 0.05174
0.01413 0.05485 0.21555
0.06411 0.05485 0.18295
-0.11122 0.05485 0.26227
-0.24071 0.05485 -0.03783
-0.11298 0.05485 -0.02994
-0.19704 0.05485 0.15011
0.05573 0.05485 0.15216
-0.17691 0.05485 0.26136
-0.11308 0.05485 -0.10009
0.07699 0.05485 0.21132
0.00446 0.05485 0.08955
-0.00985 0.05485 0.34839
0.01146 0.05485 0.09695
-0.22868 0.05485 0.06637
-0.20353 0.05485 0.06800
-0.17622 0.05485 -0.05701
0.03256 0.05485 0.33710
-0.24855 0.05485 -0.23412
-0.00456 0.05485 0.09731
-0.02780 0.05485 0.18115
-0.20862 0.05485 -0.12143
-0.18506 0.05485 0.16576
-0.22267 0.05485 -0.09556
-0.21872 0.05485 0.13070
0.00266 0.05485 0.23215
-0.16513 0.05485 0.14372
-0.24905 0.05485 -0.12184
-0.05701 0.05485 0.21839
-0.23538 0.05485 0.31355
0.01586 0.05485 0.03951
-0.15820 0.05485 -0.00397
0.12638 0.05485 0.20628
-0.24108 0.05485 0.21127
-0.23217 0.05485 0.22130
-0.08797 0.05485 0.11026
0.01511 0.05485 0.28054
-0.17087 0.05485 0.21006
-0.13959 0.05485 0.08745
-0.01508 0.05485 0.33472
-0.03100 0.05485 0.19543
-0.09112 0.05485 0.31838
-0.20688 0.05485 0.16343
-0.15289 0.05485 0.18531
0.03169 0.05485 0.06290
-0.12200 0.05485 -0.08449
0.08225 0.05485 0.27295
-0.03369 0.05485 0.08651
-0.17721 0.05485 0.14577
-0.17149 0.05485 0.20327
-0.23409 0.05485 -0.12065
0.07679 0.05485 0.34571
-0.05950 0.05485 0.11257
-0.21496 0.05485 0.10548
0.04060 0.05485 0.23676
-0.23271 0.05485 0.34633
-0.24028 0.05485 -0.08749
-0.03471 0.05485 0.27873
0.07917 0.05485 0.24832
-0.16171 0.05485 0.34674
-0.18975 0.05485 0.16962
-0.22010 0.05485 -0.00728
-0.17163 0.05485 0.01274
0.07214 0.05485 0.28501
-0.12008 0.05485 0.32362
-0.20804 0.05485 -0.27848
0.00621 0.05485 0.05547
0.12268 0.05485 0.34702
-0.16754 0.05485 -0.05279
-0.10783 0.05485 -0.02745
0.02540 0.05485 0.27267
-0.08802 0.05485 -0.06020
-0.16750 0.05485 0.06958
-0.19268 0.05485 0.29500
-0.02383 0.05485 0.31354
-0.21399 0.05485 -0.26654
-0.03551 0.05485 0.01493
-0.14451 0.05485 0.27682
0.14249 0.05485 0.19935
-0.11805 0.05485 0.11611
-0.08227 0.05485 -0.05800
0.02882 0.05485 0.19445
0.19126 0.05485 0.30152
0.03334 0.05485 0.15654
-0.18111 0.05485 -0.18804
-0.00175 0.05485 0.05046
-0.17388 0.05485 -0.02744
0.13909 0.05485 0.32390
-0.21776 0.05485 0.22334
0.19048 0.05485 0.26953
0.07586 0.05485 0.12938
-0.22989 0.05485 -0.26172
0.05060 0.05485 0.15742
-0.03942 0.05485 0.21959
-0.21383 0.05485 0.07183
-0.20259 0.05485 0.27808
0.07820 0.05485 0.25556
-0.25493 0.05485 0.18521
0.33940 0.03545 0.26296
0.33940 0.02939 0.23382
0.33940 0.02849 0.01008
0.33940 0.03006 -0.24250
0.30065 -0.04452 0.28168
0.30968 -0.03428 0.28168
-0.27313 0.04063 -0.32703
-0.26455 0.04063 -0.31435
-0.27566 0.04063 -0.18926
-0.26146 0.04063 0.00452
-0.26077 0.04063 -0.15682
-0.26257 0.04063 0.17872
-0.25872 0.05402 -0.08149
-0.25872 0.04917 0.04701
-0.25872 0.04768 -0.05815
-0.25872 0.05216 -0.18462
-0.05673 0.03080 -0.33923
0.22657 0.03865 -0.33923
0.01806 0.02914 -0.33923
0.09869 0.03491 -0.33923
-0.35142 -0.03130 0.32168
-0.35142 -0.04655 0.29321
-0.16837 0.00203 -0.29765
-0.19506 0.00203 -0.29878
0.02529 0.00203 -0.29867
-0.27069 0.00203 -0.29152
-0.20341 0.00203 -0.28671
-0.03419 0.00203 -0.30070
-0.17651 0.00203 -0.29175
-0.15827 0.00203 -0.29236
-0.03548 0.00203 -0.29447
0.15608 0.00203 -0.28673
-0.02070 0.00203 -0.30314
-0.21976 0.00203 -0.32202
-0.24918 0.00203 -0.30726
-0.26559 0.00203 -0.33885
0.23314 0.00203 -0.28482
-0.17280 0.00203 -0.33642
-0.11780 0.00203 -0.32723
0.01498 0.05362 -0.35142
0.08067 0.05136 -0.35142
-0.22577 0.05451 -0.35142
-0.33944 0.03614 -0.20001
-0.33944 0.03041 -0.28454
-0.33944 0.03979 -0.24003
-0.33944 0.03117 -0.20747
0.34798 0.02844 0.10550
0.34183 0.02844 -0.27600
0.34496 0.02844 -0.21232
0.34701 0.02844 -0.15056
0.34591 0.02844 -0.29768
0.35142 -0.00471 -0.29391
0.35142 0.00004 -0.30368
0.28399 -0.04715 0.33878
0.28399 -0.05163 0.32939
0.34108 -0.01419 0.28168
0.30208 -0.05034 0.28168
0.35142 0.05142 0.00749
0.35142 0.05143 0.12958
0.35142 0.05344 -0.03336
0.35142 0.05151 0.21025
0.35142 0.05134 -0.12037
-0.20028 0.04842 -0.35142
-0.25350 0.05115 -0.35142
-0.07708 0.05274 -0.35142
-0.19329 0.00203 0.25044
-0.23980 0.00203 0.08601
0.01488 0.00203 0.13848
-0.09768 0.00203 0.16004
-0.18104 0.00203 0.20976
-0.19728 0.00203 0.17186
-0.31150 0.00203 -0.11744
-0.25322 0.00203 0.17213
0.06488 0.00203 0.24236
-0.27931 0.00203 0.16380
-0.01832 0.00203 0.23779
-0.14840 0.00203 0.24873
0.12777 0.00203 0.23400
-0.10319 0.00203 0.21088
0.03891 0.00203 0.04788
0.15941 0.00203 0.18172
-0.24160 0.00203 -0.18003
-0.26795 0.00203 -0.13410
-0.30686 0.00203 0.16868
-0.32458 0.00203 -0.17696
0.22267 0.00203 0.27228
-0.18461 0.00203 0.11278
0.08707 0.00203 0.07965
-0.05657 0.00203 0.01551
-0.18132 0.00203 -0.05921
-0.05453 0.00203 0.08809
-0.17705 0.00203 0.24132
-0.07325 0.00203 -0.02203
-0.00588 0.00203 0.22276
-0.32487 0.00203 -0.19846
-0.23489 0.00203 -0.10156
-0.32571 0.00203 -0.05097
-0.13875 0.00203 0.01217
0.12674 0.00203 0.14053
-0.29941 0.00203 -0.13170
-0.26880 0.00203 0.04211
0.17393 0.00203 0.27852
-0.25450 0.00203 -0.19993
0.07492 0.00203 0.16121
-0.35002 0.00203 -0.13427
-0.00803 0.00203 0.09347
-0.29603 0.00203 -0.07092
-0.18604 0.00203 -0.03871
-0.15568 0.00203 0.26049
0.10559 0.00203 0.20108
0.25877 0.00203 0.27684
-0.15208 0.00203 -0.05303
-0.08357 0.00203 0.01341
-0.28113 0.00203 -0.11966
0.32441 0.00203 0.27843
-0.35058 0.00203 -0.11805
-0.13787 0.00203 0.08239
-0.15789 0.00203 0.08841
-0.33738 0.00203 -0.20169
-0.17790 0.00203 0.25563
-0.32400 0.00203 -0.17056
-0.34594 0.00203 -0.09457
0.00192 0.00203 0.16466
0.16090 0.00203 0.26968
-0.04155 0.00203 0.19340
-0.23101 0.00203 -0.12918
-0.35030 0.00203 -0.20811
-0.34409 0.00203 -0.21471
-0.18516 0.00203 -0.12771
-0.19172 0.00203 0.23009
-0.17876 0.00203 0.15997
-0.24653 0.00203 0.01567
-0.22642 0.00203 0.14994
-0.25295 0.00203 0.01633
-0.29572 0.00203 0.16440
-0.06102 0.00203 0.21344
-0.13631 0.00203 0.05667
-0.32626 0.00203 -0.21294
-0.19808 0.00203 0.02272
-0.13613 0.00203 -0.07523
-0.22098 0.00203 0.12051
-0.02751 0.00203 0.18376
-0.08437 0.00203 -0.02372
-0.23169 0.00203 0.13594
-0.18255 0.00203 0.07210
-0.19750 0.00203 -0.12278
-0.29006 0.00203 -0.11394
-0.31217 0.00203 -0.10203
0.07909 0.00203 0.17649
0.01091 0.00203 0.12051
-0.03521 0.00203 0.24219
0.01581 0.00203 0.03345
-0.20380 0.00203 0.24997
0.15004 0.00203 0.20890
-0.23471 0.00203 0.01817
0.02536 0.00203 0.12462
0.23129 0.00203 0.25571
0.11523 0.00203 0.10791
-0.20642 0.00203 -0.00882
-0.25867 0.00203 0.06817
-0.34462 0.00203 0.20218
-0.15478 0.00203 0.04526
-0.21653 0.00203 -0.14839
-0.21275 0.00203 0.21138
-0.35066 0.00203 -0.16578
-0.24041 0.00203 -0.08571
-0.13900 0.00203 0.22401
0.13747 0.00203 0.20610
0.06787 0.00203 0.23253
-0.33529 0.00203 -0.23220
-0.08088 0.00203 0.01825
-0.04125 0.00203 0.15359
0.03848 0.00203 0.06717
-0.25082 0.00203 0.05855
-0.11723 0.00203 -0.05245
-0.04002 0.00203 -0.03237
-0.33612 0.00203 -0.07072
0.28542 0.00203 0.26132
0.14236 0.00203 0.16301
-0.00766 0.00203 0.03259
0.19825 0.00203 0.18686
0.00261 0.00203 0.12497
-0.11591 0.00203 -0.08142
-0.20280 0.00203 0.03839
-0.28607 0.00203 -0.09247
-0.19982 0.00203 0.27716
-0.01009 0.00203 0.11674
-0.30196 0.00203 0.05570
-0.13393 0.00203 0.17247
-0.00885 0.00203 0.23583
0.14835 0.00203 0.15379
-0.33982 0.00203 -0.05459
-0.34424 0.00203 0.27853
-0.27466 0.00203 0.05842
0.05771 0.00203 0.27972
-0.14097 0.00203 0.12324
-0.21537 0.00203 0.11893
-0.33581 0.00203 0.20134
-0.32365 0.00203 -0.24192
-0.30853 0.00203 -0.04621
-0.14606 0.00203 -0.09051
