-0.00398 0.30167 0.24365
0.13269 0.30167 0.24640
0.10683 0.30167 0.24605
0.03287 0.30167 0.22925
-0.05109 0.30167 0.22945
0.08598 0.30167 0.23368
0.06767 0.30167 0.23421
0.09320 0.30167 0.24454
0.08596 0.30167 0.25069
0.13956 0.30167 0.23128
0.11527 0.30167 0.24947
0.05129 0.30167 0.24913
-0.09465 0.30167 0.22680
0.14713 0.30167 0.23386
0.12885 0.30167 0.24072
-0.12606 -0.04763 0.14241
-0.12298 0.17036 0.14281
-0.12479 0.21640 0.14258
-0.09924 -0.17143 0.16886
-0.09962 0.07765 0.16596
-0.09923 0.03343 0.16898
0.15172 0.04698 0.14839
0.15272 -0.05747 0.14916
-0.07669 0.23069 0.18512
-0.22547 0.30167 0.12334
-0.22020 0.30167 0.13671
-0.16259 0.30167 0.15913
0.09384 0.30167 0.17126
-0.02040 0.30167 0.17049
-0.19076 0.30167 0.12170
-0.23804 0.30167 0.12359
0.13248 0.30167 0.16347
-0.12935 0.30167 0.17320
-0.16962 0.30167 0.14334
-0.16415 0.30167 0.14352
-0.12682 0.30167 0.13075
-0.21062 0.30167 0.16388
-0.02290 0.30167 0.14895
-0.00769 0.30167 0.15625
0.05205 0.30167 0.15601
-0.23846 0.30167 0.14573
-0.14149 0.30167 0.15625
-0.18887 0.30167 0.12892
0.03319 0.30167 0.16156
0.11280 0.10928 -0.14635
0.10987 0.14279 -0.14860
0.11118 0.06968 -0.14759
0.28042 0.23658 0.03940
0.26592 0.23758 0.09653
0.28129 0.27580 0.03598
0.27909 0.28149 0.04462
0.01307 0.23069 -0.16985
-0.00843 0.23069 -0.16865
-0.10200 0.15540 0.18285
-0.10210 0.14419 0.18311
0.13428 0.00940 -0.14314
0.13381 0.16648 -0.14308
0.13424 -0.15169 -0.14313
-0.14526 -0.16024 0.19240
-0.14596 -0.14589 0.19186
-0.14741 -0.12619 0.19075
0.10781 0.00028 -0.15017
0.10800 -0.05864 -0.15003
0.10902 -0.30121 -0.14925
0.19597 0.04652 0.13737
0.19596 0.22965 0.13740
0.19490 -0.04548 0.13994
-0.19307 -0.25043 -0.11006
-0.19407 -0.04935 -0.11174
-0.19503 -0.27068 -0.11337
-0.00504 0.25275 0.28158
-0.00047 0.26930 0.28152
-0.03090 0.26309 0.28192
-0.02374 0.26069 0.28183
0.14933 0.08285 0.10736
0.14910 -0.21479 0.10765
0.14935 0.02957 0.10733
-0.17849 0.23069 0.10218
0.01402 0.23069 0.09017
-0.00907 0.23069 0.10670
0.02995 0.23069 0.09879
-0.09780 0.23069 0.07052
-0.07215 0.23069 0.09667
-0.24285 0.23069 0.09914
-0.24445 0.23069 0.08287
-0.20606 0.23069 0.09479
-0.26198 0.23069 0.08052
-0.11815 0.23069 0.06574
-0.21162 0.23069 0.11144
-0.14893 0.23069 0.07191
-0.15852 0.23069 0.08157
-0.25393 0.23069 0.08397
-0.20697 0.23069 0.07716
-0.09569 0.23069 0.07968
-0.20043 0.23069 0.10111
-0.07019 0.23069 0.08948
-0.05799 0.23069 0.09145
-0.19617 0.10581 -0.11528
-0.19477 0.14013 -0.11292
-0.19544 -0.08289 -0.11405
0.16285 -0.03612 0.15430
0.16730 -0.29951 0.15489
0.16301 0.15207 0.15432
0.17905 -0.13693 0.15350
0.17892 0.00159 0.15355
0.18104 -0.17611 0.15267
-0.16894 0.03114 -0.09927
-0.17050 0.14447 -0.09925
-0.16994 0.20816 -0.09926
-0.14462 -0.17570 0.14835
-0.14463 -0.05959 0.14837
-0.14508 -0.09173 0.14872
0.13657 -0.18426 -0.19730
0.13664 -0.21125 -0.19727
0.13865 -0.13559 -0.19643
0.10328 -0.18862 -0.15582
0.10314 0.04234 -0.15601
0.10499 0.08896 -0.15359
-0.10542 0.11122 0.18822
-0.10620 0.14618 0.18923
-0.10613 0.20553 0.18914
-0.27151 0.26537 -0.07451
-0.26641 0.27732 -0.09458
-0.27219 0.28378 -0.07182
-0.27970 0.29800 -0.04222
0.04391 0.30167 0.15534
-0.11939 0.30167 0.13050
-0.12159 0.30167 0.14418
-0.23331 0.30167 0.11868
0.00372 0.30167 0.16865
0.02564 0.30167 0.16737
-0.02420 0.30167 0.14406
-0.05031 0.30167 0.16740
-0.24845 0.30167 0.12591
-0.18898 0.30167 0.16554
-0.15999 0.30167 0.15404
-0.18772 0.30167 0.14730
-0.10246 0.30167 0.16358
-0.11892 0.30167 0.14869
-0.13171 0.30167 0.13791
-0.06521 0.30167 0.14943
-0.06163 0.30167 0.16693
-0.19701 0.30167 0.12503
-0.00598 0.30167 -0.25213
0.06470 0.30167 -0.26278
0.15746 0.30167 -0.23009
-0.04159 0.30167 -0.25351
-0.06266 0.30167 -0.26006
-0.03320 0.30167 -0.25257
0.16244 0.17689 0.09944
0.16188 0.14939 0.09967
0.05127 0.23069 -0.19166
0.04431 0.23069 -0.18851
-0.18734 -0.04716 -0.15021
-0.18433 0.18212 -0.15200
-0.18499 0.16684 -0.15161
-0.16404 -0.24820 -0.10001
-0.16401 0.00259 -0.10002
-0.16528 -0.05146 -0.09966
-0.02180 0.23069 -0.20464
0.07843 0.23069 -0.17718
0.02665 0.23069 -0.18565
-0.00241 0.23069 0.21126
0.00157 0.23069 0.21936
0.11719 0.23069 0.22104
-0.11508 0.23069 0.20756
-0.14336 0.23069 0.21796
-0.10155 0.23069 0.20201
0.09626 0.23069 0.21744
-0.22630 0.23069 -0.12022
-0.20209 0.23069 -0.12194
-0.03384 0.23069 -0.19174
-0.12920 0.23069 -0.17793
-0.11429 0.23069 -0.19839
0.06500 0.23069 -0.17056
-0.16411 0.23069 -0.17299
-0.16620 0.23069 -0.21047
-0.17616 0.23069 -0.20047
-0.17596 0.23069 -0.19419
-0.16413 0.23069 -0.20389
-0.16066 0.23069 -0.21785
-0.06103 0.23069 -0.18523
-0.03805 0.23069 -0.18858
-0.07594 0.23069 0.16853
0.08858 0.23069 0.16753
-0.05043 0.30167 0.21183
-0.06327 0.30167 0.20301
0.02293 0.30167 0.21586
-0.16725 0.30167 0.20127
-0.14193 0.30167 0.21739
-0.18145 0.30167 0.21048
-0.16032 0.30167 0.18913
-0.04158 0.30167 0.19778
-0.17068 0.30167 0.21571
-0.02566 0.30167 0.20178
0.05831 0.30167 0.22020
0.01738 0.30167 0.21777
0.01300 0.30167 0.21135
-0.12040 -0.05268 0.14316
-0.12030 -0.06959 0.14317
-0.12265 -0.21584 0.14286
-0.14806 0.23069 -0.01144
-0.10897 0.23069 -0.00406
0.01541 0.23069 0.02793
0.05861 0.23069 0.02310
-0.14641 0.23069 0.01606
-0.25855 0.23069 0.00973
-0.11857 0.23069 -0.00733
-0.15493 0.23069 0.02056
0.07125 0.23069 0.02938
-0.27344 0.23069 -0.01748
-0.27494 0.23069 0.02802
-0.24404 0.23069 0.02309
0.17767 0.23069 0.03444
-0.26517 0.23069 0.02199
-0.15285 0.23069 -0.00975
-0.00907 0.23069 0.00628
-0.14141 0.23069 0.03803
-0.17982 0.23069 -0.00538
-0.27205 0.23069 -0.02601
-0.23580 0.23069 0.00560
-0.19907 0.23069 0.03055
-0.11915 0.23069 0.02337
0.03670 0.23069 0.02990
-0.15379 0.23069 -0.01704
0.00555 0.23069 0.01034
-0.19392 0.23069 0.03509
0.03801 0.23069 0.02177
-0.12112 0.05050 0.14306
-0.12578 -0.19602 0.14245
-0.12469 -0.13981 0.14259
0.19592 -0.00430 0.13750
0.19539 -0.12145 0.13877
0.19446 0.17679 0.14102
0.10420 0.11213 -0.18663
0.10612 0.04968 -0.18913
0.10707 -0.01535 -0.19037
-0.03481 0.28857 0.28159
-0.05099 0.26034 0.27748
-0.03681 0.27314 0.28108
-0.08625 0.28528 0.26853
0.09913 0.07718 -0.16967
0.09934 0.10301 -0.16813
0.09936 0.15931 -0.16792
-0.09111 0.23069 0.17383
0.02065 0.23069 0.17235
0.28164 0.24121 0.00898
0.28118 0.24047 -0.02585
0.28138 0.25271 -0.01030
0.28152 0.26055 0.00009
-0.17207 -0.02302 -0.15553
-0.17433 -0.06526 -0.15550
-0.17153 0.09697 -0.15554
-0.15011 0.21573 -0.10812
-0.15225 -0.16732 -0.10592
-0.14568 -0.22400 -0.11433
-0.14638 -0.29211 -0.11308
-0.14550 -0.17463 -0.11466
0.15166 0.01198 -0.15600
0.15103 -0.14131 -0.15518
0.15096 0.05346 -0.15509
-0.15051 -0.01818 0.15451
-0.15075 -0.08551 0.15481
-0.14952 -0.23187 0.15321
0.15299 0.14801 -0.18240
0.15417 -0.13393 -0.17955
0.15419 0.03526 -0.17951
-0.15542 -0.04349 0.17344
-0.15552 0.16880 0.17269
-0.15510 0.10655 0.17587
0.16772 -0.17052 0.09872
0.16808 -0.21377 0.09868
0.16972 -0.19705 0.09846
0.15076 0.23069 -0.23005
0.05313 0.23069 -0.24996
0.06397 0.23069 -0.25100
0.07499 0.23069 -0.24263
0.09520 0.23069 -0.26035
0.09915 0.23069 -0.23812
-0.12582 0.25254 0.25216
-0.13093 0.23376 0.24931
-0.12269 0.24582 0.25392
0.18150 0.01181 0.15248
0.18256 -0.10394 0.15204
0.18261 0.18202 0.15202
-0.16167 -0.07748 -0.15417
-0.16217 0.04534 -0.15429
-0.16063 0.08884 -0.15390
0.15514 0.16975 -0.16564
0.15508 0.22648 -0.16519
0.15493 0.15067 -0.16407
0.00371 0.23069 -0.13810
-0.05986 0.23069 -0.13915
0.09369 0.23069 0.19401
0.17818 0.23069 0.19569
0.18663 0.23069 0.18439
0.19036 0.23069 0.19761
0.17883 0.23069 0.20558
0.13590 0.23069 0.17741
0.18918 0.23069 0.17565
-0.00843 0.23069 0.19266
0.14039 0.23069 0.18631
0.07905 0.23069 0.19894
0.10632 0.23069 0.19142
0.20520 0.23069 0.18084
-0.06883 0.23069 0.19580
-0.19711 -0.08886 -0.13746
-0.19769 0.18814 -0.13519
-0.19796 0.21522 -0.13413
0.21538 0.23069 -0.17830
0.18920 0.23069 -0.19563
0.12650 0.23069 0.15249
-0.19552 -0.07081 -0.14056
-0.19448 -0.23578 -0.14242
-0.19661 -0.01808 -0.13861
-0.15461 -0.03485 -0.10417
-0.15624 0.19097 -0.10321
-0.15785 0.17209 -0.10225
0.16186 0.06620 0.15399
0.16092 0.11768 0.15359
0.15912 0.16427 0.15285
-0.15807 0.14369 -0.10212
-0.15910 0.20629 -0.10150
-0.15553 -0.02055 -0.10362
0.11939 0.15429 -0.19778
0.11832 0.03992 -0.19734
-0.21156 0.30167 0.00614
-0.24921 0.30167 -0.00524
0.01956 0.30167 0.00632
-0.16722 0.30167 0.03910
-0.16675 0.30167 -0.01873
0.08610 0.30167 0.02625
-0.03088 0.30167 0.03355
0.14816 0.30167 0.03381
-0.17481 0.30167 -0.01403
-0.15210 0.30167 0.01597
-0.10257 0.30167 0.01930
-0.27311 0.30167 0.02172
-0.06564 0.30167 0.00928
-0.27473 0.30167 -0.00646
-0.20098 0.30167 0.03938
0.03684 0.30167 0.00765
-0.23233 0.30167 -0.00574
-0.10458 0.30167 -0.01090
-0.20141 0.30167 0.01467
-0.13751 0.30167 -0.00854
-0.24058 0.30167 -0.00647
-0.03578 0.30167 0.00160
0.15567 0.30167 0.02202
-0.28078 0.30167 0.03481
-0.11169 0.30167 0.02581
0.06732 0.30167 0.02203
0.03012 0.30167 0.02481
0.03615 0.30167 0.02632
0.09795 0.30167 0.01625
-0.24845 0.30167 0.01726
-0.19370 0.30167 0.03765
0.15360 -0.19820 0.10383
0.15376 -0.14676 0.10371
0.15318 -0.26561 0.10416
0.00982 0.23069 0.18488
-0.10396 -0.00850 0.15493
-0.10336 -0.14661 0.15572
-0.10383 0.12618 0.15511
-0.14764 -0.29607 0.19049
-0.14925 -0.22357 0.18838
-0.14862 -0.04666 0.18921
-0.03415 0.23069 0.27605
-0.12740 -0.26848 0.17138
-0.15344 -0.21859 0.18131
-0.15388 -0.24306 0.18024
0.14847 -0.23483 0.14519
0.14901 -0.27937 0.14590
0.14719 -0.15581 0.14352
0.12509 0.23069 0.20765
0.10565 0.23069 0.19738
0.15109 0.23069 0.18331
0.12000 0.23069 0.18294
0.15163 0.23069 0.21834
0.16847 0.23069 0.19181
0.12597 0.23069 0.20160
0.08357 0.23069 0.18833
0.08840 0.23069 0.21228
-0.08920 0.23069 0.20164
-0.15629 -0.15065 -0.15163
-0.15941 -0.28474 -0.15338
-0.15382 0.12179 -0.15025
-0.17605 0.23069 -0.09611
-0.19624 0.23069 -0.10026
0.07186 0.27040 0.27221
0.05277 0.28810 0.27759
0.04802 0.24638 0.27893
0.05370 0.26870 0.27733
0.02508 0.23069 0.11744
0.13378 0.23069 0.11953
-0.15079 0.07272 0.18639
-0.15097 0.10484 0.18614
-0.15116 -0.05945 0.18590
0.04164 0.23069 -0.14509
0.00060 0.23069 -0.11258
-0.03515 0.23069 -0.11246
0.14296 0.23069 0.09926
0.14518 -0.16166 0.11288
0.14278 0.18183 0.11866
0.15493 -0.00122 -0.16404
0.15549 0.12774 -0.16835
0.15499 -0.14001 -0.16456
-0.17459 0.27632 -0.22367
-0.14729 0.26696 -0.23991
-0.16015 0.30148 -0.23226
-0.27392 0.29502 0.06578
-0.27456 0.27558 0.06352
-0.27724 0.29399 0.05402
-0.27294 0.27296 0.06926
0.12275 0.03438 -0.14285
0.12339 -0.18328 -0.14276
0.12018 0.08292 -0.14319
0.10010 -0.01147 -0.17826
0.10071 0.00572 -0.17975
0.10230 -0.30146 -0.18359
0.18466 -0.01864 0.10270
0.18449 -0.25140 0.10257
0.18536 -0.12328 0.10324
0.22807 0.23069 0.15638
-0.02673 0.23069 0.16045
-0.14109 -0.01441 0.19542
-0.13960 -0.09533 0.19604
-0.13989 -0.10666 0.19592
-0.09035 0.23069 0.11414
-0.00632 0.23069 0.11300
0.15623 0.12371 0.15165
0.15875 -0.11013 0.15270
0.16074 -0.26255 0.15352
-0.26995 0.27450 -0.08063
-0.27262 0.29099 -0.07012
-0.27639 0.29424 -0.05527
0.27353 0.24608 0.06653
0.27934 0.25722 0.04365
0.26827 0.23981 0.08724
0.04309 0.24853 -0.27948
0.04539 0.29585 -0.27890
0.05022 0.27955 -0.27767
0.04452 0.26708 -0.27912
0.17282 0.24065 -0.22462
0.19231 0.26177 -0.20564
0.17777 0.27692 -0.21980
0.17066 0.25084 -0.22673
-0.08244 0.23069 -0.25694
0.12610 0.23069 -0.23261
-0.13248 0.23069 -0.22429
-0.16227 0.23069 -0.22378
-0.06346 0.23069 -0.24626
-0.00003 0.23069 -0.24310
-0.12385 0.23069 -0.22728
-0.04913 0.23069 -0.25163
-0.08042 0.23069 -0.25041
0.10428 -0.14066 -0.18674
0.10529 -0.10338 -0.18804
0.10411 0.02624 -0.18652
-0.10359 0.23069 -0.11125
-0.02484 0.23069 -0.11100
0.14976 0.30167 0.20687
0.01359 0.30167 0.19573
0.13131 0.30167 0.17325
0.02723 0.30167 0.19781
-0.11123 0.30167 0.18661
0.13567 0.30167 0.18052
0.17710 0.30167 0.21391
-0.10516 0.30167 0.18205
0.01991 0.30167 0.18774
0.11083 0.30167 0.17919
0.07702 0.30167 0.20102
0.09791 0.30167 0.20064
0.10928 0.30167 0.21307
0.05936 0.30167 0.19626
-0.04740 0.30167 0.18321
-0.03511 0.30167 0.18785
0.14514 0.30167 0.21360
-0.02697 0.23069 0.15372
0.15347 -0.19200 -0.18124
0.15297 0.02584 -0.18246
0.15467 -0.28762 -0.17836
-0.12915 -0.09360 0.19879
-0.12927 -0.07119 0.19877
-0.13178 0.07307 0.19844
0.17133 -0.19086 0.09863
0.17396 0.03946 0.09898
0.19257 0.17173 0.14349
0.19153 0.08689 0.14484
0.19106 0.05805 0.14546
-0.17489 0.07442 -0.09944
-0.17550 0.05770 -0.09960
-0.17531 0.10813 -0.09955
-0.15125 -0.05270 0.15547
-0.14909 -0.19267 0.15266
-0.14900 -0.25145 0.15253
-0.21100 0.23069 -0.10691
0.19193 0.00339 0.10934
0.19287 0.22798 0.11057
0.19250 -0.03088 0.11009
-0.18054 0.24006 -0.21808
-0.18357 0.24815 -0.21497
-0.20437 0.28467 -0.19362
-0.17870 0.29180 -0.21996
-0.18971 0.19461 -0.10670
-0.18834 0.18409 -0.10536
-0.19127 0.14118 -0.10822
-0.18138 -0.16249 -0.10116
-0.18452 0.21352 -0.10292
-0.18289 0.08104 -0.10200
0.13360 -0.10793 -0.14305
0.13327 -0.18304 -0.14301
0.13234 -0.06602 -0.14288
-0.03584 0.23069 -0.10092
0.08034 0.23069 -0.10092
0.09410 0.23069 -0.07958
0.19157 0.23069 -0.06679
0.00765 0.23069 -0.10390
0.22428 0.23069 -0.06417
0.10974 0.23069 -0.08982
0.22656 0.23069 -0.06903
0.16849 0.23069 -0.07404
0.17916 0.23069 -0.10471
-0.07696 0.23069 -0.09391
0.26194 0.23069 -0.06477
0.23038 0.23069 -0.09909
0.15801 0.23069 -0.09697
0.23195 0.23069 -0.07204
0.10021 0.23069 -0.07731
0.11045 0.23069 -0.08340
0.17348 0.23069 -0.07806
0.04482 0.23069 -0.07449
0.17865 0.23069 -0.06094
-0.05879 0.23069 -0.09497
-0.10991 0.23069 -0.09790
0.23564 0.23069 -0.08975
0.16202 0.06703 0.09961
0.16078 -0.13278 0.10013
0.15818 -0.30020 0.10121
0.10279 0.19266 -0.15649
0.10271 -0.07459 -0.15667
0.10080 -0.24572 -0.16128
-0.02971 0.23069 0.27353
-0.07899 0.23069 0.25134
0.00794 0.23069 0.25486
-0.00685 0.23069 0.25180
-0.05069 0.23069 0.26204
-0.14530 0.23069 0.23690
-0.15369 -0.21857 0.16055
-0.15378 -0.23604 0.16076
-0.15446 0.00160 0.16239
0.21202 0.23542 0.18576
0.19287 0.23176 0.20542
0.19356 0.24337 0.20471
0.11653 -0.14525 -0.14466
0.11456 -0.25133 -0.14547
-0.14940 0.05488 0.15305
-0.15058 0.17138 0.15460
-0.05461 0.23069 -0.20656
-0.00735 0.23069 -0.20109
0.12230 0.07589 -0.19835
0.12210 0.09300 -0.19832
0.12265 -0.11125 -0.19839
-0.15346 -0.23100 -0.14997
-0.14946 0.14664 -0.14608
-0.15360 -0.18991 -0.15011
-0.09933 0.10287 0.16820
-0.09910 -0.15466 0.16995
-0.09947 -0.04699 0.16713
0.02766 0.30167 0.28014
0.19769 0.16318 0.12248
0.19794 0.11595 0.12444
0.19787 0.19814 0.12390
0.14226 0.03035 0.12087
0.14208 -0.06860 0.12223
0.14184 0.08840 0.12406
-0.16931 0.30167 -0.22549
0.01021 0.30167 -0.23251
-0.10917 0.30167 -0.24615
-0.08437 0.30167 -0.24570
-0.01874 0.30167 -0.23566
-0.08091 0.30167 -0.22971
-0.13887 0.30167 -0.23235
-0.13694 0.30167 -0.23852
-0.18612 -0.30167 -0.13054
0.14355 -0.28825 0.11682
0.14271 -0.01163 0.11884
-0.16987 -0.24578 -0.09926
-0.17307 0.11394 -0.09922
0.19506 -0.21373 0.11410
0.19555 -0.18891 0.11527
0.19502 -0.04022 0.11401
-0.10085 -0.29544 0.16117
-0.10163 -0.26648 0.15927
-0.00561 0.23069 -0.16195
0.08547 0.23069 -0.15966
-0.10637 -0.05690 0.18946
-0.10708 -0.06500 0.19039
-0.11542 -0.29240 0.19613
-0.11681 -0.03916 0.19671
-0.11756 -0.26034 0.19702
0.08119 0.30167 -0.14459
0.19932 0.30167 -0.12929
0.17056 0.30167 -0.12351
0.03574 0.30167 -0.15495
0.09922 0.30167 -0.16909
0.21760 0.30167 -0.14688
0.21515 0.30167 -0.13485
0.11771 0.30167 -0.13998
-0.17980 0.30167 -0.16576
-0.12565 0.30167 -0.15836
-0.10772 0.30167 -0.16703
0.13939 0.30167 -0.17377
0.07526 0.30167 -0.16971
0.02981 0.30167 -0.16417
-0.15862 0.30167 -0.16964
0.10701 0.30167 -0.13243
0.02321 0.30167 -0.17036
0.00130 0.30167 -0.14620
0.18201 0.30167 -0.12451
-0.04105 0.30167 -0.16536
-0.01090 0.30167 -0.15354
0.09499 0.30167 -0.13648
0.20797 0.26402 -0.19039
0.19772 0.23295 -0.20037
0.20957 0.25930 -0.18883
0.22223 0.25683 -0.17650
0.16712 0.23069 0.15956
0.10611 0.23069 0.16590
0.11737 0.23069 0.15899
-0.15555 -0.22941 0.17244
-0.15488 -0.13953 0.17755
-0.15534 -0.25183 0.17406
0.14498 0.03575 0.11335
0.14434 0.21392 0.11489
0.14449 -0.01897 0.11453
-0.11016 -0.30049 0.19288
-0.11211 -0.17212 0.19437
-0.11005 -0.16770 0.19279
-0.12063 -0.23495 0.19813
-0.12137 -0.19870 0.19822
-0.12147 0.08025 0.19824
0.00065 0.23069 -0.16240
-0.10687 0.23069 -0.16609
0.14047 0.23069 0.04937
0.02618 0.23069 0.05622
0.15589 0.23069 0.07796
0.10406 0.23069 0.07703
-0.00540 0.23069 0.06660
0.03663 0.23069 0.03988
-0.10833 0.23069 0.06262
0.15940 0.23069 0.04863
0.14994 0.23069 0.04015
-0.27244 0.23069 0.04162
0.23308 0.23069 0.06116
-0.01159 0.23069 0.04619
0.04796 0.23069 0.07282
-0.08323 0.23069 0.06305
0.20778 0.23069 0.05389
0.11127 0.23069 0.07592
-0.03960 0.23069 0.04988
0.22765 0.23069 0.04175
0.22412 0.23069 0.06495
0.23500 0.23069 0.03914
-0.01264 0.23069 0.07485
0.02808 0.23069 0.03731
0.00146 0.23069 0.04185
-0.08014 0.23069 0.05155
0.10280 0.23069 0.08490
-0.03777 0.23069 0.14869
-0.16006 -0.13814 -0.10113
-0.16426 0.17539 -0.09995
-0.16223 -0.03604 -0.10052
-0.12324 -0.22006 0.19847
-0.12271 -0.21057 0.19840
-0.01706 0.23069 -0.13246
-0.18994 0.14347 -0.14791
-0.19048 0.05650 -0.14736
-0.19214 0.10988 -0.14566
0.00794 0.30167 -0.22064
0.02821 0.30167 -0.22318
0.17549 0.30167 -0.20344
0.07644 0.30167 -0.21972
0.17703 0.30167 -0.21633
-0.02036 0.30167 -0.21359
0.02498 0.30167 -0.21503
0.12198 0.30167 -0.20596
0.01552 0.30167 -0.22384
0.03531 0.30167 -0.19808
0.06610 0.30167 -0.20336
0.11407 0.30167 -0.20239
0.22079 0.30167 -0.17697
0.09323 0.23069 -0.15037
-0.11097 -0.30167 0.15145
0.13847 -0.05563 -0.19651
0.13984 -0.04198 -0.19594
0.13933 -0.19392 -0.19615
-0.14318 0.01963 -0.13380
-0.14305 0.19556 -0.13331
-0.14297 -0.07973 -0.13304
-0.28134 0.27255 0.01314
-0.28112 0.27512 0.03034
-0.28124 0.24811 0.02080
0.02780 0.30167 -0.03180
0.11948 0.30167 0.01363
0.20058 0.30167 0.00723
0.03098 0.30167 0.00334
-0.02066 0.30167 -0.02301
-0.08331 0.30167 -0.02656
0.13882 0.30167 -0.00582
-0.05342 0.30167 -0.01723
0.25876 0.30167 -0.02185
0.18865 0.30167 -0.00066
0.04719 0.30167 -0.01476
0.04647 0.30167 -0.00545
-0.02291 0.30167 -0.01294
-0.14053 0.30167 -0.03021
0.01682 0.30167 -0.02780
0.23990 0.30167 0.02311
-0.22194 0.30167 -0.03100
0.09251 0.30167 -0.00321
0.27524 0.30167 -0.00243
0.22937 0.30167 -0.01776
0.11491 0.30167 0.00186
0.23155 0.30167 -0.01145
0.07521 0.30167 -0.02952
0.26027 0.30167 -0.03420
0.26848 0.30167 -0.03324
-0.04005 0.30167 -0.02411
0.17266 0.30167 0.00149
-0.03463 0.30167 -0.01570
0.13387 0.30167 -0.00780
0.15417 0.12844 -0.16170
0.15294 -0.01787 -0.15872
0.15418 0.20031 -0.16171
-0.15540 0.08048 0.16762
-0.15564 0.20536 0.16946
-0.15549 0.19496 0.16831
0.19312 0.30167 -0.17559
-0.16181 0.30167 -0.20597
-0.03055 0.30167 -0.18851
-0.04424 0.30167 -0.19887
-0.04603 0.30167 -0.19201
-0.03800 0.30167 -0.17772
0.09784 0.30167 -0.17661
-0.00883 0.30167 -0.18928
-0.12775 0.30167 -0.20763
0.04678 0.30167 -0.18503
-0.07274 0.30167 -0.18197
-0.05163 0.30167 -0.20696
-0.04324 0.30167 -0.20548
-0.15870 0.30167 -0.20138
0.01595 0.30167 -0.19659
-0.06633 0.30167 -0.18671
-0.11883 0.30167 -0.19381
-0.05341 0.30167 -0.17588
-0.16721 0.11154 -0.15558
-0.16636 0.15090 -0.15536
-0.16622 0.19341 -0.15532
0.18861 -0.30167 0.13414
0.09977 -0.07360 -0.17641
0.09992 0.01904 -0.17757
0.09961 -0.02689 -0.17519
0.03170 0.23069 0.08088
0.17574 -0.20874 0.15445
0.17243 -0.04746 0.15489
0.17015 -0.24463 0.15519
-0.15529 -0.17375 0.17446
-0.15555 -0.27057 0.17243
-0.15527 -0.09699 0.17463
-0.16883 -0.22903 -0.15558
-0.17039 -0.12837 -0.15555
-0.16900 -0.06997 -0.15557
0.06840 0.30167 0.26332
-0.04100 0.30167 0.26305
0.03743 0.30167 0.26650
0.14761 -0.20604 -0.19053
0.14837 -0.07191 -0.18954
0.14798 0.03408 -0.19004
-0.13583 0.26468 0.24656
-0.12402 0.29041 0.25317
-0.15493 0.28643 0.23587
-0.12520 0.27537 0.25251
-0.12671 0.05362 0.17093
0.02682 0.30167 0.18360
0.01209 0.30167 0.18391
0.19414 0.30167 0.17542
0.16034 0.30167 0.21117
-0.02403 0.30167 0.19310
0.15848 0.30167 0.18315
0.14700 0.30167 0.18890
0.19569 0.30167 0.19352
-0.07525 0.30167 0.18367
-0.02805 0.30167 0.17462
0.22441 0.30167 0.16993
0.08002 0.30167 0.17275
0.04772 0.30167 0.18921
0.20131 0.23069 0.13647
-0.11900 0.19889 0.14364
-0.11828 -0.12853 0.14393
-0.11707 -0.06409 0.14444
-0.07461 0.23069 0.15256
0.04512 0.23069 0.09001
0.07356 0.23069 0.09486
-0.02149 0.30076 0.28180
0.04067 0.28004 0.28098
0.01194 0.28451 0.28136
0.00468 0.26571 0.28146
-0.09936 0.03849 0.17327
-0.09924 -0.23138 0.17239
-0.09932 -0.27958 0.17299
0.14271 0.15537 0.13484
0.14328 0.05260 0.13622
0.14257 0.00230 0.13448
0.13085 -0.10279 -0.14269
0.12788 -0.06899 -0.14230
0.12874 -0.15691 -0.14241
-0.11021 0.22497 0.19292
-0.10812 -0.17980 0.19131
-0.10776 0.20028 0.19104
-0.11616 0.05017 0.19644
-0.11635 0.22683 0.19652
-0.11542 -0.09596 0.19613
-0.20207 0.29197 -0.19597
-0.19330 0.27129 -0.20498
-0.20031 0.27162 -0.19778
-0.17655 0.25750 -0.22218
-0.10503 0.12013 0.15354
-0.10457 0.04484 0.15414
-0.01373 0.23069 0.21443
0.08180 0.23069 0.22303
-0.08118 0.23069 0.21038
0.06175 0.23069 0.22432
-0.04276 0.23069 0.20875
-0.21901 0.23069 0.15317
-0.19052 0.23069 0.17158
0.03407 0.23069 0.17078
-0.00540 0.23069 0.17330
0.10560 -0.23064 -0.15279
0.10698 -0.15484 -0.15100
0.10721 0.13142 -0.15070
-0.19876 -0.24341 -0.12641
-0.19873 -0.03801 -0.12357
-0.19873 -0.02946 -0.12356
0.05827 0.23069 -0.27055
-0.15563 -0.02615 -0.15127
-0.15475 -0.27994 -0.15077
-0.15934 0.01368 -0.15334
-0.15526 0.21834 -0.15106
0.04013 0.23069 0.27737
-0.00071 0.23069 0.26365
-0.06962 0.23069 0.26393
-0.16858 0.04630 -0.15558
-0.16753 -0.18514 -0.15559
-0.17051 -0.15901 -0.15555
0.07662 0.23069 0.11509
-0.18970 0.23069 0.11232
-0.17795 0.04651 -0.15458
-0.17941 0.07202 -0.15417
-0.17687 0.19241 -0.15489
0.15382 0.08407 -0.16085
0.15333 0.03289 -0.15966
0.15324 0.11221 -0.15944
0.17838 -0.26897 0.09989
0.17823 -0.25085 0.09983
0.18364 -0.18624 0.10207
-0.11119 -0.06814 0.19367
-0.11162 0.04741 0.19400
0.19049 0.10545 0.14620
0.19135 0.13527 0.14508
0.19012 -0.25174 0.14668
-0.06845 0.24784 -0.27317
-0.08750 0.23998 -0.26780
-0.06395 0.27027 -0.27444
-0.07370 0.24965 -0.27169
-0.16360 -0.00332 -0.15466
-0.16620 0.18402 -0.15532
-0.16530 0.05393 -0.15509
0.00851 0.23069 0.17594
0.12162 0.23069 0.17379
-0.09420 0.23069 0.24533
-0.03824 0.23069 0.25077
0.00348 0.23069 0.25760
-0.06557 0.23069 0.25480
-0.10769 0.23069 0.25248
-0.14829 -0.19302 -0.14491
-0.14640 -0.15003 -0.14174
-0.14824 -0.24562 -0.14483
-0.14798 0.00219 -0.11031
-0.14916 -0.21525 -0.10910
-0.14811 0.08781 -0.11017
-0.14759 0.17986 0.15069
-0.15034 0.22041 0.15428
-0.14879 0.04053 0.15226
0.12730 0.22347 -0.19900
0.12543 -0.15067 -0.19876
0.12562 -0.15820 -0.19878
-0.13444 0.23069 -0.10313
0.18782 -0.30167 0.12291
-0.11992 0.21596 0.19800
-0.11998 -0.15571 0.19802
0.01212 0.23069 0.12134
0.11743 0.23069 0.12309
-0.15204 -0.16093 0.18469
-0.15253 -0.17657 0.18352
-0.12339 0.07010 0.14276
-0.12389 0.10240 0.14270
-0.12480 0.19246 0.14258
-0.14585 -0.19938 -0.11403
-0.14550 -0.24138 -0.11465
0.15316 -0.14074 0.10417
0.15555 -0.18408 0.10234
0.15294 -0.09241 0.10434
-0.15793 0.30167 -0.04480
0.18022 0.30167 -0.05209
0.20798 0.30167 -0.04097
-0.14952 0.30167 -0.04944
0.00358 0.30167 -0.03851
-0.07951 0.30167 -0.07329
-0.07806 0.30167 -0.08257
-0.09189 0.30167 -0.03637
-0.05644 0.30167 -0.04690
-0.25557 0.30167 -0.06408
-0.07556 0.30167 -0.04703
-0.19703 0.30167 -0.08898
0.00363 0.30167 -0.07131
-0.21431 0.30167 -0.04118
-0.19213 0.30167 -0.04708
-0.22373 0.30167 -0.05992
-0.13981 0.30167 -0.08975
-0.09358 0.30167 -0.06048
-0.05244 0.30167 -0.07711
-0.14635 0.30167 -0.07046
-0.13077 0.30167 -0.08242
-0.13441 0.30167 -0.07655
-0.16071 0.30167 -0.05013
0.10449 0.30167 -0.05451
-0.23820 0.30167 -0.09769
0.11230 0.30167 -0.04442
-0.08705 0.30167 -0.06239
0.02731 0.30167 -0.06288
0.14914 -0.14899 0.10760
0.14808 0.12430 0.10898
0.14550 0.22016 0.11235
-0.26256 0.25482 0.10605
-0.26177 0.24982 0.10887
-0.26659 0.25379 0.09177
-0.19263 0.25683 0.20533
-0.21803 0.24139 0.18058
-0.20301 0.23751 0.19521
-0.21052 0.23839 0.18790
0.15156 0.01494 0.14827
0.15360 -0.19409 0.14983
0.15288 -0.14827 0.14928
-0.10855 0.23069 -0.17453
-0.06074 0.23069 -0.17741
-0.09534 0.23069 -0.17770
-0.18245 0.23069 -0.20003
-0.03428 0.23069 -0.17426
-0.09155 0.23069 -0.19546
-0.14336 0.23069 -0.17663
-0.18067 0.23069 -0.21616
-0.18984 0.23069 -0.18923
-0.01678 0.23069 -0.17944
-0.17204 0.23069 -0.22156
-0.05550 0.23069 -0.19395
-0.09983 -0.21214 0.16438
-0.09973 -0.22572 0.16517
-0.14320 -0.15010 0.19398
-0.14163 -0.12151 0.19519
-0.14568 0.11697 0.19208
0.09931 -0.00362 -0.16836
0.09938 0.14547 -0.16781
0.24834 0.23069 0.05848
0.21087 0.23069 0.08774
0.24054 0.23069 0.07529
0.23201 0.23069 0.10176
-0.14448 -0.17089 -0.13841
-0.14335 -0.20702 -0.13440
-0.14444 0.02949 -0.13824
-0.16546 0.23069 0.15532
-0.09973 0.22083 0.17609
-0.09987 0.22909 0.17718
-0.09926 0.15354 0.17257
0.14652 0.17978 -0.14982
0.14682 0.01208 -0.15004
0.14460 0.22317 -0.14834
0.11431 0.19605 -0.19567
0.11447 -0.14964 -0.19574
0.11973 0.21070 -0.19792
-0.10058 0.05134 0.16182
-0.10162 0.21677 0.15931
0.05588 0.23069 0.15793
0.14430 -0.19086 0.11499
0.14250 -0.19393 0.11934
0.14272 -0.06341 0.11881
0.23777 0.24355 0.15152
0.25911 0.27363 0.11342
0.24118 0.25543 0.14544
-0.11717 0.30167 0.24433
-0.11279 0.30167 0.24046
0.01667 0.30167 0.25788
-0.07666 0.30167 0.24203
-0.01594 0.30167 0.25175
-0.09191 0.30167 0.25697
-0.10949 -0.30167 0.17356
-0.12801 0.23069 -0.13059
-0.06334 0.30167 0.19712
-0.05772 0.30167 0.19989
-0.05682 0.30167 0.21779
-0.16096 0.30167 0.20668
-0.18036 0.30167 0.20152
-0.08126 0.30167 0.21068
-0.01426 0.30167 0.20296
-0.14968 0.30167 0.22530
-0.03619 0.30167 0.21563
-0.07149 0.30167 0.19857
-0.09022 0.30167 0.19905
-0.17919 0.23069 -0.08438
0.04573 0.23069 -0.05505
0.12053 0.23069 -0.05595
-0.17116 0.23069 -0.06597
-0.04134 0.23069 -0.04101
0.08470 0.23069 -0.04759
0.01879 0.23069 -0.04975
-0.19522 0.23069 -0.06994
-0.21340 0.23069 -0.04682
-0.02492 0.23069 -0.06353
-0.25783 0.23069 -0.06097
-0.01644 0.23069 -0.04981
-0.12161 0.23069 -0.08261
-0.21833 0.23069 -0.05920
-0.15893 0.23069 -0.05420
-0.26810 0.23069 -0.03781
0.12096 0.23069 -0.04576
-0.23526 0.23069 -0.05646
-0.22620 0.23069 -0.04900
-0.16578 0.23069 -0.07035
-0.22113 0.23069 -0.08742
-0.15656 0.23069 -0.08918
-0.20970 0.23069 -0.05810
-0.09369 0.23069 -0.06689
-0.23046 0.23069 -0.06100
-0.10135 0.23069 -0.05108
-0.21727 0.23069 -0.06545
0.13129 0.23069 0.10825
0.08571 0.23069 0.11023
0.20731 0.30167 -0.12085
-0.05144 0.30167 -0.16907
0.14112 0.30167 -0.12974
0.09181 0.30167 -0.15833
0.01161 0.30167 -0.14275
0.12730 0.30167 -0.14353
-0.07600 0.30167 -0.16161
0.14460 0.30167 -0.14158
-0.02250 0.30167 -0.15965
0.21738 0.30167 -0.15967
0.13579 0.30167 -0.16294
0.18583 0.30167 -0.17271
0.13076 0.30167 -0.16319
0.20158 0.30167 -0.15363
0.14551 0.30167 -0.16468
0.18083 0.30167 -0.15628
-0.15558 -0.07115 0.16898
-0.15568 -0.05665 0.16976
-0.15530 -0.11357 0.16687
0.10118 -0.16971 -0.18089
0.10056 0.05252 -0.17939
0.10096 -0.18843 -0.18035
-0.11241 -0.17879 0.14665
-0.11159 0.06180 0.14727
-0.15498 -0.30167 -0.11287
-0.01986 0.26824 -0.28126
-0.03615 0.26693 -0.28104
-0.03593 0.23811 -0.28104
-0.13957 0.11681 0.14520
-0.13996 0.16808 0.14536
-0.19282 -0.30167 -0.11846
0.19626 0.01166 0.13667
0.19693 0.02679 0.13506
0.19515 -0.19378 0.13936
0.08809 0.26023 0.26763
0.10327 0.29507 0.26335
0.07362 0.28997 0.27171
0.09364 0.29673 0.26606
-0.15525 -0.26373 0.16653
-0.15545 -0.03659 0.16803
-0.14271 -0.25350 -0.12298
-0.14279 0.06842 -0.12264
-0.14323 -0.19291 -0.12090
-0.09909 0.11086 0.17128
-0.09954 -0.08488 0.17467
-0.09945 -0.21412 0.17398
-0.18430 0.22687 -0.10280
-0.13750 -0.02747 0.19691
-0.13490 0.10221 0.19799
-0.13812 0.18356 0.19666
0.14567 0.10069 0.11212
0.14645 -0.13143 0.11111
0.14651 -0.00599 0.11103
0.15562 0.14597 -0.17198
0.15556 0.06407 -0.17240
-0.23131 0.24343 0.16176
-0.23029 0.28037 0.16346
-0.22877 0.28842 0.16602
-0.25367 0.23869 0.12418
0.00305 0.23069 -0.10730
-0.18017 -0.20492 -0.15396
-0.17806 -0.29801 -0.15455
-0.10107 -0.05328 0.18063
-0.10139 -0.22003 0.18138
-0.10037 -0.11973 0.17894
-0.10342 -0.24560 0.18562
-0.10405 -0.15801 0.18644
-0.10340 0.08975 0.18559
0.05215 0.30167 -0.23445
0.06219 0.30167 -0.23173
-0.03541 0.30167 -0.23865
-0.00410 0.30167 -0.22547
-0.11080 0.30167 -0.26066
-0.02879 0.30167 -0.24135
-0.05134 0.30167 -0.24592
-0.06951 0.30167 -0.24580
-0.13614 -0.20753 0.19747
-0.13918 -0.29267 0.19621
-0.00858 0.23069 -0.13243
-0.10948 0.11600 0.14889
-0.11169 -0.13323 0.14720
-0.11276 -0.02594 0.14638
-0.01790 0.23800 0.28175
0.00181 0.26136 0.28149
-0.02714 0.29538 0.28187
-0.03048 0.25429 0.28192
-0.17263 0.18583 -0.09922
-0.16814 0.02238 -0.09928
-0.16869 -0.06125 -0.09927
0.03645 0.23884 -0.28117
0.03451 0.28372 -0.28166
0.07655 0.28872 -0.27099
0.06691 0.27577 -0.27344
-0.05350 0.23069 -0.13897
-0.14896 0.13830 -0.14559
-0.14899 -0.05871 -0.14562
-0.15093 -0.25404 -0.14752
0.15360 0.04652 0.10383
0.15042 -0.02791 0.10627
-0.15274 -0.18764 0.15824
-0.15409 -0.02729 0.16151
-0.15425 -0.12235 0.16188
-0.15027 -0.06953 0.18707
-0.14973 0.21016 0.18777
0.12970 0.23510 -0.24999
0.15917 0.28786 -0.23349
0.15403 0.26990 -0.23637
0.15639 0.23200 -0.23505
-0.17835 0.23069 0.15548
-0.11060 -0.25180 0.14804
-0.10878 0.09140 0.14943
-0.10942 -0.02131 0.14894
0.27890 0.24232 -0.04815
0.28093 0.29034 -0.04094
0.27252 0.26455 -0.07075
0.26778 0.28804 -0.08755
0.11022 -0.26049 -0.14833
0.11079 -0.21217 -0.14789
0.10776 0.07642 -0.15022
-0.14696 -0.00799 -0.14267
-0.14685 -0.16206 -0.14249
0.19240 -0.30167 0.13983
0.14826 -0.20585 0.14491
0.14852 -0.11286 0.14525
0.14792 -0.28944 0.14448
0.10847 0.15341 -0.19158
0.11103 0.18159 -0.19354
0.10900 -0.08668 -0.19199
0.17398 -0.30167 0.11250
0.10925 0.23069 -0.13240
0.14700 0.23069 -0.12526
-0.06162 0.23069 -0.11773
0.17557 0.23069 -0.12782
0.00237 0.23069 -0.11887
-0.00599 0.23069 -0.12523
0.11767 0.23069 -0.12445
-0.22804 0.23069 0.12108
-0.16263 0.00167 -0.15441
-0.16017 -0.19192 -0.15379
-0.16644 -0.28067 -0.15538
-0.14866 -0.26463 0.18916
-0.14777 -0.23838 0.19032
0.10331 0.20860 -0.18547
0.10458 0.14726 -0.18713
0.12329 0.26830 0.25420
0.11533 0.28219 0.25893
0.14665 0.26308 0.24030
0.14982 0.23818 0.23841
0.14974 0.23069 -0.19757
0.01193 0.27044 -0.28167
0.00936 0.23362 -0.28164
-0.00172 0.26687 -0.28149
0.03026 0.23069 -0.20230
-0.14750 0.22021 -0.11109
-0.14767 -0.15466 -0.11078
-0.14679 0.10205 -0.11235
0.11361 0.30167 -0.00838
0.22383 0.30167 -0.02367
0.12292 0.30167 -0.00680
0.27647 0.30167 0.01029
0.19181 0.30167 0.02225
0.00347 0.30167 -0.03214
0.26051 0.30167 0.00757
-0.13240 0.30167 -0.02123
-0.00264 0.30167 -0.02833
0.27884 0.30167 -0.01277
-0.02225 0.30167 -0.01823
-0.11873 0.30167 -0.01799
0.15901 0.30167 0.00385
0.15237 0.30167 0.01408
0.21755 0.30167 -0.03083
0.28015 0.30167 0.02826
0.10524 0.30167 -0.02152
0.04171 0.30167 -0.02192
-0.13334 0.30167 -0.03115
0.27450 0.30167 -0.00858
0.13716 0.30167 -0.03045
0.02399 0.30167 -0.02150
0.17013 0.30167 -0.00812
0.17594 0.30167 -0.01279
0.21939 0.30167 -0.01524
0.23869 0.30167 -0.00634
-0.13188 -0.09382 0.14282
-0.12980 0.09780 0.14255
-0.13373 0.14692 0.14307
-0.09363 0.23069 0.13272
-0.12658 0.23069 0.12218
-0.06607 0.23069 0.13971
-0.12321 0.23069 0.13955
-0.18173 0.23069 0.12002
-0.01348 0.23069 0.13813
-0.10860 -0.15240 0.19168
-0.11019 0.07438 0.19290
-0.11027 0.20800 0.19296
-0.20804 0.23069 -0.03123
0.18974 0.23069 0.00112
0.12688 0.23069 -0.01124
0.08844 0.23069 -0.01157
-0.00846 0.23069 -0.01299
-0.07969 0.23069 -0.03188
0.26121 0.23069 0.02703
-0.07264 0.23069 -0.02496
-0.09262 0.23069 -0.01467
0.27771 0.23069 0.02368
0.21529 0.23069 -0.01801
0.17250 0.23069 0.00055
0.13905 0.23069 -0.02227
-0.06664 0.23069 -0.01250
0.12394 0.23069 -0.03275
0.11642 0.23069 -0.00990
0.04128 0.23069 -0.02748
0.15787 0.23069 -0.01787
0.20227 0.23069 -0.01268
0.12594 0.23069 -0.02273
0.15818 0.23069 -0.00636
0.00312 0.23069 -0.02938
0.23052 0.23069 -0.02181
0.02214 0.23069 -0.02313
0.24944 0.23069 -0.02530
0.26745 0.23069 0.02707
0.13920 0.23069 -0.03689
0.25809 0.23069 -0.01928
0.22135 0.23069 -0.03802
0.03373 0.23069 -0.00488
0.17164 0.02502 0.09867
0.17048 -0.11687 0.09852
0.12531 0.11347 -0.19874
0.12232 -0.01406 -0.19835
0.12014 0.03017 -0.19806
-0.10785 -0.06694 0.15015
-0.10873 -0.03604 0.14947
-0.10764 -0.08028 0.15031
0.16339 -0.22861 0.15437
0.16540 -0.18919 0.15464
-0.14251 0.20573 -0.13037
-0.14249 0.00904 -0.12823
-0.14250 0.13708 -0.12965
0.15321 -0.10249 -0.15939
0.15449 -0.17089 -0.16247
0.15316 -0.15014 -0.15926
0.10775 0.19859 -0.15023
0.11280 -0.24513 -0.14635
0.11225 0.18188 -0.14677
0.17194 -0.12515 0.15495
0.17161 -0.16803 0.15500
0.17164 -0.22434 0.15499
-0.12605 0.11883 0.19884
-0.12627 -0.14950 0.19887
-0.12605 -0.24161 0.19884
0.25657 0.23069 -0.10210
0.00623 0.23069 -0.08779
0.13403 0.23069 -0.09912
-0.01754 0.23069 -0.08410
0.21261 0.23069 -0.10359
-0.06584 0.23069 -0.08937
0.01951 0.23069 -0.07925
0.18026 0.23069 -0.06932
0.13937 0.23069 -0.08562
0.14537 0.23069 -0.07907
0.13952 0.23069 -0.06119
0.22956 0.23069 -0.04925
0.21053 0.23069 -0.10829
0.25378 0.23069 -0.11138
0.24292 0.23069 -0.05556
0.10050 0.23069 -0.07061
0.17387 0.23069 -0.06509
0.23299 0.23069 -0.07891
-0.09687 0.23069 -0.09720
0.24483 0.23069 -0.10122
-0.01019 0.23069 -0.08248
-0.12799 -0.28237 0.19894
-0.13343 -0.21782 0.19822
-0.01974 0.23069 -0.15299
-0.24627 0.23069 0.09148
-0.14067 0.23069 0.09486
-0.17489 0.23069 0.11032
-0.07664 0.23069 0.07833
-0.04848 0.23069 0.08932
0.08352 0.23069 0.10404
-0.09500 0.23069 0.10126
0.04225 0.23069 0.10406
-0.06322 0.23069 0.08631
-0.18831 0.23069 0.10196
-0.22967 0.23069 0.06818
-0.06404 0.23069 0.10909
-0.05131 0.23069 0.10658
-0.26256 0.23069 0.07170
-0.13953 0.23069 0.08369
-0.20410 0.23069 0.05362
-0.01814 0.23069 0.08136
0.00275 0.23069 0.09333
-0.04456 0.23069 0.08604
-0.13443 0.23069 0.09167
-0.22373 0.23069 0.09427
0.24179 0.27663 0.14435
0.23552 0.25739 0.15555
0.25670 0.29818 0.11772
0.23246 0.24621 0.16101
-0.04643 0.23069 -0.13459
-0.14244 0.02282 -0.12489
-0.14249 0.11954 -0.12825
-0.14248 0.09405 -0.12755
-0.09142 0.23069 0.19340
0.20025 0.23069 0.06936
0.11037 0.23069 0.05951
0.07517 0.23069 0.07949
0.07820 0.23069 0.05978
-0.00064 0.23069 0.05438
-0.17892 0.23069 0.05285
-0.12781 0.23069 0.04562
0.02105 0.23069 0.06712
0.06652 0.23069 0.07917
-0.00687 0.23069 0.05161
0.12218 0.23069 0.05860
0.16089 0.23069 0.09276
-0.02814 0.23069 0.03900
-0.05035 0.23069 0.04397
-0.13248 0.23069 0.05152
-0.02171 0.23069 0.05410
0.23220 0.23069 0.04883
0.00774 0.23069 0.06827
-0.02705 0.23069 0.04947
0.20174 0.23069 0.04870
0.17096 0.23069 0.06134
0.02470 0.30167 0.08196
-0.09020 0.30167 0.06621
-0.23313 0.30167 0.07148
-0.07444 0.30167 0.08457
-0.01443 0.30167 0.07461
0.18149 0.30167 0.10058
-0.18027 0.30167 0.05581
-0.25518 0.30167 0.07072
-0.14633 0.30167 0.10308
-0.04859 0.30167 0.10611
-0.13122 0.30167 0.09913
-0.00721 0.30167 0.10261
-0.25000 0.30167 0.10993
-0.26189 0.30167 0.09702
-0.02642 0.30167 0.10616
0.04584 0.30167 0.08086
-0.22795 0.30167 0.05987
0.11428 0.30167 0.09478
-0.18607 0.30167 0.08227
-0.05904 0.30167 0.09622
-0.18629 0.30167 0.11012
-0.16613 0.30167 0.08505
0.06810 0.30167 0.08562
-0.04340 0.30167 0.09085
-0.18766 0.30167 0.07192
-0.04874 0.30167 0.07200
-0.24523 0.30167 0.05905
0.02996 0.30167 0.10138
-0.19880 -0.01462 -0.12912
-0.19878 -0.05483 -0.12793
-0.19881 -0.14707 -0.12989
0.18688 -0.02420 0.14926
0.18794 -0.09646 0.14845
0.18751 0.21290 0.14877
-0.28195 0.29687 -0.03263
-0.28177 0.29897 -0.01928
-0.28168 0.28839 -0.01267
-0.28119 0.30156 0.02519
0.18623 0.23069 0.08904
-0.16637 0.23069 0.20149
-0.20471 0.23069 0.18442
0.18129 0.23069 0.00333
-0.01586 0.23069 -0.01809
0.23052 0.23069 -0.01105
0.07573 0.23069 -0.03173
-0.11835 0.23069 -0.03138
0.26065 0.23069 0.00286
0.23348 0.23069 -0.03200
0.18479 0.23069 -0.00354
0.26659 0.23069 0.00264
0.02874 0.23069 0.00027
0.06964 0.23069 -0.02242
0.27103 0.23069 0.00563
0.22143 0.23069 -0.03293
0.11275 0.23069 0.00675
0.19911 0.23069 0.01825
0.04183 0.23069 0.00079
-0.19461 0.23069 -0.02835
0.10925 0.23069 -0.03646
-0.00671 0.23069 -0.00120
0.21603 0.23069 0.01699
0.17168 0.23069 -0.00952
0.17057 0.23069 -0.01537
-0.22968 0.23069 -0.03010
0.14555 0.23069 -0.01383
0.24329 0.23069 0.02298
0.18793 0.23069 -0.03575
0.10930 0.16159 -0.19222
0.10875 0.07556 -0.19180
0.11026 0.08197 -0.19295
0.03473 0.30167 -0.27520
-0.14266 0.12572 -0.13196
-0.14272 0.18399 -0.13214
-0.19548 -0.14461 -0.14063
-0.19509 -0.09853 -0.14133
-0.19588 -0.26572 -0.13992
-0.03411 0.30167 -0.27789
0.00721 0.30167 -0.26369
-0.01815 0.30167 -0.27601
-0.11770 -0.19021 0.14417
-0.11372 0.00134 0.14583
-0.11336 -0.29630 0.14597
0.11590 0.19520 -0.14492
0.11836 -0.03060 -0.14390
0.11928 0.15750 -0.14352
-0.19581 0.23255 -0.20240
-0.22240 0.28950 -0.17510
-0.19416 0.24419 -0.20410
-0.21663 0.24960 -0.18103
-0.12879 0.23475 -0.25092
-0.13063 0.24415 -0.24983
-0.15921 0.23643 -0.23282
-0.03994 0.25695 0.28028
-0.08535 0.29810 0.26875
-0.04311 0.26254 0.27948
0.19484 0.01491 0.11356
0.19463 0.12919 0.11306
0.19593 -0.29100 0.11620
-0.10261 0.08310 0.15691
-0.10187 -0.12370 0.15871
-0.10262 -0.16562 0.15690
0.10963 0.29063 -0.26123
0.15678 0.29408 -0.23483
0.10754 0.27532 -0.26240
0.11812 0.24794 -0.25648
-0.12089 0.23069 -0.10578
-0.11461 0.23069 -0.10939
0.14469 -0.22338 0.13961
0.14498 -0.00644 0.14030
0.14484 -0.07377 0.13998
-0.23905 0.25220 -0.14924
-0.25145 0.26627 -0.12710
-0.24671 0.23315 -0.13556
-0.24876 0.25077 -0.13190
0.03798 0.30167 -0.27122
-0.04197 0.30167 -0.26589
-0.19571 0.23069 -0.11299
0.11956 0.11353 -0.19785
0.11608 -0.11864 -0.19641
0.11630 -0.24812 -0.19650
0.14149 -0.08900 0.12697
0.14161 0.10866 0.12788
0.14167 -0.00935 0.12835
0.22964 0.26535 -0.16456
0.25427 0.23380 -0.12316
0.24116 0.26360 -0.14519
0.22562 0.27477 -0.17132
-0.13347 0.00931 0.19822
-0.13365 0.13786 0.19820
-0.13463 0.09402 0.19807
0.08809 0.23069 -0.17321
0.06725 0.23069 -0.17897
-0.19535 0.07784 -0.14087
-0.19379 -0.17423 -0.14364
0.18194 -0.30167 0.10910
0.15397 0.21136 0.15011
0.15533 0.06636 0.15116
-0.20088 0.23069 -0.16542
-0.09179 0.23069 -0.15908
0.18891 0.05133 0.10597
0.18460 -0.29847 0.10266
0.18830 -0.11810 0.10549
-0.28142 0.28276 0.00712
-0.28195 0.24794 -0.03289
-0.28170 0.26963 -0.01362
-0.28177 0.27211 -0.01949
-0.16207 0.25877 0.23187
-0.13676 0.23595 0.24604
-0.15417 0.27485 0.23629
0.19434 0.21142 0.14118
0.19157 -0.13964 0.14478
0.19374 -0.01132 0.14196
-0.15391 0.08516 0.16108
-0.15406 0.13613 0.16143
-0.15205 0.10397 0.15658
0.09937 -0.11391 -0.17338
0.09920 -0.27476 -0.17210
0.09934 -0.12687 -0.17314
0.14358 0.15204 -0.19369
0.14166 -0.09588 -0.19517
0.14428 -0.02320 -0.19316
0.15025 0.17154 -0.18709
0.15002 0.22098 -0.18739
0.14913 0.04578 -0.18854
-0.16359 0.28262 -0.23022
-0.16082 0.27512 -0.23187
-0.12698 0.29453 -0.25200
-0.14294 0.28031 -0.24250
-0.10074 -0.26362 0.17981
-0.10028 -0.20546 0.17872
-0.10009 -0.29516 0.17824
-0.04398 0.23069 -0.24046
0.01237 0.23069 -0.22895
-0.13125 0.23069 -0.23987
-0.10756 0.23069 -0.25646
-0.14613 0.23069 -0.23638
0.01835 0.23069 -0.23121
0.10357 0.23069 -0.23424
-0.05262 0.23069 -0.24749
-0.16692 0.23069 -0.22608
-0.08468 0.23069 -0.23856
-0.17733 0.18784 -0.10006
-0.18627 0.23069 -0.15665
-0.14322 -0.10534 -0.12096
-0.14289 -0.17785 -0.12227
0.24749 0.30167 0.09499
0.19371 0.30167 0.08631
0.14865 0.30167 0.06909
0.05895 0.30167 0.03939
0.25313 0.30167 0.07156
-0.05258 0.30167 0.05036
0.08566 0.30167 0.04111
0.20179 0.30167 0.05296
0.10765 0.30167 0.06736
0.03576 0.30167 0.03993
0.01666 0.30167 0.04879
-0.01100 0.30167 0.05621
0.26549 0.30167 0.03638
0.17208 0.30167 0.08711
0.24628 0.30167 0.04648
-0.06256 0.30167 0.03921
0.08941 0.30167 0.06366
0.21255 0.30167 0.03521
0.16465 0.30167 0.08722
0.11491 0.30167 0.06380
-0.02866 0.30167 0.06863
0.19810 0.30167 0.04545
0.20223 0.30167 0.09059
0.06286 0.30167 0.06047
0.18438 0.30167 0.05634
0.23880 0.30167 0.03582
0.10230 0.07691 -0.18358
0.10264 0.11843 -0.18441
-0.02897 0.23069 0.14624
-0.13673 -0.11447 0.19723
-0.13988 0.14322 0.19593
0.12024 -0.01731 -0.14318
0.12374 -0.24948 -0.14272
-0.19731 0.00402 -0.11833
-0.19708 -0.14755 -0.11748
-0.19763 -0.28960 -0.11945
-0.19868 -0.14304 -0.12317
-0.19769 0.06154 -0.11966
-0.19718 0.16439 -0.11784
0.09935 0.20306 -0.17323
0.09978 0.04415 -0.17647
0.28128 0.26468 -0.01802
0.28115 0.26704 -0.02808
0.28138 0.26571 -0.01067
0.28122 0.25308 -0.02226
0.02553 0.23069 0.13182
0.12996 0.23069 0.13788
-0.27504 0.25704 -0.06060
-0.27986 0.27888 -0.04160
-0.27556 0.24645 -0.05853
0.14684 0.17326 0.14306
0.14568 0.03469 0.14155
0.14760 0.14330 0.14405
0.12439 0.00757 -0.14263
0.12199 0.22862 -0.14295
0.12020 0.22094 -0.14318
-0.10098 0.16273 0.16085
-0.10100 -0.01552 0.16080
-0.10037 0.08525 0.16232
-0.00371 0.23069 0.13503
-0.20539 0.23069 0.11934
-0.09201 0.23069 0.14018
-0.04792 0.23069 0.13986
-0.15780 0.23069 0.13012
0.07437 0.30167 0.10296
0.05692 0.30167 0.10564
0.02334 0.30167 0.07681
-0.01804 0.30167 0.07938
-0.17981 0.30167 0.08327
0.04271 0.30167 0.09159
0.01164 0.30167 0.09188
-0.12931 0.30167 0.07269
-0.02227 0.30167 0.09608
-0.14425 0.30167 0.09360
-0.12275 0.30167 0.08689
-0.05967 0.30167 0.07979
-0.20883 0.30167 0.05679
-0.20274 0.30167 0.08076
0.00662 0.30167 0.08786
-0.07857 0.30167 0.07565
-0.23495 0.30167 0.08886
0.11788 0.30167 0.08822
-0.23532 0.30167 0.05940
-0.16237 0.30167 0.10963
-0.02722 0.30167 0.08119
-0.23427 0.30167 0.09500
-0.04546 0.30167 0.08517
-0.03429 0.30167 0.10633
-0.22084 0.30167 0.09323
0.18479 0.08443 0.10280
0.18643 0.13307 0.10406
0.18550 -0.04986 0.10335
0.15497 -0.00490 -0.17687
0.15527 -0.25503 -0.17457
0.15524 -0.17945 -0.17481
0.12861 0.10587 -0.19886
0.16604 0.03625 0.15472
0.16853 0.10395 0.15505
0.16935 -0.25353 0.15516
0.12422 -0.17694 -0.19860
0.12680 -0.16331 -0.19894
0.12587 -0.21057 -0.19882
0.19619 0.22004 0.11683
-0.13914 -0.13228 0.14502
-0.13739 -0.29870 0.14430
-0.13850 -0.22420 0.14476
0.13369 0.23069 -0.13718
0.03626 0.23069 -0.12815
0.01529 0.23069 -0.12698
0.17748 0.23069 -0.12050
0.14137 0.23069 -0.13436
0.16059 0.23069 -0.12323
-0.06031 0.23069 -0.12457
0.10970 0.23069 -0.12348
-0.10443 -0.12874 0.15432
-0.10625 -0.13551 0.15195
-0.11981 0.03316 0.14330
-0.11648 0.08277 0.14468
-0.11586 0.09760 0.14494
0.17410 0.23069 -0.20127
0.20325 0.23069 -0.18965
0.17379 0.24303 0.22415
0.14590 0.29459 0.24074
0.14888 0.28657 0.23897
0.15491 0.30057 0.23538
0.19304 -0.15839 0.14287
-0.07306 0.23594 0.27187
-0.04982 0.23741 0.27778
-0.09392 0.23532 0.26658
-0.09823 0.28821 0.26548
-0.12873 -0.28553 0.14241
-0.12793 -0.10836 0.14230
-0.18691 0.06798 -0.10426
-0.18600 -0.09452 -0.10375
-0.18242 -0.30120 -0.10174
-0.09949 0.23069 0.14384
0.26219 0.29555 -0.10738
0.27125 0.24342 -0.07526
0.27238 0.23334 -0.07125
0.26925 0.25778 -0.08234
-0.19432 0.10116 -0.14269
-0.19436 0.22729 -0.14263
-0.19423 0.21732 -0.14285
-0.12054 0.18427 0.19812
-0.12279 0.19732 0.19841
-0.12393 0.20658 0.19856
-0.19127 -0.12598 -0.10821
-0.18946 -0.26863 -0.10645
-0.19146 -0.22218 -0.10840
0.16849 0.22623 0.15504
0.16454 0.08750 0.15452
-0.19101 -0.28398 -0.10796
-0.19173 0.07397 -0.10866
0.11108 -0.30167 -0.17547
-0.18636 -0.03923 -0.15080
-0.18711 0.19692 -0.15035
-0.15560 -0.02395 0.17207
-0.15567 -0.10565 0.17153
-0.15554 -0.01480 0.17254
-0.19788 -0.28151 -0.12034
-0.19810 -0.27499 -0.12112
-0.02822 0.23069 -0.27009
-0.03700 0.23069 -0.26889
0.21887 0.23069 -0.16920
0.24374 0.23069 -0.13574
0.17501 0.23069 -0.13685
0.23318 0.23069 -0.14136
0.13982 0.23069 -0.14345
-0.14250 -0.05735 -0.12942
-0.14249 -0.21217 -0.12866
-0.14250 0.02978 -0.12933
-0.11385 -0.21446 0.14577
-0.11505 0.03807 0.14527
-0.10470 -0.02395 0.18728
-0.10490 -0.04756 0.18754
-0.10371 -0.28740 0.18600
0.09612 0.24685 0.26536
0.05495 0.29487 0.27698
0.08778 0.30148 0.26772
0.10273 0.24670 0.26350
-0.14766 -0.01363 -0.11080
-0.14711 -0.03140 -0.11177
-0.14719 -0.16467 -0.11164
-0.12551 0.23069 -0.16048
-0.01182 0.23069 -0.16064
0.09101 0.24542 0.26681
0.08244 0.23634 0.26922
0.05775 0.24836 0.27619
0.19745 -0.27136 0.13299
0.19807 -0.00528 0.12825
0.19823 -0.08758 0.12701
0.20053 0.30167 -0.07887
0.16243 0.30167 -0.07504
-0.02186 0.30167 -0.09292
0.04914 0.30167 -0.09977
0.18829 0.30167 -0.08673
0.25095 0.30167 -0.11138
0.06189 0.30167 -0.10603
0.05221 0.30167 -0.07163
0.21790 0.30167 -0.07969
-0.06605 0.30167 -0.10415
0.13528 0.30167 -0.09767
-0.12659 0.30167 -0.09335
0.19136 0.30167 -0.07377
0.15767 0.30167 -0.08890
-0.03012 0.30167 -0.09799
0.15030 0.30167 -0.05743
0.03827 0.30167 -0.07992
0.12634 0.30167 -0.08110
0.19472 0.30167 -0.07805
0.20846 0.30167 -0.08955
-0.11503 0.30167 -0.10687
-0.02665 0.30167 -0.07835
0.13125 0.30167 -0.08547
0.11784 0.30167 -0.09449
0.12685 0.30167 -0.09661
-0.03010 0.30167 -0.08908
0.15049 0.30167 -0.06974
-0.19812 0.19603 -0.13352
-0.19803 0.08969 -0.13387
-0.19789 0.13980 -0.13441
0.17365 -0.07973 0.09894
0.17039 -0.29411 0.09851
0.17397 -0.26157 0.09898
-0.19760 0.25988 0.20049
-0.19417 0.26262 0.20383
-0.21062 0.27626 0.18780
-0.22104 0.25219 0.17765
0.14481 0.29613 -0.24153
0.12746 0.27448 -0.25125
-0.13257 -0.05517 0.14291
-0.12835 0.19891 0.14236
-0.13124 0.05658 0.14274
-0.14409 -0.01134 -0.11753
-0.14344 0.19700 -0.12008
0.14438 0.13087 0.13886
0.14381 -0.04008 0.13749
0.14277 -0.15915 0.13497
-0.12958 -0.05708 0.19873
0.05486 0.30167 0.26833
-0.00232 0.30167 0.27483
-0.05850 0.30167 0.26790
0.03558 0.23069 0.24480
0.13488 0.23069 0.24445
0.09082 0.23069 0.24136
0.12059 0.23069 0.24907
0.14864 0.23069 0.23545
-0.00871 0.23069 0.23810
-0.01445 0.23069 0.23773
0.06345 0.23069 0.23641
0.15137 0.15149 0.14812
0.15272 0.19720 0.14916
0.01447 0.23069 -0.19284
-0.25456 0.28298 0.12268
-0.26028 0.28175 0.11306
-0.25878 0.27210 0.11559
-0.24988 0.26747 0.13055
0.02820 0.28088 0.28115
-0.15773 -0.10377 -0.10232
-0.15466 -0.17973 -0.10414
-0.15819 0.10463 -0.10204
0.13064 -0.08095 -0.14266
0.13067 -0.09004 -0.14266
0.13260 -0.23359 -0.14292
0.13683 -0.14717 -0.14406
0.14124 -0.29544 -0.14589
0.13884 -0.24421 -0.14490
0.13865 -0.08072 -0.14482
0.13748 -0.05120 -0.14433
0.13698 -0.23018 -0.14413
0.20262 0.23069 0.10554
-0.18645 -0.19738 -0.15074
-0.18377 0.01148 -0.15233
-0.18338 -0.13662 -0.15257
0.18808 0.22525 0.14834
0.18920 0.00336 0.14748
0.18836 0.04775 0.14812
0.02902 0.28179 -0.28190
-0.00818 0.24606 -0.28141
0.00055 0.24810 -0.28152
0.01649 0.27471 -0.28173
0.15492 -0.02491 -0.17723
0.15509 -0.23768 -0.17593
0.15549 -0.17479 -0.17290
-0.18501 -0.26768 -0.15160
-0.18259 -0.07168 -0.15304
0.04294 0.23695 -0.27952
0.08563 0.27375 -0.26868
0.09221 0.28392 -0.26701
0.09722 0.26256 -0.26574
-0.17142 0.21615 -0.15554
-0.17156 0.14545 -0.15554
-0.17409 0.02457 -0.15551
0.11323 -0.05766 -0.19522
0.11475 0.06751 -0.19585
0.14190 -0.14829 0.12361
-0.24128 0.23069 0.12285
0.10698 -0.13686 -0.15100
0.10553 -0.02860 -0.15288
0.10376 -0.25584 -0.15520
0.21623 0.23069 -0.14444
0.23750 0.23069 -0.13453
0.18926 0.23069 -0.13549
0.16709 0.23069 -0.17085
0.23283 0.30167 -0.05698
0.13715 0.30167 -0.08998
0.02020 0.30167 -0.08472
0.02340 0.30167 -0.09110
-0.08226 0.30167 -0.09495
0.25650 0.30167 -0.07031
0.20283 0.30167 -0.06333
0.15696 0.30167 -0.09701
-0.01166 0.30167 -0.10491
0.02289 0.30167 -0.09830
0.26064 0.30167 -0.08756
0.14920 0.30167 -0.09037
-0.01917 0.30167 -0.10419
0.00835 0.30167 -0.08176
-0.07599 0.30167 -0.09133
0.24901 0.30167 -0.09926
0.13015 0.30167 -0.10768
0.25554 0.30167 -0.05963
0.21399 0.30167 -0.04970
0.10982 0.30167 -0.08239
0.15216 0.30167 -0.08461
-0.12387 0.30167 -0.10424
0.02713 0.30167 -0.10501
-0.15405 0.30167 -0.10277
0.19094 -0.25247 0.10806
0.19066 -0.01657 0.10769
0.19070 0.06477 0.10775
-0.24679 0.29896 -0.13541
-0.25431 0.28814 -0.12199
-0.23913 0.26649 -0.14910
-0.23060 0.28416 -0.16434
0.16155 0.25252 -0.23216
0.13682 0.26100 -0.24601
0.11080 0.23392 -0.26058
0.17440 0.10391 0.15463
0.17557 0.04566 0.15447
0.08439 0.30167 0.25949
-0.05676 0.30167 0.24313
-0.14969 0.30167 0.23800
-0.05204 0.30167 0.25927
-0.07167 0.30167 0.25285
-0.16808 0.23069 0.11126
