0.00056 -0.01368 -0.02935
0.02597 -0.07196 -0.02935
0.01976 0.15046 -0.02935
0.02398 0.07971 -0.02935
0.00630 -0.12671 -0.02935
0.02351 -0.26817 -0.02935
-0.03231 -0.24024 -0.03522
-0.20723 0.24946 -0.10972
-0.15273 0.24946 -0.11181
-0.29204 0.24946 0.19275
-0.07640 0.24946 0.01565
-0.27087 0.24946 -0.01572
-0.20132 0.24946 -0.11790
-0.19326 0.24946 0.13751
-0.21201 0.24946 -0.12273
-0.23018 0.24946 0.12240
-0.24472 0.24946 -0.07084
-0.19399 0.24946 -0.00751
-0.05946 0.24946 0.00138
-0.11861 0.24946 0.03976
-0.13398 0.24946 -0.00351
-0.18026 0.24946 0.00349
-0.27138 0.24946 -0.17418
-0.28514 0.24946 0.02889
-0.23442 0.24946 -0.11466
-0.24307 0.24946 -0.08013
-0.27162 0.24946 -0.13295
-0.13478 0.24946 -0.03367
-0.28539 0.24946 0.23872
-0.24968 0.24946 0.13119
-0.21550 0.24946 -0.08795
-0.14350 0.24946 -0.02664
-0.11101 0.24946 -0.04078
-0.09643 0.24946 -0.07783
-0.26822 0.24946 -0.20307
-0.09156 0.24946 -0.02763
-0.16365 0.24946 -0.03827
-0.27232 0.24946 0.10816
-0.04870 0.24946 -0.02806
-0.27621 0.24946 -0.05574
-0.12984 0.24946 -0.12714
-0.06263 0.24946 -0.03700
-0.24769 0.24946 0.19254
-0.27299 0.24946 -0.06188
-0.12774 0.24946 0.05301
-0.13771 0.24946 0.03643
-0.27962 0.24946 -0.26139
-0.04508 0.24946 -0.02032
-0.25527 0.24946 0.16075
-0.27948 0.24946 -0.21368
-0.21775 0.24946 0.02246
-0.11501 0.24946 -0.02336
-0.15671 0.24946 -0.04492
-0.24595 0.24946 -0.11708
-0.24160 0.24946 0.11375
-0.25540 0.24946 0.20151
-0.26563 0.24946 -0.12848
-0.28077 0.24946 -0.19708
-0.20532 0.24946 -0.14370
-0.13540 0.24946 -0.11147
-0.22883 0.24946 -0.05055
-0.20656 0.24946 0.06057
-0.24970 0.24946 -0.21560
-0.20130 0.24946 0.10521
-0.15769 0.24946 0.02797
-0.17921 0.24946 0.15074
-0.13264 0.24946 -0.06200
-0.16564 0.24946 0.13081
-0.19161 0.24946 0.12215
-0.27058 0.24946 -0.21292
-0.25184 0.24946 -0.04573
-0.23528 0.24946 0.19232
-0.23868 0.24946 0.07257
-0.17991 0.24946 -0.14042
-0.19855 0.24946 0.06778
-0.08751 0.24946 -0.07073
-0.25989 0.24946 -0.09233
-0.16518 0.24946 -0.15457
-0.26351 0.24946 -0.18405
-0.25685 0.24946 -0.22533
-0.25949 0.24946 0.12899
-0.21672 0.24946 0.18573
-0.14190 0.24946 0.08339
-0.25977 0.24946 0.24961
-0.20350 0.24946 0.11054
-0.27182 0.24946 0.02233
-0.08785 0.24946 0.04120
-0.18444 0.24946 0.08312
-0.10110 0.24946 -0.01554
-0.16368 0.24946 -0.00665
-0.10798 0.24946 0.03750
-0.20214 0.24946 0.15022
-0.10095 0.24946 -0.08121
-0.13895 0.24946 -0.13693
-0.24589 0.24946 -0.01698
-0.14369 0.24946 -0.08569
-0.18139 0.24946 -0.11860
-0.26033 0.24946 -0.23806
-0.28021 0.24946 -0.02107
-0.24872 0.24946 -0.00893
-0.23398 0.24946 0.10790
-0.09812 0.24946 -0.00973
-0.16778 0.24946 0.10342
-0.27626 0.24946 -0.15531
-0.15914 0.24946 0.08803
-0.28613 0.24946 -0.27490
-0.13531 0.24946 -0.13023
-0.09592 0.24946 -0.06257
-0.21270 0.24946 -0.20905
-0.16391 0.24946 -0.02517
-0.28461 0.24946 0.20223
-0.27340 0.24946 0.22495
-0.18400 0.24946 0.15803
-0.24402 0.24946 0.00413
-0.16087 0.24946 0.10274
-0.16066 0.24946 0.08242
-0.11417 0.24946 0.03384
-0.12430 0.24946 0.06386
-0.09427 0.24946 -0.00328
-0.27042 0.24946 -0.03015
-0.24170 0.24946 -0.09023
-0.19198 0.24946 0.03256
-0.24086 0.24946 -0.18798
-0.22607 0.24946 0.08986
-0.10417 0.24946 0.02465
-0.23175 0.24946 -0.14266
-0.20558 0.27881 0.04654
-0.15055 0.27881 -0.14799
-0.24344 0.27881 0.00193
-0.04856 0.27881 -0.02034
-0.22798 0.27881 -0.02445
-0.14578 0.27881 -0.07340
-0.21305 0.27881 0.20037
-0.20990 0.27881 0.07536
-0.20644 0.27881 0.15988
-0.17768 0.27881 0.04405
-0.15765 0.27881 0.05184
-0.20657 0.27881 -0.01544
-0.22840 0.27881 -0.03725
-0.25207 0.27881 -0.11015
-0.17157 0.27881 -0.17113
-0.20416 0.27881 0.06281
-0.09459 0.27881 -0.06203
-0.12505 0.27881 -0.03130
-0.14567 0.27881 0.03188
-0.22555 0.27881 0.15011
-0.17935 0.27881 -0.04263
-0.19224 0.27881 -0.06161
-0.25393 0.27881 -0.00840
-0.12383 0.27881 0.04603
-0.15661 0.27881 0.11333
-0.23457 0.27881 -0.12066
-0.14481 0.27881 -0.12724
-0.16977 0.27881 0.09517
-0.22515 0.27881 0.19424
-0.24885 0.27881 -0.21173
-0.19282 0.27881 0.08526
-0.20196 0.27881 0.14998
-0.21779 0.27881 0.19496
-0.20338 0.27881 0.16526
-0.22487 0.27881 -0.14164
-0.10072 0.27881 0.00474
-0.25304 0.27881 0.18304
-0.13420 0.27881 -0.05715
-0.17720 0.27881 -0.08820
-0.07906 0.27881 -0.00931
-0.18967 0.27881 -0.17172
-0.18235 0.27881 0.10577
-0.05614 0.27881 -0.05398
-0.24223 0.27881 -0.21006
-0.09322 0.27881 0.01890
-0.21551 0.27881 0.18916
-0.17842 0.27881 0.15423
-0.23428 0.27881 -0.23064
-0.17174 0.27881 0.10978
-0.19581 0.27881 -0.10616
-0.22832 0.27881 0.20979
-0.09742 0.27881 0.02376
-0.20151 0.27881 0.02288
-0.17323 0.27881 0.08363
-0.21930 0.27881 -0.10473
-0.19640 0.27881 0.10902
-0.06723 0.27881 -0.01788
-0.17569 0.27881 0.08859
-0.20130 0.27881 0.05621
-0.22389 0.27881 -0.22201
-0.13431 0.27881 0.04275
-0.13361 0.27881 0.07570
-0.22453 0.27881 -0.19767
-0.09996 0.27881 0.03851
-0.22573 0.27881 -0.18226
-0.17335 0.27881 0.03086
-0.25069 0.27881 -0.17936
-0.13767 0.27881 0.02334
-0.24266 0.27881 -0.08357
-0.21274 0.27881 0.16587
-0.12915 0.27881 0.06193
-0.14400 0.27881 0.02414
-0.24074 0.27881 -0.22529
-0.12589 0.27881 -0.11309
-0.23317 0.27881 -0.07585
-0.22111 0.27881 0.08197
-0.20301 0.27881 -0.01901
-0.23686 0.27881 -0.09064
-0.20831 0.27881 -0.04897
-0.21240 0.27881 -0.15509
-0.14699 0.27881 -0.10353
-0.15302 0.27881 0.10103
-0.11568 0.27881 -0.06136
-0.12254 0.27881 -0.01853
-0.20064 0.27881 -0.01041
-0.14976 0.27881 0.02822
-0.19174 0.27881 -0.00133
-0.23490 0.27881 0.00311
-0.15343 0.27881 -0.11499
0.08816 -0.27881 -0.09006
0.04941 -0.26417 -0.04660
0.06243 -0.25823 -0.06008
0.07479 -0.27430 -0.07288
0.00740 0.24946 0.02728
-0.01585 0.24946 0.02060
-0.01451 0.24946 0.02673
-0.02935 0.27864 -0.02146
-0.05483 -0.26958 0.05926
-0.04030 -0.25591 0.04421
0.08950 -0.27881 0.08703
-0.11799 0.27881 0.26089
0.08389 0.27881 0.26278
0.18863 0.27881 0.27644
0.03472 0.27881 0.26240
-0.10433 0.27881 0.26421
0.16288 0.27881 0.25783
0.18002 0.27881 0.26803
0.08987 0.27881 0.27678
0.03334 0.27881 0.25777
-0.00104 0.27881 0.26677
0.24407 0.27881 0.27930
0.02935 -0.09993 0.00034
0.02935 -0.20642 -0.01587
0.02935 0.05663 -0.01027
0.02935 -0.01735 -0.02614
0.02935 -0.07290 -0.01951
0.02935 -0.19442 -0.00313
0.02935 -0.02975 -0.01691
0.02935 0.16539 -0.02207
0.02935 -0.09951 0.00737
0.02935 -0.14035 -0.00763
0.02935 -0.05876 -0.02778
0.02935 -0.06381 -0.00677
0.02935 -0.25469 0.01567
0.02935 -0.21582 -0.01826
0.02935 0.09454 -0.01923
0.02935 -0.15980 -0.00973
0.02935 -0.10468 -0.00877
0.02935 -0.12322 -0.02911
0.02935 -0.27276 -0.00060
0.02935 -0.26310 0.01700
0.02935 0.05599 -0.02130
0.02935 -0.26926 -0.01888
0.02935 -0.19249 0.01894
0.02935 -0.13920 -0.02555
0.02935 -0.13539 -0.01141
-0.28708 0.27881 0.03599
-0.27883 0.27881 -0.00188
-0.27577 0.27881 0.01610
-0.28421 0.27881 -0.21838
-0.28439 0.27881 -0.23412
-0.27153 0.27881 -0.09176
-0.27709 0.27881 -0.11619
-0.29083 0.27881 0.04184
-0.28403 0.27881 -0.25624
-0.27518 0.27881 -0.16571
-0.28434 0.27881 -0.06814
-0.27800 0.27881 -0.22855
-0.29258 0.27881 -0.00994
-0.28123 0.27881 -0.03377
-0.28594 0.27881 -0.05545
-0.27663 0.27881 -0.14130
-0.28847 0.27881 -0.12890
-0.28358 0.27881 -0.01471
-0.02849 -0.04851 -0.02935
0.00148 0.15616 -0.02935
-0.02301 0.20629 -0.02935
-0.02398 0.08323 -0.02935
0.01041 0.10181 -0.02935
0.01761 0.16164 -0.02935
-0.01403 0.16207 -0.02935
0.00439 0.09599 -0.02935
-0.00978 0.17434 -0.02935
0.00585 0.21078 -0.02935
-0.02161 -0.03969 -0.02935
-0.01788 -0.09932 -0.02935
0.01185 0.20513 -0.02935
-0.01224 0.03258 -0.02935
0.01608 0.13464 -0.02935
0.01477 0.23137 -0.02935
-0.01312 -0.06644 -0.02935
0.02115 0.20217 -0.02935
0.00173 0.18908 -0.02935
0.01121 0.10721 -0.02935
-0.02882 0.10078 -0.02935
0.02275 0.21901 -0.02935
-0.00992 0.12360 -0.02935
-0.00756 -0.07527 -0.02935
-0.04602 -0.24948 -0.04204
-0.04405 -0.25917 -0.04015
-0.05362 -0.26049 -0.04939
-0.00577 0.25721 -0.02935
0.02423 0.27097 -0.02935
-0.16567 0.24946 0.16354
-0.20193 0.24946 0.18166
-0.18742 0.24946 0.17311
-0.16182 0.24946 0.14442
-0.11101 0.24946 0.09476
-0.04176 0.24946 0.03727
-0.14937 0.24946 0.13044
-0.09593 0.24946 0.05454
-0.17257 0.24946 0.15706
-0.13520 0.24946 0.11933
-0.03891 0.24946 0.00349
-0.08411 -0.27209 0.08958
-0.04837 -0.25440 0.05257
-0.03511 -0.25824 0.03884
0.07125 -0.25913 0.07321
0.09728 -0.24901 0.09835
0.05369 -0.25325 0.05625
-0.29348 0.27371 -0.07563
-0.29348 0.27348 -0.11703
-0.29348 0.27015 -0.09984
-0.29348 0.27049 -0.06953
-0.29348 0.26611 -0.02600
-0.29348 0.27467 0.09323
-0.29348 0.27609 0.20604
-0.29348 0.26020 -0.19520
-0.29348 0.25686 -0.22689
-0.29348 0.27666 0.10585
-0.29348 0.25993 -0.12871
-0.29348 0.27684 -0.02781
-0.29348 0.27024 -0.09372
-0.29348 0.25606 -0.19817
0.29348 0.26652 0.08232
0.29348 0.27268 0.09905
0.29348 0.27310 -0.13377
0.29348 0.26622 0.20780
0.29348 0.26869 0.03710
0.29348 0.26532 0.02807
0.29348 0.27439 0.19605
0.29348 0.26853 0.15360
0.29348 0.27506 -0.20530
0.29348 0.25889 0.23507
0.29348 0.27550 0.13482
0.29348 0.27778 0.10439
0.29348 0.27231 0.26565
0.29348 0.26881 -0.07732
0.27468 0.24946 0.08222
0.15390 0.24946 -0.03851
0.23797 0.24946 -0.17693
0.23731 0.24946 0.07057
0.26823 0.24946 0.16326
0.19655 0.24946 -0.15994
0.16963 0.24946 0.03569
0.26813 0.24946 -0.19844
0.19582 0.24946 0.14609
0.26954 0.24946 0.19728
0.12996 0.24946 0.08295
0.17114 0.24946 -0.06308
0.26277 0.24946 0.09330
0.19496 0.24946 0.09755
0.21378 0.24946 -0.10681
0.25315 0.24946 0.22631
0.18975 0.24946 -0.15339
0.27075 0.24946 -0.26813
0.28328 0.24946 -0.13313
0.18844 0.24946 0.03229
0.27780 0.24946 -0.19450
0.27323 0.24946 0.11073
0.23586 0.24946 0.01668
0.27692 0.24946 -0.08119
0.21275 0.24946 -0.11594
0.24980 0.24946 -0.01951
0.11447 0.24946 0.01428
0.24348 0.24946 -0.09316
0.16263 0.24946 -0.13141
0.14758 0.24946 0.07294
0.12803 0.24946 -0.06550
0.19230 0.24946 -0.09502
0.20668 0.24946 -0.14019
0.28239 0.24946 0.25142
0.20834 0.24946 0.05123
0.16968 0.24946 -0.02022
0.25491 0.24946 -0.00300
0.13703 0.24946 0.02969
0.16685 0.24946 -0.14677
0.17548 0.24946 0.03595
0.29313 0.24946 -0.26160
0.12112 0.24946 -0.06209
0.28602 0.24946 -0.12505
0.25432 0.24946 0.23884
0.17590 0.24946 0.12230
0.25607 0.24946 -0.06493
0.08552 0.24946 -0.04148
0.13172 0.24946 -0.02683
0.27820 0.24946 -0.14007
0.17196 0.24946 0.00746
0.20465 0.24946 0.01359
0.22026 0.24946 0.12324
0.19831 0.24946 -0.10568
0.18911 0.24946 -0.02466
0.25529 0.24946 0.00635
0.28325 0.24946 -0.07312
0.18316 0.24946 -0.07798
0.08664 0.24946 -0.00972
0.28158 0.24946 0.22920
0.11224 0.24946 0.05304
0.22156 0.24946 -0.15367
0.14190 0.24946 0.08187
0.20852 0.24946 0.06854
0.14742 0.24946 -0.04281
0.28220 0.24946 0.15188
0.25095 0.24946 -0.11653
0.24043 0.24946 -0.12393
0.23562 0.24946 -0.01289
0.11740 0.24946 -0.00772
0.20545 0.24946 0.09778
0.24521 0.24946 -0.14331
0.21760 0.24946 -0.17274
0.15877 0.24946 0.11506
0.14932 0.24946 -0.08317
0.22358 0.24946 0.15762
0.16151 0.24946 -0.03170
0.15661 0.24946 0.03495
0.27363 0.24946 0.17414
0.24407 0.24946 0.06604
0.25886 0.24946 0.23588
0.08960 0.24946 0.03103
0.10736 0.24946 -0.04182
0.27767 0.24946 -0.20701
0.24791 0.24946 0.04037
0.22613 0.24946 -0.21614
0.25886 0.24946 0.21107
0.14388 0.24946 0.03696
0.23000 0.24946 -0.09857
0.20915 0.24946 0.17530
0.15718 0.24946 -0.05524
0.14389 0.24946 0.05007
0.24613 0.24946 0.20564
0.03743 0.24946 -0.02370
0.21327 0.24946 0.05924
0.17525 0.24946 0.02768
0.26099 0.24946 -0.19005
0.24685 0.24946 0.05764
0.23331 0.24946 0.03429
0.26885 0.24946 0.03339
0.16761 0.24946 0.13694
0.18770 0.24946 -0.07981
0.18717 0.24946 -0.01007
0.27933 0.24946 0.11732
0.27516 0.24946 0.20987
0.18152 0.24946 0.04605
0.06602 0.24946 0.00066
0.21155 0.24946 -0.09457
0.28527 0.24946 0.14088
0.21256 0.24946 -0.04216
0.28095 0.24946 0.09771
0.28199 0.24946 0.00277
0.28343 0.24946 -0.05440
0.21414 0.24946 0.03977
0.27205 0.24946 0.14147
0.23358 0.24946 -0.22392
0.22149 0.24946 0.05824
0.22162 0.24946 -0.00430
0.27622 0.24946 0.05616
0.02935 -0.27596 -0.02301
0.02935 -0.04303 0.00162
0.02935 -0.16639 0.00283
0.02935 -0.26764 0.02655
0.02935 -0.11340 -0.00376
0.02935 -0.20897 0.00755
0.02935 -0.21746 -0.00196
0.02935 -0.15094 -0.00043
0.02935 0.08334 -0.02615
0.02935 0.14808 -0.01975
0.02935 -0.22741 -0.00630
0.02935 -0.26836 -0.00657
0.02935 -0.10477 -0.02700
0.02935 -0.18619 0.00258
0.02935 -0.22006 -0.02519
0.02935 0.13476 -0.02256
0.02935 -0.25652 -0.02355
0.02935 -0.02337 -0.02294
0.02935 -0.09161 -0.00347
0.02935 0.05033 -0.02011
-0.20902 0.27881 -0.10514
-0.17578 0.27881 -0.14754
-0.11418 0.27881 0.04199
-0.16975 0.27881 0.10539
-0.24052 0.27881 -0.09807
-0.23096 0.27881 -0.16086
-0.22242 0.27881 0.17250
-0.23782 0.27881 0.21226
-0.22701 0.27881 -0.19220
-0.18585 0.27881 0.12421
-0.25290 0.27881 0.00701
-0.25171 0.27881 0.21623
-0.23987 0.27881 -0.23754
-0.24825 0.27881 -0.07467
-0.19534 0.27881 0.04538
-0.09792 0.27881 -0.08209
-0.12687 0.27881 0.06605
-0.15945 0.27881 -0.02034
-0.22650 0.27881 -0.07637
-0.13419 0.27881 -0.09573
-0.22025 0.27881 -0.20716
-0.08800 0.27881 -0.07968
-0.09764 0.27881 0.01058
-0.24676 0.27881 -0.16687
-0.16599 0.27881 -0.10491
-0.22018 0.27881 -0.21531
-0.16628 0.27881 -0.01597
-0.20452 0.27881 0.15549
-0.20103 0.27881 -0.02448
-0.10709 0.27881 -0.10122
-0.24513 0.27881 0.08279
-0.17258 0.27881 0.12317
-0.17607 0.27881 0.06552
-0.15377 0.27881 0.00104
-0.12815 0.27881 0.00715
-0.23055 0.27881 -0.15026
-0.25048 0.27881 0.09683
-0.21845 0.27881 -0.09018
-0.13216 0.27881 0.01472
-0.07942 0.27881 0.00200
-0.22781 0.27881 -0.18726
-0.11871 0.27881 0.07028
-0.21517 0.27881 -0.14665
-0.19840 0.27881 0.13249
-0.20105 0.27881 -0.09708
-0.24753 0.27881 0.11917
-0.20439 0.27881 -0.14330
-0.20811 0.27881 0.06556
-0.19799 0.27881 -0.13500
-0.12265 0.27881 -0.09887
-0.13876 0.27881 -0.07790
-0.09825 0.27881 -0.01098
-0.14804 0.27881 0.05067
-0.23919 0.27881 0.05020
-0.07821 0.27881 -0.06945
-0.14011 0.27881 -0.09959
-0.17513 0.27881 -0.11210
-0.21460 0.27881 0.02571
-0.12529 0.27881 -0.04493
-0.11489 0.27881 -0.09016
-0.13641 0.27881 -0.01706
-0.19900 0.27881 0.09828
-0.21175 0.27881 -0.12485
-0.23160 0.27881 -0.06681
-0.24285 0.27881 -0.15190
-0.25364 0.27881 -0.09775
-0.21676 0.27881 -0.17430
-0.23003 0.27881 0.00899
-0.11585 0.27881 0.06167
-0.21127 0.27881 -0.11239
-0.10227 0.27881 -0.02665
-0.12972 0.27881 -0.00023
-0.14398 0.27881 -0.08733
-0.15391 0.27881 -0.01767
-0.25336 0.27881 -0.03163
-0.07093 0.27881 -0.05566
-0.17665 0.27881 -0.03378
-0.18046 0.27881 0.00034
-0.24930 0.27881 0.04420
-0.18575 0.27881 0.01634
-0.12748 0.27881 0.04084
-0.18316 0.27881 0.04441
-0.16980 0.27881 0.00580
-0.05652 0.27881 0.17115
0.16514 0.27881 0.20105
-0.05628 0.27881 0.23576
0.04441 0.27881 0.24997
-0.06032 0.27881 0.17828
-0.12885 0.27881 0.22343
-0.09414 0.27881 0.18569
-0.08045 0.27881 0.21602
-0.03570 0.27881 0.23117
0.21706 0.27881 0.24934
0.01188 0.27881 0.24694
0.19896 0.27881 0.25181
0.16217 0.27881 0.23603
0.03173 0.27881 0.09221
-0.03776 0.27881 0.08566
0.02098 0.27881 0.11477
0.11539 0.27881 0.22337
-0.06502 0.27881 0.14780
0.14553 0.27881 0.22055
0.05878 0.27881 0.19379
-0.21018 0.27881 0.24911
0.09188 0.27881 0.24294
-0.04788 0.27881 0.17912
0.15827 0.27881 0.20419
0.10046 0.27881 0.21039
0.23577 0.27881 0.24131
-0.03125 0.27881 0.18647
0.02924 0.27881 0.21732
0.01384 0.27881 0.12952
-0.07075 0.27881 0.14938
-0.03440 0.27881 0.09547
0.00529 0.27881 0.16916
0.06244 0.27881 0.24739
-0.10551 0.27881 0.11802
-0.02747 0.27881 0.20913
-0.10973 0.27881 0.18315
0.00549 0.27881 0.24154
-0.06904 0.27881 0.13282
-0.17412 0.27881 0.23422
-0.03477 0.27881 0.06945
-0.14830 0.27881 0.20696
0.02517 0.27881 0.20997
0.13870 0.27881 0.22316
0.02954 0.27881 0.12186
-0.22448 0.27881 0.22592
-0.12848 0.27881 0.21881
0.01450 0.27881 0.10155
0.00071 0.27881 0.10340
-0.04198 0.27881 0.05062
-0.06794 0.27881 0.06849
-0.19768 0.27881 0.22373
0.13750 0.27881 0.19134
-0.00893 0.27881 0.23703
0.03851 0.27881 0.22086
0.01348 0.27881 0.16735
-0.13961 0.27881 0.18022
-0.11521 0.27881 0.13175
-0.06605 0.27881 0.09200
0.05899 0.27881 0.24284
-0.00621 0.27881 0.15313
0.11795 0.27881 0.20053
-0.15164 0.27881 0.16525
0.00743 0.27881 0.25105
-0.03777 0.27881 0.05431
0.02027 0.27881 0.19727
-0.11795 0.27881 0.18134
-0.10175 0.27881 0.13717
0.13607 0.27881 0.17788
0.12989 0.27881 0.25242
0.19594 0.27881 0.24453
-0.04619 0.27881 0.23388
0.15420 0.27881 0.24128
-0.03574 0.27881 0.03925
-0.20483 0.27881 0.23767
-0.18088 0.27881 0.22791
0.01604 0.27881 0.07511
0.04740 0.27881 0.22546
0.13211 0.27881 0.19901
-0.04326 0.27881 0.07223
-0.13872 0.27881 0.16431
0.04179 -0.25635 -0.04575
0.03065 -0.27783 -0.03422
0.03423 -0.26171 -0.03793
-0.06879 0.27881 0.03919
-0.12643 0.27881 0.12617
-0.10150 0.27881 0.07443
-0.14573 0.27881 0.13905
-0.03647 0.27881 0.01456
-0.13739 0.27881 0.12809
-0.13101 0.27881 0.12125
-0.10416 0.27881 0.09329
-0.12943 0.27881 0.11086
-0.05600 0.27881 0.03696
0.18019 0.27881 -0.01598
0.20808 0.27881 0.19305
0.23661 0.27881 -0.01681
0.06833 0.27881 -0.01692
0.15578 0.27881 0.11098
0.23800 0.27881 -0.12418
0.23138 0.27881 0.07845
0.24937 0.27881 0.15788
0.11995 0.27881 -0.05026
0.21949 0.27881 -0.17816
0.16971 0.27881 -0.16736
0.14657 0.27881 0.07584
0.17488 0.27881 -0.10614
0.19368 0.27881 -0.15129
0.24523 0.27881 -0.04431
0.21978 0.27881 -0.02331
0.23911 0.27881 0.09721
0.24654 0.27881 -0.09586
0.07002 0.27881 -0.06017
0.24079 0.27881 0.13417
0.18745 0.27881 0.12231
0.08946 0.27881 -0.07032
0.22891 0.27881 -0.15268
0.23706 0.27881 0.01241
0.13275 0.27881 0.00293
0.07332 0.27881 -0.06424
0.15338 0.27881 0.00358
0.16973 0.27881 -0.04699
0.17254 0.27881 0.09782
0.24463 0.27881 0.14190
0.16522 0.27881 0.14051
0.14915 0.27881 0.00639
0.21808 0.27881 -0.01015
0.18417 0.27881 0.02904
0.23527 0.27881 0.06226
0.11888 0.27881 -0.00160
0.10393 0.27881 -0.09174
0.08819 0.27881 -0.08039
0.11169 0.27881 -0.06384
0.23286 0.27881 0.08285
0.23272 0.27881 0.13407
0.11075 0.27881 0.02434
0.13331 0.27881 0.06927
0.04372 0.27881 -0.04126
0.24444 0.27881 -0.11879
0.20116 0.27881 0.09484
0.21595 0.27881 0.07955
0.15061 0.27881 0.09714
0.10201 0.27881 0.05527
0.12872 0.27881 0.06325
0.20236 0.27881 -0.11744
0.07581 0.27881 -0.01491
0.23113 0.27881 -0.02508
0.23906 0.27881 0.22857
0.13533 0.27881 0.04987
0.06350 0.27881 -0.01574
0.19542 0.27881 0.14775
0.18273 0.27881 0.14225
0.16981 0.27881 -0.01507
0.21285 0.27881 -0.12846
0.23162 0.27881 -0.01780
0.09049 0.27881 -0.08668
0.16612 0.27881 -0.03551
0.23365 0.27881 0.17109
0.18167 0.27881 -0.02535
0.20891 0.27881 0.00648
0.23915 0.27881 0.21529
0.20239 0.27881 -0.05905
0.15789 0.27881 -0.05639
0.13997 0.27881 -0.07247
0.10586 0.27881 -0.07008
0.16595 0.27881 0.07471
0.24754 0.27881 -0.16051
0.16886 0.27881 -0.05609
0.21664 0.27881 -0.10805
0.13329 0.27881 0.08900
0.10726 0.27881 -0.07446
0.23050 0.27881 0.03780
0.18916 0.27881 0.03086
0.23394 0.27881 0.11555
0.16086 0.27881 0.04651
0.19845 0.27881 -0.08097
0.15452 0.27881 -0.10050
0.20757 0.27881 -0.15148
0.24721 0.27881 -0.23256
0.23949 0.27881 0.17653
0.07322 0.27881 -0.06933
0.00091 0.27881 0.01006
0.01803 0.27881 0.01526
0.01042 0.27881 0.02268
0.04234 0.24946 0.00460
0.05724 0.24946 0.05032
0.26041 0.24946 0.26001
0.21621 0.24946 0.21449
0.08511 0.24946 0.04716
0.14739 0.24946 0.11772
0.11497 0.24946 0.09430
0.04723 0.24946 0.04326
0.18383 0.24946 0.16984
0.04809 0.24946 0.02211
0.16967 0.24946 0.15017
0.09706 0.24946 0.07407
0.29314 0.27881 0.19158
0.29298 0.27881 -0.05096
0.28783 0.27881 0.16670
0.28839 0.27881 0.09646
0.28729 0.27881 0.02441
0.29278 0.27881 -0.03360
0.29330 0.27881 0.12782
0.28059 0.27881 -0.16423
0.27492 0.27881 -0.26566
0.27569 0.27881 -0.16094
0.28519 0.27881 -0.15716
0.26371 0.27881 -0.25145
0.28034 0.27881 -0.26647
0.27625 0.27881 -0.04526
0.26000 0.27881 -0.23070
0.28522 0.27881 -0.21481
0.28933 0.27881 -0.21051
0.27592 0.27881 -0.07070
0.01713 -0.24400 0.02935
-0.01635 -0.17169 0.02935
-0.00314 -0.26646 0.02935
-0.01570 -0.00914 0.02935
0.01007 -0.25375 0.02935
0.00593 -0.27358 0.02935
-0.02187 -0.20083 0.02935
0.00030 -0.11757 0.02935
-0.00145 -0.07958 0.02935
0.01162 -0.21767 0.02935
-0.01191 0.04724 0.02935
-0.01140 -0.00637 0.02935
-0.02796 -0.16509 0.02935
-0.01850 -0.04726 0.02935
-0.02848 0.14614 0.02935
-0.00481 -0.13208 0.02935
0.01844 -0.26025 0.02935
-0.02031 -0.03449 0.02935
0.01367 -0.25778 0.02935
-0.02453 -0.11440 0.02935
-0.00148 -0.17744 0.02935
-0.00931 0.01578 0.02935
-0.00455 -0.22100 0.02935
0.00580 -0.23741 0.02935
0.01267 -0.19976 0.02935
-0.21788 0.24946 0.20955
-0.11690 0.24946 0.08979
-0.17961 0.24946 0.16185
-0.19110 0.24946 0.18222
-0.14371 0.24946 0.11170
-0.15959 0.24946 0.15236
-0.03743 0.24946 0.02135
-0.05289 0.24946 0.01290
-0.24267 0.24946 0.23755
-0.08647 0.24946 0.05365
-0.10672 0.27881 0.27703
-0.21950 0.27881 0.28001
-0.19470 0.27881 0.27223
-0.08286 0.27881 0.26775
-0.18766 0.27881 0.26908
-0.11153 0.27881 0.27895
0.17578 0.27881 0.29005
0.05912 0.27881 0.29184
-0.19909 0.27881 0.27569
0.05108 0.27881 0.29107
-0.22740 0.27881 0.26114
0.08495 0.27881 0.28459
-0.22428 0.27881 0.27653
-0.07366 0.27881 0.28216
-0.15057 0.27881 0.29218
-0.13462 0.27881 0.26364
0.16928 0.27881 0.29004
0.04927 0.27881 0.27613
0.02257 -0.27881 0.00314
0.01930 -0.27881 -0.02186
0.02581 -0.27881 -0.00222
-0.09742 -0.25221 0.10233
-0.29348 0.25366 0.19744
-0.29348 0.26631 0.17273
-0.29348 0.26701 0.21851
-0.29348 0.25833 0.19481
-0.29348 0.26017 0.17009
-0.29348 0.25694 -0.07366
-0.29348 0.26878 0.16043
-0.29348 0.25612 0.12548
-0.29348 0.25279 0.06204
-0.29348 0.27138 0.23386
-0.29348 0.27333 0.25019
-0.29348 0.26452 0.03953
-0.29348 0.26649 0.16523
-0.26472 0.27881 0.02412
-0.25708 0.27881 0.11025
-0.26604 0.27881 -0.02182
-0.26262 0.27881 -0.04881
-0.27220 0.27881 0.14303
-0.25914 0.27881 -0.14854
-0.27043 0.27881 0.20949
-0.25908 0.27881 -0.06874
-0.27449 0.27881 0.19251
-0.26233 0.27881 0.18259
-0.25722 0.27881 -0.07707
-0.26629 0.27881 -0.08026
-0.29334 0.27881 0.29242
-0.26729 0.27881 0.08578
-0.27039 0.27881 0.11410
-0.01743 -0.19868 0.02935
-0.00097 -0.08926 0.02935
-0.01218 -0.01973 0.02935
0.01594 -0.15838 0.02935
0.00130 -0.15836 0.02935
0.01983 -0.22654 0.02935
-0.02377 -0.25042 0.02935
-0.00912 0.02405 0.02935
-0.02299 0.17389 0.02935
0.02226 -0.22192 0.02935
0.00280 -0.22644 0.02935
-0.00285 -0.01568 0.02935
0.00556 -0.08911 0.02935
0.00008 -0.10377 0.02935
-0.02341 0.09802 0.02935
-0.00253 -0.00303 0.02935
0.00774 -0.13266 0.02935
-0.02614 -0.00172 0.02935
-0.01887 -0.18602 0.02935
-0.02067 -0.12115 0.02935
-0.00235 -0.12188 0.02935
-0.00776 -0.08635 0.02935
0.04310 -0.27419 -0.04711
0.07283 -0.26957 -0.07789
-0.06319 -0.26155 0.06087
-0.05573 -0.27582 0.05315
-0.06655 -0.26670 0.06435
0.09351 -0.25915 -0.09931
0.09049 -0.26791 -0.09618
-0.09000 -0.24744 -0.09055
0.03780 -0.26316 -0.03458
0.06101 -0.27672 -0.05861
0.02935 0.27727 0.02168
-0.03613 -0.27881 0.03441
-0.08898 -0.27440 -0.09033
-0.05603 -0.25710 -0.05852
-0.02316 0.25951 0.02935
-0.02733 0.25320 0.02935
0.01519 0.05546 0.02935
0.02851 0.16427 0.02935
0.02219 0.12916 0.02935
0.01191 0.07016 0.02935
0.00556 0.09294 0.02935
0.00845 0.20997 0.02935
0.00845 0.14294 0.02935
0.01143 -0.09727 0.02935
0.01582 0.10149 0.02935
0.00850 0.17333 0.02935
0.02037 0.10347 0.02935
0.01270 0.04408 0.02935
0.00847 -0.01139 0.02935
-0.00785 0.13517 0.02935
0.00225 0.10100 0.02935
0.00164 0.16956 0.02935
0.00190 0.11610 0.02935
-0.00323 0.14678 0.02935
0.01836 -0.00302 0.02935
0.01298 0.03873 0.02935
0.00415 0.23829 0.02935
0.00706 0.15107 0.02935
-0.01117 0.16676 0.02935
-0.02935 0.14351 0.02303
-0.02935 0.01672 0.01511
-0.02935 0.02632 0.02838
-0.02935 0.15159 0.02823
-0.02935 -0.27557 -0.00342
-0.02935 -0.09101 0.02121
-0.02935 -0.13972 0.01506
-0.02935 0.01279 0.00734
-0.02935 0.00877 0.01964
-0.02935 -0.27609 0.02347
-0.02935 -0.23595 0.02066
-0.02935 -0.20518 -0.00454
-0.02935 -0.26572 -0.02436
-0.02935 -0.02643 0.02644
-0.02935 -0.05433 0.02296
-0.02935 0.06190 0.02223
-0.02935 -0.01198 0.02007
-0.02935 -0.09850 0.02606
-0.02935 0.08428 0.01662
-0.02935 0.22919 0.02793
-0.02935 -0.13482 0.01095
-0.02935 -0.11302 0.02185
-0.02935 -0.23648 -0.02060
-0.02935 -0.04910 0.00573
-0.02935 -0.00775 0.01400
0.02935 0.27384 0.00469
0.25621 0.26637 -0.29348
0.15650 0.25953 -0.29348
0.24870 0.25190 -0.29348
0.03435 0.26132 -0.29348
0.26813 0.25069 -0.29348
0.06595 0.26698 -0.29348
0.09930 0.26599 -0.29348
0.01090 0.25875 -0.29348
0.13840 0.26130 -0.29348
0.24099 0.25898 -0.29348
0.15379 0.26793 -0.29348
0.10612 0.25442 -0.29348
-0.01562 -0.27881 0.01955
-0.02791 -0.27881 0.00424
-0.00911 -0.27881 0.00227
0.02935 0.26540 -0.01379
-0.03106 0.27881 -0.11827
0.14255 0.27881 -0.22281
0.09920 0.27881 -0.24119
0.15317 0.27881 -0.20079
0.01000 0.27881 -0.15697
0.17194 0.27881 -0.19552
-0.05965 0.27881 -0.18432
0.14799 0.27881 -0.17366
-0.16846 0.27881 -0.25220
-0.09446 0.27881 -0.20798
0.07053 0.27881 -0.07592
-0.03845 0.27881 -0.20638
0.21312 0.27881 -0.23701
-0.19570 0.27881 -0.23929
-0.09179 0.27881 -0.24995
0.09460 0.27881 -0.17821
-0.05880 0.27881 -0.09937
0.01854 0.27881 -0.20105
0.15263 0.27881 -0.22576
0.04579 0.27881 -0.08580
0.02283 0.27881 -0.09958
0.16562 0.27881 -0.20229
-0.13836 0.27881 -0.19009
0.20430 0.27881 -0.20794
-0.10218 0.27881 -0.22498
-0.02350 0.27881 -0.24331
-0.10530 0.27881 -0.17427
-0.04241 0.27881 -0.14163
0.03903 0.27881 -0.07262
0.05506 0.27881 -0.16753
0.11213 0.27881 -0.13569
0.08033 0.27881 -0.21296
0.12193 0.27881 -0.23870
0.15519 0.27881 -0.16708
0.15676 0.27881 -0.24717
-0.11658 0.27881 -0.18715
-0.12051 0.27881 -0.17113
0.10613 0.27881 -0.24748
0.10236 0.27881 -0.17172
0.02252 0.27881 -0.13910
-0.01655 0.27881 -0.12824
0.03198 0.27881 -0.05977
-0.10201 0.27881 -0.20158
-0.00903 0.27881 -0.23191
0.08203 0.27881 -0.16971
-0.11834 0.27881 -0.23842
-0.11274 0.27881 -0.17025
-0.00596 0.27881 -0.15795
0.03306 0.27881 -0.24090
0.11134 0.27881 -0.19148
0.19681 0.27881 -0.24469
-0.21638 0.27881 -0.25107
0.06028 0.27881 -0.15696
0.02295 0.27881 -0.19333
0.02216 0.27881 -0.12527
0.01492 0.27881 -0.12621
0.01504 0.27881 -0.08456
0.05821 0.27881 -0.09931
-0.06781 0.27881 -0.12160
-0.14048 0.27881 -0.19977
0.02743 0.27881 -0.12602
-0.01041 0.27881 -0.10212
0.24224 0.27881 -0.24515
0.13347 0.27881 -0.17119
-0.09709 0.27881 -0.13602
-0.06993 0.27881 -0.25351
0.08265 0.27881 -0.20210
-0.04117 0.27881 -0.24138
0.03232 0.27881 -0.03699
-0.02176 0.27881 -0.07640
0.15341 0.27881 -0.19249
0.04843 0.27881 -0.22846
-0.07892 0.27881 -0.17307
0.02850 0.27881 -0.12061
0.17917 0.27881 -0.20924
0.10948 0.27881 -0.13001
-0.11647 0.27881 -0.22172
-0.02236 0.27881 -0.11933
-0.12892 0.27881 -0.23186
0.01387 0.27881 -0.11996
-0.06749 0.27881 -0.11188
-0.10301 0.27881 -0.18729
-0.22207 0.27881 -0.24959
0.01251 0.27881 -0.19626
-0.00267 0.27881 -0.06417
0.04179 0.27881 -0.12584
0.02638 -0.27548 0.02988
0.02782 -0.24900 0.03127
0.03703 -0.25398 0.04017
0.04355 -0.25593 0.04647
0.03799 -0.24222 -0.04181
-0.02295 0.27881 -0.00665
-0.02168 0.27881 -0.02904
-0.02295 0.27881 -0.01899
-0.00297 0.02616 0.02935
0.01849 0.24318 0.02935
-0.01677 0.24385 0.02935
0.00642 0.12502 0.02935
0.01357 0.21856 0.02935
0.01837 -0.09758 0.02935
0.02591 -0.19202 0.02935
0.00773 0.16621 0.02935
0.01941 0.14097 0.02935
0.02636 0.06172 0.02935
-0.01769 0.19178 0.02935
0.02174 -0.05549 0.02935
-0.01518 0.20633 0.02935
0.01689 0.21368 0.02935
0.00211 0.22054 0.02935
0.01856 0.06487 0.02935
-0.00064 0.24522 0.02935
0.02212 -0.12916 0.02935
0.01984 -0.02546 0.02935
-0.00415 0.12697 0.02935
0.01108 0.12564 0.02935
0.00332 0.17697 0.02935
-0.02826 0.18812 -0.02935
-0.02890 0.24174 -0.02935
-0.00869 0.19251 -0.02935
-0.02328 0.09166 -0.02935
0.00227 0.13474 -0.02935
-0.00261 -0.00963 -0.02935
-0.02202 0.13051 -0.02935
-0.02660 -0.09045 -0.02935
-0.00945 -0.03335 -0.02935
-0.02892 0.08852 -0.02935
-0.02781 -0.13613 -0.02935
0.00517 0.11585 -0.02935
-0.00386 0.12321 -0.02935
-0.01817 0.11175 -0.02935
-0.01906 0.17177 -0.02935
-0.02585 -0.03441 -0.02935
-0.00338 0.16969 -0.02935
-0.02851 -0.14730 -0.02935
-0.01112 -0.05430 -0.02935
0.01430 0.15350 -0.02935
-0.02681 -0.20120 -0.02935
0.00692 0.26155 0.29348
-0.00970 0.26267 0.29348
0.08184 0.25804 0.29348
-0.18630 0.26062 0.29348
-0.01929 0.26458 0.29348
0.11903 0.25311 0.29348
-0.14924 0.26298 0.29348
-0.25478 0.27464 0.29348
-0.25505 0.25278 0.29348
0.09093 0.24952 0.29348
-0.19366 0.27128 0.29348
0.25521 0.24992 0.29348
-0.19221 0.26132 0.29348
0.21580 0.27881 -0.28352
0.08271 0.27881 -0.29028
0.21774 0.27881 -0.26968
0.22323 0.27881 -0.29243
0.03056 0.27881 -0.29297
0.02746 0.27881 -0.27570
-0.23801 0.27881 -0.29300
0.17500 0.27881 -0.27585
0.26835 0.27881 -0.26858
0.14441 0.27881 -0.27250
0.10868 0.27881 -0.27581
-0.07047 0.27881 -0.28979
0.00581 0.27881 -0.28567
0.20440 0.27881 -0.26598
-0.02500 0.27881 -0.27453
0.00142 0.27881 -0.28378
0.18619 0.27881 -0.27955
-0.00936 0.27881 -0.27340
0.02159 0.24946 0.01816
0.02719 0.24946 -0.01354
-0.00237 0.24946 -0.02224
-0.21678 0.27881 0.28538
-0.12045 0.27881 0.26974
0.08370 0.27881 0.29011
-0.08775 0.27881 0.27274
-0.26787 0.27881 0.28885
0.04592 0.27881 0.28049
-0.21354 0.27881 0.26414
0.03611 0.27881 0.29138
0.22937 0.27881 0.29260
-0.23411 0.27881 0.26455
-0.28484 0.27881 0.28978
-0.15680 0.27881 0.28199
-0.06366 0.27881 0.28134
-0.12710 0.27881 0.26650
-0.22907 0.27881 0.28480
-0.03656 0.27881 0.29325
0.16653 0.27881 0.28588
0.12393 0.27881 0.28171
0.07343 0.24946 0.02769
0.14985 0.24946 0.14964
0.04231 0.24946 0.02825
0.10600 0.24946 0.09408
0.06693 0.24946 0.04581
0.14093 0.24946 0.10988
0.04435 0.24946 -0.00478
0.06534 0.24946 0.01868
0.05164 0.24946 -0.00197
0.10995 0.24946 0.07436
0.12276 0.24946 0.09558
-0.11806 0.26652 -0.29348
-0.23307 0.25257 -0.29348
0.19041 0.27577 -0.29348
-0.01234 0.27042 -0.29348
-0.05026 0.26185 -0.29348
-0.11017 0.26401 -0.29348
0.11793 0.27656 -0.29348
0.04947 0.26734 -0.29348
-0.14354 0.26986 -0.29348
-0.17399 0.26103 -0.29348
-0.27488 0.26986 -0.29348
-0.24892 0.26674 -0.29348
0.02761 0.26772 -0.29348
0.28895 0.27881 -0.09700
0.28674 0.27881 -0.26142
0.28032 0.27881 -0.12419
0.27277 0.27881 -0.00437
0.29189 0.27881 0.01286
0.28565 0.27881 -0.03269
0.28628 0.27881 -0.17091
0.27154 0.27881 -0.02527
0.26965 0.27881 -0.09765
0.28027 0.27881 -0.27996
0.28368 0.27881 0.04965
0.27489 0.27881 -0.01663
0.27664 0.27881 -0.14358
-0.06294 -0.27823 -0.06519
-0.07750 -0.27356 -0.07925
-0.06875 -0.27791 -0.07080
0.07016 0.25518 0.29348
-0.28993 0.26716 0.29348
-0.28500 0.26207 0.29348
-0.20356 0.26172 0.29348
-0.25955 0.25574 0.29348
-0.27233 0.26131 0.29348
-0.23073 0.27089 0.29348
-0.17319 0.26431 0.29348
-0.07854 0.26197 0.29348
-0.22021 0.26028 0.29348
-0.14972 0.25441 0.29348
0.02599 0.25183 0.29348
-0.00146 0.27881 0.01571
0.07449 -0.25243 -0.07258
0.09080 -0.25531 -0.08947
-0.24046 0.27382 -0.29348
-0.11481 0.27250 -0.29348
-0.24449 0.26227 -0.29348
-0.09125 0.26942 -0.29348
-0.21202 0.27843 -0.29348
-0.00351 0.26489 -0.29348
-0.26775 0.26552 -0.29348
-0.19624 0.26974 -0.29348
0.09953 0.27840 -0.29348
-0.00832 0.27817 -0.29348
-0.18151 0.26179 -0.29348
-0.27770 0.26312 -0.29348
-0.13683 0.27259 -0.29348
-0.21637 0.26932 -0.29348
-0.07064 -0.27881 0.07375
-0.22062 0.24946 -0.19562
-0.16969 0.24946 -0.12217
-0.28835 0.24946 -0.08929
-0.25346 0.24946 -0.08742
-0.19155 0.24946 -0.18351
-0.19850 0.24946 0.04526
-0.20476 0.24946 -0.08436
-0.19187 0.24946 0.01081
-0.22851 0.24946 -0.11075
-0.25105 0.24946 -0.16416
-0.21349 0.24946 0.04998
-0.26672 0.24946 0.14633
-0.18345 0.24946 0.07107
-0.18535 0.24946 -0.18443
-0.20281 0.24946 0.05216
-0.23399 0.24946 -0.06212
-0.26308 0.24946 -0.04532
-0.20747 0.24946 -0.00622
-0.23840 0.24946 -0.10609
-0.12977 0.24946 -0.08800
-0.27820 0.24946 0.00950
-0.12227 0.24946 0.03191
-0.08991 0.24946 -0.04748
-0.14143 0.24946 0.04556
-0.20132 0.24946 -0.09725
-0.16259 0.24946 -0.08849
-0.19505 0.24946 0.07584
-0.20301 0.24946 -0.01252
-0.17739 0.24946 0.05261
-0.11139 0.24946 0.04764
-0.19956 0.24946 0.05570
-0.17704 0.24946 0.10047
-0.27396 0.24946 0.14990
-0.06891 0.24946 0.00927
-0.09987 0.24946 0.01282
-0.16244 0.24946 -0.12833
-0.22656 0.24946 -0.18348
-0.15672 0.24946 -0.05072
-0.11283 0.24946 -0.00984
-0.26234 0.24946 -0.06174
-0.23884 0.24946 -0.18177
-0.28703 0.24946 0.14833
-0.06411 0.24946 -0.04972
-0.10611 0.24946 -0.09594
-0.22308 0.24946 0.14221
-0.26324 0.24946 -0.09872
-0.20569 0.24946 0.09607
-0.21513 0.24946 -0.01914
-0.14541 0.24946 -0.04580
-0.22422 0.24946 0.05792
-0.17113 0.24946 -0.16331
-0.27115 0.24946 -0.21958
-0.12416 0.24946 -0.05765
-0.19426 0.24946 -0.18818
-0.27792 0.24946 0.17398
-0.18062 0.24946 0.12209
-0.29022 0.24946 -0.17206
-0.25428 0.24946 0.03889
-0.29041 0.24946 -0.25187
-0.27750 0.24946 0.25377
-0.23442 0.24946 -0.21254
-0.28375 0.24946 -0.14138
-0.19692 0.24946 0.12043
-0.19074 0.24946 0.06396
-0.26273 0.24946 0.03746
-0.28649 0.24946 -0.07436
-0.22980 0.24946 -0.21742
-0.22948 0.24946 -0.00622
-0.05568 0.24946 -0.01447
-0.22456 0.24946 -0.04515
-0.10961 0.24946 0.03038
-0.15811 0.24946 -0.01276
-0.23577 0.24946 0.04885
-0.12449 0.24946 -0.11726
-0.28269 0.24946 -0.15059
-0.23329 0.24946 0.14656
-0.20865 0.24946 -0.09472
-0.25643 0.24946 0.12402
-0.12170 0.24946 -0.09113
-0.23317 0.24946 -0.19340
-0.20796 0.24946 -0.20616
-0.16692 0.24946 -0.01866
-0.25111 0.24946 0.22311
-0.14367 0.24946 -0.09974
-0.09756 0.24946 0.02563
-0.25952 0.24946 -0.11739
-0.21967 0.24946 0.09806
-0.23984 0.24946 0.14011
-0.15044 0.24946 -0.07388
-0.17714 0.24946 -0.09405
-0.21521 0.24946 0.16071
-0.19475 0.24946 -0.06850
-0.28726 0.24946 -0.00865
-0.07216 0.24946 -0.05273
-0.16839 0.24946 0.02446
-0.20311 0.24946 -0.05824
-0.18623 0.24946 -0.10174
-0.18211 0.24946 0.05497
-0.21115 0.24946 0.07795
-0.28104 0.24946 -0.23838
-0.19357 0.24946 -0.09015
-0.18941 0.24946 -0.01293
-0.18679 0.24946 -0.11478
-0.29152 0.24946 0.05745
-0.27236 0.24946 0.07845
-0.09969 0.24946 -0.04325
0.02935 -0.00245 0.01942
0.02935 0.16186 -0.01551
0.02935 0.20214 -0.00254
0.02935 0.23276 -0.01294
0.02935 0.05743 0.02293
0.02935 0.10798 -0.01285
0.02935 0.17139 0.01687
0.02935 -0.05388 0.00908
0.02935 0.04418 0.00520
0.02935 0.24584 0.02697
0.02935 0.23727 0.02130
0.02935 -0.04429 0.02857
0.02935 0.14936 0.01933
0.02935 -0.08978 0.01344
0.02935 0.18639 0.01102
0.02935 0.08446 0.00092
0.02935 0.07574 -0.00762
0.02935 0.09376 -0.00088
0.02935 0.21981 -0.00474
0.02935 0.17043 -0.00863
0.02935 -0.01375 0.02378
0.02935 -0.02606 0.02702
0.02935 0.00915 0.01152
0.02935 -0.18467 0.02767
0.29348 0.25499 -0.25023
0.29348 0.24990 -0.19164
0.29348 0.27565 -0.28336
0.29348 0.25020 0.26681
0.29348 0.25270 0.19160
0.29348 0.26291 -0.02660
0.29348 0.25210 -0.21041
0.29348 0.25470 -0.26765
0.29348 0.24949 0.13428
0.29348 0.25357 0.09607
0.29348 0.25626 0.12681
0.29348 0.24991 -0.29281
0.29348 0.25183 0.15521
0.29348 0.25771 -0.25409
0.01136 0.26915 -0.02935
-0.01544 0.25229 -0.02935
-0.08463 -0.26639 0.09012
-0.29348 0.26959 0.27993
-0.29348 0.25479 0.09885
-0.29348 0.25239 0.23637
-0.29348 0.26712 0.06923
-0.29348 0.27115 0.25640
-0.29348 0.26940 0.11572
-0.29348 0.26244 0.07213
-0.29348 0.26079 0.04689
-0.29348 0.25960 0.14296
-0.29348 0.25712 0.11256
-0.29348 0.25959 0.13769
-0.29348 0.26235 0.24922
0.20365 0.27322 0.29348
-0.10369 0.27870 0.29348
-0.19290 0.27824 0.29348
-0.05014 0.26683 0.29348
-0.00929 0.26800 0.29348
0.23150 0.26623 0.29348
0.17771 0.27351 0.29348
0.27024 0.25610 0.29348
0.00632 0.27287 0.29348
0.16221 0.27612 0.29348
-0.12305 0.27502 0.29348
-0.16578 0.27361 0.29348
0.23859 0.27873 0.29348
-0.02935 -0.00456 -0.01004
-0.02935 0.19802 0.01971
-0.02935 0.24464 0.01509
-0.02935 -0.09341 -0.01140
-0.02935 -0.13147 -0.01862
-0.02935 0.00118 -0.01850
-0.02935 0.15959 -0.02810
-0.02935 0.19495 -0.01996
-0.02935 0.22226 0.02362
-0.02935 0.03790 -0.01106
-0.02935 0.03703 -0.02090
-0.02935 0.11707 -0.02646
-0.02935 0.19103 -0.00038
-0.02935 -0.02789 -0.01028
-0.02935 0.15978 0.01656
-0.02935 0.04374 -0.02706
-0.02935 0.00294 -0.02422
-0.02935 0.21437 -0.02856
-0.02935 0.10444 -0.01589
-0.02935 0.19459 0.01601
-0.02935 0.24016 -0.02263
-0.02935 0.21610 -0.02008
-0.02935 -0.21200 -0.02909
-0.02935 0.06435 -0.01162
-0.02935 -0.01680 -0.00434
-0.08252 -0.26985 -0.07730
-0.05894 -0.26619 -0.05453
0.17837 0.24946 0.25800
0.16063 0.24946 0.22400
0.08379 0.24946 0.17900
0.05822 0.24946 0.27508
-0.24606 0.24946 0.24729
-0.19098 0.24946 0.25542
0.13057 0.24946 0.19006
-0.04950 0.24946 0.10310
-0.12130 0.24946 0.23485
-0.11336 0.24946 0.20149
0.20097 0.24946 0.25169
0.06874 0.24946 0.23376
0.26814 0.24946 0.27603
0.02857 0.24946 0.17633
-0.03145 0.24946 0.09756
0.22568 0.24946 0.26078
-0.02788 0.24946 0.19109
0.04776 0.24946 0.22321
0.16752 0.24946 0.21201
-0.00179 0.24946 0.20689
-0.04037 0.24946 0.28841
-0.08147 0.24946 0.20778
0.03169 0.24946 0.28711
-0.08067 0.24946 0.21692
-0.03522 0.24946 0.16432
0.24363 0.24946 0.25630
-0.18398 0.24946 0.19503
0.15509 0.24946 0.27035
-0.07785 0.24946 0.09874
-0.12382 0.24946 0.26950
-0.04815 0.24946 0.26677
0.07300 0.24946 0.18259
0.03524 0.24946 0.26792
-0.10206 0.24946 0.17984
0.16834 0.24946 0.22940
-0.08913 0.24946 0.19298
-0.01146 0.24946 0.23671
-0.02395 0.24946 0.10624
-0.05132 0.24946 0.16179
0.01450 0.24946 0.18991
-0.07003 0.24946 0.09261
0.09324 0.24946 0.21150
0.11298 0.24946 0.17102
-0.13021 0.24946 0.18246
0.22918 0.24946 0.24852
-0.15992 0.24946 0.16152
0.01920 0.24946 0.18722
-0.09156 0.24946 0.15355
0.00739 0.24946 0.06486
-0.22507 0.24946 0.29119
-0.09843 0.24946 0.25069
0.11535 0.24946 0.24346
0.09488 0.24946 0.16313
0.01611 0.24946 0.10577
-0.01319 0.24946 0.22403
-0.08952 0.24946 0.24124
-0.04148 0.24946 0.08782
0.06956 0.24946 0.11442
0.03041 0.24946 0.27210
-0.23876 0.24946 0.27118
-0.21257 0.24946 0.27103
-0.04671 0.24946 0.17807
-0.03012 0.24946 0.10970
0.09726 0.24946 0.26599
0.05252 0.24946 0.25920
0.12685 0.24946 0.23472
-0.08245 0.24946 0.11081
0.04972 0.24946 0.20901
-0.09454 0.24946 0.12759
0.06176 0.24946 0.26167
0.02171 0.24946 0.13381
-0.25993 0.24946 0.27957
-0.04949 0.24946 0.07392
-0.07817 0.24946 0.25557
-0.05440 0.24946 0.22205
-0.06392 0.24946 0.16658
-0.18455 0.24946 0.27325
-0.04428 0.24946 0.22108
0.08707 0.24946 0.23753
0.09773 0.24946 0.22937
0.17842 0.24946 0.27126
-0.21264 0.24946 0.24867
-0.03015 0.24946 0.10393
-0.07482 0.24946 0.29255
0.09331 0.24946 0.15582
-0.02585 0.24946 0.12682
-0.13582 0.24946 0.21742
0.13165 0.24946 0.22845
0.04658 0.24946 0.15489
-0.05992 0.24946 0.26917
-0.14885 0.24946 0.16946
0.02228 0.24946 0.17141
-0.11681 0.24946 0.24535
-0.04661 0.24946 0.12037
0.05175 0.24946 0.23415
-0.09406 0.24946 0.19056
0.02339 0.24946 0.21542
-0.17334 0.24946 0.24677
0.10652 0.24946 0.22945
-0.22482 0.24946 0.23918
-0.22604 0.24946 0.26779
0.14031 0.24946 0.22230
0.16998 0.24946 0.19709
-0.03561 0.24946 0.28324
0.03253 0.24946 0.27693
-0.04812 0.24946 0.22503
-0.07785 0.24946 0.11218
0.15488 0.24946 0.18623
-0.20504 0.24946 0.21404
-0.19810 0.24946 0.28605
0.28551 0.24946 0.28724
-0.05741 0.24946 0.16121
0.24470 0.24946 0.28196
0.22610 0.24946 0.27581
-0.11586 0.24946 0.25894
-0.16876 0.24946 0.20830
0.03562 0.24946 0.23025
0.08050 0.24946 0.23488
0.01922 0.24946 0.28937
0.10296 0.24946 0.20090
0.14700 0.24946 0.21801
0.14572 0.24946 0.19530
-0.05167 0.24946 0.23364
-0.02935 -0.06635 -0.01642
-0.02935 -0.22197 -0.02782
-0.02935 0.17059 0.01995
-0.02935 -0.05450 -0.02326
-0.02935 -0.17929 -0.02906
-0.02935 0.02015 -0.01482
-0.02935 0.05929 -0.00422
-0.02935 -0.06071 -0.00741
-0.02935 -0.20643 -0.02748
-0.02935 0.02427 0.00015
-0.02935 0.20040 -0.01114
-0.02935 -0.02100 -0.01255
-0.02935 0.16819 0.00960
-0.02935 -0.03609 -0.02696
-0.02935 -0.05578 -0.01663
-0.02935 -0.21610 -0.02242
-0.02935 0.21013 -0.00348
-0.02935 0.14475 0.00693
-0.02935 0.01589 0.00119
-0.02935 -0.03914 -0.00745
-0.02935 0.19481 -0.00732
-0.02935 0.05441 0.00489
-0.09581 -0.25558 -0.09693
-0.03800 -0.24271 -0.04111
0.06288 -0.26965 0.06513
0.05735 -0.27854 0.05979
0.04500 -0.27858 0.04787
0.07249 -0.27252 0.07441
0.29348 0.27695 -0.19776
0.29348 0.26142 0.27928
0.29348 0.27487 0.21242
0.29348 0.27328 0.02196
0.29348 0.27004 0.25040
0.29348 0.27186 -0.01117
0.29348 0.27803 0.24476
0.29348 0.26472 0.17263
0.29348 0.26284 0.09682
0.29348 0.27728 -0.05755
0.29348 0.27758 -0.16304
0.29348 0.27290 0.11772
0.29348 0.27826 -0.09477
0.29348 0.26166 0.05321
0.03817 0.27881 0.04753
0.13297 0.27881 0.14405
0.00726 0.27881 0.05567
0.03467 0.27881 0.07677
0.02006 0.27881 0.03520
0.08641 0.27881 0.09878
0.02336 0.27881 0.05160
0.01732 0.27881 0.06180
0.03399 0.27881 0.06938
0.01919 0.27881 0.03989
0.15935 0.27881 0.17284
-0.01387 -0.27881 -0.01470
0.00791 -0.27881 -0.02071
-0.00124 -0.27881 -0.01447
-0.01853 0.24946 -0.26797
0.20458 0.24946 -0.27850
0.01087 0.24946 -0.15035
0.08659 0.24946 -0.24844
0.05761 0.24946 -0.17134
0.00005 0.24946 -0.09982
0.05006 0.24946 -0.16650
0.13674 0.24946 -0.21969
0.08447 0.24946 -0.19875
0.07425 0.24946 -0.21872
-0.03215 0.24946 -0.18676
0.17146 0.24946 -0.29248
-0.16880 0.24946 -0.24255
-0.09847 0.24946 -0.22718
0.07731 0.24946 -0.28518
0.18643 0.24946 -0.27139
0.10292 0.24946 -0.10471
0.06092 0.24946 -0.28044
0.05836 0.24946 -0.26117
-0.03927 0.24946 -0.19531
-0.24450 0.24946 -0.28240
-0.16373 0.24946 -0.20822
0.24413 0.24946 -0.25984
0.06159 0.24946 -0.16127
0.02439 0.24946 -0.08224
-0.07199 0.24946 -0.25296
0.22469 0.24946 -0.25056
0.19166 0.24946 -0.22774
0.07734 0.24946 -0.26427
0.07646 0.24946 -0.16128
-0.25836 0.24946 -0.28839
-0.00291 0.24946 -0.19340
0.04973 0.24946 -0.28495
-0.15113 0.24946 -0.28826
0.20323 0.24946 -0.24971
0.09980 0.24946 -0.17941
-0.07095 0.24946 -0.24407
0.07432 0.24946 -0.14436
-0.11004 0.24946 -0.24598
0.06217 0.24946 -0.07034
-0.07870 0.24946 -0.12571
-0.10941 0.24946 -0.21119
0.00537 0.24946 -0.19681
0.17215 0.24946 -0.18686
-0.11791 0.24946 -0.22911
-0.00467 0.24946 -0.10700
0.06054 0.24946 -0.14315
0.12496 0.24946 -0.17059
0.11097 0.24946 -0.26804
0.15321 0.24946 -0.29274
-0.05213 0.24946 -0.16378
0.01053 0.24946 -0.15562
0.13043 0.24946 -0.13557
0.08403 0.24946 -0.24149
-0.19661 0.24946 -0.26312
-0.19083 0.24946 -0.28365
-0.01734 0.24946 -0.14496
0.16099 0.24946 -0.20440
0.05806 0.24946 -0.11105
-0.17155 0.24946 -0.21433
-0.10655 0.24946 -0.26952
0.07099 0.24946 -0.28010
0.05638 0.24946 -0.06976
-0.06774 0.24946 -0.27250
-0.21422 0.24946 -0.23030
0.13098 0.24946 -0.15849
-0.01030 0.24946 -0.18198
-0.04580 0.24946 -0.26706
0.14689 0.24946 -0.28227
0.04199 0.24946 -0.04459
-0.05204 0.24946 -0.10370
-0.01631 0.24946 -0.15495
0.01974 0.24946 -0.26800
0.09488 0.24946 -0.11733
-0.07910 0.24946 -0.17717
0.03107 0.24946 -0.25270
0.18833 0.24946 -0.28874
-0.15439 0.24946 -0.28094
0.10322 0.24946 -0.15215
-0.07000 0.24946 -0.19808
0.03556 0.24946 -0.18473
0.01396 0.24946 -0.27538
-0.19515 0.24946 -0.21976
0.07164 0.24946 -0.25698
-0.17650 0.24946 -0.25510
-0.06825 0.24946 -0.13496
0.06452 0.24946 -0.15580
0.08664 0.24946 -0.14391
0.10611 0.24946 -0.27595
-0.22929 0.24946 -0.24559
0.00516 0.24946 -0.21573
-0.03961 0.24946 -0.21135
-0.02097 0.24946 -0.17368
-0.15090 0.24946 -0.23401
0.25004 0.24946 -0.26578
0.15677 0.24946 -0.17622
-0.04367 0.24946 -0.13928
0.02403 0.24946 -0.13354
0.00135 0.24946 -0.17651
0.21473 0.24946 -0.27604
-0.03926 0.24946 -0.13236
0.02240 0.24946 -0.11088
-0.00378 0.24946 -0.15511
-0.09011 0.24946 -0.28926
0.00447 0.24946 -0.05015
-0.05876 0.24946 -0.14635
-0.11690 0.24946 -0.26668
-0.22750 0.24946 -0.25710
-0.08996 0.24946 -0.20609
0.24874 0.24946 -0.27368
0.04579 0.24946 -0.07436
0.07426 0.24946 -0.07581
-0.09171 0.24946 -0.23963
0.22802 0.24946 -0.25378
0.27853 0.24946 -0.28954
-0.04586 0.24946 -0.15932
0.27431 0.24946 -0.28757
0.03225 0.24946 -0.08947
-0.01420 0.24946 -0.00549
-0.00947 0.24946 0.02304
-0.00558 0.24946 0.00033
-0.00414 0.27881 -0.00900
-0.02166 0.27881 0.01757
-0.01718 0.27881 0.00031
-0.01043 0.25898 -0.02935
0.03670 -0.24057 0.03604
-0.29348 0.27490 -0.22268
-0.29348 0.26064 -0.23989
-0.29348 0.27583 0.07055
-0.29348 0.27048 0.05765
-0.29348 0.27369 -0.19777
-0.29348 0.25735 -0.18596
-0.29348 0.26476 -0.10517
-0.29348 0.27220 0.14347
-0.29348 0.26133 -0.14915
-0.29348 0.27804 -0.11317
-0.29348 0.26680 -0.19638
-0.29348 0.26330 -0.06415
-0.29348 0.27544 -0.15562
-0.03158 0.27881 0.01813
-0.14453 0.27881 0.11933
-0.10298 0.27881 0.08074
-0.04407 0.27881 -0.00155
-0.11818 0.27881 0.11341
-0.22131 0.27881 0.21805
-0.05798 0.27881 0.03203
-0.05239 0.27881 0.02881
-0.18711 0.27881 -0.29028
0.24990 0.27881 -0.27786
0.23520 0.27881 -0.26140
-0.03461 0.27881 -0.28043
-0.21895 0.27881 -0.28999
0.08090 0.27881 -0.26927
0.13614 0.27881 -0.27761
0.16763 0.27881 -0.26881
0.27784 0.27881 -0.29048
0.10612 0.27881 -0.26796
0.08933 0.27881 -0.27095
0.02034 0.27881 -0.28110
-0.09991 0.27881 -0.29134
0.25655 0.27881 -0.28236
0.15608 0.27881 -0.27898
-0.00339 0.27881 -0.28639
0.22284 0.27881 -0.26088
-0.22506 0.24946 0.23167
0.00135 0.24946 0.19835
-0.00590 0.24946 0.14283
-0.09078 0.24946 0.14543
0.23124 0.24946 0.27918
0.14577 0.24946 0.20259
-0.08106 0.24946 0.18430
-0.08621 0.24946 0.27219
-0.14991 0.24946 0.26470
0.04281 0.24946 0.22684
-0.03266 0.24946 0.12432
-0.11696 0.24946 0.18393
-0.04144 0.24946 0.21724
-0.06996 0.24946 0.21733
-0.01761 0.24946 0.23308
-0.02195 0.24946 0.22298
-0.19840 0.24946 0.21687
-0.01359 0.24946 0.27125
0.02819 0.24946 0.12660
-0.13481 0.24946 0.14765
0.02398 0.24946 0.26037
0.10002 0.24946 0.29207
0.01533 0.24946 0.15590
0.17218 0.24946 0.25739
0.12748 0.24946 0.23993
0.00344 0.24946 0.13671
-0.09353 0.24946 0.15919
-0.13524 0.24946 0.23871
-0.16020 0.24946 0.25116
-0.01631 0.24946 0.19105
0.17746 0.24946 0.24521
0.04712 0.24946 0.16711
-0.03101 0.24946 0.05411
-0.01196 0.24946 0.12958
0.16625 0.24946 0.25072
-0.16325 0.24946 0.23409
-0.02538 0.24946 0.14351
-0.00999 0.24946 0.07058
-0.02304 0.24946 0.06714
-0.06270 0.24946 0.10479
0.07482 0.24946 0.24897
-0.08163 0.24946 0.29315
0.11853 0.24946 0.16786
-0.15847 0.24946 0.28266
-0.06488 0.24946 0.17992
0.09335 0.24946 0.19397
-0.13054 0.24946 0.23286
0.07053 0.24946 0.19441
-0.10037 0.24946 0.23790
0.12097 0.24946 0.23208
-0.01621 0.24946 0.11382
0.21375 0.24946 0.24999
-0.08537 0.24946 0.13925
0.04978 0.24946 0.09684
0.24273 0.24946 0.27569
0.21859 0.24946 0.28651
0.20563 0.24946 0.26211
0.19998 0.24946 0.23050
0.13416 0.24946 0.26573
0.10546 0.24946 0.19035
-0.01817 0.24946 0.05918
0.01830 0.24946 0.25693
0.15732 0.24946 0.27723
-0.03144 0.24946 0.03932
-0.17793 0.24946 0.28469
-0.13087 0.24946 0.26830
-0.16864 0.24946 0.20150
0.03649 0.24946 0.19622
-0.03994 0.24946 0.05704
-0.09273 0.24946 0.26060
-0.11534 0.24946 0.24033
-0.11359 0.24946 0.19596
0.04807 0.24946 0.24150
0.04212 0.24946 0.27373
-0.10359 0.24946 0.21648
-0.01809 0.24946 0.17967
-0.06419 0.24946 0.28825
-0.20034 0.24946 0.27660
-0.07564 0.24946 0.17288
0.19480 0.24946 0.24242
0.10451 0.24946 0.28960
0.24052 0.24946 0.27140
0.25074 0.24946 0.27868
0.09673 0.24946 0.25010
-0.07768 0.24946 0.20456
0.20812 0.24946 0.28802
-0.13989 0.24946 0.15343
0.07556 0.24946 0.17126
0.03544 0.24946 0.11457
-0.18152 0.24946 0.24502
0.10801 0.24946 0.27910
-0.05002 0.24946 0.18819
0.15395 0.24946 0.28593
0.19040 0.24946 0.28444
0.11584 0.24946 0.21063
0.00004 0.24946 0.12485
0.03004 0.24946 0.22819
0.00120 0.24946 0.19157
-0.17583 0.24946 0.26993
-0.03940 0.24946 0.19378
-0.00156 0.24946 0.09425
0.25305 0.24946 0.26135
0.09656 0.24946 0.17927
-0.00313 0.24946 0.18872
0.20603 0.24946 0.23259
0.20778 0.24946 0.28247
-0.12951 0.24946 -0.13439
-0.17543 0.24946 -0.19431
-0.02074 0.24946 -0.03701
-0.05875 0.24946 -0.07710
-0.09514 0.24946 -0.11978
-0.19057 0.24946 -0.20443
-0.07689 0.24946 -0.11046
0.01909 0.24946 -0.03259
-0.10897 0.24946 -0.11565
-0.00494 0.24946 -0.03541
-0.03041 0.24946 -0.03676
-0.19390 0.24946 -0.19787
-0.26976 0.24946 -0.27168
0.10380 0.27881 -0.26186
-0.18429 0.27881 -0.28134
0.15409 0.27881 -0.25677
-0.11129 0.27881 -0.27032
-0.09085 0.27881 -0.27597
-0.11632 0.27881 -0.27253
-0.28672 0.27881 -0.28844
0.21638 0.27881 -0.25468
0.01780 0.27881 -0.27098
-0.17729 0.27881 -0.27161
-0.20708 0.27881 -0.27772
-0.03584 0.27881 -0.26429
0.07807 0.27881 -0.26392
