-0.17037 0.18589 0.13948
0.02712 0.18589 -0.14882
0.06019 0.18589 -0.15871
-0.15168 0.18589 0.04084
-0.11728 0.18589 0.00102
0.07123 0.18589 -0.18436
-0.23576 0.18589 0.13469
-0.20823 0.18589 0.14403
0.03748 0.18589 -0.15289
-0.23626 0.18589 0.17726
-0.02062 0.18589 -0.09873
-0.21361 0.18589 0.13781
-0.17211 0.18589 0.08810
-0.18552 0.18589 0.08354
-0.18516 0.18589 0.10790
-0.11045 0.18589 0.06010
-0.07900 0.18589 0.01306
-0.11456 0.18589 0.07853
-0.00092 0.18589 -0.12247
-0.06014 0.18589 0.00253
0.03539 0.18589 -0.15866
-0.09620 0.18589 -0.00792
0.02982 0.18589 -0.13987
-0.19167 0.18589 0.12791
-0.16111 0.18589 0.07048
-0.15066 0.18589 0.09001
-0.14464 0.18589 0.02688
0.00661 0.18589 -0.08771
-0.20178 0.18589 0.15541
-0.15244 0.18589 0.05900
-0.21263 0.18589 0.16292
-0.20862 0.18589 0.09727
-0.00864 0.18589 -0.11214
0.03523 -0.13112 0.03874
0.09119 0.04806 0.09289
0.06691 -0.02968 0.07111
-0.05026 -0.17116 -0.23906
-0.26182 0.15655 -0.05851
-0.10425 0.15655 -0.22969
-0.27312 0.15655 -0.05666
-0.07132 0.15655 -0.26796
-0.11674 0.15655 -0.22858
-0.30444 0.15655 -0.02799
-0.29565 0.15655 -0.04135
0.02581 -0.17342 0.13068
0.02581 -0.17704 0.04833
0.02581 -0.16551 0.05380
0.02108 -0.18589 0.02692
-0.27197 0.16677 -0.25275
-0.13469 0.13319 0.04702
-0.15237 0.07315 0.02786
-0.02581 -0.17183 -0.22538
-0.02581 -0.17591 -0.20261
-0.02581 -0.16992 -0.12854
0.04081 -0.17489 0.24585
-0.19305 0.17820 0.23447
-0.17985 0.18382 0.24499
-0.17143 -0.18574 -0.03671
-0.24585 -0.18152 -0.02777
-0.00852 -0.17023 -0.02580
-0.01290 -0.17817 -0.03019
0.01839 -0.16129 0.00454
0.16238 0.18589 0.18796
0.13229 0.18589 0.25233
0.14595 0.18589 0.23992
0.16540 0.18589 0.20028
0.16650 0.18589 0.22416
0.26898 0.18589 0.08170
0.19322 0.18589 0.19590
0.21057 0.18589 0.16088
0.07263 0.18589 0.28656
0.10697 0.18589 0.24052
0.26364 0.18589 0.09877
0.26871 0.18589 0.09768
0.18549 0.18589 0.21096
0.08645 0.18589 0.28393
0.11475 0.18589 0.29168
0.12116 0.18589 0.29235
0.14777 0.18589 0.21883
0.23297 0.18589 0.11508
-0.19029 -0.05561 -0.01546
-0.19775 -0.08096 -0.02256
-0.04195 -0.16129 -0.18571
-0.03489 -0.16129 -0.16272
-0.04623 -0.16129 -0.14096
0.31458 0.16894 0.16296
0.24912 0.16078 -0.17467
-0.20938 0.18589 -0.08459
-0.31356 0.18589 0.00115
-0.18230 0.18589 -0.14299
-0.09204 0.18589 -0.24979
-0.05310 0.18589 -0.29000
-0.31146 0.18589 0.03253
-0.18135 0.18589 -0.11139
-0.22293 0.18589 -0.11167
-0.24634 0.18589 -0.07723
-0.08970 0.18589 -0.23143
-0.20933 0.18589 -0.10969
-0.18787 0.18589 -0.10046
-0.14279 0.18589 -0.17005
-0.13025 0.18589 -0.18590
-0.31715 0.18589 0.01355
-0.09865 0.18589 -0.24521
-0.25727 0.18589 -0.02547
-0.14670 0.18589 -0.15883
-0.18053 0.18589 -0.13254
-0.10550 0.18589 -0.21138
-0.26851 0.18589 -0.03567
-0.30338 0.18589 0.02585
0.21975 0.13210 0.02440
0.10552 0.13210 0.14950
-0.02490 0.13210 0.05358
-0.19051 0.13210 -0.02347
0.02945 0.13210 0.06071
0.00794 0.13210 0.05387
0.03857 0.13210 0.24556
0.12781 0.13210 0.15646
-0.13886 0.13210 0.06096
0.02904 0.13210 0.21499
0.13854 0.13210 0.11282
0.20835 0.13210 0.02712
-0.13315 0.13210 0.01600
0.11197 0.13210 0.02506
0.09047 0.13210 0.20360
0.04528 0.13210 0.00022
-0.03789 0.13210 0.11857
0.03913 0.13210 0.22032
0.13439 0.13210 0.07948
-0.13982 0.13210 0.08110
-0.14578 0.13210 0.00173
-0.07285 0.13210 0.02538
-0.04165 0.13210 0.13197
-0.13076 0.13210 0.04467
-0.20675 0.13210 -0.01384
0.03412 0.13210 0.06199
0.14386 0.13210 0.03094
-0.19231 0.13210 0.01498
0.06778 0.13210 0.17486
0.12209 0.13210 0.16322
0.03855 0.13210 0.01460
0.07402 0.13210 0.17368
-0.03591 0.13210 0.07372
0.12563 0.13210 0.05938
0.12227 0.13210 0.06667
0.00106 0.13210 0.18843
-0.11965 0.13210 0.06139
-0.09196 0.13210 0.03256
0.16296 0.13210 0.13440
0.06266 0.13210 0.14413
-0.03723 0.13210 0.03280
-0.08661 0.13210 0.05756
-0.00331 0.13210 0.15213
0.22395 0.13210 0.03936
0.00284 0.13210 0.01529
-0.05092 0.13210 0.06718
-0.18771 0.13210 -0.00041
-0.10982 0.13210 0.09566
-0.09231 0.13210 0.07783
0.03163 0.13210 -0.00004
0.02287 0.13210 0.17614
0.02462 0.13210 0.06780
0.19836 0.13210 0.03177
0.07211 0.13210 0.08951
0.11768 0.13210 0.04242
-0.02022 0.13210 0.06476
0.04798 0.13210 0.23071
-0.04376 0.13210 0.15173
-0.15520 0.13210 -0.00031
-0.05290 0.13210 0.07437
0.07542 0.13210 0.03451
0.05221 0.13210 0.12046
0.14275 0.13210 0.07909
0.00122 0.13210 0.02269
-0.18331 0.13210 0.04103
0.10824 0.13210 0.03394
0.08690 0.13210 0.03035
0.13095 0.13210 0.10572
0.01366 0.13210 0.01206
-0.04601 0.13210 0.03211
0.14194 0.13210 0.15293
-0.15014 0.13210 0.02213
-0.07243 0.13210 0.04326
-0.02265 0.13210 0.11947
0.17033 0.13210 0.09286
0.00850 0.13210 0.14698
-0.05898 0.13210 0.03931
0.06507 0.13210 0.11977
0.14784 0.13210 0.05172
0.22616 0.13210 0.04549
-0.15610 0.13210 0.02601
0.17821 0.13210 0.06527
0.01624 0.13210 0.14240
0.14661 0.13210 0.06351
0.09984 0.13210 0.17261
-0.16213 0.13210 0.02506
0.00296 0.13210 0.12347
0.10019 0.13210 0.04622
0.08392 0.13210 0.03596
-0.12005 0.13210 0.02562
0.13822 0.13210 0.02950
-0.15319 0.13210 -0.01190
-0.04872 0.13210 0.03927
-0.10047 0.13210 0.11015
0.04959 0.13210 0.19480
0.03494 0.13210 0.21827
-0.12634 0.13210 0.09909
0.06453 0.13210 0.16073
-0.04262 0.13210 0.02577
0.20902 0.15655 -0.21910
0.20115 0.15655 -0.18368
0.17421 0.15655 -0.22744
0.21890 0.15655 -0.10031
0.21815 0.15655 -0.20404
0.22565 0.15655 -0.16193
0.18783 0.15655 -0.19678
0.23575 0.15655 -0.10008
0.23685 0.15655 -0.05934
0.19091 0.16290 0.30807
0.01179 -0.16445 -0.00550
0.23243 -0.16390 0.02581
-0.02406 0.00773 0.19181
0.01654 -0.12986 0.22263
-0.04992 0.09538 0.16346
0.01695 -0.13125 0.23553
0.01346 -0.11942 0.22819
-0.25839 0.15655 -0.25743
-0.03054 0.04856 0.18148
-0.02684 0.05647 0.17905
-0.04907 0.12590 0.15775
-0.05057 0.10536 0.16405
-0.02592 0.04565 0.18237
0.31550 0.18589 0.13078
0.31847 0.18589 0.13753
0.28652 0.18589 0.19916
0.31337 0.18589 0.14044
0.26124 0.18589 0.20418
0.30290 0.18589 0.18755
-0.09487 0.15655 -0.29629
-0.14177 0.15655 -0.21028
-0.12200 0.15655 -0.26401
-0.09423 0.15655 -0.26326
-0.07010 0.15655 -0.28853
-0.23958 0.15655 -0.10923
-0.19874 0.15655 -0.18794
-0.04545 0.15655 -0.31477
-0.20008 0.15655 -0.15622
-0.07172 0.15655 -0.32139
-0.18620 0.15655 -0.20584
-0.24475 0.15655 -0.12080
-0.11149 0.15655 -0.28674
-0.20347 0.15655 -0.18666
-0.06438 0.15655 -0.28789
-0.27340 0.15655 -0.08395
-0.14358 0.15655 -0.22812
-0.07668 0.15655 -0.28887
0.02625 0.05372 -0.16370
-0.00874 -0.04100 -0.18912
0.02919 0.08485 -0.15534
0.00720 0.02456 -0.17153
0.04273 0.13794 -0.14110
0.04792 0.13940 -0.14070
0.16475 0.12765 -0.04975
0.18755 0.04643 -0.02086
0.16904 0.11235 -0.05452
0.18352 0.06079 -0.03504
0.20713 -0.02333 -0.00194
0.16124 0.10115 -0.05847
0.18295 0.04669 -0.04098
0.14779 0.11807 -0.06390
0.16829 0.07391 -0.04972
0.24269 -0.15167 0.02272
0.21979 -0.08654 0.00180
-0.11972 0.06112 -0.11198
-0.13547 0.11156 -0.12866
-0.09408 -0.02097 -0.08565
-0.05733 -0.13865 -0.05594
-0.13688 0.11609 -0.13479
-0.07055 -0.01804 -0.08119
-0.11620 0.12815 -0.13109
-0.08879 0.04039 -0.09396
-0.07887 0.00860 -0.08092
-0.09000 0.04426 -0.09167
0.17468 0.08666 -0.02937
0.19298 -0.00443 -0.00011
0.15456 0.14266 -0.04735
0.17520 0.06315 -0.02182
0.14856 0.12315 -0.04108
-0.19154 0.02319 0.01301
-0.22471 -0.08947 -0.00860
-0.19358 0.01624 0.01984
-0.15528 0.14633 0.03694
-0.16661 0.10784 0.03790
-0.21644 -0.06139 -0.00065
0.01844 -0.01800 -0.20473
0.00792 -0.05206 -0.20775
0.02641 0.00779 -0.19847
0.01419 -0.03177 -0.20622
0.05867 0.11228 -0.15519
0.03070 0.02171 -0.18679
0.19587 0.15655 0.21475
0.13224 0.15655 0.27388
0.10671 0.15655 0.28300
0.08768 0.15655 0.29506
0.19368 0.15655 0.22279
0.10391 0.15655 0.27457
0.14094 0.15655 0.28094
0.15502 0.15655 0.26625
0.09998 0.15655 0.32744
0.20736 0.15655 0.20670
0.21977 0.15655 0.21106
0.07222 0.15655 0.30706
0.18313 0.15655 0.24573
0.27172 0.17563 -0.14557
0.27239 0.18460 -0.14416
0.03568 -0.18589 0.02982
-0.05026 -0.16751 -0.06960
-0.05026 -0.16728 -0.14311
-0.05026 -0.16362 -0.10433
0.23517 0.15655 0.26753
-0.01764 0.15655 -0.31675
0.00687 0.15655 -0.31885
-0.00188 0.15655 -0.28906
-0.21294 -0.16161 -0.02581
0.16139 0.13341 0.14116
0.13952 0.14497 0.16303
0.15950 0.14377 0.14305
0.14115 0.14111 0.16140
0.08525 0.14318 0.21729
0.06287 0.13967 0.23967
-0.29561 0.15655 -0.21177
0.04867 0.13222 -0.16708
0.01021 -0.01521 -0.20665
-0.00163 -0.07361 -0.22232
0.04149 0.12147 -0.16997
0.01211 0.00179 -0.20209
0.04869 0.12748 -0.16835
-0.07729 -0.02211 -0.06928
-0.17413 0.15655 -0.16539
-0.24702 0.15655 -0.09480
-0.14131 0.15655 -0.19265
-0.22115 0.15655 -0.10319
-0.28586 0.15655 -0.04626
-0.14385 0.15655 -0.19720
0.22818 0.18589 0.28659
0.03555 0.03739 -0.18538
-0.00350 -0.08905 -0.22473
0.30072 0.15655 -0.03473
0.29840 0.15655 0.01597
0.30941 0.15655 -0.05076
0.29296 0.15655 0.00872
0.25494 0.18589 0.19056
0.30534 0.18589 0.13246
0.23183 0.18589 0.23103
0.16466 0.18589 0.27518
0.23486 0.18589 0.23883
0.28697 0.18589 0.14751
0.24587 0.18589 0.18935
0.21653 0.18589 0.24539
0.24414 0.18589 0.21060
0.26677 0.18589 0.16653
0.22715 -0.11644 0.01141
0.18189 -0.00802 -0.02341
0.19438 -0.02604 -0.01763
0.20404 -0.09673 0.00508
0.18134 0.00536 -0.02771
0.17584 0.02364 -0.03358
0.03542 -0.16129 0.14027
0.02832 -0.16129 0.19526
-0.21509 0.15655 -0.28582
0.02581 -0.18217 0.22580
0.02581 -0.17644 0.21790
0.02581 -0.17200 0.22777
0.04544 -0.09844 0.05157
0.07712 0.00302 0.07731
0.09528 0.06117 0.09615
0.20202 0.15655 0.24042
0.28703 0.15655 0.20340
0.17638 0.15655 0.26067
0.23851 0.15655 0.22916
0.24516 0.15655 0.21748
0.26995 0.15655 0.19666
0.17170 0.15655 0.26605
0.28090 0.15655 0.20678
0.30544 0.15655 0.16542
0.18090 0.18589 0.11689
0.08124 0.18589 0.24664
0.24461 0.18589 0.02189
0.31177 0.18589 -0.00423
0.26018 0.18589 0.02131
0.17413 0.18589 0.14821
0.24213 0.18589 0.08232
0.20218 0.18589 0.09508
0.26813 0.18589 0.01298
0.28606 0.18589 -0.03237
0.25745 0.18589 0.01128
0.25870 0.18589 0.04310
0.14013 0.18589 0.16439
0.31125 0.18589 0.02130
0.30639 0.18589 -0.04411
0.09526 0.18589 0.24266
0.29841 0.18589 0.01984
0.14728 0.18589 0.18395
0.15170 0.18589 0.17304
0.21188 0.18589 0.11649
0.22343 0.18589 0.07941
0.23886 0.18589 0.05808
-0.05361 -0.13102 -0.03526
-0.07723 -0.03056 -0.06663
0.06112 -0.12300 0.03777
0.11408 0.16469 0.32591
0.15636 0.16352 0.31611
-0.23630 -0.16806 -0.02581
-0.24487 -0.17617 -0.02581
-0.15107 -0.17494 -0.02581
-0.12916 -0.17848 -0.02581
-0.20758 0.15595 0.01916
-0.18635 0.14111 0.04039
-0.03130 0.15173 0.19544
-0.07981 0.15256 0.14693
-0.08500 0.14922 0.14174
-0.21775 0.14058 0.00898
-0.25183 0.13373 -0.02509
0.17520 0.15574 0.12734
0.26731 0.14932 0.03524
0.26505 0.13418 0.03749
0.13181 0.14796 0.17074
0.22329 0.14695 0.07925
0.21857 0.15591 0.08398
0.02956 -0.09114 0.21336
-0.01264 0.05188 0.16185
0.04733 -0.15138 0.22021
-0.02250 0.08528 0.14592
0.01035 -0.02603 0.18774
0.01277 -0.03424 0.19118
-0.01009 -0.11037 -0.21442
-0.02131 -0.14673 -0.23200
0.00277 -0.06875 -0.20942
0.02895 0.01603 -0.17954
-0.00687 -0.09997 -0.21460
0.22030 0.18464 -0.21084
0.23029 0.17958 -0.19829
-0.01055 -0.01963 0.20240
0.00302 -0.06043 0.21491
-0.05654 0.13166 0.15599
-0.01889 -0.00194 0.19697
-0.03438 0.05934 0.17817
0.01035 -0.09217 0.22465
0.11343 0.14052 0.18912
0.05601 0.14336 0.24654
0.05129 0.14874 0.25125
-0.20310 0.17135 0.22647
-0.21388 0.16281 0.21787
0.01506 -0.04200 0.18601
0.03552 -0.11133 0.20828
0.03910 -0.12346 0.22622
0.02524 -0.07649 0.19950
0.04503 -0.14358 0.23572
-0.24777 0.18090 0.17636
-0.24604 0.17349 0.17853
-0.12087 0.17804 0.28358
-0.10797 0.18166 0.28977
-0.27006 0.15655 -0.23026
0.03627 -0.18574 0.03856
0.19032 -0.18171 0.05026
0.20447 -0.17756 0.05026
0.20111 -0.17031 0.05026
0.21244 -0.17112 0.05026
0.18188 -0.02050 0.00205
0.18690 -0.03839 0.00715
0.15451 0.07703 -0.02676
0.15492 0.07556 -0.03620
0.14811 0.09982 -0.03438
-0.19544 0.16931 -0.30627
0.06958 -0.08171 0.07511
0.07422 -0.07556 0.07703
0.07077 -0.08760 0.07327
-0.16009 0.15785 0.26074
-0.15341 0.17809 0.26606
-0.32821 0.16686 -0.01899
-0.32815 0.18493 -0.03799
0.04570 0.13789 -0.15682
0.15707 0.12826 -0.06718
0.21575 -0.07002 -0.00350
0.15259 0.10154 -0.05860
0.15502 0.12099 -0.06484
0.18024 0.03155 -0.03612
0.04813 -0.16129 0.05587
0.01067 0.18461 0.32669
-0.02952 0.17235 0.31760
0.00633 0.02194 -0.18369
-0.00192 -0.00477 -0.20068
-0.02078 -0.06584 -0.21968
0.03933 0.12881 -0.16671
0.01490 0.04972 -0.17721
0.31228 0.18132 0.17286
0.32338 0.18012 0.12499
-0.28961 0.17384 0.10830
-0.30809 0.16797 0.06982
0.06094 0.13842 -0.18109
-0.02795 0.13454 -0.26998
0.08152 0.13790 -0.16052
-0.01257 0.14311 -0.25461
0.12564 0.13381 -0.11640
0.03681 0.14437 -0.20522
0.20772 0.13580 -0.03431
-0.24601 0.18589 -0.20897
-0.23668 0.18589 -0.21438
-0.11721 0.18589 -0.32476
-0.19800 0.18589 -0.28417
-0.18899 0.18589 -0.29517
-0.16056 0.18589 -0.29410
-0.24975 0.18589 -0.20448
-0.15195 0.18589 -0.31333
-0.14919 0.18589 -0.30018
-0.29945 0.18589 -0.13851
-0.22551 0.18589 -0.21624
0.21010 0.15389 -0.03193
0.10533 0.15590 -0.13670
0.15946 0.15622 -0.08257
0.10854 0.15423 -0.13349
0.15655 0.15304 -0.08548
0.07889 0.15289 -0.16315
0.24345 0.14681 0.00141
0.05279 -0.15319 0.05058
0.05847 -0.13499 0.03932
0.09044 -0.03263 0.07042
0.07537 -0.08087 0.05148
0.09636 -0.01367 0.08060
0.25025 0.16616 0.27403
-0.02581 -0.18104 -0.17996
-0.02581 -0.18390 -0.17099
-0.32815 0.16222 -0.03891
0.07967 -0.06713 0.07865
0.12757 0.08626 0.11807
0.12043 0.06341 0.10291
0.08949 -0.03566 0.08585
0.09322 -0.02372 0.08305
-0.05536 0.11379 0.14125
-0.02569 0.01326 0.18088
-0.04640 0.08342 0.15462
-0.06270 0.13867 0.14929
-0.06144 0.13439 0.14250
-0.03253 0.03642 0.17404
0.02855 -0.18589 0.01961
-0.05161 -0.18574 -0.04904
0.07447 -0.16538 0.05026
0.14162 -0.16937 0.05026
0.08149 -0.16633 0.05026
-0.21611 0.15655 -0.27923
-0.28351 0.15655 -0.18830
-0.30993 0.15655 -0.16562
-0.30013 0.15655 -0.15380
-0.30768 0.15655 -0.14411
-0.25512 0.15655 -0.24147
0.01352 0.04525 -0.18575
-0.02848 -0.09077 -0.22567
0.01920 0.06363 -0.17297
0.02137 0.07066 -0.16615
0.14980 0.18003 0.31763
0.16229 0.18588 0.31473
-0.03695 -0.18574 -0.06037
-0.02678 -0.18574 -0.17653
-0.02825 -0.18574 -0.21484
-0.03391 -0.18574 -0.07423
-0.15670 0.09747 0.02290
-0.18399 0.02243 0.00169
-0.23414 -0.12952 -0.04128
-0.15816 0.11165 0.02692
-0.21504 -0.07257 -0.02517
-0.06691 0.18589 -0.00991
-0.17991 0.18589 0.07477
-0.16243 0.18589 0.09219
-0.17283 0.18589 0.07988
0.06277 0.18589 -0.18141
-0.04425 0.18589 -0.06619
-0.16811 0.18589 0.11168
0.02436 0.18589 -0.12478
-0.12899 0.18589 0.05525
-0.14657 0.18589 0.03317
-0.13353 0.18589 0.03131
-0.14884 0.18589 0.07988
-0.11773 0.18589 0.00743
-0.23383 0.18589 0.14336
-0.17110 0.18589 0.06303
-0.14997 0.18589 0.11416
-0.01608 0.18589 -0.06031
-0.18260 0.18589 0.12154
0.10463 0.18589 -0.21682
-0.05236 0.18589 -0.06483
0.02071 0.18589 -0.11987
-0.15707 0.18589 0.09454
-0.16452 0.18589 0.05266
-0.08181 0.18589 -0.03103
-0.21660 0.18589 0.09419
-0.07461 0.18589 -0.00071
-0.10794 0.18589 -0.00828
-0.08661 0.18589 0.02997
-0.11535 0.18589 0.02613
-0.17477 0.18589 0.15851
0.03055 0.18589 -0.15207
-0.19464 0.18589 0.15907
-0.20856 0.18589 0.20054
-0.14048 0.18589 0.04074
-0.15771 0.18589 0.13406
0.18596 -0.00717 0.00077
0.21990 -0.15525 0.04832
0.22510 -0.12883 0.03983
0.20575 -0.10002 0.03058
0.19828 -0.05153 0.01501
0.02581 -0.17162 0.18503
0.02581 -0.18145 0.08489
0.02581 -0.16823 0.23301
0.32815 0.16356 0.04047
0.32804 0.16489 0.08012
-0.22495 0.17625 0.20500
-0.03940 -0.16637 -0.24585
-0.32798 0.16999 -0.10098
-0.32807 0.15826 -0.06993
0.14201 0.12154 -0.05435
0.15825 0.06369 -0.04029
0.19456 -0.06567 0.01224
0.16747 0.03084 -0.01453
0.14087 0.12561 -0.06148
-0.15735 0.05623 0.01369
-0.14244 0.10688 0.03383
0.16521 0.15655 -0.21666
0.11661 0.15655 -0.23189
0.14206 0.15655 -0.22525
0.11485 0.15655 -0.27377
0.15515 0.15655 -0.23811
0.21642 0.15655 -0.08752
0.17002 0.15655 -0.21351
0.11113 0.15655 -0.28503
0.16945 0.15655 -0.15386
0.12842 0.15655 -0.21640
0.22148 0.15655 -0.06780
0.18192 0.15655 -0.15359
0.17632 0.15655 -0.13434
0.15295 0.15655 -0.22739
-0.13116 0.15655 -0.30822
-0.16535 0.15655 -0.29952
-0.24957 0.15655 -0.19108
-0.30627 0.15655 -0.13222
-0.30641 0.15655 -0.12766
-0.21023 0.15655 -0.27852
-0.26490 0.15655 -0.17011
-0.15242 0.15655 -0.29776
-0.18033 0.15655 -0.25556
-0.27035 0.15655 -0.17312
-0.29924 0.15655 -0.01650
-0.30327 0.15655 0.02410
-0.30951 0.15655 0.03111
-0.31135 0.15655 0.00454
-0.15987 0.08642 0.04423
-0.15845 0.06453 0.03804
-0.18963 -0.05043 0.00554
-0.17265 0.00819 0.02211
-0.08604 -0.17457 -0.05026
-0.14700 -0.16448 -0.05026
-0.15683 -0.16315 -0.05026
0.28613 0.16951 -0.11555
0.29445 0.16178 -0.09822
0.10063 0.07827 0.11748
0.07074 -0.01742 0.09126
0.07488 -0.00416 0.09514
0.10944 0.10651 0.12851
0.05696 -0.06155 0.07823
-0.04528 -0.15535 -0.02766
-0.05504 -0.11818 -0.03927
-0.13896 0.18589 0.17970
0.11477 0.18589 -0.09205
0.01744 0.18589 0.02043
-0.10065 0.18589 0.15474
-0.06930 0.18589 0.16298
0.11052 0.18589 -0.08481
-0.04431 0.18589 0.08736
0.05257 0.18589 -0.02085
0.02745 0.18589 0.01097
-0.13656 0.18589 0.20170
-0.11293 0.18589 0.12658
-0.07022 0.18589 0.11487
-0.11128 0.18589 0.16329
-0.14920 0.18589 0.22364
-0.01476 0.18589 0.03263
0.03191 0.18589 -0.01584
0.16737 0.18589 -0.15726
-0.15897 0.18589 0.25429
0.03444 0.18589 -0.00493
0.19762 0.18589 -0.19183
0.00129 0.18589 0.00979
0.15385 0.18589 -0.14044
0.04615 0.18589 -0.02030
-0.01206 0.18589 0.03679
0.01509 0.18589 -0.00062
-0.20384 0.18589 0.22473
-0.15228 0.18589 0.17452
0.01939 0.18589 -0.00526
-0.01388 0.18589 0.05799
-0.18279 0.18589 0.23158
-0.01281 0.18589 0.04890
0.09452 0.18589 -0.09085
-0.14708 0.18589 0.19039
0.06354 0.18589 -0.03958
-0.14450 0.18589 0.25144
0.01097 0.18589 0.03741
0.26991 0.16427 0.25497
0.06548 -0.18574 0.03989
0.12019 -0.16296 0.02581
0.23950 -0.17984 0.02581
0.18031 -0.16715 0.02581
-0.16392 0.11698 0.02876
-0.21726 -0.06417 -0.02155
-0.23012 -0.10785 -0.02688
-0.23156 -0.11277 -0.02621
-0.21785 -0.06617 -0.00757
-0.22051 -0.07521 -0.01742
0.00046 -0.05041 0.18739
0.03423 -0.14709 0.21705
0.02292 -0.10535 0.20424
0.01475 -0.09610 0.20141
0.04045 -0.15390 0.21914
0.24585 -0.16447 0.02687
0.02843 -0.18574 0.14009
0.26435 0.15655 0.24700
0.20366 -0.18574 0.03125
0.12812 -0.18574 0.03504
0.05026 -0.16995 0.06002
0.05026 -0.16489 0.06368
0.05026 -0.17334 0.05276
-0.30244 0.16688 -0.20491
-0.13501 0.15655 0.21941
-0.23645 0.15655 0.16297
-0.26819 0.15655 0.15060
-0.15134 0.15655 0.20843
-0.20162 0.15655 0.18062
-0.17221 0.15655 0.21866
-0.15583 0.15655 0.20909
-0.11430 0.15655 0.22240
-0.03488 0.15655 0.24457
-0.13124 0.15655 0.20499
-0.01231 0.15655 0.24822
0.32648 0.18566 0.00972
0.31159 0.18567 -0.05610
0.00017 -0.17246 0.01746
0.30143 0.15957 0.20698
-0.01502 -0.02291 0.20264
-0.03577 0.04739 0.17612
0.00093 -0.07696 0.21567
-0.03069 0.03019 0.18488
0.02455 -0.15701 0.22135
0.02531 -0.15960 0.23806
-0.08621 0.03212 -0.10970
0.05761 -0.12212 0.06249
0.11999 0.06415 0.12066
0.05467 -0.11840 0.06365
-0.28294 0.18589 -0.21690
-0.25221 0.18589 -0.25554
-0.13470 0.17417 -0.32113
-0.06131 -0.04761 -0.08024
0.13894 0.13868 -0.05803
-0.12551 -0.16129 -0.03900
-0.21059 -0.04154 0.00495
-0.16494 0.11352 0.03218
-0.18158 0.05698 0.02048
-0.16100 0.12688 0.04814
-0.24160 -0.14685 -0.02224
-0.17866 0.06692 0.03268
0.29821 0.15655 -0.07223
0.28970 0.15655 -0.06117
0.30321 0.15655 -0.06680
0.28329 0.15655 -0.00663
0.27300 0.15655 -0.03333
0.05026 -0.17225 0.20275
0.05026 -0.17180 0.17533
0.05026 -0.16877 0.18806
0.05026 -0.18512 0.07669
-0.19751 0.18088 -0.30545
0.12038 0.15347 0.18216
0.25310 0.15632 0.04944
0.25990 0.15151 0.04265
0.05065 0.15566 0.25190
0.11695 0.15655 0.19562
0.29462 0.15655 0.03270
0.27932 0.15655 0.05674
0.16528 0.15655 0.14241
0.19120 0.15655 0.13329
0.23949 0.15655 0.07711
0.15522 0.15655 0.15621
0.27935 0.15655 0.03089
-0.20761 -0.06475 0.00149
-0.22144 -0.08169 -0.00330
-0.21034 -0.08765 -0.00499
-0.20989 -0.05877 0.00318
-0.16818 0.09177 0.04574
0.10944 -0.17385 0.05026
0.11519 -0.16595 0.05026
0.12062 -0.17087 0.05026
0.16944 0.09715 -0.03273
0.19647 -0.01010 0.00171
0.20744 -0.03693 0.01032
0.16218 0.11496 -0.03846
0.19368 0.17419 -0.23397
0.18531 0.17383 -0.24064
0.22153 0.15826 0.29393
0.32816 0.18412 0.03740
0.32804 0.17878 0.08004
-0.03941 0.14086 -0.27177
-0.19211 0.13484 -0.11908
-0.13193 0.13997 -0.17926
-0.10318 0.14894 -0.20801
-0.19482 0.13971 -0.11636
-0.24585 -0.17547 -0.03957
-0.23816 -0.18574 -0.04219
-0.02013 -0.07186 -0.22185
-0.01287 -0.06237 -0.21930
-0.00018 -0.04094 -0.21355
-0.01419 -0.09112 -0.22702
-0.00987 0.00142 0.17149
-0.01072 0.04335 0.15863
-0.01705 0.06566 0.15178
-0.01801 0.02573 0.16403
-0.05187 0.12787 0.13270
0.17420 -0.16971 0.05026
0.03911 -0.11870 0.05426
-0.07734 -0.06643 -0.07988
-0.04930 -0.14984 -0.05383
-0.07839 -0.05004 -0.08500
-0.05367 0.15655 0.23451
-0.16631 0.15655 0.21820
-0.24255 0.15655 0.17982
-0.20957 0.15655 0.19914
-0.23372 0.15655 0.17346
-0.10220 0.15655 0.22566
-0.17733 0.15655 0.18779
0.04578 -0.09734 0.06229
0.09603 0.06357 0.10065
0.20488 0.18589 0.30142
0.17951 0.02210 -0.00863
0.21782 -0.12645 0.03907
0.18477 0.00456 -0.00300
0.21910 -0.10228 0.03131
-0.06435 0.18589 0.04887
0.14204 0.18589 -0.15218
0.06386 0.18589 -0.07938
0.18822 0.18589 -0.20774
-0.09413 0.18589 0.06859
0.15543 0.18589 -0.19479
-0.09196 0.18589 0.08951
-0.14301 0.18589 0.12224
-0.08249 0.18589 0.06693
0.07157 0.18589 -0.08299
0.03494 0.18589 -0.10198
0.14625 0.18589 -0.26856
0.05694 0.18589 -0.12250
0.16863 0.18589 -0.17456
0.12343 0.18589 -0.13102
0.09738 0.18589 -0.12423
0.10186 0.18589 -0.15266
-0.09754 0.18589 0.06093
0.10644 0.18589 -0.11285
0.03784 0.18589 -0.06684
0.14783 0.18589 -0.24748
0.03662 0.18589 -0.09489
-0.16971 0.18589 0.16646
0.03229 0.18589 -0.08087
0.12579 0.18589 -0.18021
0.11403 0.18589 -0.18308
0.06416 0.18589 -0.15070
0.13737 0.18589 -0.14003
0.17928 0.18589 -0.20633
-0.03896 0.18589 0.01756
0.10926 0.18589 -0.21935
-0.09206 0.18589 0.05531
0.10390 0.18589 -0.16818
0.08492 0.18589 -0.13225
0.13756 0.18589 -0.24906
0.10422 -0.17644 0.02581
0.08700 -0.16955 0.02581
0.05849 -0.17356 0.02581
0.23073 0.17250 0.28844
0.16239 0.15655 0.31338
0.25299 0.15655 0.22806
0.21119 0.15655 0.26805
0.14768 0.15655 0.30975
0.20409 0.15655 0.28824
-0.29281 0.16998 -0.22346
-0.23708 0.17043 0.18978
0.05698 0.12930 -0.14341
0.01055 0.00232 -0.17749
-0.02918 -0.10704 -0.20685
0.04955 0.12207 -0.14536
-0.23476 -0.17435 -0.05026
-0.16128 -0.17752 -0.05026
-0.23843 -0.18488 -0.05026
-0.22409 -0.17964 -0.05026
0.02645 -0.16129 0.11046
-0.07741 -0.18574 -0.03805
-0.06392 -0.18574 -0.04012
0.19417 -0.16129 0.02793
0.06379 -0.16129 0.04334
0.14025 -0.16129 0.02639
0.22303 0.18589 0.22522
0.19398 0.18589 0.28074
0.25964 0.18589 0.18064
0.18670 0.18589 0.30895
0.19435 0.18589 0.26991
0.18553 0.18589 0.27874
0.21888 0.18589 0.22128
0.16312 0.18589 0.30550
0.29524 0.18589 0.14342
-0.32810 0.18076 -0.01690
0.07435 0.18084 -0.30591
0.13837 0.15923 -0.27517
-0.20797 -0.16535 -0.02581
0.32821 0.18175 0.01928
-0.01968 -0.18589 -0.02155
0.03580 -0.13603 0.03370
0.07880 -0.03235 0.06608
0.05434 -0.09221 0.04738
-0.01009 0.17618 -0.32656
0.10761 0.05707 0.09400
0.10968 0.08016 0.10121
0.06719 -0.05422 0.05925
0.06374 -0.04684 0.06155
0.12698 0.10909 0.11025
0.04323 -0.11077 0.04158
0.26596 0.15655 0.11940
0.12173 0.15655 0.24792
0.30993 0.15655 0.07647
0.17277 0.15655 0.19138
0.28370 0.15655 0.10910
0.25909 0.15655 0.12335
0.31222 0.15655 0.11625
0.30320 0.15655 0.11303
0.11237 0.15655 0.24005
0.02942 0.15655 0.31833
0.28622 0.15655 0.13451
0.30353 0.15655 0.10668
0.26335 0.15655 0.13441
0.30286 0.15655 0.04313
0.31282 0.15655 0.05385
0.17230 0.15655 0.17889
0.21332 0.15655 0.14947
0.19544 0.15655 0.19376
0.22145 0.15655 0.15444
-0.00974 0.15655 -0.29153
0.02086 0.15655 -0.30233
-0.02866 0.15655 -0.28512
-0.01226 0.15655 -0.29649
-0.08240 -0.04305 -0.08719
-0.11389 0.05255 -0.11704
0.11994 -0.18231 0.05026
0.14772 -0.17770 0.05026
0.12561 -0.18104 0.05026
-0.05566 -0.16665 -0.02581
-0.17288 -0.16129 -0.03179
0.03510 0.17109 -0.31634
0.06522 0.18522 -0.30953
-0.24584 0.16959 -0.27756
-0.03948 0.18589 0.28913
0.08909 0.18589 0.17939
0.16738 0.18589 0.09708
0.07310 0.18589 0.17502
0.09995 0.18589 0.19836
0.15008 0.18589 0.14563
0.00911 0.18589 0.31428
0.00967 0.18589 0.28026
0.01499 0.18589 0.32575
0.16822 0.18589 0.10770
0.09362 0.18589 0.19197
0.12657 0.18589 0.12657
-0.01076 0.18589 0.29079
0.05733 0.18589 0.20550
0.16814 0.18589 0.11970
0.04528 0.18589 0.27070
0.08039 0.18589 0.21007
-0.01712 0.18589 0.31101
0.14577 0.18589 0.12639
0.12854 0.18589 0.11563
0.24379 0.18589 0.00808
0.13900 0.18589 0.10229
0.12295 0.18589 0.13704
0.22654 0.18589 0.03883
0.19581 0.18589 0.06336
0.10451 -0.18574 0.03141
0.07948 -0.18574 0.03325
-0.28996 0.16274 0.10759
-0.23912 0.17139 -0.28270
0.24930 0.18589 0.25001
-0.15375 0.14260 0.07299
-0.15714 0.14587 0.06960
-0.01955 0.15638 0.20719
-0.25089 0.15508 -0.02415
-0.04916 0.15409 0.17758
-0.23870 0.15285 -0.01196
-0.14131 0.14988 0.08543
-0.06489 -0.06241 -0.05669
-0.32817 0.16819 -0.03244
-0.32804 0.18253 -0.07840
-0.05950 0.16219 0.31082
-0.26396 0.16855 0.15605
-0.23960 0.17937 0.18662
0.00266 -0.01944 -0.20778
-0.00766 -0.02567 -0.20946
-0.01020 -0.08063 -0.22420
0.01882 0.05171 -0.18869
-0.00008 -0.00976 -0.20519
0.15113 0.16881 -0.26788
0.17983 0.17012 -0.24500
-0.12117 0.18589 -0.28059
-0.07364 0.18589 -0.32238
-0.19376 0.18589 -0.18554
-0.05231 0.18589 -0.29730
-0.21358 0.18589 -0.15335
-0.07177 0.18589 -0.30844
-0.29967 0.18589 -0.05709
-0.09862 0.18589 -0.31272
-0.21456 0.18589 -0.14420
-0.11726 0.18589 -0.29375
-0.13909 0.18589 -0.26323
-0.14894 0.18589 -0.23751
-0.04517 0.18589 -0.30342
-0.13225 0.18589 -0.26725
-0.11447 0.18589 -0.26978
-0.12701 0.18589 -0.28068
-0.17385 0.18589 -0.17685
-0.07790 0.18589 -0.27962
-0.19720 0.18589 -0.17418
0.21098 -0.03705 -0.01127
0.20275 -0.00772 -0.01209
0.18742 0.04687 -0.03644
0.21711 -0.05889 -0.00522
0.21018 -0.03420 -0.00132
0.23108 -0.10866 0.02384
0.02581 -0.16675 0.19567
0.06695 0.15655 -0.19674
0.14128 0.15655 -0.18747
0.00986 0.15655 -0.28388
0.09432 0.15655 -0.25560
0.05272 0.15655 -0.28069
0.18473 0.15655 -0.08862
0.13789 0.15655 -0.13144
0.11192 0.15655 -0.13023
0.03478 0.15655 -0.25876
0.07020 0.15655 -0.24743
0.06088 0.15655 -0.26434
0.10915 0.15655 -0.19469
0.13816 0.15655 -0.11063
-0.00000 0.15655 -0.26266
0.17881 0.15655 -0.08865
0.02859 0.15655 -0.28208
0.23479 0.15655 -0.01794
0.12177 0.15655 -0.17919
0.13507 0.15655 -0.17804
0.01835 0.15655 -0.25276
0.16622 0.15655 -0.10982
0.24591 0.15655 -0.01135
0.13095 0.15655 -0.20285
0.15977 0.15655 -0.08976
0.17842 0.15655 -0.10498
0.04067 0.17828 -0.31508
-0.20621 -0.08098 -0.02755
-0.18685 -0.01082 -0.00771
-0.16340 0.05435 0.01071
-0.17094 0.01014 -0.00179
-0.22045 -0.11782 -0.03797
-0.03227 0.17090 -0.32817
-0.05426 0.17308 -0.32811
-0.05674 -0.10315 -0.06842
-0.03629 -0.14041 -0.05678
-0.06067 -0.09572 -0.07074
0.14396 0.15655 -0.12679
0.11005 0.15655 -0.21621
0.21850 0.15655 -0.04864
0.07323 0.15655 -0.18591
0.10944 0.15655 -0.16425
0.11717 0.15655 -0.20823
0.04373 0.15655 -0.21137
0.06373 0.15655 -0.24652
0.14825 0.15655 -0.11244
0.09339 0.15655 -0.20701
0.05318 0.15655 -0.23488
0.12785 0.15655 -0.19648
0.17605 0.15655 -0.08272
0.07216 0.15655 -0.22211
-0.00158 0.15655 -0.24939
0.07981 0.15655 -0.21161
0.08645 0.15655 -0.27799
0.02855 0.15655 -0.21607
0.17731 0.15655 -0.07391
0.22048 0.15655 -0.02966
0.06816 0.15655 -0.17788
0.02796 0.15655 -0.27632
0.16292 0.15655 -0.10083
0.23669 0.15655 -0.02651
0.06443 0.18589 0.29040
0.12434 0.18589 0.26510
0.20674 0.18589 0.16798
0.13150 0.18589 0.22243
0.10334 0.18589 0.25239
0.11179 0.18589 0.27608
0.09358 0.18589 0.32268
0.05770 0.18589 0.29530
0.13596 0.18589 0.23487
0.14798 0.18589 0.20649
0.18939 0.18589 0.16517
0.08935 0.18589 0.29671
0.25041 0.18589 0.09630
0.13433 0.18589 0.27825
0.06115 0.18589 0.31471
0.16474 0.18589 0.24475
0.22260 0.18589 0.14369
0.20014 0.18589 0.18529
-0.17238 0.15655 -0.26489
-0.27311 0.15655 -0.18592
-0.18378 0.15655 -0.27754
-0.16453 0.15655 -0.31209
-0.20725 0.15655 -0.23541
-0.20091 0.15655 -0.26176
-0.11858 0.15655 -0.31690
-0.24714 0.15655 -0.22219
-0.17482 0.15655 -0.30052
-0.23412 0.15655 -0.24374
-0.14026 0.15655 -0.30242
0.01843 -0.06923 0.21761
-0.00796 0.03600 0.18533
-0.00970 0.02914 0.18744
-0.00488 0.00625 0.19446
0.03838 -0.13002 0.23626
0.22545 0.18213 0.29166
0.12859 0.11599 0.11240
0.10605 0.09449 0.10569
0.10890 0.06274 0.09577
0.08282 -0.01669 0.07097
-0.27637 0.16190 0.13587
-0.27467 0.17550 0.13941
0.26949 0.18589 0.06732
0.30583 0.18589 -0.01118
0.14071 0.18589 0.20486
0.18848 0.18589 0.15262
0.30031 0.18589 -0.02030
0.27971 0.18589 0.02239
0.26834 0.18589 0.03890
0.29726 0.18589 0.03000
0.26980 0.18589 0.04967
0.16847 0.18589 0.16597
0.17553 0.18589 0.15873
0.28913 0.18589 0.04662
0.16134 0.18589 0.14385
0.20142 0.18589 0.12668
0.26711 0.18589 0.05445
0.27982 0.18589 0.01303
0.22212 0.18589 0.10923
0.17417 0.18589 0.16425
0.26296 0.18589 0.00357
0.12978 0.18589 0.21523
-0.03405 -0.15891 -0.05100
-0.11742 0.06996 -0.12248
0.29095 0.18589 0.21546
-0.08407 0.02526 -0.10191
-0.07031 -0.01879 -0.08753
0.26590 0.17860 -0.15361
0.24471 0.16378 -0.18019
0.23132 0.15968 -0.19701
-0.29637 0.15655 0.00701
-0.28600 0.15655 -0.01798
-0.29960 0.15655 0.01021
-0.12135 0.06634 -0.10214
-0.06937 -0.10009 -0.04769
-0.08704 -0.04352 -0.07170
-0.05331 -0.15152 -0.04350
0.19177 0.16721 0.30773
-0.06702 0.18589 -0.10369
0.07720 0.18589 -0.23607
0.03873 0.18589 -0.21011
0.05365 0.18589 -0.27488
-0.23764 0.18589 0.10425
0.01282 0.18589 -0.23130
0.02996 0.18589 -0.16653
-0.19948 0.18589 0.06977
0.07401 0.18589 -0.20324
0.07749 0.18589 -0.28412
-0.17478 0.18589 0.02154
0.01295 0.18589 -0.22666
0.01885 0.18589 -0.20343
0.13022 0.18589 -0.27421
-0.00069 0.18589 -0.16960
-0.16013 0.18589 0.02909
0.04318 0.18589 -0.16872
0.04006 0.18589 -0.24598
0.01839 0.18589 -0.23213
0.02563 0.18589 -0.21807
-0.10045 0.18589 -0.08160
-0.06517 0.18589 -0.07985
-0.04206 0.18589 -0.13292
-0.01709 0.18589 -0.17032
0.07119 0.18589 -0.28670
-0.16969 0.18589 0.02761
0.04538 0.18589 -0.25190
-0.11944 0.18589 -0.04881
0.08573 0.18589 -0.26435
-0.03430 0.18589 -0.13361
0.00514 0.18589 -0.18457
-0.16382 0.18589 0.03941
-0.04701 -0.15077 -0.23371
0.00444 0.01582 -0.17822
-0.02365 -0.07512 -0.20400
-0.04074 -0.13046 -0.23231
-0.02789 -0.08884 -0.21852
-0.02846 -0.09069 -0.21058
-0.10962 0.18589 -0.31570
-0.06266 0.18589 -0.32775
-0.04967 0.18589 -0.31067
-0.09852 0.18589 -0.29403
-0.25019 0.18589 -0.09748
-0.09574 0.18589 -0.25965
-0.10977 0.18589 -0.29105
-0.12003 0.18589 -0.25664
-0.06997 0.18589 -0.32721
-0.09083 0.18589 -0.29650
-0.13860 0.18589 -0.23393
-0.11362 0.18589 -0.24728
-0.23212 0.18589 -0.12253
-0.10994 0.18589 -0.23679
-0.09570 0.18589 -0.25360
-0.21544 0.18589 -0.15948
-0.22818 0.18589 -0.12620
0.16315 0.15655 0.29559
0.20736 0.15655 0.27695
0.15226 0.15655 0.31444
0.25115 0.15655 0.23884
0.26769 0.15655 0.22137
-0.12150 0.18589 0.19074
-0.03593 0.18589 0.07100
0.11620 0.18589 -0.08327
-0.11514 0.18589 0.19943
-0.00843 0.18589 0.03417
-0.03080 0.18589 0.03759
-0.15627 0.18589 0.22669
-0.01990 0.18589 0.06728
-0.01019 0.18589 0.02322
0.00707 0.18589 0.02923
-0.16705 0.18589 0.20752
0.11043 0.18589 -0.07763
0.09693 0.18589 -0.06121
-0.17561 0.18589 0.24713
-0.18813 0.18589 0.19119
-0.09769 0.18589 0.14679
0.03927 0.18589 -0.03532
-0.18989 0.18589 0.21343
-0.15441 0.18589 0.19358
-0.15013 0.18589 0.17031
-0.06093 0.18589 0.06883
-0.17232 0.18589 0.23158
-0.18741 0.18589 0.20823
0.07244 0.18589 -0.05423
-0.10062 0.18589 0.16130
0.06318 0.18589 -0.02760
-0.07187 0.18589 0.12123
0.10583 0.18589 -0.07958
-0.05252 0.18589 0.08071
-0.01581 0.18589 0.09107
0.12767 0.18589 -0.12304
-0.22896 -0.10520 -0.00995
0.04994 -0.18574 0.04386
0.14857 -0.18574 0.04401
0.08624 0.17495 0.32802
0.09412 0.17099 0.32800
-0.21042 -0.17155 -0.05026
-0.24364 -0.16979 -0.05026
-0.14364 -0.18484 -0.05026
-0.17336 -0.18574 -0.02875
-0.11592 -0.18574 -0.03166
0.08511 0.15655 0.25178
0.10154 0.15655 0.23314
0.14088 0.15655 0.20127
0.07806 0.15655 0.24978
0.03184 0.15655 0.29848
0.21307 0.15655 0.13197
0.16093 0.15655 0.17684
0.08021 0.15655 0.23939
0.00140 0.15655 0.29930
-0.04193 0.15655 0.29917
0.02512 0.15655 0.29444
-0.04742 0.15655 0.30210
-0.05325 -0.16129 -0.04311
-0.04196 -0.17878 -0.24585
-0.22181 -0.07963 -0.01800
-0.19309 0.01792 0.01060
-0.24325 -0.15246 -0.03168
-0.19867 -0.00103 -0.00236
-0.22696 -0.09713 -0.01456
0.23483 -0.17298 0.02581
-0.23997 0.15655 -0.18129
-0.21814 0.15655 -0.20228
-0.17369 0.15655 -0.25129
-0.14035 0.15655 -0.28387
-0.22656 0.15655 -0.17663
-0.27523 0.15655 -0.12640
-0.20171 0.15655 -0.21188
-0.26726 0.15655 -0.11365
-0.29616 0.15655 -0.06958
-0.29677 0.15655 -0.08528
-0.30361 0.15655 -0.06170
-0.31045 0.15655 -0.04720
0.03663 -0.16129 0.22090
0.04923 -0.16129 0.08276
0.04095 -0.16129 0.15052
0.15545 0.17993 -0.26444
0.15799 0.17655 -0.26241
-0.02860 -0.16129 -0.17828
-0.04336 -0.16129 -0.05227
0.30470 0.15655 0.15718
0.26289 0.15655 0.21351
0.24397 0.15655 0.22833
0.28815 0.15655 0.17424
0.15742 0.15655 0.28895
0.14394 0.15655 0.29803
0.16430 0.15655 0.28186
0.24963 0.15655 0.22054
0.24725 0.15655 -0.14156
0.26606 0.15655 -0.09570
0.24952 0.15655 -0.11179
0.24119 0.15655 -0.12465
0.24485 0.15655 -0.09812
0.25422 0.15655 -0.15777
0.26228 0.15655 -0.10468
0.24585 -0.16889 0.03198
0.08821 0.03852 0.09371
0.31111 0.17749 -0.05822
0.32746 0.15745 0.01406
-0.07690 0.00231 -0.09673
0.03427 -0.16129 0.07335
-0.24421 0.18056 -0.27886
-0.08721 0.16440 -0.32802
-0.06408 0.17317 -0.32808
-0.04178 0.15655 0.29346
-0.00437 0.15655 0.27042
-0.10013 0.15655 0.28932
-0.02599 0.15655 0.28924
-0.07617 0.15655 0.28268
-0.02581 -0.17296 -0.20738
-0.02581 -0.16967 -0.18915
-0.02581 -0.16222 -0.11620
0.09337 0.00532 0.07784
0.10236 0.02265 0.08325
-0.21881 -0.15247 -0.04660
-0.22003 -0.15663 -0.04769
-0.19559 -0.07363 -0.00190
-0.21006 -0.12278 -0.01574
-0.19828 -0.08275 -0.01102
-0.03772 -0.18574 -0.16332
-0.04808 -0.18574 -0.17077
-0.04478 -0.18574 -0.14380
-0.21959 0.16356 -0.29506
0.04992 0.18589 -0.21773
-0.11633 0.18589 -0.03025
-0.04401 0.18589 -0.15539
-0.01922 0.18589 -0.18014
-0.03837 0.18589 -0.14420
-0.05919 0.18589 -0.06880
0.03382 0.18589 -0.18188
0.12582 0.18589 -0.26889
0.05346 0.18589 -0.21127
0.09676 0.18589 -0.26827
0.07866 0.18589 -0.26288
-0.16872 0.18589 0.01081
0.09013 0.18589 -0.28093
-0.07582 0.18589 -0.05913
-0.04234 0.18589 -0.08776
-0.09488 0.18589 -0.05228
0.00327 0.18589 -0.19489
0.06217 0.18589 -0.19696
-0.06667 0.18589 -0.08928
0.06145 0.18589 -0.22037
-0.08988 0.18589 -0.08642
-0.10068 0.18589 -0.04433
0.08216 0.18589 -0.21150
0.00673 0.18589 -0.14284
0.09228 0.18589 -0.22839
0.03726 0.18589 -0.22591
0.02409 0.18589 -0.22977
-0.00777 0.18589 -0.17420
0.04862 0.18589 -0.24626
0.11472 0.18589 -0.25164
-0.02880 0.13210 -0.24474
-0.24775 0.13210 -0.04846
0.13220 0.13210 -0.00642
-0.00734 0.13210 -0.11353
-0.02177 0.13210 -0.02285
-0.00393 0.13210 -0.15660
-0.03331 0.13210 -0.17710
0.26498 0.13210 0.02860
-0.04566 0.13210 -0.08469
-0.04451 0.13210 -0.14390
0.10126 0.13210 -0.00049
0.06593 0.13210 -0.08122
-0.02523 0.13210 -0.02755
-0.03966 0.13210 -0.19718
0.16121 0.13210 0.00047
-0.04437 0.13210 -0.16182
-0.01784 0.13210 -0.12006
0.08422 0.13210 -0.09397
-0.00480 0.13210 -0.21089
-0.08147 0.13210 -0.09859
-0.10914 0.13210 -0.12420
-0.02205 0.13210 -0.05317
-0.09456 0.13210 -0.13033
0.00413 0.13210 -0.09240
0.09230 0.13210 -0.05551
-0.13135 0.13210 -0.04611
-0.12364 0.13210 -0.05030
-0.02060 0.13210 -0.18964
-0.04697 0.13210 -0.02810
-0.14824 0.13210 -0.06833
0.21840 0.13210 0.00351
-0.14710 0.13210 -0.11948
-0.08723 0.13210 -0.15402
-0.08071 0.13210 -0.10322
0.11626 0.13210 -0.05675
-0.17654 0.13210 -0.04969
0.05841 0.13210 -0.14883
-0.10531 0.13210 -0.18467
-0.02631 0.13210 -0.09195
-0.02494 0.13210 -0.22020
-0.04502 0.13210 -0.01645
-0.15474 0.13210 -0.07498
0.06400 0.13210 -0.11833
0.16607 0.13210 -0.01945
-0.05497 0.13210 -0.07982
-0.09045 0.13210 -0.20654
-0.22610 0.13210 -0.08162
0.04368 0.13210 -0.04671
0.02317 0.13210 -0.10722
0.06359 0.13210 -0.17578
0.18888 0.13210 0.00071
-0.12350 0.13210 -0.14004
0.03125 0.13210 -0.04728
0.14137 0.13210 -0.01714
0.07928 0.13210 -0.09109
-0.08813 0.13210 -0.06645
0.01859 0.13210 -0.14421
0.02908 0.13210 -0.13511
0.08005 0.13210 -0.08466
0.10737 0.13210 -0.03968
0.08241 0.13210 -0.01885
0.13489 0.13210 -0.09859
-0.19554 0.13210 -0.03972
-0.04217 0.13210 -0.09261
-0.16370 0.13210 -0.04493
-0.13863 0.13210 -0.06895
-0.19688 0.13210 -0.09933
-0.06658 0.13210 -0.07538
-0.06439 0.13210 -0.18032
-0.07838 0.13210 -0.13211
-0.01156 0.13210 -0.22253
-0.19970 0.13210 -0.07768
-0.20808 0.13210 -0.04538
0.22377 0.13210 -0.01505
-0.21664 0.13210 -0.09206
-0.17981 0.13210 -0.11522
0.19085 0.13210 -0.03670
0.07542 0.13210 -0.10803
0.16250 0.13210 -0.04695
0.11686 0.13210 -0.03243
0.08281 0.13210 -0.01004
0.10498 0.13210 -0.12934
0.05525 0.13210 -0.15299
0.04285 0.13210 -0.19438
-0.02120 0.13210 -0.06936
-0.12699 0.13210 -0.08970
0.02826 0.13210 -0.21029
-0.03876 0.13210 -0.01985
-0.09950 0.13210 -0.12392
0.10248 0.13210 -0.10728
0.09296 0.13210 -0.08323
0.03166 0.13210 -0.06323
0.01512 0.13210 -0.17638
-0.18248 0.13210 -0.10082
0.02649 0.13210 -0.04947
-0.12069 0.13210 -0.16043
0.13321 0.10804 0.13437
0.07006 -0.06911 0.07905
0.04180 -0.12117 0.06279
0.18535 0.18589 0.03557
0.02800 0.18589 0.20307
0.22609 0.18589 -0.03945
0.04343 0.18589 0.16619
0.13336 0.18589 0.09813
0.22292 0.18589 -0.03238
0.08940 0.18589 0.12913
0.16906 0.18589 -0.00682
0.11055 0.18589 0.09692
0.17811 0.18589 0.04258
0.14763 0.18589 0.05923
0.08512 0.18589 0.10761
0.22144 0.18589 0.01660
0.23706 0.18589 -0.01176
0.27222 0.18589 -0.10281
0.10262 0.18589 0.12136
0.09337 0.18589 0.11403
0.23117 0.18589 -0.00110
0.19330 0.18589 -0.01891
0.26944 0.18589 -0.11020
0.21043 0.18589 -0.01478
0.08145 0.18589 0.12658
0.22263 0.18589 -0.04725
0.25201 0.18589 -0.06822
0.10708 0.18589 0.10946
0.18090 0.18589 0.01688
0.24466 0.16062 0.27850
-0.05904 0.12628 0.14013
-0.00338 -0.06238 0.19657
0.01571 -0.12707 0.21225
-0.05712 0.11975 0.14892
-0.04217 0.06909 0.16747
-0.04041 0.06314 0.15865
0.06583 -0.10688 0.04280
0.10861 0.03210 0.08621
-0.00800 -0.00424 0.17323
-0.04327 0.10087 0.14098
-0.03577 0.09077 0.14408
-0.00139 0.00779 0.16954
-0.02302 0.05998 0.15352
-0.32077 0.17071 0.01552
0.05825 0.14601 -0.16247
-0.06835 0.18519 0.30879
-0.08809 0.16585 0.29932
-0.05808 -0.06434 -0.05609
-0.04428 -0.12616 -0.03678
0.00733 -0.17735 0.02462
-0.00080 -0.16759 0.01649
0.03006 -0.16921 0.24585
0.06547 -0.08875 0.04846
0.04204 -0.18589 0.03204
0.25564 0.15655 -0.11186
0.26831 0.15655 -0.10425
0.25807 0.15655 -0.09299
0.26510 0.15655 -0.00720
0.26714 0.15655 -0.13736
-0.07585 -0.17960 -0.02581
0.02583 -0.16123 0.04154
0.21775 -0.14826 0.04312
0.17682 -0.00244 -0.01559
0.18665 -0.03747 -0.00167
0.20494 -0.10265 0.01365
0.19738 -0.07571 0.00678
-0.23162 0.13210 -0.02508
0.03881 0.13210 0.18579
-0.00631 0.13210 0.11577
-0.20998 0.13210 -0.02539
-0.19127 0.13210 0.02749
-0.02744 0.13210 0.06100
-0.03166 0.13210 0.11095
-0.02634 0.13210 0.00952
-0.00610 0.13210 0.16052
-0.04378 0.13210 0.01328
-0.04574 0.13210 -0.01151
-0.01373 0.13210 0.05016
-0.04609 0.13210 0.10811
0.13306 0.13210 0.15441
-0.08007 0.13210 0.13446
-0.05030 0.13210 0.07911
0.15202 0.13210 0.04004
-0.02924 0.13210 0.04038
-0.00655 0.13210 0.18690
-0.01483 0.13210 0.10803
-0.04459 0.13210 -0.00307
0.17965 0.13210 0.07909
0.17604 0.13210 0.07246
-0.09801 0.13210 0.02475
-0.16206 0.13210 0.03916
0.05639 0.13210 0.01265
0.11455 0.13210 0.12829
0.16731 0.13210 0.08797
0.02853 0.13210 0.20942
0.24152 0.13210 0.05374
0.11291 0.13210 0.03782
0.03089 0.13210 0.20184
0.15087 0.13210 0.07266
0.14838 0.13210 0.08045
-0.12645 0.13210 -0.01049
0.16833 0.13210 0.03877
-0.20525 0.13210 -0.00549
-0.11834 0.13210 -0.01844
0.01722 0.13210 0.08873
0.19385 0.13210 0.03722
0.12065 0.13210 0.12664
0.10440 0.13210 0.10908
0.21726 0.13210 0.05447
-0.04086 0.13210 0.08406
-0.04723 0.13210 0.00093
0.10991 0.13210 0.06164
-0.02143 0.13210 0.02070
-0.03335 0.13210 0.04944
-0.10591 0.13210 0.06860
0.16939 0.13210 0.10525
-0.07868 0.13210 0.10782
0.11350 0.13210 0.17497
0.01916 0.13210 0.05935
0.07446 0.13210 0.15748
0.11238 0.13210 0.15508
-0.05674 0.13210 0.06551
-0.08922 0.13210 0.04977
0.08562 0.13210 0.10884
0.00318 0.13210 0.04138
0.14954 0.13210 0.08951
0.07089 0.13210 0.23101
-0.05409 0.13210 0.05888
0.06677 0.13210 0.21800
0.10658 0.13210 0.11895
-0.00184 0.13210 0.21051
-0.10629 0.13210 0.00959
0.23617 0.13210 0.03171
-0.12125 0.13210 0.05253
0.01985 0.13210 0.00429
-0.05397 0.13210 0.04624
0.18670 0.13210 0.11286
-0.09793 0.13210 0.06750
0.03405 0.13210 0.16503
-0.15949 0.13210 -0.02624
-0.04661 0.13210 0.12784
0.21668 0.13210 0.06040
0.10485 0.13210 0.09548
-0.10563 0.13210 0.03448
-0.16951 0.13210 0.00555
0.25927 0.13210 0.03104
-0.11068 0.13210 0.07491
0.16856 0.13210 0.04603
0.07706 0.13210 0.01763
-0.17748 0.13210 -0.02089
-0.18328 0.13210 0.02982
0.12206 0.13210 0.15879
0.08032 0.13210 0.20860
0.20236 0.13210 0.06171
0.06997 0.13210 0.13544
0.01403 0.13210 0.04315
0.13228 0.13210 0.02324
-0.08569 0.13210 0.02784
-0.18375 0.16324 -0.30976
-0.04576 0.13311 -0.26543
-0.08125 0.14775 -0.22994
-0.08467 0.13688 -0.22652
-0.08838 0.14256 -0.22281
-0.02581 -0.16303 -0.05931
0.24585 -0.17274 0.02754
-0.02286 -0.15173 -0.23778
-0.00374 -0.08983 -0.20331
-0.00453 -0.09238 -0.21904
-0.01083 -0.11279 -0.20995
0.01352 -0.03394 -0.19817
0.05031 0.18589 0.03664
-0.00452 0.18589 0.10256
0.20498 0.18589 -0.19535
0.07872 0.18589 0.02312
0.10814 0.18589 -0.00395
0.19108 0.18589 -0.15563
0.04943 0.18589 0.05440
0.10176 0.18589 0.01354
0.03424 0.18589 0.07045
0.00055 0.18589 0.07982
0.15380 0.18589 -0.10289
0.03881 0.18589 0.06983
-0.12059 0.18589 0.24183
0.05178 0.18589 0.05927
0.05121 0.18589 0.01312
0.16983 0.18589 -0.11625
0.01929 0.18589 0.06951
0.03471 0.18589 0.08483
-0.06582 0.18589 0.17028
0.15409 0.18589 -0.08228
0.21291 0.18589 -0.19952
-0.13031 0.18589 0.24851
0.11420 0.18589 -0.01321
0.06464 0.18589 0.03726
0.04964 0.18589 0.04455
0.21761 0.18589 -0.16157
0.17659 0.18589 -0.09440
0.19059 0.18589 -0.17060
-0.06382 0.18589 0.18298
0.21533 0.18589 -0.17838
-0.03464 0.18589 0.12190
0.22889 0.18589 -0.12744
0.02570 0.18589 0.08917
0.17660 0.18589 -0.08577
0.07292 0.18589 0.02576
0.14283 0.18589 -0.10107
-0.02220 -0.16129 -0.02323
0.03106 -0.18574 0.18855
0.03590 -0.18574 0.13912
0.07012 0.13948 -0.17191
0.00851 0.13341 -0.23352
0.11339 0.14137 -0.12865
0.12303 0.13818 -0.11900
0.10942 0.14254 -0.13261
0.08613 0.13280 -0.15590
0.02881 0.14306 -0.21322
0.03705 0.13906 -0.20498
-0.30317 0.16530 0.08007
-0.02100 0.18273 -0.32820
-0.02121 0.16514 -0.32820
0.00514 -0.17489 -0.01215
0.02288 -0.17844 0.00559
-0.32211 0.17594 -0.13049
-0.06742 0.15655 0.30079
-0.03579 0.15655 0.28580
-0.11321 0.15655 0.27778
-0.07164 0.15655 0.28883
-0.00795 0.15655 0.26618
-0.03171 0.15655 0.27501
0.05092 -0.15916 0.03534
0.09044 -0.03263 0.07782
0.13446 0.10834 0.11063
0.08641 -0.04554 0.07603
0.12474 0.07722 0.10106
0.09635 0.17229 -0.29535
-0.30404 0.16265 -0.20107
-0.16071 0.17407 0.26024
-0.15796 0.16317 0.26243
0.22563 -0.10884 0.00897
0.18817 -0.02322 -0.01853
0.18688 -0.01647 -0.02070
0.21041 -0.06683 -0.00452
-0.24310 0.15655 -0.06986
-0.09177 0.15655 -0.24189
-0.19502 0.15655 -0.12403
-0.03676 0.15655 -0.29552
-0.04039 0.15655 -0.27578
0.11535 -0.16129 0.03935
0.15238 -0.16129 0.02628
0.28959 0.15940 0.22902
-0.28700 0.18589 -0.20127
-0.28191 0.18589 -0.17355
-0.27554 0.18589 -0.21765
-0.31283 0.18589 -0.15325
-0.32009 0.18589 -0.13004
0.26994 0.17861 0.25494
0.03121 0.16035 -0.31722
-0.09642 0.15655 -0.25733
-0.08178 0.15655 -0.32121
-0.18379 0.15655 -0.18899
-0.23227 0.15655 -0.12075
-0.11957 0.15655 -0.23624
-0.11362 0.15655 -0.26429
-0.16278 0.15655 -0.24020
-0.08919 0.15655 -0.31621
-0.12904 0.15655 -0.22570
-0.09998 0.15655 -0.29175
-0.16544 0.15655 -0.22163
-0.08746 0.15655 -0.29752
-0.08868 0.15655 -0.29265
-0.25763 0.15655 -0.09972
-0.02924 -0.18574 -0.08149
-0.02638 -0.18574 -0.23115
0.02581 -0.16532 0.20703
0.26827 0.18589 0.21601
0.23351 0.18589 0.24715
0.25772 0.18589 0.22021
0.24951 0.18589 0.23650
0.26846 0.15655 0.23298
-0.08476 -0.01122 -0.09713
-0.11543 0.12527 -0.13975
-0.12759 0.11206 -0.13562
-0.06898 -0.05027 -0.08493
-0.07714 -0.01575 -0.09571
-0.18689 0.02318 0.02635
-0.23252 -0.13993 -0.01977
-0.20216 -0.05566 0.00406
-0.19540 0.00697 0.02177
-0.22153 -0.10749 -0.01060
0.32425 0.15994 -0.00014
0.32013 0.15719 -0.01833
0.06406 -0.18574 0.02834
0.22243 -0.18574 0.02608
-0.05024 0.13210 -0.18996
0.14307 0.13210 -0.09480
-0.16600 0.13210 -0.06476
0.07660 0.13210 -0.16049
0.04245 0.13210 -0.09530
-0.00185 0.13210 -0.20203
-0.19112 0.13210 -0.10461
0.00746 0.13210 -0.15673
-0.07558 0.13210 -0.02596
0.11808 0.13210 -0.09711
-0.07006 0.13210 -0.20951
0.23266 0.13210 0.01425
0.02139 0.13210 -0.11377
0.07236 0.13210 -0.04948
0.08330 0.13210 -0.04295
0.00739 0.13210 -0.08588
-0.05247 0.13210 -0.24245
0.01231 0.13210 -0.18822
-0.06706 0.13210 -0.16228
-0.02929 0.13210 -0.17946
-0.07686 0.13210 -0.22446
0.15500 0.13210 0.00051
-0.10627 0.13210 -0.08468
0.15444 0.13210 -0.01156
-0.01524 0.13210 -0.09748
-0.02236 0.13210 -0.21623
0.10960 0.13210 -0.11612
0.00508 0.13210 -0.05726
-0.14502 0.13210 -0.03461
0.00642 0.13210 -0.22818
0.13712 0.13210 -0.07370
0.08305 0.13210 -0.11910
0.09551 0.13210 -0.01317
0.14279 0.13210 -0.03003
-0.00812 0.13210 -0.09100
0.20013 0.13210 -0.03137
0.00086 0.13210 -0.10493
-0.15670 0.13210 -0.03220
-0.18220 0.13210 -0.03734
-0.04490 0.13210 -0.23452
-0.09707 0.13210 -0.18953
0.01080 0.13210 -0.06740
0.26146 0.13210 0.02497
0.10076 0.13210 -0.11868
-0.10924 0.13210 -0.04326
0.12309 0.13210 -0.01747
-0.01280 0.13210 -0.23241
-0.10978 0.13210 -0.04839
0.20879 0.13210 -0.02542
-0.06269 0.13210 -0.10782
0.05021 0.13210 -0.06216
-0.02736 0.13210 -0.26026
-0.17433 0.13210 -0.09831
-0.03684 0.13210 -0.11534
0.19201 0.13210 -0.01137
-0.13306 0.13210 -0.13837
-0.15571 0.13210 -0.03817
-0.08849 0.13210 -0.12024
0.11543 0.13210 -0.02074
0.00365 0.13210 -0.03550
-0.12990 0.13210 -0.02859
-0.11272 0.13210 -0.02706
-0.02669 0.13210 -0.14758
-0.18852 0.13210 -0.06387
-0.07570 0.13210 -0.10457
0.19018 0.13210 0.00672
-0.03814 0.13210 -0.02736
-0.05445 0.13210 -0.16854
-0.09870 0.13210 -0.15214
0.20892 0.13210 0.00262
-0.03430 0.13210 -0.06855
0.02574 0.13210 -0.14928
0.01579 0.13210 -0.11916
0.06243 0.13210 -0.13975
0.04320 0.13210 -0.13463
-0.04294 0.13210 -0.22087
-0.14605 0.13210 -0.11212
-0.05508 0.13210 -0.19302
0.10396 0.13210 -0.10144
-0.01495 0.13210 -0.01029
-0.03918 0.13210 -0.22621
-0.14113 0.13210 -0.08976
-0.14133 0.13210 -0.07244
0.14433 0.13210 -0.00950
-0.15228 0.13210 -0.12153
0.09464 0.13210 -0.12973
-0.09219 0.13210 -0.18139
-0.06520 0.13210 -0.03879
-0.09885 0.13210 -0.16152
-0.04949 0.13210 -0.16809
-0.21414 -0.18574 -0.03321
-0.14478 0.16919 0.27210
-0.11460 0.17397 0.28659
-0.03109 0.13993 0.19565
-0.14300 0.13501 0.08374
0.01668 0.13251 0.24342
-0.22473 0.13328 0.00201
-0.03484 0.13966 0.19190
-0.21951 0.13539 0.00723
-0.10979 0.13883 0.11694
0.16038 -0.17006 0.02581
0.09814 -0.16381 0.02581
0.14594 -0.17187 0.02581
0.13906 0.17409 -0.27484
0.13501 0.16303 -0.27679
-0.18962 0.18589 -0.22910
-0.28161 0.18589 -0.08401
-0.23916 0.18589 -0.14309
-0.29190 0.18589 -0.13139
-0.21327 0.18589 -0.17900
-0.26307 0.18589 -0.14458
-0.30237 0.18589 -0.07916
-0.30029 0.18589 -0.12842
-0.25163 0.18589 -0.13657
-0.22336 0.18589 -0.16549
-0.25601 0.18589 -0.13526
-0.27443 0.18589 -0.14043
-0.03459 -0.14246 -0.03169
-0.04997 -0.08422 -0.04988
-0.05837 -0.08174 -0.05065
0.21485 0.18589 -0.12906
-0.08960 0.18589 0.20434
0.23947 0.18589 -0.16909
0.18634 0.18589 -0.12804
0.06878 0.18589 -0.01455
0.21651 0.18589 -0.10207
0.14627 0.18589 -0.10735
0.24904 0.18589 -0.16416
-0.07196 0.18589 0.19040
0.12964 0.18589 -0.02146
-0.07644 0.18589 0.17699
-0.09046 0.18589 0.19956
0.23000 0.18589 -0.17732
0.25285 0.18589 -0.13515
