-0.15281 -0.12621 -0.40666
0.19834 -0.00508 0.40613
-0.09679 0.12621 -0.29063
-0.11325 0.10818 -0.10999
0.11830 0.10818 0.21823
-0.20946 0.12621 -0.24813
0.00689 0.10818 -0.02522
0.16861 0.10818 -0.05181
0.18030 0.09866 0.38432
-0.02668 0.12621 -0.15388
-0.20324 0.10818 -0.22840
0.18030 0.10491 0.17012
-0.19834 0.10290 0.13744
-0.11671 0.10818 0.21612
-0.17847 0.12621 0.41937
-0.18803 -0.11740 -0.39687
-0.19240 -0.12621 -0.39869
-0.12048 0.10818 0.36997
0.05477 0.12621 -0.23420
0.18166 0.08430 -0.41475
-0.17712 0.10818 -0.23838
0.12532 0.10818 -0.28967
0.19732 0.11126 0.43273
-0.09166 0.10818 0.41621
0.11222 0.10818 -0.22739
0.19717 0.12621 0.02372
0.21637 0.11238 -0.34401
-0.09758 0.12621 0.20119
0.10243 0.09579 -0.41490
-0.14983 0.12621 -0.30801
0.19028 0.10818 0.16033
-0.04282 0.10818 -0.00485
0.14193 0.10818 0.20673
-0.17272 0.12621 -0.30899
0.15590 0.12621 -0.00061
-0.10229 0.10818 0.13737
0.19738 0.09039 0.10681
0.02982 0.12621 0.04618
0.00662 -0.10818 0.17344
-0.02408 -0.10818 0.40901
0.09301 0.12621 0.35413
-0.19834 -0.06697 -0.40972
0.18166 0.10807 0.37935
0.02336 0.10818 0.31985
0.19636 0.09015 -0.23556
0.03587 0.12621 0.40149
-0.18154 0.12621 0.39807
-0.04005 0.12621 0.14155
0.18143 0.12621 -0.04247
-0.00572 0.12621 0.09349
0.19802 0.10818 -0.21824
0.19439 0.09015 -0.12635
0.18030 0.10529 -0.22489
-0.10610 -0.11340 -0.41490
0.12886 0.10818 -0.31372
0.00902 -0.11980 0.07830
0.15495 0.12621 0.15194
-0.00812 -0.12596 -0.36794
0.17112 0.12621 -0.17392
0.18030 0.09953 0.03608
0.17580 0.12621 -0.16226
-0.21132 0.10818 -0.26807
-0.03314 0.10818 -0.03628
0.03837 0.12621 0.24300
0.01238 0.12621 0.05156
0.19646 0.12621 0.40234
-0.15451 0.12621 -0.24430
-0.05372 0.10818 0.03766
-0.07542 0.12621 -0.24297
0.12299 0.10818 -0.36479
-0.04217 0.10818 0.37010
-0.05133 0.12621 -0.22698
0.12248 0.12621 0.10775
-0.02558 0.10818 0.12079
-0.19533 0.10818 -0.30041
0.17134 0.12621 -0.28839
0.00066 0.12621 -0.09944
-0.18236 0.10818 -0.04073
0.08902 0.10818 0.30253
0.04178 0.10818 -0.30684
0.08906 -0.12326 -0.41490
0.01471 0.12621 0.14278
0.00252 0.12621 -0.39942
0.21637 0.11871 -0.07697
-0.12602 0.12621 -0.28485
0.07743 0.12621 -0.22577
-0.18129 0.10818 0.01670
-0.06120 0.12621 -0.35933
-0.12431 0.12621 -0.19121
0.02483 0.12621 0.15255
0.02653 0.10818 -0.19843
0.12736 0.10818 0.05420
0.04149 0.12621 0.35174
-0.12837 0.10818 -0.41678
-0.19847 0.12621 0.14297
-0.18030 0.10101 -0.07748
0.17495 0.12621 0.22412
0.07030 0.10818 0.07228
-0.02575 0.12621 0.29393
-0.14109 0.12621 0.08800
0.20789 0.10818 -0.05991
0.18044 0.09157 0.22768
0.09119 0.11826 0.43273
0.02183 0.10818 0.04420
-0.14376 0.12621 0.18553
-0.17331 0.09685 -0.39687
0.15696 0.10818 0.16768
0.11599 0.10818 -0.16969
0.17053 0.10818 0.41896
-0.19430 0.12621 0.30857
0.14024 0.10818 0.40064
0.17212 0.12621 0.15250
-0.06457 0.10818 0.38031
0.11116 0.12621 0.12190
-0.02670 0.12621 -0.32986
-0.01799 0.12621 0.42538
0.02963 0.10818 0.21881
0.04931 0.10818 -0.23303
-0.18030 0.08103 -0.40149
0.10052 0.10818 0.39580
0.11993 0.10818 -0.21138
0.00540 0.10818 -0.05544
-0.03910 0.09771 0.39667
-0.18933 0.12621 0.32490
0.06281 0.10818 -0.17409
0.18221 0.09015 0.28897
-0.11649 0.12621 -0.05074
-0.18030 0.10254 0.12607
0.13614 0.11122 -0.43273
0.08715 0.12621 -0.19270
-0.09222 0.12621 -0.29926
0.21637 0.11993 -0.13060
-0.18600 0.09015 -0.37970
0.08225 0.12621 0.21027
-0.07099 0.12621 -0.11942
0.06853 0.12621 0.17212
-0.20060 0.12621 0.34360
-0.15334 0.12621 0.25202
0.10010 0.10818 -0.02527
-0.00665 0.12621 -0.09892
-0.00411 0.10818 -0.02001
-0.21543 0.12621 -0.42953
0.18030 0.10039 -0.39375
-0.09363 0.10818 -0.06545
0.00902 -0.11812 0.20790
-0.05028 0.10818 0.38672
0.05829 0.11275 0.43273
0.02775 0.11864 -0.43273
-0.13314 0.12621 -0.12498
-0.07806 0.10818 0.20663
-0.13883 0.10818 -0.25886
-0.14393 0.12621 0.10094
0.05926 0.12621 0.00520
0.04427 0.10818 0.07432
0.21257 0.10818 0.24291
-0.09694 0.10818 0.26994
0.17017 -0.11710 -0.41490
-0.12173 0.10818 0.17384
0.17458 0.12621 -0.21564
-0.14498 0.12621 -0.09685
-0.01708 0.10818 -0.12521
0.03471 0.12621 -0.35333
-0.19102 0.10818 -0.22240
-0.00146 -0.12621 -0.21852
-0.19168 0.10818 -0.16501
0.19294 0.10818 0.19390
0.11472 0.12621 -0.29184
-0.16165 0.12621 -0.11973
0.00902 -0.11637 -0.28422
0.00902 -0.11682 -0.14458
0.18430 0.10818 0.23883
0.00611 -0.10818 0.37383
-0.14584 0.12621 0.10622
-0.10944 0.12621 -0.19392
-0.14798 0.12621 0.11105
0.14103 0.10818 0.39160
-0.15194 0.12621 0.43141
0.14563 0.10818 0.34753
-0.19834 0.10032 0.31046
-0.05847 0.10818 0.40747
-0.05001 0.12621 0.33722
-0.17166 0.11762 0.43273
-0.19834 0.07418 -0.41036
-0.06914 0.10818 -0.18837
-0.19834 0.04062 0.40554
0.16321 0.10818 -0.39695
0.21637 0.11570 0.40144
0.02918 0.12621 0.14655
0.13150 0.12621 0.41290
-0.11464 0.10818 0.13193
-0.10001 0.11742 -0.43273
0.17266 0.10818 -0.40769
0.18285 0.10818 0.00410
-0.19386 0.10818 0.38417
-0.18036 0.10818 0.19831
-0.10698 0.12621 0.12853
0.00180 0.10818 0.05890
0.03445 0.10818 0.06337
-0.11713 0.12621 0.13163
0.18846 0.09015 -0.28606
-0.00104 -0.12621 0.39946
0.00902 -0.11804 -0.15214
-0.00902 -0.12170 0.06474
-0.11050 0.10818 -0.05007
-0.03151 0.10818 -0.11519
-0.05763 0.10818 0.25828
0.02693 0.12621 0.41552
-0.17214 0.12621 -0.34135
-0.06145 0.10818 0.10464
0.08999 0.12621 0.15120
0.07389 -0.11620 0.41470
-0.07314 0.10818 -0.10179
0.07344 0.12621 0.22051
0.08675 0.12621 -0.04886
0.02163 0.12621 0.32352
-0.18322 0.12621 0.27834
-0.20469 0.10818 -0.06548
0.00440 -0.10818 -0.13481
-0.17771 0.10818 -0.24498
0.15463 0.10818 -0.27724
-0.20584 0.12621 0.04889
-0.19916 0.10818 -0.26965
-0.04313 0.12621 -0.31775
-0.21637 0.11799 0.26647
-0.19368 0.10818 -0.12693
0.04310 0.10818 -0.36668
0.04659 0.10818 0.24232
-0.18654 0.09015 -0.34244
0.19834 0.09342 -0.21971
0.21516 0.12621 -0.41905
0.17369 0.10818 -0.34116
0.21163 0.10818 0.05480
0.06584 -0.10818 0.40519
-0.19834 0.10328 0.26262
-0.05708 0.12621 0.39243
0.13080 -0.10838 -0.41382
0.04276 0.10818 -0.31364
0.01166 0.10818 -0.32313
-0.18467 0.10818 -0.32229
-0.15662 0.12621 -0.10272
0.07828 0.12621 0.35942
-0.15163 0.10818 -0.06640
-0.18087 0.10756 0.24774
-0.13328 0.12621 -0.27363
0.09351 0.12621 -0.41420
-0.06865 0.10818 0.40033
0.04537 0.12621 -0.25339
-0.14555 0.10818 0.21162
0.17445 0.12621 0.32552
-0.05829 0.10818 -0.38154
0.00902 -0.11409 0.36785
0.16119 0.10818 0.16580
-0.03161 0.10818 0.35502
-0.16135 0.12621 -0.08723
-0.17264 0.10818 -0.19426
-0.18780 0.09015 0.13054
-0.03799 0.12621 -0.23679
0.20276 0.12621 0.40005
0.00685 0.10818 0.03048
0.13061 0.11028 0.43273
-0.19723 0.12621 0.25319
0.16594 0.12621 -0.12278
0.09450 0.10818 -0.36733
0.17801 0.10818 0.06826
0.04860 0.12621 -0.30550
0.11473 0.10818 -0.19250
0.21364 0.10818 -0.16469
-0.05387 0.12621 0.12510
-0.19520 0.10818 -0.22736
-0.02013 -0.11900 0.41470
-0.01725 0.12621 0.39858
-0.01873 0.12621 0.31555
0.08766 0.12621 0.22602
-0.10095 0.12621 0.01024
0.17841 0.12057 0.43273
0.21175 0.10818 0.09652
-0.03674 0.10818 -0.37779
0.11389 0.09015 0.40877
-0.16215 0.12621 -0.17494
0.17327 0.10818 0.03089
-0.19156 0.09015 -0.00867
0.08672 0.09825 -0.41490
-0.01104 -0.12450 0.41463
-0.08735 0.10818 0.37834
-0.00893 -0.11896 0.39836
0.18030 0.09816 0.24725
0.02385 0.10818 0.15575
-0.19440 0.09015 0.38560
-0.01387 0.12621 0.39396
0.08981 0.09998 0.39667
-0.10218 0.10818 -0.31942
0.05886 0.10818 -0.04415
0.19518 0.10818 -0.30463
-0.07859 0.12621 0.11231
0.00306 0.10818 0.08311
0.16597 0.10725 -0.41461
-0.05588 0.10818 -0.05139
0.19521 0.10818 0.12697
-0.21637 0.11776 -0.03386
0.08618 0.10818 0.05064
-0.15636 0.10818 -0.21303
-0.18830 0.10818 0.29888
-0.10100 -0.10818 -0.41269
-0.16104 0.12621 -0.15886
0.05644 0.12621 -0.41279
-0.10946 0.12621 -0.43195
0.19735 0.10795 0.17609
-0.11439 0.10818 0.08940
0.02276 0.10818 0.24346
0.08605 0.09015 -0.40069
0.09574 0.12621 0.06296
0.18225 -0.07297 -0.39689
0.19473 0.09015 0.00674
0.03153 -0.12273 0.41470
0.18450 0.09015 0.35477
-0.20919 0.10818 -0.21070
-0.15933 0.10818 0.18117
-0.18038 0.10818 0.12999
-0.13648 0.12621 -0.28277
0.06728 0.10818 0.40566
0.21637 0.12474 -0.34983
-0.04804 0.12621 -0.33771
-0.10178 0.12621 0.42993
-0.09779 0.12621 -0.06281
0.00902 -0.11130 -0.05785
0.18828 0.10818 -0.26108
-0.20758 0.12621 -0.07849
0.16579 0.10818 0.28378
-0.18867 0.10818 0.31131
-0.08250 -0.11940 0.41470
0.13636 0.10818 0.33480
-0.03115 0.12621 0.03695
0.11110 0.12621 -0.36079
-0.19506 0.12621 -0.39144
0.10462 0.10818 0.02007
0.04393 0.09267 -0.39687
0.16970 0.12621 -0.42730
-0.04606 0.10818 -0.26581
-0.13654 0.12621 0.14581
-0.14788 0.12621 0.01020
0.11993 0.10818 0.40990
-0.00902 -0.11707 0.38038
-0.17527 0.10818 -0.01503
0.09646 0.10818 0.42478
0.02935 0.12621 -0.27392
-0.14359 0.10818 -0.03459
-0.19473 0.12621 -0.28086
0.20358 0.10818 -0.05816
0.18030 0.07199 0.41029
-0.15456 0.12621 -0.34431
0.00874 -0.12525 -0.21940
0.20155 0.12621 0.03235
0.18481 0.03590 0.39667
-0.09995 0.10818 0.28641
-0.20521 0.12621 -0.21562
0.07840 0.09644 0.41470
0.04895 0.10818 0.15097
-0.21637 0.11348 -0.41423
0.15020 0.12621 -0.21274
-0.08624 -0.12621 0.40568
-0.06735 0.12621 0.20999
0.09349 0.10818 0.31184
-0.14355 0.12621 0.35074
0.00815 -0.10845 -0.00442
0.01168 0.10756 0.39723
0.08870 0.10818 0.10590
-0.19452 0.10025 -0.39687
-0.18517 0.12621 0.28246
0.02495 0.10818 -0.15608
-0.05943 0.10818 -0.37553
-0.18446 -0.10595 -0.39687
0.01221 0.10818 -0.12342
0.03918 0.09015 0.41076
0.13998 0.12621 0.33109
-0.21637 0.12570 -0.37083
0.16406 0.12621 0.12658
0.00902 -0.11583 0.12115
-0.12055 0.12621 -0.02956
0.02615 0.10818 -0.40986
-0.00534 -0.12621 0.26532
-0.16221 0.12621 -0.00328
-0.15413 0.10818 0.16836
0.20037 0.12621 -0.04747
-0.00727 -0.12621 0.08305
-0.18030 0.10309 0.00807
-0.18231 0.09015 0.00870
-0.16240 0.10818 -0.12688
0.06236 0.12621 -0.02553
-0.08255 0.12621 0.18824
-0.17532 0.12621 0.13370
-0.12088 0.12621 -0.01040
-0.20567 0.11591 0.43273
-0.06038 0.10818 0.41364
-0.08806 0.12621 0.19725
0.16828 0.12621 -0.32428
0.17982 0.10818 0.16370
-0.19513 0.09015 0.11546
-0.01543 0.12621 -0.22856
0.05897 0.10818 -0.13270
0.14999 0.12467 -0.43273
0.04085 0.12621 -0.05520
0.00891 -0.10975 -0.08266
-0.07854 0.12621 -0.04651
0.12115 0.09015 -0.40665
-0.09994 0.10818 -0.03104
-0.04641 0.12621 -0.03973
-0.06167 0.12621 0.29251
0.21138 0.10818 -0.11704
-0.01856 0.10818 -0.09621
-0.04928 0.12621 -0.08438
-0.16730 0.12621 0.30693
0.10107 0.12621 -0.13595
0.21637 0.12015 -0.09602
0.20492 0.10818 0.36984
-0.18686 0.12621 -0.15524
-0.04039 0.12621 0.02509
-0.19328 0.10818 -0.26311
-0.09964 0.10818 -0.38326
-0.12500 0.10818 -0.39999
-0.19834 -0.03843 -0.40463
-0.02837 0.12621 0.32959
0.13710 0.12621 0.05871
-0.07126 0.10818 -0.21219
-0.02494 0.10818 0.41904
0.02163 0.10362 0.41470
-0.15673 0.12621 0.12824
0.17657 0.12621 0.38187
0.18537 -0.07886 -0.41490
-0.07164 0.10818 0.26542
-0.19822 0.09166 0.30509
-0.13855 0.10818 -0.09962
0.17716 0.12621 0.15776
0.19485 0.10818 -0.14832
-0.12859 0.12621 0.04342
-0.07027 0.09311 -0.39687
-0.18794 0.10818 -0.37723
0.17953 0.12621 -0.18477
-0.07071 0.10818 -0.40109
0.03381 0.10818 0.33474
0.17955 0.12621 0.31095
-0.07603 0.10818 0.18474
-0.19834 -0.10395 0.40624
-0.14669 0.10818 0.09487
0.09067 0.10818 0.41283
-0.13196 0.10818 0.26395
-0.19834 0.09897 0.40053
0.14207 0.10818 -0.02311
0.19834 0.09714 -0.13275
0.07014 0.10818 -0.31104
0.18459 0.10818 0.34354
0.16908 0.12621 -0.06875
-0.18065 -0.07214 -0.41411
-0.15527 0.12621 0.30692
0.04949 0.10818 -0.06474
-0.00902 -0.11057 -0.25291
-0.06024 0.10818 0.13776
0.09533 0.10818 0.26721
0.18077 0.12621 0.41737
0.04569 0.10818 0.42056
0.03746 0.10818 0.23440
0.20945 0.12621 -0.08826
-0.03214 0.10818 0.22942
-0.07311 0.12621 -0.04419
-0.18030 0.01367 -0.40827
0.15990 0.10818 0.38557
-0.07244 0.12621 -0.33408
0.18752 -0.03605 -0.41490
-0.02342 0.10818 -0.12894
0.00902 -0.11750 -0.06794
0.16287 0.12621 -0.13659
-0.11997 -0.12513 0.41448
0.08306 0.10818 -0.21186
0.15757 0.12621 0.25735
0.19834 -0.11934 -0.41114
-0.12101 0.12001 -0.43273
0.00296 0.10818 0.22262
0.19710 0.12621 0.34611
-0.07768 0.10818 0.40313
0.10400 0.12621 -0.32748
0.01256 0.12621 0.34640
0.13469 0.12621 -0.06780
-0.01782 0.10818 0.29878
-0.09125 0.12621 -0.41388
-0.18806 0.10818 -0.17303
-0.18678 0.12621 -0.19522
-0.08986 0.12621 0.16441
0.16691 0.12621 0.11327
-0.11869 0.12621 -0.07199
-0.07817 0.10818 0.07659
-0.00902 -0.11965 -0.38781
-0.07534 0.12621 0.34632
0.03814 0.12621 -0.36617
0.16967 0.10818 -0.05617
0.18030 0.09379 -0.27859
0.03918 0.09015 -0.40771
-0.04575 0.10818 0.14574
-0.06756 0.12621 -0.16834
-0.11320 0.09548 0.41470
-0.00379 0.12621 0.36794
0.19089 0.12621 0.36828
0.19834 -0.09935 0.40302
-0.07298 0.12621 0.17785
-0.13907 0.10818 0.37192
0.17362 0.10818 -0.41910
0.07679 0.10818 -0.35846
-0.16983 0.12621 0.27744
0.18517 0.12621 0.33789
0.16218 0.09494 0.41470
-0.15884 0.10818 0.15177
0.18875 0.12621 -0.39964
-0.14714 0.12621 0.16190
0.19456 0.10818 0.06938
0.21637 0.11111 0.31195
0.21257 0.12621 -0.36172
-0.17166 0.12621 0.23252
0.07904 0.10818 0.14209
0.01749 0.12621 0.37680
-0.18030 0.09483 -0.32459
-0.20771 0.12621 -0.25930
-0.09459 0.12621 0.14397
-0.20671 0.12621 -0.38095
-0.18030 0.09226 0.06595
0.18271 0.09015 -0.03774
0.06498 0.12621 0.36342
-0.19784 -0.11022 0.39733
-0.11994 0.10818 0.07278
0.13559 0.12621 -0.33463
-0.05565 0.12621 -0.03520
-0.19607 0.10818 -0.00025
0.12453 -0.12325 0.39667
-0.21534 0.10818 -0.27659
-0.18381 0.10818 -0.00782
0.06106 0.12621 0.39062
-0.13419 0.10818 -0.06510
-0.19454 0.12621 -0.20042
0.05552 0.12621 0.33706
-0.02821 -0.10818 0.40488
-0.20279 0.10818 -0.12351
0.19834 0.09439 -0.41193
-0.17611 0.12621 -0.06050
-0.04981 0.10818 0.32385
-0.15698 0.12621 0.08235
-0.00883 -0.10940 -0.00415
0.16400 -0.12621 -0.41093
0.00078 0.12621 -0.29661
0.00892 -0.10979 0.24449
0.14545 0.10818 -0.12731
0.19834 0.09473 -0.01914
0.03747 0.10147 -0.41490
0.04702 0.12621 0.02190
0.15453 0.10818 0.11995
-0.18030 0.06890 0.40692
-0.00663 0.12621 -0.24810
-0.08976 0.10818 -0.39238
0.08616 -0.10919 0.39691
-0.09224 0.10818 0.09646
-0.13810 0.12621 -0.36782
0.19744 0.03683 -0.41457
0.19377 0.10818 -0.36398
-0.03280 -0.11652 0.41470
0.19481 0.10818 -0.27000
0.17496 -0.11314 -0.41490
0.19758 0.10780 -0.22928
0.18374 0.12621 -0.42806
-0.05522 0.10818 -0.01257
-0.14011 0.10818 -0.28598
-0.06681 0.12621 -0.12961
0.03527 0.12621 0.08162
-0.05752 0.12621 0.40885
0.16173 0.12621 0.09183
-0.18084 0.10818 0.38713
-0.03840 0.10818 0.13621
0.17241 0.12621 0.43136
0.12329 0.12621 0.37172
-0.21637 0.11585 -0.32241
-0.07533 0.10818 0.16084
-0.01450 0.10818 0.09873
0.05426 0.12621 0.17745
-0.00558 -0.10818 0.27503
0.08261 0.10818 -0.19200
-0.19352 0.12621 -0.09946
-0.20703 0.10818 -0.20594
-0.04836 0.10818 0.11330
-0.07500 0.12621 -0.22559
0.18232 0.09015 0.17069
0.19891 0.10818 -0.00781
0.17553 -0.12619 -0.39849
-0.00067 0.12621 0.27224
-0.17968 0.10818 0.04817
0.18030 0.09265 -0.22167
0.08020 0.12621 0.07982
0.19834 0.00165 -0.40406
-0.07854 -0.11120 -0.41490
-0.18030 0.09426 0.35131
-0.03795 0.10818 0.07614
-0.17982 0.12621 -0.35166
-0.14664 0.10818 0.40759
0.20710 0.12621 0.14485
0.19834 0.09684 -0.39723
0.15839 -0.12621 0.40496
0.16568 0.12621 -0.36380
-0.00785 0.12621 0.39820
-0.19643 0.10818 -0.24854
0.04426 0.10818 -0.23689
-0.18764 0.12621 -0.41396
-0.18667 0.10818 -0.29393
-0.11848 0.12621 -0.10125
0.18429 0.09015 0.21485
0.16151 0.12621 -0.19344
0.02990 0.10818 -0.06102
0.19834 0.04172 0.39867
-0.16205 0.10818 -0.00463
0.18030 0.09423 0.25707
0.16500 -0.10858 -0.41416
0.18180 0.09022 0.20918
-0.16087 0.12621 0.41615
0.15395 0.10818 -0.41197
0.14795 0.12621 -0.39273
0.17982 0.12621 0.00790
-0.08064 0.12621 -0.03153
0.08851 0.12621 0.30939
0.13837 -0.10931 -0.39708
0.06877 0.12621 -0.03260
-0.04486 -0.11137 0.39667
0.18304 0.12621 -0.26945
0.19834 0.10456 -0.08060
-0.07725 0.12621 0.24611
-0.15764 0.12621 -0.03032
-0.19485 0.10818 -0.01929
-0.07636 0.12621 0.35508
0.18030 0.01016 0.40238
-0.10093 0.12621 -0.24642
0.08638 0.12621 0.38448
0.07348 0.12621 -0.21751
-0.00902 -0.12260 0.25342
0.01060 0.10818 0.35833
0.05544 0.12621 -0.09037
0.09857 0.12621 0.07216
0.10439 0.10818 0.27435
-0.19834 -0.11180 0.40943
0.02370 -0.11208 -0.39687
0.15435 0.12621 0.09465
-0.19004 0.10818 -0.38181
0.18030 0.09390 0.24397
0.14760 0.10818 0.42485
-0.14516 0.10818 0.05408
0.11331 0.10818 0.39153
0.09642 0.12621 0.14549
-0.21063 0.12621 0.06833
0.03487 0.12621 -0.00329
-0.18030 0.09260 0.33050
-0.17237 0.12621 0.08855
0.18703 0.12621 -0.13939
-0.07113 0.12621 -0.34538
-0.01710 0.10818 -0.32145
0.00771 -0.12609 -0.03624
0.10236 0.10818 0.41292
-0.19785 -0.01372 0.39734
0.02040 0.10818 0.36629
0.01138 0.10512 -0.41490
0.19539 0.06613 0.39667
-0.20390 0.10818 -0.30053
-0.04145 0.10818 0.00333
0.21637 0.12494 0.34447
0.00902 -0.12402 0.39549
-0.10154 -0.11370 -0.39687
0.10073 0.12621 -0.06149
0.20064 0.12621 0.38040
0.09767 0.12621 0.37100
-0.05152 0.10818 -0.33358
0.07170 0.12621 0.00013
-0.18112 0.10818 0.27385
-0.04389 0.10818 -0.02469
0.10733 0.12621 0.42121
-0.15919 0.12621 -0.26279
-0.05097 0.12621 0.13889
-0.18305 0.10818 -0.31206
0.09475 0.12621 0.12367
-0.19834 0.09413 0.15344
0.19469 0.06016 -0.39687
0.00272 -0.12621 0.37979
0.21530 0.10818 0.12921
0.17471 0.12621 -0.31705
0.18383 0.10818 0.11478
-0.01853 0.12621 -0.15045
-0.15565 0.10818 -0.06035
-0.08472 0.12621 0.30054
-0.16905 -0.11815 0.41470
-0.00210 0.12621 0.00826
0.10294 -0.11947 0.41470
-0.19614 0.10818 0.26833
-0.21047 0.12621 -0.39436
0.01705 0.10818 0.27995
-0.18884 0.10818 -0.18507
0.10568 0.12621 0.00697
0.16232 0.12621 -0.39164
-0.19834 0.10559 -0.08160
-0.19834 0.09677 0.17297
0.09900 0.12621 -0.37475
-0.00902 -0.12016 -0.00119
0.01720 0.12621 0.33441
0.16059 0.12621 0.11447
-0.21426 0.10818 -0.13175
0.02248 0.12621 0.10360
0.18747 0.12621 0.29330
0.03597 0.12621 0.16591
-0.19303 -0.07752 0.39667
-0.00507 0.12621 0.28023
-0.03366 0.12621 -0.32540
-0.06593 0.12621 0.16186
0.00902 -0.12004 -0.24688
-0.20820 0.10818 -0.38922
0.11388 0.12621 -0.09461
-0.00825 0.10818 0.21968
-0.08011 0.10818 0.03596
0.21637 0.12595 -0.01997
-0.03130 0.10151 0.39667
-0.18829 0.12621 0.22121
-0.10106 0.10818 0.29485
0.18651 0.10818 0.15551
0.00417 -0.11131 -0.39857
-0.16036 0.12621 0.16789
-0.06690 0.10818 -0.24830
-0.03782 0.10818 -0.07101
0.08086 0.12621 0.10509
0.20645 0.10818 -0.32528
0.12552 0.10818 -0.37183
-0.18973 0.04120 0.41470
0.07725 0.10818 -0.34135
0.18191 -0.08186 0.39677
0.18318 0.10818 0.08435
-0.15274 0.12621 -0.37879
-0.19903 0.12621 -0.11596
0.13546 0.10818 -0.31305
-0.07862 0.12621 -0.17399
0.00902 -0.11261 -0.32891
-0.02511 0.10818 -0.39438
-0.00902 -0.11643 -0.19666
0.14022 0.10818 -0.39842
-0.06129 0.12621 -0.03798
0.02856 0.10818 -0.39676
-0.03209 0.10818 0.28792
-0.06656 0.12621 0.24270
0.08308 0.10818 -0.06628
-0.01727 0.12621 0.15495
-0.12937 -0.11265 -0.41490
-0.18751 0.09015 0.17128
-0.18030 0.09614 -0.36569
0.02538 0.10818 0.19408
0.02040 0.12621 -0.20897
0.08021 0.12621 0.30114
0.19593 0.10818 0.22098
-0.02770 0.10818 0.04211
-0.14031 0.09552 0.41470
0.15975 0.10818 -0.33864
-0.01063 0.10818 -0.40623
0.02667 0.10818 -0.34322
0.18089 0.10759 -0.05835
-0.14129 0.10818 0.22630
-0.12328 0.12621 0.09207
-0.19672 0.10818 0.34617
0.01461 -0.10818 -0.40992
0.00429 0.10818 0.32075
0.12485 0.10818 -0.22434
0.13701 0.10818 -0.14248
0.09057 -0.10818 0.40976
-0.18735 0.09015 -0.12418
-0.14915 0.12621 0.15627
0.10925 0.12621 0.26770
-0.18359 0.10818 -0.01400
0.01453 0.12621 0.06643
-0.00155 0.09026 -0.41355
-0.10386 0.12621 0.24830
0.00769 0.12621 0.16852
-0.10139 0.10818 -0.02669
-0.01870 0.12621 0.30589
0.19641 0.12621 -0.29760
0.14115 0.10818 -0.41167
-0.14661 0.12621 0.31018
0.13407 0.11583 -0.43273
0.03066 0.10818 0.13801
0.04811 0.09015 -0.40996
-0.19078 0.03575 0.39667
-0.10198 0.12621 0.09302
-0.07944 0.10818 0.22928
0.08056 0.12621 0.40722
0.15550 0.10818 0.17264
0.14195 0.10818 -0.17092
0.12187 0.12621 0.35375
-0.12870 0.10818 0.32416
-0.09662 0.10818 0.19952
-0.05987 0.10818 0.22630
0.16132 0.12621 0.03632
-0.14454 0.12621 0.41663
-0.06033 0.12621 0.26440
-0.01194 0.10818 0.02330
0.03684 0.10818 0.32972
0.19261 0.10818 -0.22014
-0.06129 0.10818 -0.13535
0.07693 0.10818 0.34005
-0.17366 0.10818 0.38854
0.20878 0.12621 0.00324
0.18264 0.03227 -0.41490
-0.05757 0.10818 0.00857
-0.19880 0.10818 0.32627
-0.05947 0.09015 -0.39954
0.10090 0.10818 0.23589
-0.05564 0.12621 0.17353
-0.17259 0.12621 0.31902
-0.18030 0.09879 0.21657
0.20338 0.12621 0.24579
-0.05906 0.12621 0.06624
0.07942 0.12621 -0.04239
-0.05698 0.12621 -0.31066
-0.00122 0.10818 0.01844
0.02575 0.12621 -0.40373
0.00423 0.10818 -0.15986
-0.18074 0.10741 0.14431
0.07918 0.12621 -0.32116
0.07226 0.10818 0.13348
0.20424 0.12621 0.15454
-0.09999 0.12621 0.03644
0.03601 0.10818 -0.41480
0.10623 0.10818 0.33211
0.19456 0.10818 -0.01652
0.15877 0.10818 0.37363
-0.19199 0.02263 -0.39687
0.09025 0.12621 -0.20259
-0.18265 0.12621 0.04342
-0.08188 0.10818 0.41518
-0.20441 0.12621 -0.02972
0.19009 0.10818 -0.05674
0.00613 -0.10818 0.21667
-0.18780 0.09015 0.07870
0.07683 0.12621 -0.11705
-0.19310 0.09015 -0.17640
-0.01707 0.10693 -0.41473
0.11129 0.12621 0.41857
-0.20737 0.12621 0.25946
-0.08093 0.10818 0.39046
0.07159 0.10818 -0.00722
-0.04128 0.12621 0.41189
-0.05411 0.12621 0.01018
0.09509 0.12621 -0.11084
0.21509 0.10818 -0.05654
-0.01517 0.10818 -0.05919
-0.19834 0.09516 -0.27528
-0.07169 0.09015 0.41294
0.00155 0.10818 0.19231
-0.08369 -0.12175 -0.39687
-0.10824 0.12621 0.31304
-0.18030 0.09864 -0.21054
0.19795 0.09099 -0.37273
0.08499 0.12621 -0.17001
0.12247 0.12621 0.30428
-0.04081 0.12621 0.22186
-0.18736 0.10818 -0.40276
0.20585 0.12621 0.05029
-0.15924 0.12621 0.40548
0.11550 0.12621 -0.05536
-0.12129 0.12621 -0.26234
-0.00313 0.10818 -0.12354
0.17547 0.10818 -0.02053
0.17866 0.12621 0.10799
0.01421 0.12621 -0.10695
-0.01676 0.10818 0.31935
-0.11764 0.10818 -0.03048
-0.07969 0.12621 -0.23920
-0.12960 0.10818 -0.21944
-0.16443 0.10818 -0.22259
-0.09928 0.12621 -0.42067
-0.21637 0.10871 -0.02499
0.21637 0.12218 0.19356
0.10330 0.10818 0.20879
0.18794 0.10818 -0.11424
-0.14468 -0.12328 0.41470
0.17492 0.12621 -0.02021
0.18236 -0.08544 -0.41490
-0.12649 0.11582 0.43273
-0.19078 0.09015 -0.28368
0.00951 0.10818 -0.04385
0.05990 0.10818 -0.41399
-0.06860 0.10818 -0.40775
-0.19834 0.09251 0.16181
-0.00880 -0.12513 0.35573
-0.09461 0.12621 -0.39522
0.14018 0.12621 -0.33960
-0.15340 0.10818 0.20192
-0.04502 0.12621 -0.30029
-0.05750 0.09662 0.41470
0.18030 0.06412 -0.40368
0.19586 0.09015 0.08696
-0.00789 0.12621 -0.18481
0.00147 -0.10818 0.23066
0.09865 0.10818 -0.41964
-0.13917 0.10818 -0.22223
0.18030 0.10342 0.31955
-0.00544 -0.10818 -0.25575
0.18741 0.09015 -0.39358
0.01624 0.10818 -0.30730
0.05898 0.10818 0.28265
0.18050 0.09134 -0.38891
-0.21637 0.12581 -0.30680
0.09950 -0.12471 0.39679
0.08304 0.12621 0.34775
-0.15495 0.10818 -0.25995
-0.19116 0.12621 0.31601
0.05549 0.10818 -0.38644
0.19834 0.03902 0.40548
-0.11994 0.10818 0.10444
0.19414 0.12621 -0.15575
-0.18211 0.10818 -0.08537
-0.13891 0.12621 0.09398
-0.02272 0.10818 -0.40634
-0.21637 0.11018 0.12561
0.18030 0.01425 0.41285
0.06212 0.10818 -0.20168
-0.17217 0.12621 -0.23070
0.06422 0.10818 -0.14288
-0.19320 0.04111 -0.41490
0.10333 0.12621 0.39680
-0.00400 0.10818 -0.29212
-0.00310 -0.12621 0.13788
0.08821 0.12621 -0.35415
0.21637 0.11451 0.12287
0.00730 0.10818 -0.01981
-0.16224 0.10818 -0.06515
-0.18339 -0.05567 -0.39687
-0.19555 0.09015 -0.33490
-0.02830 0.12621 -0.28962
0.19834 0.09272 0.11063
0.00870 0.12621 0.10559
-0.16801 0.09015 -0.41121
0.16019 0.10818 -0.24973
-0.08571 -0.11480 -0.39687
-0.19546 0.10818 0.08314
0.10259 0.09015 -0.40886
-0.19834 0.09530 -0.12574
0.12296 -0.12499 -0.39706
-0.05161 0.09015 -0.39955
-0.10966 0.10818 -0.42933
0.08976 -0.12621 -0.41059
0.10556 0.10818 0.39544
-0.08112 0.10818 -0.01946
-0.00902 -0.12201 0.13273
0.19571 0.09015 -0.18161
-0.19490 0.09015 -0.19915
0.10421 0.12621 0.21788
-0.05248 0.10818 -0.38083
-0.18030 -0.02699 0.40373
0.06134 0.12621 0.10284
-0.15963 0.10818 0.09408
-0.09129 0.12621 -0.05280
0.21637 0.10820 0.09066
0.12859 0.10818 -0.21651
0.14070 -0.10818 -0.41148
0.12562 0.12621 -0.08907
-0.11256 -0.10975 0.41460
0.15003 0.10818 0.28504
0.18251 0.09629 0.39836
0.20215 0.10818 -0.05183
0.00902 -0.11053 -0.12072
0.18924 0.10818 -0.14754
0.16407 0.12621 0.24590
0.00858 0.10818 0.12848
-0.04498 0.10818 0.28390
0.08873 0.10818 -0.02961
-0.18831 0.12621 -0.34513
0.00628 0.10818 -0.01406
0.13895 0.10818 0.17700
-0.04774 0.10818 -0.36175
-0.14459 0.10818 -0.16953
0.16940 0.12621 -0.00596
-0.18619 0.10818 -0.03590
-0.20339 0.10818 0.37169
0.15138 0.10818 -0.42801
0.02384 0.12621 0.04144
0.13841 0.10818 0.23793
-0.16821 -0.11316 0.39667
-0.06696 0.10818 0.29494
0.18399 0.04838 0.39667
-0.05049 0.11426 0.43273
-0.15053 0.10818 -0.17618
0.21221 0.12621 -0.30488
0.18379 0.06786 0.41470
-0.00719 0.12621 0.29049
0.18030 0.09903 -0.21495
0.01385 -0.11563 -0.39687
0.01943 0.12621 0.21536
0.01263 0.10818 -0.15807
-0.16344 0.10818 -0.11495
-0.13170 0.10818 -0.31892
0.18818 0.01204 0.39667
-0.19481 0.12621 -0.18035
-0.18030 0.09561 0.26878
0.19234 0.12621 -0.13376
-0.00081 -0.12621 -0.05125
-0.18030 0.09775 0.10993
-0.00902 -0.11217 -0.16564
-0.02847 0.12621 0.21344
0.01981 -0.10990 -0.41483
0.14947 0.10818 0.11863
0.20802 0.10818 -0.25050
-0.18908 0.07846 0.39667
-0.18150 0.10802 0.08960
-0.21489 0.10818 0.38367
0.21514 0.10818 -0.09586
0.00386 0.10847 -0.43273
0.18109 -0.00812 -0.39729
-0.00719 0.12621 0.10214
0.02435 0.10818 0.10709
-0.19667 0.10818 -0.39998
-0.19588 0.10818 0.23408
0.21637 0.11864 -0.24642
-0.00121 -0.11310 -0.39857
0.18815 0.10818 -0.21640
0.13688 0.12621 -0.03531
-0.08538 -0.10889 -0.41441
-0.05567 0.12621 0.35404
-0.19020 0.10818 0.34963
-0.18030 0.09244 -0.00707
0.11926 0.10818 0.04121
-0.18030 -0.10108 -0.40957
-0.00902 -0.12025 0.10081
0.06860 0.12621 0.27349
0.21637 0.11149 -0.38295
0.12849 0.12621 0.08319
-0.08524 0.12621 0.41385
0.02773 0.10818 -0.13923
0.17381 0.10818 -0.32976
-0.05793 0.09015 -0.41094
0.01106 0.10818 -0.33529
-0.00902 -0.12172 -0.36236
0.06111 0.12578 -0.43273
-0.06029 0.10818 -0.41495
0.05571 0.10818 0.40985
0.07542 -0.12621 -0.41247
0.10654 0.12621 0.24993
-0.19017 0.06852 0.41470
0.01773 0.12621 -0.04634
-0.21021 0.10818 -0.27846
-0.16435 0.10818 0.40575
0.12138 0.10818 -0.35477
0.10802 0.12621 -0.19724
0.07958 0.10818 -0.42898
-0.10889 0.09303 -0.39687
-0.19790 0.09093 -0.00790
0.10911 0.10818 -0.31004
-0.21637 0.12584 0.07232
-0.14269 0.10818 0.04055
-0.18226 0.12621 -0.38802
-0.13300 0.12320 -0.43273
0.14750 0.12621 0.30002
-0.01482 0.10818 0.16180
0.04213 0.10818 -0.39548
-0.14727 0.12621 -0.09086
-0.08305 0.10818 -0.16597
-0.12608 -0.12621 -0.40270
0.18030 -0.09055 -0.40712
-0.18555 0.12621 -0.00130
0.10063 0.12621 0.25689
-0.06284 0.12621 0.40954
-0.11622 0.10818 0.11815
0.02775 0.12621 -0.36121
0.18644 0.10818 -0.18284
0.12645 0.12621 -0.23652
-0.01568 0.12621 0.24578
-0.05703 0.10818 0.23957
-0.02040 0.10818 0.29391
-0.19834 -0.10006 -0.40749
-0.00902 -0.11159 0.07265
0.02318 0.10818 -0.24859
0.19317 0.12621 0.23113
-0.10898 0.10818 -0.11576
-0.03326 0.12621 -0.41160
-0.00027 0.10818 -0.31565
0.21637 0.10883 0.25367
0.20593 0.10818 -0.16434
0.11363 0.10818 -0.00273
-0.15018 0.12621 -0.11213
0.00028 0.11487 0.43273
0.02938 0.09015 -0.40464
-0.05637 0.10818 0.06197
-0.19834 -0.02323 -0.40490
-0.20578 0.10818 0.08465
0.04537 0.12621 -0.21370
-0.05227 0.10818 -0.16363
-0.00129 -0.10818 0.32326
-0.14742 0.12621 0.02836
0.19834 -0.01502 0.40318
-0.16355 0.10818 -0.23967
0.11773 0.12621 -0.32109
0.19834 0.10570 -0.31707
0.00902 -0.11648 0.30569
0.07320 0.12621 -0.17764
-0.09435 0.12621 -0.21246
-0.20799 0.10818 -0.08764
0.16194 0.12621 -0.34911
0.17627 0.12621 -0.10368
-0.00361 0.09966 0.39667
-0.12931 0.12621 -0.28909
0.07970 0.12621 0.20048
-0.01272 0.10818 -0.32667
-0.10875 0.10818 0.03931
-0.06020 0.10818 -0.40830
0.07437 0.12621 0.13213
-0.06695 0.12621 -0.16306
0.15355 0.12621 -0.35494
-0.07110 0.12621 0.03885
-0.19320 0.09015 0.16392
0.19834 0.09783 -0.04865
-0.02846 0.10818 -0.34520
0.21637 0.11146 -0.28059
0.03277 0.10818 0.30071
-0.17748 -0.12250 -0.39687
-0.07298 0.10818 -0.30771
-0.05032 0.12621 0.08677
0.09420 0.12621 0.13705
-0.18551 0.10818 -0.14202
-0.14944 0.12621 -0.06582
-0.08096 0.10818 0.10915
-0.07056 -0.10818 -0.40882
-0.00902 -0.11579 0.08629
-0.12408 0.10818 -0.12293
-0.06467 0.12621 -0.38171
0.17085 0.12621 0.23732
-0.06915 0.12621 0.22258
0.05367 0.12621 0.06215
0.11658 -0.10818 0.40605
-0.00643 -0.10818 0.18764
-0.14467 0.10818 -0.41404
-0.19433 0.12621 -0.19531
0.04279 0.10818 -0.15763
-0.10097 0.10818 -0.30536
0.19834 0.10363 -0.15675
-0.14524 0.12621 -0.30938
-0.15135 0.12621 0.16045
0.05539 0.09657 -0.41490
0.18009 0.10818 -0.40687
-0.09976 0.12621 0.33435
-0.16560 0.10818 0.31122
-0.21637 0.11223 -0.33909
0.02853 -0.10818 -0.41257
-0.18030 -0.03803 -0.39899
0.00156 0.09329 0.41470
-0.19834 0.09258 -0.39466
-0.21596 0.12621 0.13886
-0.15712 0.12621 -0.23370
0.06191 0.12621 0.38368
0.00718 -0.10818 -0.41068
0.06537 0.12621 0.41680
0.13797 -0.11517 -0.39687
-0.00740 -0.10821 0.34239
0.18914 0.10818 -0.42274
-0.21637 0.11836 0.18188
0.18045 0.10679 0.17627
-0.00021 -0.12199 0.39667
-0.13033 -0.12621 -0.40578
0.00128 0.10818 0.00658
0.17432 0.10818 -0.20947
0.18522 0.10818 0.16610
-0.00902 -0.11145 0.03353
-0.20316 0.10818 0.09514
-0.06322 0.10325 -0.41490
0.01790 0.10818 0.22785
0.10546 0.10818 0.05463
-0.08157 -0.12621 -0.40915
-0.20848 0.12621 0.12453
-0.07448 0.12621 0.26723
-0.19834 0.09549 -0.33084
0.06031 0.12621 0.14301
0.00056 -0.10818 0.31118
0.16175 0.10818 0.10812
-0.10935 0.12621 0.40294
-0.10108 0.12621 0.08230
-0.18506 0.10818 -0.00222
0.03028 0.10818 0.31312
-0.19615 0.10818 -0.32209
-0.11585 0.09618 0.39667
0.06147 0.10600 0.41470
-0.13601 0.12621 0.22713
0.06353 0.10818 -0.03494
0.07896 0.11254 -0.43273
-0.12342 0.12621 0.36076
-0.20168 0.12621 -0.29517
0.13967 0.12621 -0.25562
-0.20825 0.10818 -0.12513
-0.01741 0.12621 0.10528
-0.09683 0.09414 -0.41490
0.15211 0.12621 -0.27016
0.18219 0.12621 -0.38580
-0.07479 0.10818 -0.40469
-0.00830 0.09015 -0.40135
-0.10870 0.10818 0.35334
-0.21300 0.12621 -0.02523
0.21099 0.12621 0.17467
0.21637 0.11503 0.06044
0.13535 0.12621 -0.39926
0.01523 -0.12359 0.41470
-0.00865 0.10818 -0.41182
-0.17162 0.10818 0.37344
-0.06201 0.12621 -0.22003
0.10357 0.10818 -0.07517
-0.03937 0.12621 -0.17765
-0.18521 0.09015 -0.27508
-0.15799 0.12621 0.14949
-0.19834 0.02153 -0.40516
0.17881 0.12621 0.33837
-0.21126 0.10818 -0.20032
0.02459 0.12621 0.27212
-0.21637 0.11832 -0.30800
0.01206 0.10818 0.42704
-0.00902 -0.11748 -0.15196
-0.16896 0.10818 -0.33454
0.19174 -0.06867 0.41470
0.18891 0.12621 -0.28274
0.19454 0.12621 -0.29298
0.20641 0.10818 -0.25636
-0.03521 0.12621 -0.30314
0.13525 0.10818 -0.33449
-0.08504 0.10818 0.33029
-0.21600 0.12621 0.03061
0.03149 0.10818 -0.27861
0.20038 0.10818 -0.14073
-0.07519 0.09015 -0.40742
-0.15186 0.10818 -0.18227
-0.03616 0.10818 0.12715
0.01665 -0.12621 0.39974
-0.10563 0.12621 0.34893
-0.18030 0.10483 -0.29523
0.14167 0.12621 -0.34705
-0.05067 0.10526 -0.41490
-0.08792 0.12621 0.28956
-0.06717 0.10818 0.30375
0.04751 0.12621 0.28624
0.12781 0.12621 -0.12612
0.06819 0.12621 0.14515
-0.17607 -0.10975 -0.39698
-0.04301 0.10818 -0.24222
0.15256 0.11126 0.43273
0.11923 0.10818 -0.41982
-0.03822 0.12621 0.24178
0.02256 0.12621 -0.31356
0.17668 0.10818 0.15596
-0.18193 0.10818 0.25467
-0.15507 0.10818 0.08583
0.19114 0.12621 -0.16871
0.18030 -0.03622 -0.40340
0.18038 -0.01280 -0.41343
0.04667 0.10818 -0.17596
0.09793 0.09103 -0.39722
0.00130 0.12621 -0.38384
0.02948 0.10818 -0.07361
0.03845 0.10013 -0.39687
-0.15672 0.12621 -0.18657
0.08893 0.12621 0.24266
-0.05508 0.12621 0.29312
-0.06957 0.10818 0.07312
0.13919 0.10818 -0.42461
0.15372 0.10818 -0.04015
-0.14916 -0.12453 -0.41482
-0.20466 0.12621 -0.01088
0.16416 0.10818 0.04933
0.18030 0.09346 -0.03395
0.14074 0.10818 -0.23829
0.17589 0.10818 -0.25845
-0.00809 0.12621 0.33939
-0.06092 0.12621 0.03328
0.04789 0.10818 -0.39884
0.19834 -0.06209 -0.40299
-0.07765 0.10818 -0.05372
0.13016 0.10818 0.12347
0.01020 0.10818 -0.38561
-0.02949 0.10818 0.39933
0.03516 0.12621 -0.17533
0.18623 0.10818 -0.42867
0.20622 0.10818 -0.43062
-0.19085 0.12621 0.42052
-0.12464 0.12621 -0.09768
-0.15095 0.10818 -0.01481
-0.20478 0.12621 0.37363
0.15930 0.10818 0.03377
0.19217 0.10818 -0.18768
-0.21420 0.10818 0.18747
0.19624 -0.07463 -0.41490
0.08227 0.12621 0.27361
0.21502 0.12621 0.41765
0.04315 0.12621 -0.36201
-0.17622 0.12621 -0.17530
0.02259 0.10818 0.05810
0.04505 0.12621 -0.06438
0.16510 0.10818 -0.17129
0.01013 0.10818 -0.08070
0.12095 0.10818 0.12426
0.12903 0.10818 -0.32504
0.08724 0.10818 0.03654
-0.19025 0.10818 0.35805
0.00876 -0.12522 -0.18175
0.10272 0.10818 -0.38968
-0.03038 0.10818 -0.05083
-0.11063 0.12621 -0.38382
0.07004 0.12621 0.25042
0.21140 0.10818 -0.15652
-0.19021 0.12621 -0.08864
-0.07491 0.10818 0.09283
-0.09208 0.10818 0.34064
-0.18262 0.07694 -0.41490
-0.13482 0.12621 0.24777
0.04157 0.10818 0.19033
-0.04300 0.10818 -0.25979
0.06978 0.12621 -0.33404
0.05081 -0.10818 0.40814
0.20574 0.12621 0.18189
0.16300 0.10818 0.15491
0.10770 0.12621 -0.32299
0.04189 0.10818 -0.07209
-0.18359 0.10818 -0.02882
-0.17633 0.12621 0.16936
0.01654 0.12621 0.34327
-0.18869 0.10818 -0.35830
0.18030 0.08051 -0.41132
-0.04584 0.12621 0.10195
0.01722 0.12621 -0.11350
0.02028 0.10818 0.21424
-0.20883 0.12621 0.06031
-0.02306 0.10818 -0.06987
-0.20466 0.10818 0.15782
0.07643 0.12621 0.04426
0.14201 0.12621 0.42160
-0.20654 0.12621 -0.17926
0.08758 -0.12468 0.39678
0.06873 0.10818 -0.35478
0.08779 0.10818 -0.23140
0.09644 0.12621 -0.20609
-0.19834 0.09688 -0.25047
0.14129 0.12621 0.18810
-0.09304 0.10818 0.27302
0.00512 -0.10818 -0.03521
-0.18507 0.08670 -0.39687
0.18319 0.10818 -0.02837
-0.15773 0.09041 -0.41401
-0.14804 0.10818 0.16223
0.17292 0.12621 -0.34592
0.18927 0.02728 -0.39687
0.03558 0.12621 0.17432
-0.19818 0.10684 0.06164
0.15302 0.10818 -0.20229
-0.05099 0.12621 -0.16995
-0.13340 0.12621 -0.22581
0.06256 0.10818 0.02079
-0.18030 0.09333 -0.39144
0.00877 -0.10918 -0.25820
-0.21637 0.11335 -0.29991
-0.08223 0.10818 -0.37364
0.00092 -0.10818 -0.23998
-0.09297 0.10818 0.43163
-0.00518 -0.10818 0.36111
0.02795 0.10818 0.16810
0.00172 -0.12621 0.16491
0.16440 0.10818 -0.21526
0.19008 0.12621 0.07471
-0.17796 0.10818 0.12079
0.01763 0.10818 -0.05049
0.02348 0.12621 0.08552
-0.01250 0.12621 0.27712
-0.03051 0.12621 0.22229
0.16598 0.12621 -0.05295
0.00902 -0.11251 -0.12732
0.16392 0.12621 0.26743
0.00902 -0.12292 -0.23791
0.03335 0.12621 -0.40379
-0.16500 0.10818 0.05303
-0.21637 0.11091 -0.15798
0.13843 0.12621 -0.20966
0.18526 0.12621 0.06394
-0.00902 -0.11203 0.28907
0.19834 -0.10576 -0.40119
-0.03549 0.10818 0.28407
-0.15185 0.10818 0.12348
-0.02378 0.10818 -0.30246
0.18665 0.12621 0.17539
0.01095 0.12621 0.32493
-0.07631 0.10818 -0.14018
0.02115 0.12621 0.05995
-0.09230 0.11742 0.43273
0.20260 0.10818 0.35612
-0.19665 0.10818 0.16952
0.12217 0.12621 -0.39103
0.12694 0.10818 0.24211
-0.19834 0.09416 -0.05530
-0.06754 0.10818 -0.10219
-0.07650 0.12621 0.23733
-0.17449 0.12621 -0.31734
0.07529 0.10818 -0.13603
-0.18030 0.10270 -0.33490
0.19464 0.12621 0.05407
0.12235 0.12621 0.11415
-0.16042 0.12621 0.01024
0.14437 -0.10818 0.39852
0.13320 0.10818 -0.18007
0.14869 0.10818 0.38614
0.15174 0.10818 -0.14031
0.01092 0.10818 -0.24338
0.05321 -0.12621 0.41093
-0.21637 0.11799 -0.09133
-0.16082 0.12621 -0.03436
-0.04793 0.12621 0.21691
-0.09486 0.12621 0.02515
-0.05416 0.10818 -0.38708
-0.00734 -0.10819 -0.16204
0.06046 0.10818 0.06948
0.13981 0.12621 0.34740
-0.15421 0.12621 -0.25639
-0.21637 0.11234 -0.18787
0.00898 -0.11006 -0.28034
0.13780 0.12621 -0.27228
-0.00240 0.12621 0.00066
0.13608 0.12621 -0.09650
-0.07951 0.10818 0.05492
-0.06635 0.09811 0.41470
-0.16571 0.12621 0.25997
0.19754 0.10818 -0.02461
-0.19834 -0.07775 0.39990
-0.04565 0.09113 -0.41464
0.19834 0.10186 -0.38345
-0.06285 0.12621 -0.20351
0.05985 0.12621 0.03362
-0.19834 0.09495 -0.09635
-0.18087 0.01794 -0.39748
0.02234 0.10818 -0.12799
-0.19520 0.10818 0.09541
0.00902 -0.12011 -0.37408
-0.05896 0.10818 -0.18853
0.19093 0.10818 0.21040
-0.00902 -0.11672 0.36379
0.19895 0.12621 0.02851
-0.17319 0.10818 0.01777
0.18193 0.12621 0.21957
-0.10313 0.12621 0.36690
-0.21080 0.12621 0.02396
-0.15263 0.10818 0.36932
0.05526 0.10818 -0.42054
-0.07027 0.12621 0.34511
-0.18293 0.10818 -0.26798
0.02486 0.12621 -0.21621
-0.06003 0.12621 -0.42813
0.06403 0.10818 0.34874
0.08761 0.12621 0.11154
0.10917 0.12621 -0.34364
-0.15662 0.12621 -0.06418
-0.00258 -0.10818 0.30102
-0.10219 0.10818 0.16218
-0.07854 0.10818 0.12158
-0.19677 0.09019 -0.38103
0.02329 0.10818 -0.29810
-0.18065 0.12621 -0.06277
0.18737 -0.11026 0.39667
0.19834 0.07861 -0.40995
-0.19834 0.00546 0.40366
0.17252 0.12621 0.17705
-0.21637 0.11892 0.29624
-0.00576 0.10818 -0.34546
-0.18136 0.10818 -0.27654
-0.20589 0.10818 0.31796
0.18030 0.09986 0.37239
0.18265 0.06254 -0.39687
-0.05560 -0.12451 0.41463
0.15890 0.10818 -0.31291
-0.18816 0.10818 -0.21441
-0.13429 0.12621 -0.33216
0.05416 -0.10818 -0.40469
-0.13686 0.12621 -0.37389
-0.07486 0.10818 -0.31631
-0.19834 0.10342 0.29686
0.09211 0.10818 0.40426
0.19301 0.10818 0.23545
0.17858 0.12621 0.31823
0.11282 0.12621 0.16923
0.21637 0.12489 -0.17705
-0.05258 0.10818 -0.01791
0.14080 0.12621 0.28579
0.00690 0.10818 -0.23106
0.19101 0.09015 -0.36188
0.03436 0.12621 0.11920
0.06580 0.12621 0.18127
-0.01563 0.12621 0.02453
-0.00225 0.10818 0.35297
0.00261 -0.12621 0.11840
0.14303 0.10818 -0.19289
-0.16543 0.10818 -0.27420
0.18044 0.10673 -0.38757
-0.05825 0.10818 0.11915
0.03261 -0.10818 0.40109
0.06138 0.10818 0.40432
0.07116 0.09508 0.39667
-0.01873 0.10818 -0.14890
-0.14414 0.10818 -0.40218
-0.00277 0.10818 0.18849
-0.18212 0.12621 -0.24735
0.15471 0.10818 0.08719
-0.08192 0.10818 -0.06852
0.03430 0.10818 0.38610
0.05995 0.12621 0.33274
0.14891 0.12621 -0.23584
-0.11825 0.12621 -0.16447
-0.21637 0.12242 0.34468
0.14396 0.10818 -0.13696
0.09568 0.09066 0.41405
0.00902 -0.12015 -0.13484
-0.21637 0.12575 0.21576
-0.19643 -0.12621 0.40657
0.08499 0.12621 -0.35054
0.18080 0.09085 0.07019
0.21637 0.11618 -0.33366
-0.11710 0.10818 0.17457
0.04399 -0.11130 -0.39687
0.01001 0.12621 0.00529
0.13019 0.10818 0.07235
-0.12563 0.12621 0.00581
-0.07948 0.12621 -0.38088
-0.07440 0.10818 0.25489
0.12855 0.12621 0.20297
0.16662 0.12621 -0.08101
0.13398 0.12621 0.17997
-0.20937 0.10818 -0.31347
-0.06786 0.10818 -0.32354
-0.19834 0.10552 0.20805
0.19727 0.10818 0.05015
-0.00633 -0.12621 0.33530
-0.16926 0.10818 -0.31525
-0.21630 0.10818 0.26152
0.18030 0.09741 -0.36068
-0.17407 0.10818 -0.15928
0.03771 0.10818 -0.39146
-0.04286 0.11774 0.43273
-0.04750 0.10818 0.33877
-0.06108 0.10818 -0.33043
-0.12352 0.10818 -0.38392
0.15942 0.12621 -0.10671
0.19060 0.12621 0.06508
-0.16401 0.12621 0.14622
-0.06110 0.12621 -0.10859
0.07293 0.10818 0.26262
0.12868 0.12621 0.14465
0.03326 0.10818 0.35922
0.18385 0.10818 -0.13831
0.04341 0.10818 -0.04348
-0.08562 0.12621 -0.07818
-0.07776 0.12621 0.29518
-0.18030 0.10383 0.39150
0.20544 0.10818 0.29455
-0.01859 0.12621 0.35651
-0.15590 0.12621 0.26420
0.04164 -0.10818 0.40937
-0.19294 0.12621 0.23328
0.09585 0.10818 0.13723
-0.01597 0.12621 -0.03397
-0.12681 0.10818 0.03417
0.11676 0.10818 0.32580
0.07121 0.10818 -0.19042
-0.12529 0.12621 -0.41819
0.18044 0.09161 -0.26043
-0.02493 -0.12611 -0.39825
-0.08574 0.09199 -0.41486
-0.17943 0.12621 0.04682
-0.06608 0.12621 0.10161
-0.13979 0.10818 -0.37221
-0.18030 0.00104 -0.40951
-0.19834 0.09754 -0.02688
0.19834 0.10285 -0.24790
-0.00902 -0.12197 -0.26915
0.14339 0.10818 0.19766
-0.07966 0.10818 -0.27361
-0.09770 0.10818 -0.17319
0.02288 0.12621 0.19569
-0.21637 0.11518 0.39332
0.00502 -0.12621 -0.19563
-0.00241 -0.12621 -0.21248
-0.18678 0.10818 -0.11371
-0.05637 0.12621 -0.33324
0.15274 0.12621 -0.29735
-0.04579 -0.12505 -0.39707
0.18839 0.10818 -0.23731
-0.07083 0.10818 0.18079
-0.10692 0.10818 -0.10455
0.11934 0.12621 0.19500
0.18030 0.10396 -0.23842
0.18905 0.09015 0.14974
0.03177 0.12621 0.17904
-0.07165 0.10818 -0.41245
0.17988 0.10818 -0.34930
0.03015 0.12621 -0.29420
-0.02260 0.12621 -0.25723
-0.20440 0.12621 -0.02383
0.14425 -0.12520 0.39690
0.13675 0.12621 -0.36749
-0.03559 0.10818 -0.26227
-0.00412 -0.12621 -0.38681
0.18030 0.10179 0.00318
0.16852 0.10818 0.12449
-0.13737 0.10818 -0.17247
-0.10525 0.10818 0.36889
-0.11875 0.12621 0.28800
-0.10014 0.12621 0.07732
-0.07949 0.10818 -0.16992
-0.19514 0.09015 0.26307
0.06139 0.12621 0.09619
-0.07668 0.10818 -0.15886
-0.03294 0.12621 -0.34586
0.19834 0.09541 0.31819
-0.10085 0.10818 -0.02092
-0.09165 0.11040 -0.43273
-0.19174 0.12621 -0.18849
-0.10175 -0.11972 -0.41490
-0.19309 0.09015 0.10215
0.13007 0.10818 0.10092
0.02724 0.12621 0.38908
-0.15549 0.10818 -0.31879
-0.01842 0.12621 0.19837
0.05245 0.12621 -0.12270
0.09761 0.12621 0.03769
0.11436 0.12621 -0.30714
-0.14991 0.10818 -0.27490
-0.13750 -0.12017 -0.41490
-0.16117 0.09015 0.41292
0.11753 -0.11739 0.39667
-0.07838 0.12621 -0.14032
-0.18548 0.12621 -0.29759
0.05345 0.12621 0.31345
0.04920 0.10818 0.08494
0.20516 0.12621 -0.13268
-0.17446 0.12621 0.42307
-0.13519 0.10818 0.23429
-0.09630 0.10818 -0.34525
0.00902 -0.11923 0.18874
-0.15349 0.10809 -0.39828
0.21637 0.12368 0.05514
0.20320 0.12621 0.35165
-0.21637 0.11277 0.23878
-0.00859 0.11398 -0.43273
-0.19834 -0.03178 -0.39882
-0.03712 0.12621 -0.02503
0.13344 0.12621 0.26248
-0.00859 0.10818 0.17933
0.16484 0.12621 -0.03983
0.13512 0.10818 -0.01228
-0.08008 0.12621 0.08511
-0.12117 -0.10818 0.40913
0.19178 0.03726 -0.39687
-0.19844 0.10818 0.13898
-0.06408 0.10818 0.26775
0.19793 0.10818 -0.40792
-0.00472 -0.12621 0.25988
-0.03358 0.10818 0.27830
-0.00803 0.09015 0.39895
0.21637 0.11259 0.19146
-0.01436 0.12621 -0.33898
-0.19315 0.08724 0.41470
0.14756 0.12621 0.08336
-0.00564 0.10818 0.40069
-0.00904 0.10818 0.12516
-0.00814 -0.10845 0.02749
0.01819 0.10818 0.42451
-0.17906 0.12621 -0.12506
-0.00604 -0.12621 -0.08044
-0.09234 0.12621 0.24500
0.15315 0.12621 -0.25393
0.18536 0.10818 0.22478
0.19777 0.09083 0.39728
-0.03171 0.10818 -0.07664
0.19387 0.10818 0.39060
-0.19355 0.00888 0.39667
-0.18030 -0.02606 -0.41195
-0.14622 0.12621 -0.02527
0.17240 0.11662 -0.43273
-0.18291 0.10818 0.08418
-0.00087 0.12621 0.42552
0.15566 0.12621 0.12373
0.18322 0.10818 -0.34483
0.04990 0.10818 0.12042
-0.10742 0.12621 0.39821
-0.14124 0.10818 -0.26268
-0.11135 0.09015 0.40834
-0.07375 0.12621 -0.05613
0.16098 0.10818 -0.40933
0.17450 0.10818 0.02093
-0.17993 0.12621 0.30576
-0.19834 0.10471 0.29148
-0.21406 0.10818 0.15884
-0.17958 0.10818 -0.05741
-0.21427 0.10818 0.19412
0.18186 -0.05743 -0.41480
-0.18571 0.08877 0.39667
0.03796 0.10818 0.03258
-0.03698 -0.10818 0.40700
0.03649 0.12621 0.19306
0.19834 -0.08377 0.41120
0.21637 0.11793 0.05517
-0.11339 -0.12293 -0.41490
-0.00479 -0.10818 -0.38504
0.13697 0.12621 -0.06363
0.18030 -0.05104 -0.41125
-0.01163 0.10818 -0.35356
-0.19986 0.12621 0.08010
0.00624 0.10818 -0.17678
0.18339 0.10818 -0.23965
0.00797 0.10818 0.18843
0.19522 0.10818 0.31396
-0.14221 0.12621 -0.32982
-0.18312 0.09015 0.18530
-0.10916 0.12621 0.03061
-0.00762 0.12621 -0.30925
-0.01691 0.12621 -0.13328
0.15777 0.10818 0.41582
0.17074 0.12621 -0.22270
0.17457 0.12621 -0.38157
-0.17386 0.10818 0.42440
-0.18031 0.10618 0.15999
-0.18030 0.10200 0.27847
0.03582 0.12621 -0.14297
0.09787 -0.11496 0.39667
0.08471 0.10818 -0.02648
0.18030 -0.00306 -0.39983
0.17161 -0.11805 0.39667
-0.17684 -0.10818 0.40540
0.06987 0.10818 0.04397
-0.11274 0.12621 -0.37241
-0.17716 0.12621 -0.42657
-0.18805 0.01371 0.39667
0.06304 -0.12621 0.41153
0.07199 0.10818 -0.31780
-0.10235 0.12621 0.29367
0.02292 0.12621 0.24697
0.03130 0.12621 0.00064
-0.14053 0.12621 -0.09363
-0.20348 0.12621 0.22616
-0.10390 0.10818 -0.15806
0.17357 0.12621 0.42079
0.20913 0.10818 0.36117
0.19834 0.10389 0.14338
-0.14968 0.12621 -0.32562
-0.07435 0.12621 0.31508
-0.18030 -0.00716 0.40310
-0.13704 0.12621 -0.00875
-0.02322 -0.11562 0.39667
0.09085 0.12621 -0.28784
0.05502 0.10818 -0.32571
-0.15250 0.10818 0.16123
-0.01397 0.10818 -0.17854
0.10739 0.12621 -0.12716
-0.02876 0.12621 -0.06329
-0.02390 0.12621 -0.11421
-0.07071 0.10818 0.06253
-0.05921 0.10818 0.11293
-0.02218 0.10818 -0.34701
-0.18622 0.09015 0.07063
0.05827 0.12621 0.39871
0.17354 0.10818 -0.11910
-0.18030 -0.00304 0.40107
0.05656 0.09020 0.41315
0.07016 0.10818 0.09330
0.11006 0.10818 0.21638
-0.19642 0.10818 -0.05141
0.20346 0.12314 -0.43273
-0.05717 0.10818 0.31621
-0.01250 0.10818 0.41782
-0.18991 0.10818 0.23156
-0.19271 0.12621 -0.23239
-0.14340 0.12621 -0.21956
-0.17208 0.12621 -0.33614
0.19834 -0.10876 0.40966
-0.13620 0.10818 0.38979
0.04301 0.12621 -0.18969
0.16896 0.12621 0.35498
0.18030 0.04916 -0.40894
0.12233 -0.12621 0.40446
-0.17444 -0.12598 0.39765
0.19345 -0.03003 0.41470
-0.16380 0.10818 -0.26597
-0.15151 0.12621 -0.27405
0.00261 -0.10818 -0.09245
-0.08470 0.12621 0.22940
0.19834 0.02576 -0.40916
-0.17197 0.12621 0.19645
0.18030 0.10017 -0.00487
-0.00902 -0.12261 -0.01543
-0.15083 0.10818 -0.15008
0.04259 0.10394 -0.39687
-0.21637 0.11159 -0.42137
0.09911 0.12621 0.24026
-0.20838 0.10818 0.38591
0.21313 0.10818 0.34828
0.18979 0.10818 -0.17393
0.21637 0.12118 -0.12089
0.15965 0.12621 0.25208
-0.04497 0.10818 0.36605
-0.10887 0.12621 -0.26393
0.06761 -0.10896 0.39710
0.20526 0.10818 -0.42112
0.21488 0.12621 -0.22716
-0.03388 0.10818 0.10658
-0.06735 0.10818 0.26198
0.07085 0.12621 -0.31411
0.18826 -0.00375 -0.41490
-0.15298 0.10818 -0.40956
0.13972 0.10818 0.16387
-0.14441 0.12621 -0.38515
-0.00782 0.10818 0.00583
0.05819 0.10818 0.09212
0.11299 0.12621 -0.04970
-0.05100 0.12621 0.02229
-0.18259 0.12621 0.42633
-0.21014 0.12621 -0.24209
-0.16691 0.12621 -0.28391
-0.16339 0.12621 0.03136
0.06298 0.10818 0.14125
0.07584 0.10818 -0.00390
0.18614 0.07937 0.41470
-0.13513 0.12621 -0.31472
0.04017 0.12621 -0.26747
-0.19830 -0.02863 0.39824
0.06809 -0.11668 -0.41490
-0.19582 0.04021 0.39667
0.19190 0.09015 0.03975
-0.11319 0.10818 0.16371
-0.09318 0.12621 0.29230
0.04255 0.10818 -0.40665
-0.01239 0.09015 -0.41199
-0.16234 0.10818 0.39171
-0.00391 -0.12621 0.04297
-0.01818 0.10818 -0.36530
-0.20810 0.12621 0.23928
-0.00902 -0.11429 -0.37369
-0.04162 0.12621 -0.19819
0.12381 0.12621 -0.10337
