-0.01038 -0.04585 0.35353
0.03955 -0.06998 -0.11682
0.15124 -0.05035 -0.06823
-0.02457 -0.06998 0.31770
0.04496 0.18580 0.22258
0.19170 -0.11310 -0.00932
-0.15974 0.16167 0.22947
0.09234 0.16167 0.17973
-0.00946 0.18580 0.38339
0.18789 0.16803 -0.17975
-0.07532 -0.04585 -0.05914
0.02052 -0.06998 -0.15553
0.00867 -0.13247 -0.35301
0.16598 0.17455 0.24724
-0.14044 -0.06998 -0.00488
-0.09379 0.16167 0.22841
0.01321 0.07886 -0.35301
0.01962 -0.04590 0.36505
0.19267 0.13388 0.00733
0.09070 -0.04585 -0.22730
0.03237 0.18580 -0.39143
-0.03132 -0.04585 0.22232
-0.20727 0.18580 0.01205
-0.15970 -0.10035 -0.00932
0.08070 -0.06998 -0.07073
0.01055 0.16167 0.26438
-0.04710 -0.06998 -0.27835
-0.20495 0.18580 0.03114
0.03698 0.16167 0.02619
-0.04790 0.16167 0.39300
-0.06314 -0.06998 0.03176
0.02697 -0.04585 0.21502
-0.17245 0.08312 -0.00932
0.08604 -0.04585 -0.16955
0.05556 -0.06998 0.27311
0.02235 0.16167 0.35166
-0.17329 0.18580 -0.05493
0.04025 -0.04585 -0.10759
0.17374 0.18580 0.20235
-0.16801 0.16406 -0.24803
0.04160 -0.06998 0.20671
0.01962 0.00886 -0.36137
-0.12684 0.18580 0.27407
0.10887 0.18580 -0.16245
-0.05670 0.18580 -0.14120
-0.08583 0.16167 -0.35793
0.10112 0.16167 -0.16381
0.04603 0.18580 -0.15393
0.14421 0.18580 0.15543
0.03811 -0.06998 -0.24272
0.16286 0.18580 0.14331
-0.01898 0.00771 0.39004
-0.03037 0.16167 0.11388
0.01962 0.12476 0.36266
-0.03822 -0.06998 0.12205
0.00939 0.18580 0.15493
0.05576 -0.04585 0.26111
0.05127 -0.04585 -0.28036
-0.03196 0.18580 0.36070
0.09145 0.18580 0.11994
-0.15411 0.09780 0.00645
0.19267 0.07468 0.01154
-0.10771 -0.04585 -0.07586
0.12476 -0.06998 -0.07647
-0.14415 -0.06998 0.01023
-0.12650 0.18580 0.02884
-0.15312 0.18580 0.23544
-0.07529 0.16167 -0.38081
-0.15411 -0.06054 0.02330
0.01844 0.16167 0.13499
0.01422 -0.04585 -0.10665
0.10163 -0.04883 -0.23611
0.02114 0.18580 -0.10353
-0.00053 0.04496 0.35471
-0.03196 0.18580 0.17570
-0.13142 0.18580 -0.07070
0.04003 -0.04585 0.13041
-0.00543 -0.06998 0.24490
-0.01898 -0.05299 0.36004
0.19162 0.16231 -0.16514
-0.15411 -0.08208 0.02465
-0.01898 0.13449 0.37699
-0.10288 0.16167 -0.01266
0.07070 0.18580 0.24668
0.00059 0.16167 0.28843
-0.03150 0.18580 0.01632
0.05653 -0.06998 0.16756
0.03033 -0.06998 0.24679
0.03701 0.18580 -0.18174
-0.14810 -0.04585 0.03646
-0.08730 0.18580 0.24993
-0.11696 0.16167 -0.06316
0.07346 0.16167 -0.05208
0.12753 0.18580 -0.32282
-0.03824 0.18580 -0.28084
-0.20320 0.18580 -0.00746
-0.19272 0.08250 0.01197
-0.01898 -0.07187 -0.37979
0.01484 -0.06713 0.35471
-0.05460 -0.04585 -0.05428
0.02624 0.18580 -0.07662
-0.05945 -0.04585 0.10168
-0.15230 0.16167 -0.16064
0.04840 -0.04585 -0.19852
-0.01183 0.18580 -0.34434
0.04601 -0.04585 -0.04586
-0.16000 -0.02906 0.02929
0.03407 -0.04585 -0.23065
0.00568 0.17219 -0.41215
0.06975 0.16167 -0.03642
0.03313 0.18580 0.04720
-0.12731 -0.06998 -0.04598
0.08538 0.18580 -0.05872
0.02623 0.18580 -0.22964
0.04418 0.16167 -0.26141
0.05778 0.16167 0.37910
0.00665 0.16167 0.29067
-0.04607 -0.04585 -0.13349
-0.11967 0.16167 -0.12866
-0.16541 -0.10978 -0.00932
-0.06693 -0.06901 0.29385
0.03133 0.16167 -0.07581
0.01705 0.16167 -0.37994
-0.00946 -0.06998 0.04532
-0.07981 0.18580 0.12417
0.09011 -0.04585 0.13211
-0.03412 -0.04585 -0.20927
0.13800 0.16167 -0.00747
-0.08743 0.16167 -0.01898
-0.18056 -0.05596 0.02929
0.11277 0.16167 0.02207
0.08387 -0.04585 -0.14432
0.01432 -0.06998 0.11054
0.07979 0.18580 -0.26558
-0.04692 0.18580 0.17949
-0.12756 -0.04585 -0.08698
-0.13883 0.16167 0.07074
-0.04715 0.16167 -0.14031
-0.19272 0.12275 0.01914
0.05881 0.18580 -0.04055
-0.18064 0.16576 0.21417
0.04791 0.16167 -0.01374
-0.04465 -0.04585 -0.20475
-0.01267 0.16167 -0.17233
0.21252 0.16315 0.00766
-0.00400 0.18580 -0.12823
0.00763 0.18580 0.16580
-0.15833 0.18580 0.18453
0.12256 0.16167 -0.00483
-0.01086 -0.05856 0.39332
0.07231 0.18580 -0.27453
-0.18822 0.18580 -0.06040
0.15787 0.18580 0.20800
-0.14638 -0.04747 -0.11620
0.14987 -0.04585 0.03006
0.06078 -0.06998 0.02230
-0.13111 0.16167 -0.09744
0.04728 -0.04585 0.09618
-0.18423 -0.18261 0.02929
0.05060 0.16167 0.21240
0.20170 0.18580 0.02384
-0.11464 0.18580 -0.26364
-0.00329 0.09235 0.35471
0.07062 -0.04585 -0.21368
-0.10106 0.16167 -0.21345
-0.08012 0.16167 0.11359
0.14422 -0.06998 0.02739
0.13392 -0.06533 -0.15460
-0.16050 0.18580 -0.15241
-0.03391 -0.06998 -0.06902
0.16309 0.18580 -0.02107
-0.21059 0.17358 -0.07271
0.06053 -0.06998 -0.24361
0.15513 0.06426 -0.00932
0.05979 -0.06998 -0.08554
0.17211 0.16167 0.03664
0.10392 0.18580 0.28830
0.12047 0.18580 -0.06315
0.04492 0.16167 0.07339
-0.01554 -0.08587 0.35471
-0.09720 0.16167 -0.30538
-0.05121 0.18580 0.10174
-0.13889 -0.06998 0.11558
-0.16927 0.16167 -0.12987
0.02055 -0.04585 -0.08492
-0.03537 -0.05997 -0.33591
0.19267 -0.16482 0.00947
-0.08084 -0.06998 -0.09347
-0.01898 -0.15109 -0.39025
0.19267 0.09436 -0.00225
-0.11463 -0.06998 -0.20561
0.12876 0.18580 -0.15074
0.10416 -0.04585 -0.20968
-0.12145 0.18580 0.16929
-0.11043 -0.04585 0.08677
0.00943 0.18580 -0.08838
0.00301 0.18580 0.32206
0.01962 0.01160 -0.37942
0.12037 0.18580 -0.04448
0.02913 -0.04585 0.12837
-0.20680 0.16315 -0.10676
0.15222 0.16167 0.07793
-0.18448 -0.16093 0.02929
0.00106 -0.04585 -0.02467
0.00987 0.09756 0.39332
0.04774 0.18580 0.30342
0.13613 -0.04585 0.01517
0.17741 0.18580 0.11833
0.14172 0.16167 0.07613
0.07993 0.16167 0.38224
-0.19272 -0.01041 0.02170
0.09507 -0.06998 0.12026
0.13151 -0.04585 0.03522
0.00144 -0.06998 0.14745
0.00021 0.18580 -0.26058
0.20093 0.16167 0.07729
0.04335 0.18580 -0.34512
0.00301 -0.17791 0.35471
-0.15411 -0.05229 -0.00449
0.19267 -0.02709 0.01955
-0.15415 0.18580 0.08320
0.15406 -0.05613 0.01858
0.15368 -0.06050 0.04823
-0.00781 0.18580 -0.08194
-0.08714 0.18580 0.01063
-0.01943 0.16167 -0.34959
-0.12416 0.18580 0.24927
0.04623 -0.06998 0.02482
-0.13183 -0.06475 0.15814
0.06350 0.18580 -0.10870
0.05786 0.16167 -0.32698
-0.20269 0.16353 -0.13186
0.09909 -0.06849 -0.24112
-0.08062 0.16167 0.26784
0.04597 0.16167 0.28037
0.07301 -0.04585 0.22590
-0.14867 -0.04585 0.00611
0.00971 0.16167 -0.03944
0.08365 -0.04585 -0.15340
-0.00012 -0.04585 0.33326
-0.07877 0.18580 0.36339
0.11189 -0.04585 -0.10669
0.17749 0.16167 -0.03650
-0.14299 0.16167 -0.11674
-0.05749 -0.06998 0.02731
0.02772 0.18580 0.19961
0.18885 0.18580 0.15112
0.11631 0.18580 0.31588
0.08307 -0.04585 0.26266
0.14412 0.18580 -0.17300
0.14494 0.18580 0.22648
-0.16914 0.16167 0.11183
0.11239 -0.06998 -0.14549
0.05027 -0.04585 -0.04863
-0.11293 0.16167 -0.10046
-0.07236 0.16167 0.10655
-0.11116 -0.06998 0.06746
-0.15243 -0.06429 0.05301
-0.00388 0.13161 0.39332
-0.03324 -0.04585 0.26173
-0.05877 0.18580 -0.08685
0.01072 0.18580 -0.33555
0.05054 -0.04585 -0.11636
0.01023 -0.17646 0.39332
0.01962 -0.10867 -0.37819
0.07318 0.16167 -0.16895
0.01962 0.04327 -0.37522
-0.01208 0.07581 0.35471
0.19267 0.15979 0.02502
-0.09948 -0.06998 -0.02252
0.01189 0.00995 0.35471
0.08538 -0.04585 0.25443
-0.03559 0.18580 -0.21520
-0.06239 0.18580 -0.07554
0.09645 -0.06983 0.25450
-0.01898 0.00831 -0.35562
-0.15411 -0.17638 -0.00716
-0.00992 -0.04585 -0.26111
0.01962 -0.09747 0.37427
0.00836 0.10550 -0.39162
-0.10310 0.16167 0.27947
-0.01898 0.03707 -0.36731
0.04419 0.18580 0.39944
0.01546 0.07082 0.35471
0.01085 -0.06998 0.33774
0.02555 0.16167 -0.24213
-0.18256 -0.14857 -0.00932
-0.01025 -0.03916 -0.35301
-0.00643 0.16167 0.36357
0.05786 0.16167 -0.27646
-0.10369 -0.06312 -0.23875
0.08302 0.17923 -0.38377
0.06233 0.18580 -0.03602
0.12281 -0.06721 0.19910
-0.19041 0.06369 0.02929
0.15523 0.05506 0.02929
-0.00552 -0.06998 0.34487
-0.19272 -0.10572 0.01105
-0.01456 -0.06998 0.19030
0.13469 0.16167 -0.19549
0.16746 -0.07928 0.02929
-0.16656 0.16167 0.04467
-0.01877 0.13076 -0.35301
-0.18739 0.17986 0.19254
0.15406 -0.10940 0.00845
0.15406 0.05988 -0.00125
-0.07233 -0.06998 0.12984
-0.19272 0.01843 0.00332
-0.00906 -0.04585 0.24105
0.01962 0.00531 -0.37339
-0.00901 -0.09479 0.35471
0.03363 -0.04585 -0.21925
-0.15411 0.15108 0.02695
0.18154 0.03512 -0.00932
-0.12535 0.16167 0.18243
0.07493 0.18580 0.03921
0.17027 0.16167 -0.00843
-0.03995 -0.06998 -0.00879
-0.03760 0.18580 0.25420
0.01363 -0.04585 -0.12489
0.08392 -0.04585 -0.26286
-0.16601 0.18580 -0.09469
0.01337 0.18580 0.04429
0.04852 0.16167 0.37772
-0.04261 0.18580 -0.00416
0.06490 0.16167 0.02851
-0.12101 -0.04585 -0.00372
-0.09680 -0.04585 -0.05075
-0.18220 0.16167 -0.00617
0.01962 -0.03482 0.36278
0.18839 -0.08536 0.02929
-0.21202 0.17157 -0.04734
-0.09725 -0.06998 -0.03008
-0.02959 -0.06998 0.23147
0.16606 0.17930 -0.24464
0.16634 0.18580 -0.06880
0.19267 0.02579 0.00463
-0.19145 -0.12859 -0.00932
0.08807 0.18580 -0.07183
-0.10768 0.18580 -0.24904
-0.10853 -0.04585 -0.11766
-0.12801 -0.06998 -0.12438
-0.08510 -0.04585 0.17584
0.06707 -0.04585 -0.24444
0.19267 0.03495 0.01083
0.19053 0.16167 -0.15729
-0.03125 -0.04585 -0.02543
0.18839 0.06635 0.02929
-0.07655 0.16167 0.32248
-0.04437 0.18580 0.22557
-0.02720 0.18580 -0.30657
-0.13924 0.16167 0.10907
-0.09269 -0.06998 0.08242
-0.04668 0.16167 0.07117
0.07050 0.18580 -0.29858
0.10286 0.16167 -0.24741
0.19120 0.05336 -0.00932
-0.08196 -0.04585 0.26843
0.15406 -0.16326 0.02736
-0.12427 0.16167 0.31258
-0.16763 0.10401 0.02929
0.00334 -0.04522 -0.39162
-0.16440 -0.01274 0.02929
-0.00998 0.17669 -0.41172
-0.00677 -0.04126 0.39332
-0.01898 -0.07499 -0.35707
-0.12188 0.18580 0.21439
0.04634 0.16167 0.11644
-0.19272 -0.07697 0.01632
0.12097 -0.05741 0.20402
0.05031 -0.06998 -0.14150
-0.16371 0.18580 -0.05875
0.02541 0.16167 0.21949
-0.01750 -0.03441 -0.39162
0.04652 0.16167 0.03504
-0.06772 -0.04585 0.20859
-0.10983 0.18580 -0.23019
0.11883 -0.06462 -0.19837
0.00502 -0.06998 -0.13982
0.16094 0.16167 -0.14311
-0.14791 0.18580 -0.09240
-0.14371 -0.05889 -0.12951
-0.12336 0.18580 -0.10475
0.05543 -0.06998 -0.14679
-0.17905 0.16167 -0.05814
0.05354 -0.04585 0.14324
0.06817 0.18580 -0.13205
-0.15411 -0.02598 -0.00822
0.00590 -0.02538 0.39332
0.14645 0.16167 -0.06905
0.06253 0.16167 0.16629
0.04934 -0.06998 0.14583
-0.03787 0.16167 -0.22963
-0.02606 -0.04585 0.27386
0.02254 0.18580 0.02644
0.03786 0.16167 -0.29635
-0.12753 -0.05972 -0.18460
-0.00961 0.16167 0.15122
0.00982 0.16167 0.41051
0.06088 -0.04585 0.15758
0.00527 -0.04585 0.30841
-0.01661 -0.04585 0.22917
-0.03860 -0.04585 0.16680
-0.08934 -0.04585 0.17762
-0.00371 0.18580 0.37435
0.01969 -0.06998 0.30808
0.06556 0.16167 0.18204
0.02102 0.16167 -0.29328
-0.05830 0.16167 -0.19576
0.15406 -0.15209 0.01973
-0.03477 -0.06998 -0.26644
-0.01898 0.04963 0.36012
-0.06327 0.16167 -0.05443
0.04835 0.18580 0.09809
-0.00419 -0.06998 0.12228
0.00401 -0.04585 -0.03163
-0.00151 0.04554 -0.35301
-0.13992 -0.06142 0.12873
-0.14473 0.16167 0.26683
-0.16917 -0.06548 -0.00932
0.19267 -0.07471 0.01657
0.05498 0.18580 0.39769
-0.14698 -0.04873 0.09500
-0.00106 0.00568 0.39332
0.07902 0.16167 -0.34164
-0.02121 0.16167 -0.07609
-0.01898 -0.00760 -0.36880
-0.08634 -0.04585 0.08853
0.19267 -0.01191 -0.00250
-0.12653 -0.05158 0.17497
-0.17798 0.18580 -0.13944
0.09701 0.16167 -0.26403
-0.04571 -0.04585 -0.02630
-0.02334 -0.06998 0.22712
-0.18808 -0.16614 -0.00932
0.16739 0.04948 0.02929
-0.05331 -0.06998 -0.15346
-0.00357 -0.18580 -0.39027
-0.01522 -0.04585 -0.20393
-0.09308 0.16167 -0.23808
-0.05285 0.18580 0.31130
0.15406 -0.14611 0.00125
-0.01626 0.09143 -0.39162
-0.14599 -0.06081 -0.11811
-0.13050 -0.04585 -0.01007
0.06058 0.18580 0.00080
-0.01252 0.12652 -0.39162
-0.16943 0.18580 0.24011
-0.12713 0.18580 -0.02741
-0.01898 0.05937 0.38336
0.09119 0.18580 -0.01441
0.12294 0.16167 -0.16997
-0.07011 0.18580 0.20736
0.01962 -0.11388 0.36246
-0.00444 -0.04585 -0.06476
0.15068 -0.06998 -0.05235
0.00177 -0.06998 -0.02976
0.15406 0.15464 0.00949
0.01433 -0.09547 0.35471
0.17636 0.18580 -0.00069
-0.02779 0.18580 0.19873
0.14817 -0.05162 -0.09079
0.15406 -0.06302 0.00807
-0.03133 0.18580 0.09635
0.01542 -0.12719 -0.39162
0.06939 0.16167 -0.07630
0.00547 0.18580 0.05321
0.00808 -0.06998 -0.00968
-0.01270 0.18580 -0.20125
0.13460 0.16167 0.19982
0.08513 0.16167 -0.02244
-0.04258 0.16167 -0.05143
0.13028 0.16167 -0.25383
-0.07711 -0.06998 0.23883
0.09831 0.16167 0.17804
-0.04422 -0.04585 -0.00852
-0.10917 0.16167 0.22269
-0.01898 0.12521 0.35722
-0.04870 0.16167 0.22763
-0.02861 0.16167 0.29416
0.02258 0.18580 0.16831
0.18135 0.18580 -0.18233
-0.08056 -0.04585 0.03471
-0.01898 -0.00361 0.38579
0.10616 0.18580 -0.25694
0.12499 0.18580 0.13566
-0.00776 0.18580 0.34855
0.14997 0.18580 -0.22720
-0.03050 -0.06998 -0.13125
-0.15411 -0.01489 0.02744
0.09830 -0.04585 -0.03531
-0.11484 0.18580 0.34603
-0.01777 -0.06998 0.15532
-0.01391 0.18580 0.29675
0.03656 0.18580 0.38027
0.04789 -0.04585 0.09093
-0.08608 -0.04585 0.20457
-0.04021 0.16167 -0.13488
0.01245 0.08814 -0.35301
-0.13719 -0.06998 0.08023
-0.01561 0.16167 0.01888
0.01962 0.10012 -0.37701
0.01962 -0.17183 -0.35629
0.02043 -0.06998 0.12956
-0.09118 0.16167 0.22333
0.10333 0.16167 -0.12543
0.01962 -0.11983 -0.35450
-0.12313 -0.06998 0.07658
-0.01898 -0.14428 -0.38014
-0.05782 -0.06998 -0.17842
0.07020 -0.04585 0.08338
0.03335 -0.04585 -0.04975
0.10803 0.18580 -0.18564
-0.10496 -0.04585 0.09695
0.01962 -0.16247 -0.37320
0.09951 0.18580 0.06319
0.16122 0.16167 0.04052
-0.09092 0.16858 -0.37625
-0.11525 -0.04585 0.11734
-0.19272 0.10560 0.01750
-0.01898 0.10553 0.35530
-0.05270 0.16167 -0.09018
0.05074 -0.04585 0.28533
-0.14371 0.16167 0.23347
0.01962 0.14566 0.36875
-0.15411 0.03761 0.00553
-0.05173 -0.06939 -0.31710
0.01328 -0.04585 -0.17662
-0.11765 -0.04585 0.19093
-0.14734 0.16167 -0.20682
-0.00814 0.16167 -0.34139
0.08032 -0.06998 0.26076
0.17880 -0.18580 0.02692
-0.12243 0.18334 -0.33529
-0.09132 0.18580 0.18929
0.01962 -0.05372 0.35711
-0.17018 -0.18488 -0.00932
-0.07455 0.16167 0.34502
0.09338 -0.04585 0.18227
-0.10047 0.18580 -0.03164
-0.03276 -0.04585 -0.17156
0.01777 -0.07071 0.35471
-0.00237 -0.07729 0.35471
-0.03661 -0.06998 -0.30028
0.00185 0.18580 -0.19234
-0.14712 0.16167 -0.13369
0.07989 0.16167 -0.24712
-0.07344 0.16167 -0.06306
0.02744 0.18580 0.08351
0.01962 -0.03827 0.35890
0.14211 -0.06674 0.13713
-0.03075 -0.04585 -0.23943
-0.01898 -0.01409 -0.35726
-0.06561 0.18580 0.27981
0.15819 0.16167 0.09287
-0.11782 0.18580 -0.12554
0.01852 -0.06998 0.04966
-0.02988 0.18580 0.33824
0.12358 -0.06998 -0.10772
-0.09834 -0.06998 -0.09350
-0.11065 -0.06998 -0.18934
0.01170 0.18580 -0.34999
-0.06355 0.16167 -0.25100
-0.04959 -0.04585 0.10958
-0.12618 0.16167 0.05461
-0.05020 -0.04585 -0.24092
-0.00230 0.16167 -0.10599
0.14402 -0.05477 -0.11406
0.05930 0.16167 0.39328
-0.06102 0.16167 -0.34449
0.15318 0.18580 0.09783
0.17801 0.16167 0.11384
-0.06830 0.16167 -0.31239
0.11310 -0.04585 0.16833
-0.02421 0.16167 -0.39222
-0.01898 0.01933 0.36695
0.04852 0.18580 0.12619
0.06488 0.18580 0.12530
0.11061 0.18580 0.13830
0.11506 0.16167 -0.27723
-0.11451 -0.06998 0.16848
-0.01416 -0.03408 0.39332
-0.20529 0.16167 0.08611
0.01962 0.14751 0.39235
-0.01313 -0.02020 -0.39162
-0.15181 0.18580 -0.24664
-0.01101 -0.09910 0.39332
-0.11124 0.18580 -0.18976
0.15528 0.16167 0.06386
-0.01898 -0.04617 0.36211
0.01995 -0.04585 0.20351
0.05900 -0.05990 -0.30593
-0.09438 -0.06998 0.24414
-0.14877 -0.06998 -0.05806
-0.16211 0.16167 0.02797
0.00145 -0.06998 0.27423
0.01379 -0.04585 0.26739
0.14217 0.18580 -0.00181
0.04603 -0.06998 -0.18834
0.06455 0.16167 0.08443
0.01962 0.03854 0.35562
-0.01241 -0.18152 0.39332
-0.15273 0.18580 -0.23135
-0.10740 0.16167 0.10107
0.10946 -0.04585 0.04490
-0.16296 -0.06218 0.02929
-0.01898 0.14621 -0.36081
0.03137 0.16167 -0.15863
0.04294 0.18580 -0.05894
-0.15108 0.16167 -0.18860
-0.02107 -0.04585 -0.31794
0.18306 0.00420 0.02929
0.11863 -0.06998 -0.05015
0.09402 -0.04585 0.04963
-0.06736 -0.04585 0.07172
-0.07230 -0.04585 -0.27054
-0.03854 -0.06998 -0.17712
-0.15411 0.05788 0.00083
-0.15411 -0.07066 -0.00275
0.14996 0.17621 -0.28222
-0.01898 0.11065 0.36983
0.18442 0.18580 0.09976
0.01791 0.16167 -0.07420
-0.10364 0.16167 -0.09835
-0.19272 -0.01144 -0.00809
-0.08114 -0.04585 -0.14058
0.00230 0.16167 -0.33332
0.07054 -0.04585 -0.05694
-0.01552 -0.15014 0.39332
-0.01898 -0.16367 0.38366
0.19073 0.07042 -0.00932
-0.09073 0.18580 0.30520
-0.11688 -0.06998 0.02647
-0.00096 -0.14133 -0.39162
-0.17711 -0.12158 0.02929
-0.12259 0.16167 0.06608
0.06268 -0.06998 -0.12283
-0.00652 0.06600 0.35471
-0.17471 -0.18580 -0.00465
0.00777 0.08535 -0.35301
0.11379 0.18580 0.11211
-0.19272 0.08909 -0.00594
0.13292 -0.06998 -0.09265
0.03144 0.18580 0.14070
0.09480 0.18580 0.13240
0.12603 0.18580 -0.02976
0.02750 -0.06998 -0.08158
0.01962 0.14102 0.38621
-0.01898 0.15111 0.38796
-0.17670 0.16167 -0.10529
0.05858 -0.06998 0.06845
-0.03202 0.18580 -0.09828
-0.19272 0.13281 -0.00689
-0.03710 -0.06998 -0.07257
-0.00404 0.10744 -0.35301
-0.00536 0.16167 -0.32626
0.03820 -0.06998 -0.33020
0.04723 0.18580 0.14952
-0.04261 0.18580 0.06812
-0.01898 0.09441 0.37237
-0.09246 -0.04585 0.20901
-0.00918 0.16167 -0.39981
0.06886 -0.04585 0.10962
-0.17983 0.01790 0.02929
0.01363 -0.04585 -0.29630
0.07397 -0.04585 0.20357
0.05249 -0.04585 0.18523
-0.10225 -0.06998 -0.22168
0.01031 -0.13405 0.39332
0.02160 -0.06998 -0.02968
-0.19272 0.03148 0.01409
0.09968 0.16167 -0.06957
0.15406 0.13949 0.02367
0.16338 0.18163 0.25367
-0.07681 0.16167 -0.14406
0.09246 -0.06998 -0.25287
0.03610 -0.06998 -0.01245
-0.17120 0.18580 -0.02873
0.00810 -0.13894 -0.39162
0.01962 -0.10709 0.37211
0.15406 -0.07953 0.00663
0.16997 0.16167 -0.02741
0.02084 0.16167 0.38031
-0.07118 0.16167 -0.27563
0.01156 0.18580 0.23975
-0.10467 0.16167 0.09105
-0.05322 -0.06998 0.13469
0.03800 -0.04585 -0.27821
-0.00049 0.08369 0.35471
-0.00034 0.16167 -0.29117
0.12393 0.16167 -0.07262
-0.05133 -0.06998 0.01690
-0.03553 -0.04585 0.24202
0.06228 0.18580 0.34132
0.04289 -0.06998 -0.25845
-0.10558 0.16167 0.02176
-0.03240 0.16167 0.27386
0.13895 0.16167 -0.22363
0.18952 0.16167 -0.07203
0.17943 -0.06985 0.02929
-0.01898 0.12908 0.38169
-0.13282 -0.06998 -0.06011
0.14037 0.18580 -0.25029
0.01740 -0.04585 0.17358
-0.10341 -0.04585 0.18007
-0.07673 0.18580 -0.31512
0.01674 -0.12445 0.39332
0.03161 0.18580 -0.36638
0.03923 0.16167 -0.06249
-0.01694 0.18580 0.03988
0.01962 0.15781 0.36780
0.11308 0.17671 0.35274
0.10683 0.18580 0.16020
-0.07737 -0.06998 0.11321
0.02582 0.16167 0.03240
0.02273 0.18580 0.27867
0.08278 0.18580 0.36410
-0.09275 -0.04585 -0.00147
-0.06881 0.18580 0.32588
0.21046 0.17152 -0.05147
-0.00147 -0.09263 -0.39162
-0.15083 -0.06998 0.05237
-0.05733 -0.04585 0.16561
-0.17043 0.03294 -0.00932
0.05362 0.18580 -0.13722
-0.05897 -0.04585 -0.06369
-0.04816 0.16167 0.36772
0.12356 0.18580 -0.28518
-0.00021 0.18580 -0.20085
-0.08631 -0.06998 -0.02128
0.03555 -0.06998 0.06152
0.11634 0.16167 0.33845
-0.00968 -0.04585 0.00547
-0.01391 -0.03362 0.35471
0.01067 0.04308 -0.39162
0.01962 -0.01291 -0.37464
0.14336 0.16167 -0.12712
-0.14102 0.18580 0.18370
0.12003 0.18580 0.04583
-0.10782 0.18580 -0.18325
0.17399 0.18580 -0.16431
-0.07812 0.16167 0.06918
-0.00820 0.03788 -0.39162
0.19267 0.08189 0.00094
0.00765 0.16167 -0.05801
0.15824 0.18580 -0.21794
-0.12535 0.16167 -0.08142
0.01168 0.18580 0.37167
-0.11728 -0.04585 0.15121
0.19267 0.06263 0.01938
0.12133 -0.06998 0.06347
0.07465 -0.06998 -0.08055
0.07259 -0.06998 0.21034
-0.05823 0.16167 -0.24593
0.07212 0.18580 0.26740
-0.02430 -0.04585 0.11786
-0.15234 -0.05680 0.05438
0.00551 -0.06998 0.00237
-0.08535 -0.04585 0.22563
0.12486 0.16167 0.13544
-0.12218 0.16167 0.16062
-0.00046 0.16167 0.26373
-0.04316 -0.06998 -0.02254
-0.16866 0.05001 -0.00932
0.09229 0.18580 0.19145
-0.12074 -0.06998 0.09528
-0.02398 0.16167 0.31381
-0.07350 0.16167 -0.26468
-0.00893 0.16266 -0.41181
-0.04220 0.18580 -0.26398
-0.19051 0.00566 0.02929
-0.10091 0.18580 -0.19987
0.17085 0.16167 0.20489
0.02736 -0.06998 -0.29339
0.07509 0.16167 0.12137
0.07108 -0.06998 0.00148
0.01874 0.16167 0.06263
-0.00415 -0.08724 0.35471
-0.15436 0.16167 0.27537
0.07176 -0.04585 0.04938
-0.05303 0.16167 0.31820
0.16582 0.09403 -0.00932
0.01485 -0.18513 0.35471
-0.01893 -0.05458 0.35471
-0.12581 -0.06445 0.17703
0.04160 -0.06998 -0.00696
0.01962 -0.14182 0.38038
-0.18595 0.18580 -0.01174
-0.09127 0.18580 0.37192
0.03314 0.18580 0.23345
-0.01898 -0.13717 -0.38928
-0.07237 0.18580 0.39064
-0.13508 0.16167 0.12971
-0.05021 0.18580 -0.39100
-0.00193 -0.04585 0.17428
-0.03804 0.18580 0.39461
0.15693 0.18580 -0.14312
0.01373 -0.04585 0.15819
0.05729 -0.04585 0.07907
-0.01792 0.16167 -0.39374
0.03937 0.16167 -0.06749
-0.01351 -0.06527 0.35471
0.19267 -0.04649 0.00879
0.15579 0.16167 0.24081
-0.11861 0.18580 0.14437
-0.02237 0.18580 0.18395
0.09807 -0.06998 -0.15791
0.10890 -0.06998 0.22106
-0.04087 -0.06998 0.19662
-0.10961 -0.06998 0.11438
-0.01898 0.03173 0.36537
-0.09005 -0.04585 -0.21390
-0.07762 0.18580 -0.33847
0.09690 -0.06998 -0.04058
-0.00877 -0.06998 -0.29395
0.00058 -0.04585 -0.18200
0.06331 0.16167 0.07130
0.00832 -0.06998 -0.25875
0.19267 0.08970 0.02083
0.10166 0.18580 0.00733
-0.04831 -0.04585 -0.02075
-0.19272 -0.17069 0.00475
-0.04542 0.18580 0.02721
0.06371 -0.06998 -0.06847
-0.10039 0.18580 0.31671
0.12916 -0.04585 -0.01388
0.00397 -0.06141 -0.35301
-0.16660 0.18580 -0.02709
0.03446 -0.06998 0.15003
0.06624 0.16167 -0.05559
0.00149 0.10508 0.39332
-0.11152 0.18580 -0.01137
0.11167 0.18580 0.12970
0.11511 0.18580 -0.03182
-0.10730 0.16167 -0.22244
0.07082 0.18580 -0.16139
-0.00311 -0.18580 -0.35663
0.19470 0.18580 0.11191
0.11376 0.16167 -0.26170
-0.16792 0.11503 0.02929
0.01962 -0.10519 0.35873
-0.02816 0.18580 0.27543
-0.16259 -0.11138 0.02929
-0.01982 0.18580 0.25567
-0.15580 0.16167 0.08528
-0.00025 -0.06998 -0.01892
-0.12568 0.16167 0.03014
0.10940 0.16167 -0.00932
-0.18941 0.16167 -0.14367
0.05030 0.16167 0.02990
-0.01058 0.16167 -0.28184
0.06632 0.18580 0.36496
-0.16033 -0.13332 0.02929
0.04055 -0.06998 0.23453
-0.04863 -0.06998 0.27519
-0.00547 -0.09148 0.39332
-0.02566 -0.06998 0.04232
0.12490 -0.06998 -0.14171
0.00888 0.01790 0.39332
0.04078 -0.06998 0.17356
0.01962 -0.01597 -0.35911
-0.07962 -0.04585 0.06755
-0.08765 0.16167 -0.00638
-0.01898 -0.03122 -0.37311
0.01441 -0.04585 0.07303
-0.18103 0.17190 -0.21407
-0.08831 0.18580 -0.06503
-0.02507 0.16167 -0.33564
0.15406 0.15901 -0.00087
0.19267 -0.16695 0.02296
-0.06470 -0.06998 -0.03704
-0.05895 -0.04585 -0.02165
-0.05523 0.16167 0.14577
-0.16506 -0.17941 -0.00932
0.01962 0.04776 0.38533
0.06869 0.18580 -0.13805
0.15406 0.07774 0.01625
0.14560 -0.06672 -0.10672
0.13645 0.16167 -0.01539
-0.12222 0.18580 -0.27227
-0.06414 -0.04585 0.03385
-0.00112 0.18580 -0.36778
-0.07061 0.16879 0.39238
0.01324 0.16167 -0.39779
0.00630 -0.15424 0.39332
0.13552 -0.06998 -0.10888
-0.01898 0.08759 0.37544
0.08351 -0.04585 0.17181
0.00877 0.14103 0.35471
-0.19272 -0.04260 0.02449
-0.01898 0.05164 -0.35614
0.17042 0.16167 -0.07790
0.00957 -0.04585 0.16406
0.21211 0.17000 -0.02312
-0.15411 -0.14927 0.01520
-0.01898 -0.03238 0.38758
-0.04062 0.18580 0.03749
-0.01898 -0.08094 0.37868
-0.15035 -0.04945 0.07184
-0.03901 -0.06998 0.17168
0.13136 0.18580 -0.19164
-0.21131 0.16577 -0.06419
0.04369 0.16167 -0.33852
-0.09597 -0.04585 -0.08099
-0.00373 0.00049 0.35471
-0.03161 0.18580 0.32770
-0.01898 -0.15871 0.36665
0.01962 -0.02115 -0.38037
0.06530 0.16167 -0.33286
0.07701 -0.04585 0.23036
0.00556 0.15599 0.39332
0.13118 0.16167 0.28737
0.03794 -0.04585 0.33451
-0.16486 -0.03519 0.02929
-0.00854 0.16167 -0.08938
-0.13867 0.18580 -0.04777
-0.01898 -0.15408 -0.37233
0.01962 -0.16717 -0.35670
-0.02510 0.16167 0.33925
-0.15185 0.18580 0.18501
0.16988 0.18191 -0.23493
-0.00374 -0.17478 0.39332
0.17914 0.16733 -0.20862
-0.18233 0.18580 -0.09731
0.03308 -0.06998 -0.07911
0.04532 -0.06998 0.10008
0.06517 0.16167 -0.30433
-0.07284 0.16167 0.13503
0.08343 0.16167 -0.34081
0.14292 -0.06998 -0.01388
0.02960 0.16167 -0.02760
0.07375 0.18580 -0.25639
0.15888 0.16167 -0.11054
-0.12727 0.18580 -0.18837
-0.00482 0.04960 0.39332
-0.01054 0.16167 0.32746
-0.13104 0.18580 -0.02295
0.15169 -0.05904 -0.06287
0.14826 0.16167 -0.10882
0.16631 0.16167 0.12686
-0.20219 0.18580 -0.05198
-0.15364 0.18580 -0.05711
-0.11639 -0.06998 -0.07127
-0.06512 -0.04585 0.17719
-0.01370 -0.04585 0.06638
-0.15502 0.16167 -0.22355
-0.06173 0.16167 0.23644
0.09869 0.16167 0.00234
-0.15032 0.16167 -0.12455
-0.19272 -0.14619 0.00517
0.11355 0.16167 0.11425
-0.19835 0.16167 -0.09935
-0.05068 0.18580 0.35652
0.04666 0.16167 -0.39108
-0.02036 -0.04585 -0.34755
0.00278 0.16167 0.07521
0.07440 0.16167 -0.26805
0.13256 0.18580 0.09516
0.15227 0.16167 -0.14611
-0.12343 0.18580 0.22453
-0.04334 0.18580 0.37942
-0.07276 -0.06998 -0.08179
-0.12991 0.16167 0.00132
0.16912 0.16167 0.15225
0.13165 0.18580 -0.16629
-0.07264 -0.04585 0.03012
0.10797 0.16167 -0.24126
0.08624 0.16167 -0.08177
-0.05877 0.16167 -0.27739
0.10442 0.16167 -0.14717
0.14743 -0.04585 -0.02359
0.18965 -0.13032 0.02929
0.01962 0.11030 0.37023
0.06888 0.18580 0.05527
0.01962 0.15504 0.39025
-0.01138 0.16167 0.19597
-0.01123 -0.12484 0.39332
-0.11875 -0.04585 0.01676
-0.01086 -0.08366 0.39332
0.03241 0.18580 0.19008
0.03081 -0.05137 0.34302
-0.09118 -0.04585 0.18324
0.10440 -0.04585 -0.05358
-0.15411 -0.07196 0.00529
0.15338 0.16167 -0.16786
0.00474 0.00673 0.39332
0.15917 -0.18580 0.01103
0.00588 0.00849 -0.35301
-0.12906 -0.06998 0.09732
0.04902 0.18580 0.31699
-0.09733 0.18580 -0.08584
-0.19272 0.12915 0.02080
0.02062 -0.06998 0.18159
0.01694 -0.00495 -0.39162
-0.01926 0.18580 -0.24989
0.17839 0.17363 0.21316
0.10545 -0.06998 -0.08917
-0.11623 0.16167 -0.12004
0.19267 -0.02394 -0.00781
-0.13181 -0.06998 -0.11063
0.00879 0.15008 -0.35301
-0.04914 -0.05884 -0.32021
-0.09897 0.18580 -0.12714
0.11520 0.18580 -0.19814
-0.01898 -0.14978 0.38836
0.15358 -0.05324 -0.03641
-0.00212 -0.11962 0.39332
0.13547 0.16167 -0.07260
-0.06569 0.16167 -0.36449
0.01293 0.16167 -0.01048
0.01962 0.00725 0.37893
0.06720 0.16167 0.33812
0.06553 0.18580 -0.01683
0.05137 0.18580 0.01611
-0.01898 -0.05245 -0.38949
-0.06518 0.18580 0.24767
0.01741 0.09968 0.35471
-0.09935 -0.06998 0.15249
0.03510 0.16167 -0.37295
-0.06671 -0.04585 -0.14849
0.04398 0.18580 -0.17888
0.10835 0.18580 -0.06196
-0.01898 -0.12369 0.38405
-0.13543 -0.04585 0.05124
0.14152 0.18580 -0.13246
0.20405 0.16167 0.10264
-0.11776 -0.04585 0.13955
-0.01898 0.14731 0.37648
0.07267 0.16167 -0.19520
-0.14738 0.18580 0.07805
0.18566 0.08878 -0.00932
-0.06352 0.17619 0.39660
0.19267 -0.09426 0.02620
-0.16202 0.16167 0.05650
-0.05933 0.16167 -0.23977
-0.07777 0.16167 -0.16526
-0.01311 -0.18580 0.37535
-0.02560 0.16167 0.38913
-0.14135 0.18154 0.30460
0.06959 0.16167 -0.27641
0.10454 -0.04585 -0.00590
0.03168 0.16167 0.19956
-0.13110 0.16167 0.26272
-0.00807 -0.04585 0.14371
0.10963 0.16167 -0.07816
-0.12810 -0.06998 0.06768
0.00425 0.08075 0.39332
0.13731 0.18580 -0.04497
0.01664 -0.01957 0.35471
-0.04697 -0.04585 0.12151
-0.09094 -0.04585 0.20321
-0.02709 0.16167 0.35461
-0.07961 0.18580 -0.11117
-0.03604 0.18580 0.38261
0.00782 -0.04585 -0.30878
-0.11959 0.16167 0.22225
-0.01898 -0.15380 0.39312
0.15017 0.18580 0.15721
0.18368 0.18580 -0.11947
0.07184 -0.04994 -0.28730
0.15406 0.10500 0.02333
0.01229 -0.06998 -0.10124
-0.21202 0.18320 -0.01463
0.10365 -0.06998 -0.20153
0.02657 0.18580 0.32405
0.02272 -0.04585 0.24829
0.01962 0.14193 0.37949
-0.15118 0.16167 0.00403
-0.20861 0.17175 -0.09370
0.08433 0.16167 0.37423
-0.15206 0.17708 0.28353
-0.17989 0.18580 -0.01713
0.12413 0.16167 -0.03445
0.03277 0.18580 0.13580
-0.04724 -0.04585 0.07341
0.00018 -0.07141 0.39332
0.01901 0.02033 0.35471
0.15378 -0.06617 -0.02521
-0.00427 0.03412 0.39332
0.06232 0.18580 -0.22840
-0.15411 -0.14104 -0.00450
-0.04803 -0.06998 -0.00143
-0.05356 0.16167 -0.31024
0.10343 -0.06998 0.03798
0.17104 -0.01005 0.02929
-0.01497 -0.06998 0.09166
-0.15629 0.18580 0.00479
0.19499 0.16167 0.00143
-0.08518 -0.06119 -0.27100
-0.01927 -0.04585 0.19533
-0.15555 -0.01664 -0.00932
-0.11262 -0.06998 -0.02296
-0.06191 -0.06998 0.02440
0.03009 0.16167 -0.19917
-0.06182 -0.06998 0.07236
-0.01898 -0.11126 -0.37821
-0.02556 0.16167 -0.16863
0.00689 0.16167 -0.01287
0.01962 -0.04683 0.38657
-0.15411 -0.06602 0.00118
0.00804 -0.04585 0.17543
-0.05075 -0.06998 0.24244
0.15887 -0.06342 0.02929
-0.15411 -0.02990 0.01827
0.01962 -0.01678 0.38544
-0.16407 0.16167 -0.01956
-0.17275 0.18580 0.19600
-0.04457 0.16167 -0.11670
-0.13702 -0.04585 -0.10271
-0.15950 0.05689 -0.00932
0.07499 0.18580 -0.30717
0.11213 0.16167 0.31767
-0.01898 0.13996 0.39188
0.03806 -0.04585 -0.11231
-0.03162 -0.06156 -0.33982
0.07581 0.18580 -0.19263
0.08993 -0.06998 0.25342
-0.07407 -0.06998 -0.27681
0.14172 0.16563 0.30185
-0.06648 -0.04585 -0.26302
0.09456 0.18580 -0.21282
0.05960 -0.06998 -0.28607
-0.19268 0.04660 0.02929
0.15406 0.05359 0.01856
-0.03715 0.18580 0.09452
0.08014 -0.05998 -0.27462
-0.00653 -0.05747 0.35471
-0.01898 -0.07793 -0.38910
-0.01898 -0.06532 0.35478
-0.08831 0.18580 0.09265
-0.03836 0.16167 -0.10396
-0.02557 -0.06998 0.32614
-0.00222 0.16167 0.38094
0.01849 -0.06998 -0.18268
0.16454 0.16167 -0.22489
0.00261 -0.06998 0.07781
-0.10063 -0.04585 0.23514
0.14405 -0.04585 -0.05128
0.15138 0.17400 0.28153
0.15285 0.18580 0.14080
0.01428 -0.03897 -0.35301
-0.01558 -0.06998 -0.13308
0.11872 0.18580 0.22197
-0.00420 0.16167 0.34502
0.06487 0.16167 0.11477
-0.02063 -0.04585 0.29946
-0.11484 0.17595 0.34956
-0.19591 0.18580 0.11700
-0.05071 0.18580 0.28047
0.06798 0.18580 -0.06833
-0.10264 0.18580 -0.34053
0.05111 -0.04585 -0.23881
0.14821 -0.04585 0.07343
-0.00860 0.02417 -0.35301
-0.09929 0.18580 0.02859
-0.01708 0.01992 -0.35301
0.01947 0.08538 -0.35301
-0.04375 -0.06998 0.23832
-0.02855 0.16167 0.05623
-0.09692 0.18580 -0.26812
-0.10215 -0.04585 0.11964
-0.10554 0.18580 0.20542
-0.15456 0.16167 0.12264
-0.01898 0.14273 0.38396
0.14403 0.16167 0.08509
-0.08426 -0.04585 -0.15952
0.04001 -0.04585 0.25132
0.04551 0.16167 0.38658
0.10322 0.18580 -0.24139
0.07725 -0.04585 -0.18725
-0.04411 0.17059 -0.40494
0.11021 -0.06998 0.16056
0.15322 -0.05977 0.06216
-0.18904 0.16167 0.15485
-0.13847 -0.05833 0.13447
0.10134 -0.04585 0.01290
-0.12954 -0.04585 -0.14541
-0.05770 -0.04585 0.28397
-0.01898 0.00693 -0.37361
0.19341 0.18580 -0.06279
-0.21046 0.16796 -0.07418
0.20572 0.17337 -0.09464
0.00786 -0.04121 0.39332
-0.01201 -0.06998 -0.10380
-0.00863 0.18580 0.14383
-0.12738 0.18105 -0.32743
0.00423 -0.06998 -0.21279
-0.13213 -0.04585 -0.07758
0.05691 0.16167 0.09609
-0.05748 -0.04585 0.20908
-0.14320 0.16167 0.26222
0.17229 0.18580 -0.08794
-0.08129 0.18580 -0.08655
-0.10421 -0.06998 0.12218
0.15406 0.10829 0.01892
-0.03529 -0.04801 0.33599
0.00153 -0.06998 0.11624
-0.01898 0.00615 0.38017
-0.10799 -0.06998 -0.09756
-0.05732 0.18580 0.32132
0.04241 -0.05778 -0.32715
0.06457 -0.06998 0.25159
0.03953 0.16167 -0.07773
0.13982 0.18580 0.21683
-0.05440 0.18580 -0.10904
0.05408 0.16167 -0.37355
-0.01898 -0.09034 -0.36751
-0.08786 -0.04585 -0.00673
-0.01829 -0.02276 -0.39162
0.01246 0.16167 0.38096
0.01962 -0.05165 0.37517
0.02825 -0.04585 0.15204
0.00422 -0.18580 0.37428
-0.11002 -0.04585 -0.15742
0.04405 -0.06998 0.07034
0.19174 -0.03114 0.02929
0.01962 0.00908 -0.36934
-0.17945 0.18580 -0.06222
-0.01841 -0.06419 -0.35301
0.08121 0.16167 -0.33193
0.19267 -0.12366 0.01436
0.17285 -0.13983 0.02929
-0.08140 -0.06998 -0.00311
0.05895 -0.04585 0.12550
0.18077 0.16167 0.01952
0.11306 -0.04585 0.19296
-0.18820 0.18580 0.11925
0.09834 -0.04585 0.00912
0.11875 -0.04585 0.13233
-0.01165 -0.14455 -0.39162
-0.00175 0.16167 -0.06509
0.08774 0.18580 0.36645
0.01641 0.16167 0.29571
-0.03784 -0.04585 0.13383
-0.08563 0.16167 0.09977
0.13251 0.18580 -0.20718
-0.08182 0.16167 0.24646
-0.10839 0.16167 -0.02308
-0.00072 -0.18580 0.38101
0.06376 -0.04585 -0.04656
-0.01898 -0.14506 0.37198
0.03916 0.18580 -0.39989
-0.08502 0.18580 -0.09128
0.01962 -0.16708 -0.37888
-0.02884 -0.06998 0.24904
0.01513 0.18580 -0.11927
0.15406 -0.02280 -0.00491
-0.06485 0.16167 0.24798
0.14150 0.16167 0.29642
-0.18179 -0.11946 -0.00932
-0.14807 0.17895 -0.29099
-0.17534 -0.11663 -0.00932
0.01962 -0.03802 -0.35417
0.07902 0.16167 0.13958
-0.00944 0.14638 0.35471
0.01342 0.15659 0.35471
-0.04310 0.16167 0.07879
-0.17520 -0.12281 -0.00932
0.01396 -0.05508 -0.35301
-0.15411 -0.16218 -0.00272
-0.01318 0.18580 0.09840
0.00465 -0.06998 0.04460
0.14443 -0.06998 0.08715
-0.04830 0.18580 -0.21052
-0.21136 0.17544 0.05403
0.14962 0.18580 0.02220
0.12576 0.16167 -0.14911
-0.18534 0.18043 -0.20088
0.02959 -0.04585 -0.13895
0.00060 0.18580 -0.10696
0.04955 -0.04585 -0.07813
0.01337 0.14502 -0.35301
0.03854 0.16167 0.09382
-0.01898 -0.08336 0.36834
0.12001 0.16167 0.25392
-0.00853 0.16167 -0.19649
-0.11971 0.18580 0.27692
0.03829 0.18580 -0.10156
-0.02728 0.18580 0.37768
0.03587 -0.06998 0.12563
0.03536 0.18580 -0.26755
-0.07675 0.18580 -0.16214
-0.01045 0.08298 0.39332
0.18401 0.09988 -0.00932
-0.00234 -0.04585 -0.19446
-0.08457 0.16167 -0.16485
-0.11480 0.18580 0.09789
-0.18048 0.16167 -0.20410
-0.11082 0.17398 -0.35287
0.11881 -0.05187 -0.19842
-0.14968 0.18539 -0.28773
-0.19272 0.07875 0.02648
-0.02786 0.16167 0.18226
-0.01087 -0.06998 0.14037
0.08893 -0.06998 0.08505
-0.14386 -0.04585 -0.12659
-0.12833 -0.04585 0.11145
0.14163 -0.06149 -0.12518
0.04826 -0.05602 0.32360
0.18709 -0.18127 -0.00932
-0.12297 -0.06998 -0.16526
0.19267 0.08273 -0.00847
0.00741 -0.04585 -0.00057
0.20965 0.16841 -0.06194
-0.19272 -0.05174 -0.00481
-0.18661 0.12459 0.02929
0.04020 0.18580 0.12872
0.18701 0.18580 0.08611
-0.13713 0.18580 -0.08544
-0.13243 0.16167 0.02318
0.13606 -0.06998 -0.00921
-0.01107 -0.15177 0.39332
0.01962 0.08919 0.37130
0.02828 -0.04585 -0.05630
0.20716 0.18286 -0.08383
0.01159 -0.06998 -0.30597
-0.03886 0.16167 -0.16405
-0.14983 0.18580 0.25810
0.03230 -0.04585 0.27429
-0.05109 -0.06998 -0.16594
0.02940 -0.06998 -0.21031
-0.15411 -0.03919 -0.00702
-0.12135 -0.04585 -0.08851
-0.14061 0.18580 -0.07335
-0.14059 0.18580 0.13714
0.00914 -0.12261 0.35471
0.16750 -0.08711 -0.00932
0.10047 0.18580 -0.27627
0.00057 -0.02805 0.39332
-0.07397 0.16167 0.19820
0.01497 -0.06998 0.31905
-0.01888 0.16167 -0.36320
-0.00128 0.11868 -0.39162
-0.14740 0.16167 0.13656
0.05444 0.16167 0.12380
-0.19179 0.03673 0.02929
-0.07871 0.18580 0.09075
-0.01424 -0.06998 -0.05371
0.03963 -0.06998 0.05684
0.14303 0.18580 0.10271
-0.21202 0.16514 0.02109
0.09953 0.16167 -0.29741
-0.05592 -0.06998 -0.27085
0.01962 -0.12711 -0.35626
0.00674 -0.09247 0.39332
-0.09965 0.16167 -0.36011
-0.01403 -0.04585 0.00153
-0.09737 -0.06998 -0.00145
0.15795 0.16167 -0.13243
0.08111 0.16167 -0.28852
0.01836 -0.04585 -0.32765
-0.06469 -0.06998 0.21530
-0.06323 0.18580 0.04349
0.14363 -0.04585 0.11555
-0.01259 0.16167 -0.10887
-0.06529 0.16167 0.03455
0.21088 0.17939 0.04775
0.09829 -0.06998 0.08650
0.01962 -0.15813 0.37505
0.00133 0.18580 0.06403
0.21227 0.17397 0.01845
0.02982 0.16167 0.36553
-0.01898 0.13878 0.35550
0.16284 0.11416 0.02929
0.06473 -0.06998 -0.21253
0.18099 0.16167 0.20002
0.09331 0.17327 0.37552
-0.05757 0.16167 -0.38461
0.00491 0.16167 -0.07335
-0.11222 0.16167 0.25658
-0.01898 0.04775 0.39064
-0.08852 0.16167 0.14981
-0.12766 0.16167 0.15014
-0.13430 0.16167 -0.13909
-0.05474 0.18580 -0.36541
0.07428 0.16167 0.36334
0.20772 0.16167 -0.07532
-0.03037 0.16167 0.39898
-0.21202 0.16443 -0.00212
-0.02290 0.16167 0.12385
0.10686 0.18580 0.21296
-0.02983 -0.06998 -0.22952
0.05616 0.16167 0.00382
0.01962 0.10874 -0.38124
-0.12834 -0.04585 0.15182
0.11559 -0.06998 0.20102
-0.01467 -0.04585 0.20501
-0.01384 -0.12973 0.39332
0.10384 -0.06998 0.12832
0.14902 0.18580 -0.19283
-0.01395 -0.04915 0.39332
-0.11540 0.18580 -0.23847
0.09011 -0.04585 0.22667
0.02592 0.17700 -0.40996
-0.17306 0.18580 -0.08999
0.17820 0.04456 -0.00932
-0.01427 -0.07447 0.35471
0.17366 0.10471 0.02929
-0.08537 0.18580 -0.28892
-0.02485 -0.06998 0.03084
0.03717 0.16167 0.17285
0.04325 0.18580 0.18260
0.16974 0.18580 -0.19279
0.10019 -0.04585 0.08201
0.16744 0.18580 -0.22745
0.00757 -0.06998 -0.04633
0.08248 0.16167 -0.36400
-0.03086 0.16167 0.20517
0.03494 0.18580 -0.30550
-0.06792 0.16167 -0.12923
-0.10803 0.18482 0.35858
0.02257 -0.06998 -0.09899
0.13977 -0.06998 0.01255
-0.00360 0.03058 0.35471
0.08336 -0.06998 -0.22083
0.01272 -0.04585 0.19429
-0.06164 0.16167 0.37135
0.05138 0.16167 0.20377
-0.17635 -0.00298 -0.00932
-0.12675 -0.04585 0.08023
0.12966 0.16167 0.22548
-0.03707 -0.06998 0.29080
-0.10709 -0.06998 -0.10262
-0.18444 0.12890 -0.00932
-0.10115 0.18580 -0.30777
-0.05174 0.18580 -0.08593
-0.16235 -0.04450 -0.00932
-0.01242 -0.04585 -0.03665
-0.15379 -0.04585 -0.04389
0.13112 0.18580 0.19070
0.02532 -0.04585 0.05122
-0.17778 0.18580 0.10056
0.08490 -0.06998 -0.08358
-0.10090 0.16167 0.03358
0.17283 -0.00967 -0.00932
-0.19272 -0.17417 0.02251
-0.01898 -0.17295 0.37829
0.01962 -0.00574 0.38711
0.03846 0.18580 0.02551
0.19802 0.17541 0.14012
-0.00908 0.05335 0.35471
-0.03495 -0.06998 0.18138
0.10214 0.18580 0.02507
0.18584 0.16167 0.12605
0.03507 0.16167 0.37471
0.07332 0.18580 -0.23633
0.03779 0.16167 0.22587
-0.05279 -0.06998 0.06425
-0.00424 0.18580 -0.10655
0.01132 0.09907 0.35471
-0.06021 0.16167 0.31947
0.13944 -0.04585 0.13440
0.02796 0.16167 -0.22154
0.13828 0.16167 -0.04265
-0.02568 0.16167 -0.23589
0.13550 -0.04585 0.05238
0.10336 -0.06998 0.09172
0.04672 0.18580 0.24688
0.18339 0.18580 -0.07014
-0.11628 0.18580 -0.20227
-0.17602 0.17530 0.22693
-0.15516 0.16167 0.19070
-0.09065 -0.06998 -0.16194
0.12551 -0.04585 -0.08378
0.10382 0.18580 -0.26925
0.17570 0.16167 -0.20294
0.10757 -0.06998 0.00518
0.04677 0.18580 -0.04151
0.17198 -0.14981 -0.00932
-0.03961 0.16167 -0.32268
0.18084 0.03474 0.02929
0.00716 -0.09750 -0.39162
0.15406 -0.17559 -0.00117
-0.12095 -0.04585 0.05731
-0.05396 0.16167 0.15482
-0.09580 -0.06998 0.06278
-0.00158 -0.06998 -0.10882
-0.16223 -0.09419 -0.00932
0.03936 0.18580 0.33475
-0.18816 0.13320 -0.00932
0.02415 0.16167 0.23506
0.00254 0.01108 -0.39162
-0.06905 0.16167 -0.08251
0.04608 0.18580 -0.27731
-0.01898 -0.09497 0.37306
0.05471 -0.04585 0.03428
-0.09060 -0.04585 0.09656
0.03829 0.18580 0.13297
-0.16350 0.18580 0.24004
-0.00816 -0.09533 0.39332
-0.00799 -0.06998 0.30345
-0.10123 -0.06998 -0.09932
0.07892 0.18580 -0.01133
-0.14578 -0.06998 0.07266
0.02286 -0.04585 0.02493
-0.18659 -0.00400 -0.00932
0.01827 0.18580 0.01792
-0.06776 -0.06998 -0.06573
0.15418 -0.07617 -0.00932
0.19035 0.16167 -0.01424
0.01962 0.12559 0.39329
0.02266 0.16167 0.21077
-0.02712 0.16167 -0.36107
-0.10669 0.18580 -0.31579
0.07956 -0.04585 -0.12622
-0.00953 0.18580 -0.02353
0.13515 0.16167 -0.02545
-0.11449 0.18580 0.17273
0.16067 0.18580 0.18288
-0.15882 0.17194 0.26951
-0.03967 -0.06998 -0.26856
-0.00324 0.06139 0.39332
0.07136 -0.04585 0.18666
-0.15857 0.13155 0.02929
0.01962 -0.03171 0.37338
-0.01536 0.15600 0.35471
0.03289 -0.06998 0.23817
0.05806 0.18580 0.05730
-0.02717 0.16167 0.24017
0.12319 0.16167 0.17241
-0.09065 0.18580 -0.28648
0.08301 0.18580 -0.21988
-0.10019 0.16167 0.07079
-0.04402 0.18580 0.39131
-0.01317 -0.06998 -0.20459
-0.00294 0.18580 -0.06000
0.06047 -0.04585 -0.02303
0.03160 -0.06998 0.11276
0.09740 0.18580 -0.24796
-0.12484 -0.04585 0.01631
-0.07573 -0.04585 -0.02860
0.05480 0.18580 -0.10474
-0.03867 0.18580 -0.29114
-0.05393 -0.06998 -0.28218
-0.11641 0.18580 0.11637
0.07656 -0.06998 0.03301
-0.04404 0.16167 0.35717
0.00878 0.02790 0.39332
-0.20021 0.16325 0.14113
-0.08612 0.16167 0.29210
-0.11737 -0.04585 -0.00927
0.16903 0.18580 -0.07382
0.13475 -0.06998 0.08086
-0.09916 -0.06998 -0.08098
-0.00065 0.18580 -0.05243
0.19308 0.18042 -0.15940
-0.02876 -0.06998 -0.31769
-0.00207 -0.06336 0.35471
0.01153 0.06668 0.35471
0.01353 -0.06998 -0.06810
0.11519 -0.04585 -0.12126
0.01926 0.18580 -0.16834
0.09084 0.16167 0.06699
0.15487 0.18580 -0.03409
0.15406 -0.04694 0.01127
-0.01898 -0.08787 -0.38641
0.07008 0.16167 0.33057
0.13974 0.18580 -0.01671
-0.01815 0.18580 -0.40130
-0.01217 0.16167 -0.14218
-0.11308 -0.06998 0.20312
0.01809 -0.06998 -0.16205
-0.08900 0.16167 0.05474
-0.04048 -0.04585 -0.29847
0.01671 -0.06998 -0.26912
-0.00089 0.16167 0.36214
-0.10027 0.17160 0.36835
-0.20884 0.16167 -0.06268
-0.08075 0.18580 0.01831
-0.13277 0.18580 0.16101
-0.13419 -0.06998 0.06188
0.02981 -0.06642 0.34407
-0.08454 -0.06998 -0.03263
0.08870 -0.06998 -0.25984
0.16658 0.02944 -0.00932
-0.16105 0.18580 -0.23441
0.02134 -0.04585 -0.09160
-0.01898 -0.05844 0.38274
0.15223 0.16167 0.19955
0.07284 -0.04585 0.09625
-0.19724 0.17115 0.15547
0.19267 -0.11951 0.00576
0.13631 -0.04585 -0.11676
-0.02499 0.16167 0.03543
0.00383 0.18580 -0.34563
-0.04894 -0.04585 -0.03356
-0.00261 -0.14378 -0.35301
0.18928 0.18580 0.12892
-0.15411 -0.04969 0.02253
0.09649 0.16167 -0.29315
0.04747 -0.06998 0.12658
0.11410 0.18580 0.04245
0.11630 0.18580 -0.14401
0.00001 -0.14921 0.35471
-0.01424 -0.14585 0.39332
0.12058 -0.06998 -0.17010
0.01009 0.18580 0.07285
0.06480 -0.06998 -0.14940
-0.04188 0.18580 -0.02177
0.01618 0.07697 -0.39162
-0.06527 0.18580 0.30133
0.01998 0.16167 -0.06657
0.06910 0.18580 -0.30361
0.02111 -0.06998 0.06279
-0.05174 0.18580 0.35058
0.15695 0.03056 0.02929
0.06340 -0.06998 0.08497
-0.07412 -0.04585 -0.17471
-0.01136 0.18580 -0.01521
-0.16951 0.17653 0.24427
-0.20116 0.18580 0.02226
0.00558 -0.08101 0.39332
0.05357 0.16167 -0.13860
-0.07430 0.18580 -0.10944
-0.02201 0.16167 0.06205
-0.00681 0.16167 -0.07998
-0.13661 0.18580 0.28195
-0.03726 -0.06998 0.06903
0.15198 0.18580 -0.18884
-0.02810 0.18580 0.36395
-0.05717 0.18580 -0.21338
-0.00019 0.07081 -0.39162
-0.00645 -0.01261 0.39332
-0.14348 -0.04585 0.01657
-0.11433 0.18580 -0.32531
0.00682 0.16167 -0.17601
0.01403 0.18580 0.17777
0.14129 0.18580 0.01257
0.01707 0.18580 -0.30123
-0.11405 0.16167 0.03604
-0.01211 -0.06998 -0.32065
0.06202 -0.04585 0.02459
-0.01898 -0.14805 0.38141
0.01962 -0.09577 0.38017
0.09913 0.18580 -0.16294
0.19267 -0.10951 0.02069
0.15327 -0.05435 0.06160
0.10638 0.18580 0.09731
-0.04054 -0.04585 -0.04375
-0.13671 -0.05089 -0.15653
-0.01164 0.18580 -0.21222
0.12183 -0.04585 0.03898
0.20938 0.18465 0.06666
0.06938 0.16167 -0.18190
-0.08259 -0.04585 0.17023
-0.10430 0.16167 0.31833
0.17387 0.16167 0.21870
0.01313 -0.04585 -0.11191
-0.10605 -0.04585 -0.14075
0.19267 0.02570 0.01605
0.09105 -0.04585 -0.03919
-0.07475 0.18580 0.32789
-0.02870 -0.04585 -0.04713
-0.00945 0.18580 -0.31988
-0.02030 -0.04585 -0.28374
-0.11324 0.18580 -0.04533
0.01962 0.15829 0.35495
0.00613 0.13285 -0.35301
0.08606 -0.05902 0.27181
-0.11083 0.18580 -0.14893
0.12936 0.18580 -0.21670
-0.04378 0.18580 -0.35206
0.19267 0.15732 -0.00742
0.12552 0.16167 -0.31049
-0.00344 -0.04585 -0.00080
0.21166 0.16485 0.03618
0.01777 0.16167 0.06773
0.15914 -0.17050 0.02929
-0.15784 -0.18580 0.01681
-0.01403 -0.15828 0.35471
0.04558 0.16167 -0.27719
0.02642 -0.04585 -0.04240
-0.02517 0.16167 -0.18738
0.00174 0.12911 0.39332
0.07963 0.18580 0.13714
-0.16897 0.16167 0.09877
0.01962 -0.17938 0.37024
-0.16846 0.16167 0.01425
-0.09658 -0.04585 0.20216
0.01465 0.15209 0.35471
0.00717 -0.04585 -0.26298
0.10696 0.16167 -0.06434
0.01838 0.16167 0.36151
0.05432 -0.06998 0.17700
0.03136 0.16167 -0.26152
-0.03500 0.16167 -0.21011
-0.04099 0.16167 0.18590
-0.20747 0.16812 -0.10190
0.18128 0.18580 0.13998
0.09892 -0.04705 0.24990
0.03309 0.16167 -0.13700
-0.02659 -0.04585 -0.03243
-0.19639 0.17897 -0.16132
-0.04728 0.16167 -0.28013
-0.08770 0.18580 0.24109
0.02239 0.18580 0.21131
0.18233 0.04195 -0.00932
0.04718 -0.04585 0.15240
0.03870 0.18580 -0.26401
0.12500 0.16167 -0.27695
-0.16438 0.16167 0.07536
0.02118 0.16167 0.26647
-0.10486 0.16167 -0.24582
0.07039 -0.06998 -0.16950
0.00650 0.14383 0.39332
-0.01096 0.01934 0.35471
0.05828 -0.06998 0.25397
0.08997 0.16167 -0.25363
0.19267 0.07587 -0.00244
-0.01898 -0.17419 0.38641
-0.01383 -0.06998 0.02359
0.04053 0.16167 -0.00142
-0.01898 0.13664 0.36609
0.05478 0.18580 0.28631
-0.06213 0.18580 0.09815
-0.11386 -0.04585 0.09053
-0.14092 -0.04585 0.00418
0.06550 0.18580 -0.35903
0.06003 0.18580 0.25752
-0.06439 0.18580 -0.31161
-0.07747 -0.06998 -0.26206
0.11757 0.18580 -0.01306
0.03214 -0.04585 -0.30005
0.00611 0.16167 0.18558
-0.08161 0.18580 0.04511
-0.00367 -0.06998 -0.25036
0.01329 -0.06998 -0.03925
0.06832 0.16167 0.04484
0.01962 0.01540 0.37412
0.13860 0.16167 0.11442
-0.20730 0.16573 0.09876
-0.00761 0.16167 -0.21628
0.08965 0.16167 -0.02803
0.11884 0.16167 0.21268
-0.13675 -0.06998 -0.09556
0.12785 -0.06998 0.09268
0.14039 -0.05559 -0.13096
0.05595 0.16167 -0.07409
0.17902 0.16167 -0.18722
-0.01898 -0.13099 0.35827
-0.09395 -0.06998 0.22751
0.09450 0.16167 0.11166
-0.12781 0.18580 0.15708
0.01962 -0.13567 0.39296
-0.07092 0.16167 0.28159
-0.01321 0.18580 0.34376
0.01834 -0.06998 -0.04064
0.12117 -0.06998 -0.02452
0.01962 -0.09014 0.39130
-0.16820 0.18580 -0.15402
0.10245 0.18580 -0.18469
-0.07273 0.16167 0.12082
0.19824 0.18580 0.03700
-0.06500 0.16167 0.20428
-0.00284 -0.07578 0.39332
0.05844 0.18580 -0.13167
0.09945 -0.04585 -0.04477
-0.06074 0.16167 -0.21997
-0.01898 0.03728 0.37842
-0.01452 -0.06336 0.39332
-0.20431 0.16167 0.11886
-0.17420 0.16561 -0.23275
0.08905 -0.06998 0.13171
-0.14666 0.18580 -0.12144
0.07852 0.18580 0.04826
0.12675 0.18580 -0.26242
0.08058 0.16167 -0.25805
-0.10056 0.16167 -0.33955
0.13720 0.18580 -0.00001
0.01962 -0.14720 -0.35778
0.01962 -0.05532 -0.37980
0.00667 -0.04585 -0.03667
0.12001 0.18580 0.32238
0.10051 0.18580 0.17338
0.10015 0.18580 0.09992
0.09424 -0.04585 -0.11700
-0.04670 -0.04585 0.24391
0.09156 0.16167 0.02850
0.15532 0.16167 0.11690
0.15406 0.08889 0.00754
0.12474 0.18580 -0.27498
0.11917 -0.04585 -0.18464
-0.14043 0.16167 -0.22868
0.14280 -0.05598 0.13410
0.01861 -0.12521 0.35471
-0.04471 -0.04585 -0.04780
0.20272 0.17273 -0.11347
0.19267 0.06849 0.01083
0.07459 -0.04585 -0.08321
0.01699 0.18580 -0.04239
-0.07128 -0.04585 0.12203
0.16754 0.18580 0.17698
0.03576 -0.04585 -0.17602
-0.17499 0.16167 -0.17722
-0.04954 0.18580 -0.00172
-0.05625 0.18580 -0.04038
0.01824 -0.04585 -0.30609
0.05947 0.16167 0.28817
0.08349 -0.06998 -0.21364
-0.15557 0.18580 -0.19918
-0.10977 0.18580 -0.22104
-0.03704 0.16167 0.26211
0.17465 -0.09867 -0.00932
0.03654 0.18580 0.16417
-0.09462 -0.06998 -0.23350
0.01962 -0.09111 0.35562
-0.09559 0.16167 0.30211
-0.06144 -0.06998 0.24601
0.10596 0.16167 -0.21897
-0.15414 -0.06857 -0.01143
0.01962 -0.03125 -0.35900
-0.14749 0.18580 -0.05953
0.01962 -0.07707 0.38723
0.00311 0.18580 0.24474
0.09584 0.16167 0.08793
0.06292 -0.06998 0.06022
0.08533 0.16167 0.16526
0.00047 0.18580 -0.36251
-0.09481 0.16167 0.07253
-0.10409 0.18580 0.34076
-0.10927 0.18580 0.23029
0.19560 0.16167 -0.09154
0.12468 -0.04585 -0.05106
0.17146 -0.07717 -0.00932
-0.07114 0.18580 -0.26632
-0.18539 0.16167 -0.09302
0.11530 -0.06139 0.21685
0.19218 -0.04646 -0.00932
0.04127 0.16167 0.09797
0.17896 -0.08114 -0.00932
0.21222 0.18432 -0.01819
0.15887 0.16167 -0.21634
0.02697 0.18580 -0.25296
-0.14593 0.18580 0.13879
0.04661 0.16167 -0.04412
0.10241 -0.05397 0.24340
-0.07646 -0.06998 -0.21543
-0.15403 0.18580 -0.00248
0.15366 -0.06700 -0.03172
0.03841 -0.06998 -0.19368
0.02671 -0.06998 0.08862
0.01962 0.09697 0.38755
0.00320 -0.08807 0.39332
-0.07509 0.18580 0.01088
-0.00756 -0.11256 0.35471
0.03758 0.16167 0.11943
-0.17652 -0.14717 0.02929
-0.19272 0.09116 0.01410
-0.14556 0.18580 0.15937
0.10347 0.18580 -0.01682
0.01962 -0.08878 0.36855
-0.10623 0.16167 -0.28075
0.01962 0.14728 0.37823
0.01962 0.07525 0.35680
0.01097 0.16167 -0.38568
-0.05229 0.16167 0.18279
-0.07359 -0.04585 0.27630
0.04486 0.18580 -0.11737
-0.01855 0.16167 0.38929
0.02546 -0.06998 -0.23035
0.01035 -0.18580 0.38513
0.00521 -0.06227 0.35471
0.19990 0.16167 0.01115
0.16610 0.16167 0.03141
-0.18308 0.18580 0.14044
-0.01898 -0.06371 -0.39114
-0.05972 0.16167 0.13121
0.04141 -0.06998 -0.24883
-0.10337 -0.04585 -0.18385
0.02424 -0.06998 -0.01876
-0.01898 0.06832 -0.38793
0.01926 0.16167 0.16348
0.15408 -0.01394 0.02929
0.01452 0.16167 0.34100
0.13051 0.16167 0.04422
-0.05430 -0.04585 -0.25098
0.08819 0.16167 0.36485
0.03529 0.16167 -0.08987
0.05945 0.16167 -0.06667
-0.01264 0.09270 0.35471
-0.12498 -0.06205 -0.19182
-0.01898 0.03139 0.37450
-0.17112 -0.15612 -0.00932
-0.15411 0.08472 0.00001
0.12253 0.18580 0.12164
0.16447 0.14048 0.02929
0.06163 -0.04585 0.24345
-0.04525 0.18580 0.36159
-0.19272 0.14621 0.02179
0.09704 -0.05998 -0.24516
