-0.12050 0.29172 0.04076
-0.01974 0.29172 -0.07451
0.01856 -0.27863 -0.27113
-0.04428 0.25817 -0.08236
-0.13695 0.25740 0.01235
-0.17506 0.28003 0.31230
-0.00010 0.27279 -0.24343
-0.01990 0.29172 0.18531
0.16720 0.25561 -0.26005
-0.05485 0.29172 0.33119
0.18025 0.26661 0.03059
0.00166 0.28975 0.09869
0.09198 0.29172 0.33084
0.13421 0.28881 0.24433
-0.02522 0.25740 -0.11527
-0.21965 0.24779 -0.31088
0.15581 0.25561 -0.21969
-0.17506 0.27670 0.15335
-0.16250 0.29172 0.21631
0.13421 0.27644 -0.14126
-0.00010 0.26827 0.06504
0.05130 0.25740 -0.02751
0.17663 0.28427 0.30432
-0.00010 0.28344 0.24175
-0.08670 0.26127 0.16757
0.09513 -0.27117 0.27113
0.04408 0.28163 -0.22032
-0.04428 0.26787 -0.00871
-0.11034 0.25740 0.15897
-0.19405 -0.24546 0.27113
0.17680 0.25740 -0.22396
-0.09399 0.29172 0.04814
-0.12508 0.29172 -0.14264
0.14565 0.25740 0.31991
-0.16826 0.25740 -0.04366
-0.07459 0.27490 -0.34155
0.18025 0.26573 0.31306
-0.00437 0.29172 -0.19870
0.11023 0.27587 0.33769
0.17846 0.03469 -0.27388
-0.18913 0.10856 0.27113
0.13421 0.26916 0.30894
0.07488 0.29172 0.10684
0.21965 -0.15904 0.30124
0.14472 0.25740 -0.30878
-0.13265 0.27322 -0.29612
-0.13088 0.27426 0.17661
0.09836 0.25740 -0.13603
0.21624 -0.01876 -0.27113
-0.13265 0.26522 -0.33265
0.13421 0.25904 0.07157
-0.01778 0.29172 -0.14189
0.17846 -0.06922 -0.29909
0.00895 0.29172 -0.25615
-0.00077 0.29172 0.21877
-0.11331 -0.25053 -0.28821
-0.04901 0.26702 -0.34155
0.15718 0.25740 0.26815
-0.17846 -0.08342 -0.29372
-0.09986 -0.26463 0.27113
0.17846 0.11459 0.29442
-0.08670 0.27253 -0.25040
-0.04428 0.26817 0.03718
0.17846 0.04344 0.29839
-0.02946 0.29172 0.05208
-0.05403 -0.29172 -0.30633
0.02538 0.27842 -0.33827
0.09003 0.28732 0.28901
0.13421 0.28020 0.13013
0.21012 -0.03621 0.27113
0.17846 -0.12008 0.31189
0.04180 -0.26869 0.31231
0.15935 0.25561 -0.30484
0.17929 -0.02901 0.27113
-0.17487 0.25561 0.06915
0.01953 0.29172 -0.31048
-0.05349 0.29172 -0.12618
-0.08670 0.29148 -0.03088
0.21965 -0.15825 0.29520
0.05454 0.29172 -0.27614
-0.16713 0.25740 -0.21423
-0.17506 0.28372 0.03628
-0.13088 0.27788 0.04546
0.02740 0.25740 0.33384
-0.17506 0.27255 -0.03379
0.17663 0.26606 0.14383
0.14695 0.25740 0.12997
-0.04428 0.28056 0.10675
-0.21499 -0.15302 0.27113
-0.20786 0.15160 -0.31231
0.03582 -0.25179 -0.27113
0.19059 -0.17371 0.31231
0.15640 0.25740 -0.12152
0.17663 0.28639 0.31870
0.08826 0.28027 -0.30042
-0.04889 0.29172 0.10917
0.12322 0.29172 -0.16303
0.04585 0.27715 0.02181
-0.13088 0.28306 -0.15800
-0.12184 0.29172 0.02120
0.19720 0.17220 0.27113
-0.16451 0.25740 0.10863
-0.12641 0.29172 -0.11923
-0.08847 0.28543 0.13058
-0.07093 0.25740 -0.02976
-0.20261 0.26875 -0.28871
-0.19075 -0.20985 -0.31231
-0.07877 0.25740 0.15852
0.19376 -0.16493 0.31231
0.07144 0.25740 -0.06767
-0.17506 0.27281 0.25525
0.16889 0.29172 -0.02566
-0.15146 0.25740 0.23354
0.12376 0.29172 -0.02685
-0.13265 0.25815 0.16798
0.08826 0.28096 0.04737
-0.08847 0.26555 -0.00953
0.17846 0.09231 0.30791
-0.10748 0.25561 -0.33785
-0.07155 0.25740 -0.30178
0.04408 0.28169 0.14622
-0.21965 0.09843 -0.30083
-0.01328 -0.29172 -0.29126
0.09003 0.28072 0.22951
-0.17846 0.22136 0.30241
-0.02381 0.25740 0.22454
-0.21965 0.13279 -0.30377
0.10235 0.29172 0.10533
0.06120 0.29172 -0.04777
-0.13265 0.27040 0.27137
-0.12830 0.29172 -0.24144
-0.18454 -0.20195 -0.27113
0.01639 0.25740 -0.13173
-0.18756 -0.09568 0.31231
0.09003 0.29158 0.23738
-0.13088 0.27375 -0.17748
-0.15932 0.29172 0.11974
-0.13884 -0.25053 -0.28690
0.10291 0.29172 -0.32920
-0.17846 0.09643 -0.29491
0.10544 0.26497 0.33769
-0.21634 -0.17595 0.27113
0.07719 0.25740 -0.23044
-0.16999 0.29172 -0.32881
-0.02964 0.29172 0.27150
-0.01168 0.25740 0.33439
-0.17846 0.25409 0.27443
-0.16042 0.29172 -0.27779
0.08720 0.29172 -0.06447
-0.13566 0.25740 -0.30832
0.16115 0.25561 -0.11007
0.04408 0.28314 0.25788
0.15823 0.25740 0.18644
-0.19951 -0.21579 0.31231
0.09300 -0.29172 0.28991
-0.11863 0.29172 0.15152
0.13948 0.25740 0.33064
0.17846 -0.05033 0.30855
0.16986 0.25740 0.00320
0.10369 0.25740 0.00747
-0.08847 0.27797 -0.26070
0.14005 0.25864 0.33769
0.05459 0.25740 -0.23286
0.16123 0.25561 -0.24922
0.15911 0.25561 0.16566
0.00166 0.26079 -0.02535
-0.16111 0.25740 -0.20786
-0.04428 0.28462 0.19816
0.07429 0.25740 0.19521
0.11620 0.25740 -0.14441
-0.08594 0.29172 -0.08537
-0.17846 0.15761 0.29916
0.20650 0.18964 0.27113
-0.13265 0.26589 0.31002
-0.17846 0.09881 -0.31143
0.11767 0.25740 0.34042
-0.20583 0.14573 0.31231
-0.05675 0.29172 -0.22273
0.10769 0.29172 -0.11767
-0.13088 0.27833 0.14283
0.19640 0.16792 -0.27113
-0.00464 0.25561 0.31522
0.09932 -0.25526 -0.31231
0.21080 -0.23311 -0.31231
0.21020 -0.29172 0.28374
0.08604 0.29172 -0.17275
-0.05554 0.29172 0.22352
0.13244 0.28330 -0.17971
-0.00010 0.26950 0.22014
-0.13899 0.29172 -0.09709
-0.08847 0.26429 -0.03564
-0.00010 0.27446 0.16653
-0.08670 0.28004 -0.24250
0.20347 0.07930 0.31231
0.16530 0.29172 -0.25148
0.13244 0.25944 0.30723
0.17080 0.29172 0.11515
0.15302 0.29172 0.06372
-0.03248 0.29172 0.22801
0.16037 0.29172 -0.07696
-0.17506 0.28105 0.07478
0.01720 0.25740 0.33392
-0.02275 -0.26574 0.31231
0.13244 0.26185 0.30124
0.18025 0.26771 -0.13320
-0.16608 0.28134 -0.34155
-0.20630 -0.11769 0.31231
-0.18025 0.27447 -0.00231
0.17846 -0.06486 -0.28654
0.20302 0.19735 0.31231
-0.21965 -0.05378 0.27392
0.13421 0.26135 -0.31508
0.21965 -0.15501 0.28238
0.08676 0.29172 0.07980
0.17504 0.25740 0.11776
0.09003 0.26626 0.01938
-0.04070 0.25740 0.09764
-0.04428 0.27047 0.32558
0.19508 -0.04784 -0.31231
0.03583 -0.28477 -0.31231
-0.04252 0.27383 -0.30968
-0.17506 0.28526 0.08166
-0.04428 0.27154 0.28181
-0.17506 0.28946 0.09539
-0.13265 0.28038 -0.24887
0.17266 0.25740 0.17547
-0.17506 0.27429 0.00466
-0.21965 0.10308 -0.31118
-0.18210 0.18899 -0.31231
0.17087 0.25740 -0.17114
-0.17506 0.27543 -0.31017
0.11742 0.25740 -0.26891
0.13421 0.26084 0.05860
-0.17846 -0.17436 0.30505
0.09003 0.29144 -0.12622
-0.04428 0.26108 0.04874
-0.17457 0.25561 -0.32868
0.16445 0.25740 -0.05496
0.17846 0.19765 0.28947
0.05941 0.25740 0.13222
0.13476 0.25740 0.19969
0.04408 0.27265 -0.06259
-0.04252 0.28169 -0.05366
0.12182 -0.28636 0.31231
0.13244 0.27661 -0.33209
0.09805 -0.25053 -0.28265
0.14337 0.29172 0.15952
-0.10745 -0.25318 -0.27113
0.08778 0.29172 -0.29522
0.00166 0.28734 -0.26264
-0.07915 0.25740 -0.26431
0.19262 -0.24413 0.27113
0.21570 -0.27651 0.27113
-0.17846 -0.11805 0.30131
0.04585 0.27205 0.14139
0.14769 0.29172 0.13452
0.02524 0.26871 0.33769
-0.04081 0.25740 0.32003
-0.13958 0.25740 -0.16526
0.17663 0.28258 0.06420
0.03677 0.25740 0.05728
0.02791 0.29172 0.15223
0.04408 0.28884 0.25317
-0.08847 0.26633 -0.22626
-0.08670 0.27060 0.27688
-0.08670 0.28652 -0.07812
-0.21336 0.19196 0.27113
0.16997 0.25740 0.14535
-0.11148 -0.29135 0.31231
0.07218 0.28270 0.34155
-0.13088 0.28075 0.21279
0.21965 -0.15739 -0.27448
0.15260 -0.25082 -0.31231
0.09003 0.29164 -0.25610
0.08826 0.28266 -0.20113
-0.05804 0.25740 -0.22437
0.13244 0.26207 0.02314
-0.08847 0.28351 0.15268
0.21227 0.02971 0.27113
0.09698 0.25740 -0.30142
-0.15994 0.25740 0.26282
-0.00745 0.25740 -0.00807
0.20889 -0.12193 -0.27113
-0.09028 -0.27528 0.31231
0.18476 0.25564 -0.31231
0.09310 0.29172 -0.23207
-0.17690 0.25561 -0.28275
-0.10744 0.27892 -0.34155
-0.21091 0.02790 -0.31231
-0.11296 0.25740 -0.08635
-0.00933 0.29172 0.09966
-0.19762 -0.09080 0.31231
-0.16327 0.25740 0.15922
-0.13265 0.26275 0.32689
-0.08670 0.28558 0.24849
-0.18286 -0.24470 -0.27113
-0.18501 0.27598 -0.27113
0.16092 0.25740 0.30088
-0.17506 0.26773 -0.33635
-0.01791 -0.28568 -0.27113
0.12651 0.25740 0.31778
-0.07849 0.25740 0.28934
0.08826 0.28131 -0.02391
-0.15231 0.25561 -0.15063
-0.18266 -0.03049 0.27113
0.14856 0.29172 -0.19340
-0.13265 -0.28578 -0.31231
-0.16651 -0.29172 0.30966
-0.17928 0.18540 0.31231
-0.21925 -0.25161 -0.31231
0.21965 -0.28032 -0.30589
0.16565 0.25740 0.21130
0.00166 0.27500 -0.31239
0.05965 0.25740 0.26295
-0.14261 -0.29172 -0.29081
-0.19474 0.11554 -0.27113
0.21938 0.14201 -0.27113
0.17350 0.29172 -0.03079
0.00166 0.26539 0.00936
0.13244 0.28072 -0.09963
-0.11718 -0.29172 -0.30143
-0.03220 0.29172 0.31426
0.17846 -0.14707 0.31129
-0.08583 0.29172 -0.31527
0.21965 -0.28845 0.30360
0.21965 0.21760 -0.30536
-0.02645 0.25740 0.31489
0.17873 -0.29172 0.27748
-0.13088 0.26124 0.05810
-0.08270 -0.25053 0.29119
0.04408 0.26406 0.32104
0.08826 0.27508 -0.17450
0.17663 0.26196 -0.28782
0.17990 -0.24133 -0.27113
-0.13373 0.25740 0.29947
-0.08600 0.29172 0.16800
-0.20676 0.16597 0.27113
0.09768 0.25740 0.31442
-0.15580 0.29172 0.19782
0.06503 0.29172 -0.01733
0.04941 0.29172 0.18804
-0.21965 0.00007 -0.29363
-0.20267 -0.10030 -0.31231
-0.01754 0.29172 0.29705
-0.20991 0.26389 -0.30931
-0.21078 -0.00958 0.31231
-0.11489 0.29172 -0.24624
0.18103 0.07385 0.31231
-0.15556 0.25561 0.10879
0.06099 -0.25053 -0.27428
0.08361 0.25740 -0.30795
-0.04252 0.28668 0.20536
0.03066 0.29172 0.09625
-0.21349 -0.07568 -0.31231
0.01423 0.25740 0.02092
-0.13088 0.27425 -0.30296
0.00239 0.25740 -0.33464
0.13244 0.27768 -0.15433
0.17846 0.07518 0.27833
0.19732 -0.18013 0.31231
0.17846 -0.22023 0.28821
0.01398 0.29172 0.13026
-0.17957 0.15302 -0.31231
0.04408 0.27146 0.21191
0.17846 0.06109 -0.30692
0.21965 -0.26446 -0.27730
-0.17890 0.12692 -0.27113
-0.13853 0.25561 0.32682
-0.21377 0.04928 0.27113
0.13421 0.28445 0.10945
0.19561 -0.03141 0.27113
-0.00010 0.26682 0.19508
0.16928 0.25740 -0.19604
0.07810 0.25740 -0.20691
0.08398 0.25561 -0.32497
-0.16684 0.25561 -0.26314
0.04226 0.29172 -0.12203
0.00166 0.27662 -0.27110
-0.17858 0.25561 -0.26115
0.04296 0.25740 0.06358
0.18025 0.25866 -0.06898
0.18824 -0.24430 0.31231
0.13244 0.26582 -0.20603
-0.21965 0.17131 0.27880
-0.04615 0.25740 0.12219
0.16946 -0.26293 -0.31231
-0.19427 0.27432 0.31001
-0.17072 0.25740 -0.18849
0.19973 -0.25748 0.27113
-0.19414 0.00433 -0.31231
0.15389 0.25740 0.11338
0.05073 0.29172 -0.20649
0.19360 -0.20844 0.27113
-0.14704 0.25740 -0.32269
0.10151 0.26706 -0.34155
-0.15300 0.25740 0.33761
-0.18025 0.27471 -0.07087
0.15930 0.25740 0.20433
-0.04428 0.25818 0.10476
-0.12244 0.29172 0.06755
-0.03494 0.25740 -0.21888
-0.21965 -0.03409 -0.28279
0.18025 0.27928 0.22601
-0.17991 0.24939 0.27113
-0.17506 0.27757 -0.16706
-0.19834 0.23564 -0.27113
0.10296 -0.25785 0.27113
0.17846 0.20763 -0.27353
0.01050 0.25740 0.08581
0.12039 -0.29172 0.29460
0.04027 0.25740 0.08926
0.13244 0.25963 -0.08674
0.15485 0.25561 0.14110
0.15256 0.29172 -0.02494
-0.04252 0.27903 -0.23005
0.00166 0.27167 -0.13842
-0.17846 -0.24896 -0.29358
0.03188 0.29172 0.11933
-0.19252 0.12865 0.31231
0.16666 0.25740 0.08207
-0.06970 0.25561 0.34110
0.04839 -0.25053 -0.28212
-0.18025 0.26901 -0.09890
0.17663 0.28067 -0.25219
-0.08847 0.28957 0.33016
0.08948 0.25659 -0.31231
0.04289 0.29172 0.00400
-0.15251 -0.26222 -0.27113
-0.14243 0.29172 0.30401
0.04956 0.25740 -0.19563
0.02910 0.25865 -0.33827
-0.04252 0.26493 0.08057
0.06922 -0.25053 0.28957
-0.03391 0.25740 -0.05205
0.21965 0.00214 -0.27139
0.17846 -0.05504 -0.30236
0.04408 0.26421 -0.04149
-0.01151 0.29172 -0.10173
0.09228 0.25561 0.32597
-0.08847 0.25905 0.05069
-0.08010 0.29172 -0.26056
-0.00054 0.25740 0.19057
-0.08847 0.25985 0.30338
0.09003 0.28871 0.05708
-0.08670 0.26936 -0.23471
-0.10360 0.25740 0.12088
-0.17506 0.26520 -0.12157
0.20947 0.04069 -0.27113
0.17846 0.04971 0.27862
0.08826 0.27053 0.24218
0.12363 0.29172 0.30117
0.13631 0.25740 -0.05358
-0.17435 -0.28470 0.27113
0.13971 0.25740 0.21069
-0.10800 0.25740 0.25751
0.04028 -0.25053 0.27882
0.06211 -0.27616 0.27113
0.07368 0.25740 -0.17740
-0.21518 0.20250 0.27113
0.13060 0.25561 -0.33066
0.08665 0.25740 0.26357
0.07627 0.29172 0.32666
-0.13265 0.27495 0.00312
-0.11544 0.25740 0.31751
0.01697 0.25740 0.05387
-0.05121 0.25740 -0.03237
-0.13265 0.26705 -0.08573
0.18025 0.27656 -0.18976
-0.13265 0.27620 0.22234
-0.17846 0.00920 -0.29484
-0.08847 0.26014 -0.11161
-0.17506 0.25908 -0.30385
0.01223 0.29172 -0.24120
-0.00010 0.27890 0.11210
0.00166 0.27873 -0.25758
-0.04428 0.26350 -0.23750
0.16084 -0.29172 0.29581
-0.00824 0.25740 0.09037
-0.10590 0.29172 0.18349
0.17760 0.25740 -0.12791
0.18025 0.26772 0.33142
-0.15281 0.29172 -0.29689
0.00978 -0.26050 -0.27113
-0.05769 0.29172 -0.02858
-0.15721 0.29172 -0.15514
0.04408 0.27993 -0.07065
0.21482 0.19856 0.27113
0.21965 0.11839 0.28734
-0.08518 0.29172 -0.28858
-0.06261 0.25740 -0.32352
0.08826 0.26161 0.28127
0.17663 0.28219 -0.03493
0.13244 0.27226 -0.08184
-0.08897 0.25740 -0.24611
-0.04428 0.29151 -0.07178
0.11930 -0.25053 0.28013
-0.18579 0.06118 0.31231
0.10435 0.25740 0.20697
-0.08847 0.26837 -0.28506
-0.04428 0.26627 -0.24552
-0.15378 0.25561 -0.23745
0.17846 -0.20534 -0.28885
-0.18397 -0.04560 0.27113
0.05058 0.25740 0.34141
0.06146 -0.29172 0.27913
0.04585 0.27425 0.09000
-0.03334 0.25740 -0.26920
0.19792 -0.17704 -0.31231
0.18403 -0.18988 0.31231
-0.02800 0.29172 -0.10584
0.03237 0.29172 0.06949
-0.18025 0.26928 0.06714
0.17663 0.27714 0.01652
0.11583 0.25740 0.03777
-0.04428 0.26466 0.12002
0.13244 0.28492 0.33729
0.17846 0.25424 0.29083
-0.18077 0.13386 0.31231
-0.08847 0.27755 0.03010
0.08181 0.29172 0.16466
-0.13088 0.27502 0.13234
0.04585 0.25840 0.07067
-0.04252 0.27675 0.27422
-0.00866 0.29172 -0.14456
0.16661 0.25561 0.29404
-0.03178 0.29172 0.08980
-0.21965 0.08891 -0.28389
0.21024 0.02507 -0.31231
-0.08847 0.25768 0.17479
-0.16578 0.26479 -0.33827
0.20095 0.26986 0.30711
0.20079 0.15296 -0.31231
0.21162 0.10923 0.31231
-0.13840 -0.25053 -0.28090
0.09003 0.26295 0.11285
0.07852 -0.29172 0.27530
-0.07749 0.29172 -0.01411
-0.10999 0.29172 0.20000
-0.16353 0.29172 -0.31678
-0.17506 0.28460 0.14245
0.20755 0.14922 -0.27113
0.18820 -0.13877 0.27113
-0.18008 -0.08867 -0.27113
-0.04161 0.29172 0.10174
-0.17846 0.28022 0.29841
-0.16991 0.25561 0.30308
0.08848 0.27828 -0.34155
0.19829 -0.15512 -0.27113
0.05234 0.25740 0.27049
-0.15418 0.29172 0.05032
0.00401 0.28882 -0.33620
0.21965 -0.04846 -0.28742
0.21965 -0.09295 0.27141
-0.10692 0.29172 -0.29047
0.07939 0.25740 0.06360
-0.00010 0.26557 -0.29949
0.05344 0.25740 -0.05120
-0.17229 0.29172 0.01483
-0.16957 0.25740 0.28603
0.04585 0.25746 0.04453
0.18181 -0.15801 0.31231
-0.13523 0.29172 0.25325
-0.17697 0.25740 -0.05330
0.21965 0.03737 0.29859
-0.07050 0.25740 -0.26372
-0.14450 0.29172 -0.27287
-0.21404 -0.09659 -0.31231
-0.17846 0.27756 -0.28777
0.01361 -0.25053 -0.27822
-0.01967 0.27613 0.33769
-0.00010 0.29115 -0.11217
0.03610 0.25740 0.22940
-0.16927 0.25561 0.25561
-0.21965 0.08388 0.29507
0.21641 0.01977 0.31231
0.16255 0.25561 -0.32901
0.14804 -0.25053 0.31098
-0.20704 -0.22097 -0.27113
-0.19500 -0.26175 -0.31231
-0.04252 0.28735 0.18178
0.13421 0.28436 -0.32202
0.21965 0.14212 -0.28865
-0.17506 0.28175 0.24326
-0.18025 0.26007 -0.22957
-0.05933 0.28315 -0.34155
0.14084 0.29172 0.23987
-0.17506 0.27931 0.20454
0.07407 0.29172 -0.30324
0.18394 0.18630 -0.27113
-0.08670 0.27687 -0.00820
-0.00010 0.26506 -0.15439
-0.18074 -0.01416 0.27113
0.18025 0.27497 0.07922
0.17846 0.01250 0.29166
-0.18025 0.26812 0.03436
-0.13088 0.27823 -0.11369
-0.05968 0.25740 0.18542
0.21965 -0.15544 -0.30602
0.13421 0.27910 -0.30719
-0.21965 0.12098 0.31022
0.05541 0.25740 -0.11736
-0.03141 0.29172 0.12792
0.07524 0.25740 -0.01675
-0.21965 -0.20094 0.28814
0.08744 0.25740 0.18773
-0.21550 -0.26504 0.27113
-0.21965 -0.24322 0.29914
0.08826 0.26946 -0.10405
0.06981 0.29172 -0.20281
0.17846 -0.07526 -0.29507
0.00630 -0.25647 0.31231
0.18025 0.26801 -0.18771
0.19565 -0.11014 0.31231
0.18202 -0.21472 0.27113
-0.09032 0.29172 -0.09541
-0.17506 0.26039 0.33455
0.07456 0.29172 0.31170
-0.21360 0.12623 0.27113
0.13212 0.29172 0.08922
0.13945 0.25740 -0.21232
-0.17604 0.25561 -0.17219
-0.02928 0.29172 0.30200
-0.13265 0.27051 0.11536
-0.17905 -0.17022 0.27113
0.18583 -0.14625 -0.27113
-0.18872 -0.00077 0.27113
0.19270 0.19853 0.27113
0.17032 0.25740 -0.24162
-0.04428 0.25950 -0.33749
0.04408 0.28933 0.19410
-0.18025 0.26537 -0.11670
0.17846 0.17159 0.28925
-0.21965 -0.04207 -0.29159
0.19030 0.05718 -0.31231
-0.00249 -0.28105 0.27113
0.02817 -0.29172 0.27333
-0.18725 0.17570 -0.27113
-0.08847 0.27301 0.04877
0.04879 0.28468 -0.33827
-0.21965 -0.21377 0.29664
0.21965 0.21854 0.30787
-0.17506 0.28183 0.09696
0.08456 0.25740 0.12962
0.08793 0.25740 0.08841
0.16711 0.25740 -0.32169
-0.21917 -0.23500 0.27113
-0.19154 0.21189 0.27113
0.08826 0.27150 0.33189
-0.00010 0.27810 -0.27669
0.08663 0.25740 0.28467
0.17663 0.27992 -0.12235
-0.03623 0.29172 0.29775
0.09728 0.29172 0.17467
-0.04252 0.26106 0.33551
-0.13088 0.28079 0.09951
-0.21965 -0.16872 -0.30269
0.08826 0.27166 -0.08977
-0.17846 -0.03873 -0.27640
0.01183 0.25740 -0.24449
0.19765 0.05713 0.31231
0.08697 0.29172 0.32796
0.21739 0.20547 0.31231
0.16616 0.29172 -0.05682
-0.00010 0.29064 -0.33211
0.10781 0.29172 -0.30217
0.16269 0.29172 0.04272
-0.13265 0.27370 0.12670
-0.00472 0.29172 0.18121
-0.07632 0.25773 -0.33827
-0.17846 -0.20688 0.30965
0.08663 0.27110 -0.34155
0.13421 0.27120 -0.04558
-0.17846 0.10013 -0.27734
0.01335 0.25740 -0.14331
-0.21363 -0.04549 -0.31231
0.02002 0.29172 0.19331
-0.13606 -0.29172 0.27421
0.04050 -0.25156 0.31231
0.04408 0.29054 0.26712
-0.21965 0.23912 0.28456
0.19538 -0.13054 0.31231
-0.19528 -0.26029 0.31231
0.14656 -0.25053 0.28702
0.13244 0.27788 0.16412
0.15321 -0.28867 0.27113
-0.20427 0.02467 -0.31231
0.21965 -0.17814 -0.28144
0.21965 0.08930 -0.30412
-0.08847 0.26680 0.03878
0.19761 0.20551 -0.31231
-0.04428 0.28796 -0.33262
0.17263 0.25844 0.33769
0.21788 0.25857 -0.28967
-0.21965 0.04744 0.29190
0.16687 0.25740 -0.03103
0.13621 0.25740 0.03420
-0.17506 0.27494 -0.32517
-0.15702 0.29172 -0.23013
-0.09344 0.29172 0.11658
0.08415 0.29172 0.25427
-0.11871 0.29172 -0.03191
-0.08115 0.25740 -0.22610
-0.08670 0.28720 -0.03954
0.07500 0.25740 0.17812
-0.00010 0.29078 -0.04273
0.05544 -0.27910 0.27113
0.13421 0.28583 0.09373
-0.04428 0.26055 0.27418
0.21965 0.21997 0.29324
-0.04428 0.26969 0.10315
-0.20167 -0.23282 -0.27113
-0.00810 0.25740 0.03932
0.17361 0.25561 -0.04929
0.10522 0.29172 -0.08181
0.08306 0.29172 0.23891
0.16689 0.25740 -0.27751
-0.13088 0.28952 0.21444
0.00166 0.26339 -0.20546
0.17846 -0.03772 -0.29066
-0.13088 0.27856 -0.09465
-0.18587 -0.25902 0.31231
0.11154 0.26370 -0.34155
0.17663 0.26657 -0.27350
-0.15148 0.29172 0.20259
0.09465 0.29172 0.00655
-0.03769 0.29172 0.10934
0.18485 -0.09689 0.27113
0.18025 0.27768 0.14549
-0.21965 -0.11368 0.28942
0.16270 0.25740 0.07075
0.05288 0.29172 -0.18642
-0.05763 0.25740 0.20961
0.12064 0.25740 0.32388
-0.03912 0.25740 -0.18027
-0.00010 0.27563 0.00378
-0.04428 0.28968 0.30927
0.15191 0.25740 0.06880
-0.18011 -0.10664 0.27113
-0.00010 0.26335 0.26158
0.00166 0.27092 -0.17523
-0.13265 0.28632 -0.24379
-0.13554 0.25561 0.33877
-0.16173 0.25740 0.09920
0.03867 0.29172 -0.08529
-0.15639 0.25740 -0.23232
-0.19519 -0.11000 -0.27113
0.17846 0.22375 -0.27668
0.04879 -0.25274 0.27113
0.04388 0.29172 0.10478
-0.08670 0.28051 0.06696
0.00832 0.29172 0.21588
-0.08847 0.26606 0.30395
0.21150 0.04249 -0.31231
-0.21965 0.00477 -0.31216
0.18025 0.26735 -0.11917
0.04408 0.28431 -0.00244
-0.13265 0.28168 -0.25650
0.13421 0.28055 0.01655
-0.04252 0.27698 0.29007
-0.03174 0.29172 0.21496
0.06837 0.25740 -0.21898
0.08826 0.26950 -0.02162
0.17846 0.10814 -0.29244
-0.21965 -0.15950 -0.29852
0.00166 0.25860 -0.16986
-0.15207 0.29172 -0.18338
0.20102 -0.07291 0.31231
0.12146 0.25740 0.24354
-0.16716 0.25740 -0.33533
0.06152 0.29172 0.23534
-0.08673 -0.29172 -0.29289
0.09915 0.26311 -0.33827
-0.15101 0.25695 -0.11441
0.07357 -0.27722 -0.27113
0.20785 -0.23076 -0.27113
0.21965 -0.12258 0.30926
-0.18025 0.27542 0.09765
-0.18850 -0.13466 -0.31231
-0.17846 0.19359 -0.27949
0.19813 0.03416 0.27113
-0.17461 0.25740 0.17315
0.21965 -0.27552 -0.28526
0.16859 0.29172 -0.10584
0.01694 0.25740 -0.29260
-0.21965 -0.00482 0.28833
-0.12050 0.25740 -0.08616
-0.04252 0.27240 0.00808
0.07246 0.25740 -0.05250
0.13421 0.28078 0.02889
0.10446 0.25740 -0.22424
0.18370 -0.09368 -0.31231
0.08168 0.29172 0.21600
0.18025 0.27880 -0.31964
0.06141 0.25740 -0.31771
-0.03910 0.25740 -0.01824
-0.08847 0.27669 -0.15540
0.21965 -0.01238 -0.30808
0.01934 0.25740 0.30555
0.04349 0.25740 -0.19100
0.20784 -0.15417 0.31231
-0.21965 0.22186 -0.29906
-0.17846 -0.19149 0.28431
-0.03725 0.27496 0.33769
0.17846 0.14630 0.30608
0.02086 0.29172 -0.24182
0.17663 0.27933 -0.06729
0.11074 0.29172 0.03771
0.07605 -0.26748 -0.27113
0.00166 0.28870 0.27131
0.18489 -0.10687 -0.27113
0.17663 0.26008 0.14729
0.09761 0.25740 -0.29165
-0.13088 0.27917 0.03970
-0.17506 0.29160 0.03267
-0.08670 0.26773 0.21161
-0.13088 0.26454 0.11733
0.08012 0.25561 0.34145
0.06558 -0.27401 -0.31231
0.00623 0.29172 -0.20109
0.13421 0.28379 -0.06545
0.15697 0.25740 0.10631
-0.17506 0.25876 0.08901
-0.16233 0.29172 -0.16199
0.21965 -0.26019 0.30414
-0.11480 0.29172 -0.04632
0.11935 0.29172 -0.32064
0.21965 0.09546 0.29982
0.06437 0.25740 0.21142
-0.12535 -0.25053 0.28060
0.17846 0.13314 -0.29592
0.21965 -0.15782 -0.31126
0.03383 0.29172 -0.31808
0.07772 0.27168 0.33769
-0.21965 -0.15238 0.28764
-0.07205 0.25740 0.25389
0.13745 0.29172 -0.32421
-0.17506 0.26466 -0.00660
0.13244 0.28518 -0.07605
0.00166 0.26604 0.29014
0.19254 0.12831 -0.31231
-0.05064 0.25740 -0.04608
0.19401 0.04273 0.31231
0.11737 0.29172 -0.10892
0.08826 0.27103 0.02526
0.04408 0.27417 -0.07094
0.19903 -0.19781 -0.31231
0.02377 -0.25389 0.31231
-0.04252 0.26235 -0.28284
0.19817 -0.29172 -0.29252
-0.21965 0.07383 -0.30104
-0.21965 0.09879 0.27448
-0.02034 0.25740 -0.20932
0.10947 0.29172 0.05309
-0.09716 0.29172 0.23065
0.17846 0.01945 -0.28129
0.18693 0.15199 -0.27113
0.01059 0.29172 -0.21729
-0.04252 0.28025 -0.04288
0.13244 0.28918 0.00678
-0.11421 -0.25053 0.27644
0.01205 0.29172 -0.00693
-0.17846 0.20454 -0.28711
-0.17846 0.07980 -0.27169
0.02179 0.29172 0.01101
-0.00998 -0.27960 0.31231
-0.21721 -0.18953 -0.27113
-0.17846 0.11578 0.29451
-0.07554 0.29172 -0.17134
-0.18025 0.26616 -0.24370
0.07495 -0.25053 0.29959
-0.21036 0.17333 -0.27113
0.15351 0.29172 0.01038
0.21965 0.14159 -0.27926
0.13522 0.25740 -0.25844
-0.20271 0.23214 -0.31231
0.15777 0.25740 0.14859
-0.05284 0.29172 0.09626
0.12496 0.29172 0.07987
0.20756 0.23173 0.31231
0.10913 0.25740 -0.15321
0.15729 0.29172 -0.14022
-0.19328 -0.16805 0.31231
-0.19063 0.16334 -0.27113
0.14024 0.25740 0.26037
-0.08847 0.28127 0.23295
-0.10393 0.29172 -0.03521
-0.12000 0.25740 -0.33139
-0.01548 0.25561 0.33826
0.08826 0.26567 0.07530
0.00166 0.28460 -0.18504
-0.17846 -0.07624 -0.30847
0.08826 0.28162 0.09589
-0.04428 0.27078 -0.33386
-0.05197 0.25740 0.02931
-0.03257 -0.27071 0.31231
0.20384 -0.10630 0.27113
-0.17846 -0.03836 0.27149
-0.07254 0.25740 0.06695
-0.15160 -0.25484 0.31231
0.00166 0.28446 -0.22910
0.13421 0.26769 0.07174
-0.13088 0.25961 -0.08203
-0.17846 0.17111 -0.28048
-0.18454 -0.01108 0.31231
-0.13088 0.29086 0.03284
-0.08134 0.25561 0.32771
0.21965 0.12034 0.29836
0.05578 0.25740 0.18307
0.21965 0.21987 -0.28681
-0.18908 0.24334 0.31231
-0.00010 0.27696 -0.29668
-0.21965 0.05315 0.28528
-0.06646 0.25740 0.19033
-0.17846 0.12331 0.28259
0.15513 0.25561 0.25319
-0.17846 0.08403 -0.27877
0.09003 0.27487 -0.21312
0.04408 0.28782 -0.12620
-0.02600 -0.29172 -0.29055
-0.17846 0.07914 0.29345
-0.00957 0.25561 -0.32828
-0.21965 -0.00235 -0.30531
0.19972 0.23005 0.31231
-0.18025 0.27246 -0.04649
-0.08326 0.25740 0.20112
0.15102 -0.25684 -0.31231
0.17993 -0.22686 -0.27113
-0.21965 -0.10811 0.31182
-0.20366 0.01968 0.27113
0.09229 0.25561 -0.32422
-0.09450 0.25740 -0.07576
0.20110 0.07894 -0.31231
0.07414 0.25740 0.09160
0.04408 0.26504 -0.10723
-0.13265 0.27839 -0.02707
0.04585 0.28159 -0.32615
-0.01674 0.25740 -0.28494
-0.00010 0.28121 -0.11149
0.16030 0.29172 -0.06751
0.06098 0.25740 0.05382
0.17846 -0.18676 0.27632
0.21965 -0.02895 0.28062
-0.08670 0.26641 0.11578
0.18025 0.27375 0.20290
-0.15825 0.25740 -0.13685
0.13780 0.29172 0.31356
0.01390 0.29172 -0.32556
-0.13265 0.26498 0.03932
-0.01254 0.25740 0.21126
0.17846 0.07184 0.28790
0.17846 0.03083 -0.28893
0.17846 0.10543 0.27445
-0.16881 0.25740 0.05631
0.13244 0.26665 0.02814
-0.19977 0.11711 0.31231
-0.14366 0.25561 -0.33179
-0.19108 0.27644 0.28378
0.18025 0.28359 -0.10484
-0.08670 0.27950 0.24762
0.09003 0.27003 0.08651
0.17846 -0.01045 -0.28169
-0.18826 0.26039 0.27113
0.17410 0.29172 -0.20598
-0.00010 0.28402 0.28008
-0.13265 0.28785 0.32985
0.04585 0.26802 -0.15326
-0.17364 0.25740 -0.14719
0.16657 0.26647 0.34155
0.04386 0.25740 -0.21598
-0.17506 0.27758 0.04776
-0.16256 0.26648 0.34155
0.17561 0.25740 -0.20727
-0.11425 0.25740 -0.25523
0.04408 0.26794 0.02152
-0.21965 -0.00930 -0.28227
0.04334 0.25740 0.02007
0.17990 0.04723 -0.31231
-0.00276 0.29172 -0.22903
0.16862 -0.29172 -0.30667
0.18025 0.28165 0.23659
-0.18025 0.28027 -0.00023
0.18025 0.26557 0.24693
0.13421 0.26444 0.27769
-0.08670 0.27055 0.08906
-0.20698 -0.08275 0.31231
-0.07125 0.25740 0.14446
0.18025 0.28308 0.09534
-0.21317 -0.22134 0.27113
-0.17846 0.06282 0.30088
0.06683 0.29172 0.00518
-0.04252 0.25768 -0.03345
-0.00745 0.25740 -0.15931
0.19314 0.08342 0.31231
-0.13088 0.26742 -0.23135
0.17846 -0.14370 0.30196
-0.16715 -0.26252 -0.27113
0.04585 0.28010 0.20034
0.04408 0.26514 -0.19472
0.06972 0.25973 0.33769
-0.20983 0.09373 -0.31231
0.12560 0.26650 0.33769
0.08826 0.26915 0.32477
-0.17010 0.29172 0.27104
-0.17846 -0.22413 0.30982
-0.09415 -0.25053 -0.29050
0.17846 -0.13411 -0.30529
0.13244 0.27639 -0.23414
-0.20188 -0.29172 0.31197
0.20978 -0.23637 -0.27113
0.21275 0.07050 -0.31231
0.21965 -0.04736 -0.30394
-0.21965 -0.07230 0.29160
-0.08847 0.26781 -0.14886
0.05702 -0.25053 0.30925
-0.09748 0.25740 -0.31608
-0.00010 0.25997 -0.28776
-0.07506 0.25740 -0.31726
-0.14686 0.25740 0.28978
-0.13371 0.29172 0.30879
-0.04428 0.27708 0.05553
-0.15713 0.25740 0.03511
-0.10831 0.29172 -0.14813
-0.13265 0.27343 0.21044
-0.04758 -0.26944 -0.31231
-0.19642 -0.01537 -0.27113
-0.16908 0.29172 0.30466
-0.13088 0.25926 -0.27510
0.00166 0.27956 0.13211
-0.17490 0.25561 -0.13842
0.00166 0.28154 0.06932
-0.06611 0.29172 0.02748
0.17663 0.28166 0.13249
-0.15572 0.25740 -0.30841
0.20556 0.26679 0.29778
-0.00010 0.27390 0.32810
-0.15595 0.25740 0.12680
0.13244 0.28251 0.21892
-0.05195 -0.25053 0.28778
0.14288 0.25561 -0.32180
-0.15710 0.25740 -0.26869
0.17846 -0.00205 0.28523
-0.18025 0.27741 0.08353
0.21604 -0.02653 -0.27113
-0.14877 0.26749 0.33769
-0.05629 0.25740 -0.05925
0.00166 0.27821 0.02435
-0.03507 0.29172 -0.17676
-0.13325 0.29172 0.07999
0.00166 0.26029 -0.03465
0.01330 0.25740 -0.31976
0.00166 0.27531 0.15948
-0.18532 0.19221 0.31231
-0.15445 0.25740 0.28418
-0.21965 -0.23925 -0.27381
0.13553 0.29172 0.09414
-0.08670 0.27947 0.00696
0.09003 0.29073 0.21329
-0.18025 0.27370 0.20064
-0.08981 0.29172 0.07938
-0.14370 0.25740 0.27275
-0.17029 0.25740 -0.11806
0.09003 0.27780 0.07052
0.07834 0.29172 -0.02440
0.21965 -0.08489 -0.28675
0.04066 -0.29172 -0.29243
-0.04992 0.29172 0.29951
-0.08515 0.29172 0.18385
-0.10049 0.25740 -0.32407
-0.14716 0.29172 0.27247
-0.09069 0.27395 0.33769
-0.13265 0.27500 -0.33188
-0.13997 0.25740 0.25704
0.04986 -0.25053 0.29676
-0.18321 -0.28230 0.31231
-0.04252 0.27864 -0.21344
0.11462 -0.29172 -0.28854
-0.08670 0.27653 0.20349
0.17846 -0.03535 0.28938
-0.13088 0.26430 -0.24599
0.08826 0.26544 -0.29385
0.10935 0.29172 0.08149
0.18971 -0.17709 -0.27113
-0.08363 0.25740 -0.32940
0.16777 0.29172 -0.30130
0.18012 0.25740 -0.13650
-0.15427 0.25740 -0.24648
-0.06327 0.25740 -0.05524
0.20224 0.19971 -0.27113
0.07916 0.25561 -0.33799
0.16540 0.29172 0.21649
-0.21965 0.09140 0.31089
0.18037 -0.03259 -0.27113
0.13244 0.27145 -0.18344
0.13314 0.28194 -0.34155
-0.13483 0.29172 -0.29371
0.18347 0.16708 -0.27113
0.05737 0.29172 -0.17716
-0.17846 0.25214 0.29479
0.08826 0.28209 -0.30658
0.13421 0.27188 0.01714
0.03608 0.25740 -0.17718
0.17846 -0.06233 0.29430
-0.17506 0.27416 -0.02001
-0.04428 0.27610 0.31240
-0.15101 0.25655 -0.29236
-0.18025 0.27418 0.24434
0.16861 0.25740 -0.09775
-0.21965 0.18831 0.29052
0.17478 0.25740 -0.03678
0.19143 -0.02459 0.31231
0.16967 0.29172 -0.04723
0.06349 0.29172 0.32344
-0.20022 0.13449 -0.31231
0.00166 0.27633 0.31280
-0.11246 -0.26567 0.31231
0.09003 0.28637 -0.25206
-0.08847 0.27052 0.30852
0.15303 0.25740 0.22992
-0.00102 0.29172 0.00158
-0.18359 -0.00040 -0.31231
-0.12836 0.29172 0.29781
-0.21965 0.10303 -0.27334
-0.09936 0.25740 0.27831
0.13421 0.26205 -0.06128
0.04969 0.25740 0.25190
0.12864 0.29172 0.24543
-0.14368 0.25928 0.33769
0.05300 0.25740 0.13958
-0.16306 0.27032 -0.33827
0.17663 0.27501 -0.05738
-0.13088 0.27419 0.18905
-0.18025 0.27107 -0.26088
0.04585 0.25750 0.19768
0.10611 0.29172 -0.14099
0.17663 0.28147 0.27792
-0.12801 0.25740 -0.19988
-0.00507 -0.28548 -0.31231
0.13627 -0.28924 0.27113
-0.17846 0.00061 0.29607
0.21965 0.21327 0.27614
0.04882 -0.28766 0.27113
-0.12823 0.28249 0.33769
-0.09718 0.29172 -0.20040
-0.20981 0.06304 0.27113
0.04408 0.27284 -0.19218
0.03480 0.29172 0.28109
-0.12601 0.29172 0.23035
-0.21965 -0.03945 -0.28646
-0.07677 0.29172 0.05767
-0.04252 0.28426 0.24806
-0.19260 -0.08610 -0.31231
-0.04612 0.29172 -0.21872
0.21965 0.24527 -0.30421
-0.17506 0.26692 0.03208
-0.21108 -0.17187 0.27113
0.21204 0.02810 0.31231
-0.16152 0.29172 0.08660
-0.19291 -0.02122 0.27113
0.00166 0.28175 0.05144
0.18025 0.26525 0.01240
0.00166 0.26274 -0.13151
0.02400 -0.27951 0.31231
0.18701 0.12024 0.31231
0.04585 0.27018 -0.07884
-0.21965 -0.12442 0.30516
0.17846 -0.23199 0.28872
0.01866 0.28873 -0.33629
-0.18557 -0.11393 -0.27113
0.11460 0.25740 -0.17270
0.17846 -0.11363 0.29636
-0.08847 0.28864 -0.23427
-0.11547 -0.28442 -0.31231
0.04408 0.28231 0.00534
-0.19223 -0.02528 0.31231
-0.16277 0.25740 -0.16587
0.09003 0.27524 -0.25808
0.16591 0.26508 -0.33827
0.13421 0.27272 0.05584
0.01809 0.25740 -0.27914
-0.12794 0.25740 -0.23037
-0.17028 0.25740 0.02438
0.16858 0.25740 0.03962
0.09998 0.25740 0.04624
0.03454 0.25740 0.12449
0.04895 0.25740 -0.13187
0.00166 0.28557 -0.29461
-0.07677 0.29172 -0.14390
0.14361 -0.25053 0.27690
-0.17807 0.25740 0.32292
0.04585 0.27933 0.09809
0.21965 0.11126 0.27926
0.14658 0.25740 0.25366
0.08790 -0.27897 0.31231
0.08826 0.27384 0.29544
-0.17846 0.27385 -0.30232
-0.17019 0.25740 0.24937
0.21501 0.22253 0.27113
-0.10791 0.25740 0.12772
0.17846 -0.00666 0.28083
-0.15508 -0.29172 0.27512
-0.19314 0.15559 0.27113
0.17663 0.29114 0.05189
0.21965 0.19984 0.27757
-0.20161 -0.05824 -0.31231
0.21965 0.06416 0.27184
0.09003 0.26113 -0.03727
0.21965 0.15934 0.28962
-0.15714 0.29172 -0.13551
-0.16836 -0.26228 0.27113
0.12856 0.29172 -0.00973
0.19418 0.05100 0.31231
-0.08670 0.27564 0.07511
0.07999 -0.25053 0.30310
-0.03285 0.25740 0.01917
-0.04480 -0.25053 0.30531
0.11793 0.25740 -0.06686
0.03558 0.25740 -0.05396
0.02650 0.25740 0.04460
-0.21965 0.17396 -0.30317
0.00166 0.27587 0.25617
0.17663 0.29016 -0.17964
-0.09975 -0.25053 -0.27928
-0.17506 0.28422 -0.11728
0.11942 -0.29172 0.28830
0.12788 0.29172 0.03323
0.08826 0.28037 -0.23964
-0.00507 -0.29172 -0.28208
0.01014 0.29172 0.30892
0.02512 0.29172 0.28382
0.02226 0.27648 0.33769
0.17348 0.25561 -0.12341
0.16832 0.25740 0.18299
0.19211 0.27080 -0.31231
0.21965 -0.10468 0.29405
-0.05465 -0.26402 -0.27113
-0.11938 0.25740 0.27155
-0.08053 -0.29172 0.27467
-0.21965 -0.09156 0.29654
-0.09636 0.25740 0.20035
0.04408 0.28635 0.09130
-0.17506 0.29037 0.19107
-0.08670 0.29130 0.10060
-0.16817 0.29172 -0.14485
-0.20053 0.26532 -0.27113
-0.01018 0.28203 -0.33827
-0.07679 0.29172 0.27791
-0.00483 0.25740 0.01158
0.09767 0.25740 -0.26806
-0.00010 0.26639 -0.06726
-0.18025 0.25886 0.19659
0.14736 0.26145 0.34155
-0.13265 0.29017 -0.11604
0.03819 -0.26362 -0.31231
-0.02891 0.25740 0.01280
0.15872 0.26423 -0.34155
0.10821 0.25561 0.32537
0.15840 0.29172 -0.11060
-0.13265 0.25967 0.23384
-0.21188 -0.28764 -0.27113
-0.13504 0.25740 -0.17439
0.20455 0.26746 0.27489
-0.15861 0.29172 -0.09692
0.16333 0.25740 -0.30954
0.20747 -0.11079 -0.31231
0.09640 0.25740 0.30757
-0.17846 0.23301 -0.28034
-0.17506 0.25876 -0.24176
-0.20443 0.02079 0.31231
-0.00330 -0.28512 0.31231
0.16912 -0.28550 0.27113
0.18025 0.26291 -0.32000
0.10363 0.29172 0.12517
0.13244 0.29171 0.28332
0.20355 -0.04105 -0.31231
0.19403 0.23504 0.31231
0.15194 0.25561 -0.25595
0.21965 -0.17168 -0.30477
-0.16342 0.25740 0.00775
0.05044 0.29172 -0.13534
-0.07398 0.25561 0.31783
-0.17147 0.25561 0.10651
0.03451 0.29172 -0.12609
-0.20291 0.26855 -0.29685
-0.01217 0.25740 -0.30407
-0.08670 0.28342 -0.32761
-0.09166 0.29172 0.00255
0.18861 -0.18451 -0.27113
0.15729 0.25740 -0.15515
-0.17506 0.27190 0.28015
0.21230 0.26230 -0.30931
-0.00010 0.26875 0.13619
-0.10613 0.29172 -0.19765
0.05277 0.25740 -0.27878
0.10727 0.29172 0.19670
-0.17623 0.25561 -0.01029
-0.17506 0.26881 -0.08632
-0.01855 0.29172 -0.29693
0.15101 0.25739 -0.09601
-0.06738 0.25740 0.20068
0.13421 0.27752 -0.00964
-0.01317 0.29172 -0.07542
0.02176 0.29172 -0.18304
0.04408 0.28831 0.28419
0.06283 0.25740 -0.29439
-0.21817 0.15160 0.27113
0.19885 -0.24051 0.31231
-0.17846 0.24424 -0.29753
-0.13265 0.27977 -0.28307
0.04408 0.25843 0.05664
-0.17846 -0.21310 -0.30707
0.00194 0.29172 -0.29634
-0.03510 0.29172 0.24464
0.20885 -0.29172 0.29853
-0.01810 0.29172 -0.18734
0.21965 -0.24146 0.29034
-0.16811 0.25561 0.07388
0.04408 0.26949 -0.24016
-0.21965 -0.13083 -0.27808
-0.04252 0.28800 0.19402
-0.10298 0.29172 0.01535
-0.13265 0.26597 -0.00502
-0.20007 0.18912 -0.31231
0.08826 0.27254 0.31032
-0.04252 0.28367 -0.08272
0.00278 0.25740 0.27720
0.14704 0.29172 0.08981
-0.12588 -0.29172 -0.27511
-0.21965 0.03945 0.29827
-0.08847 0.25976 -0.30084
0.17888 0.01085 -0.27113
-0.00010 0.27002 -0.32730
0.04585 0.26688 -0.27527
-0.18236 0.14445 0.31231
0.17846 -0.22143 0.30058
-0.17846 -0.01513 -0.27434
-0.08670 0.28184 0.31137
-0.18957 -0.15342 0.27113
-0.18834 0.23501 -0.31231
0.15195 0.25740 0.00150
0.20700 0.08223 -0.31231
0.11823 0.25740 0.23346
0.04585 0.27682 -0.30146
-0.08847 0.26074 -0.14672
-0.12565 0.29172 -0.27177
0.00166 0.27583 0.01774
-0.00811 0.29172 -0.30435
-0.13265 0.26339 -0.22763
0.13421 0.27680 -0.07859
-0.20724 0.16260 0.31231
0.13244 0.27982 0.06234
0.13757 -0.27204 -0.27113
0.06858 0.25561 -0.32230
-0.17846 0.21554 -0.27800
-0.21965 0.23572 -0.28803
-0.08271 0.25740 0.13828
-0.06365 -0.26907 -0.27113
-0.12097 0.25740 0.17441
-0.08670 0.28845 0.01208
-0.18025 0.25654 0.00423
-0.14379 -0.25053 -0.30940
0.17846 0.28222 -0.27283
-0.10222 0.25740 -0.14339
0.01304 0.27695 0.34155
-0.14889 0.25740 0.25637
-0.08670 0.28661 0.26588
-0.11310 0.25740 0.19403
-0.04428 0.27523 -0.25015
0.16712 0.29172 -0.22545
0.09003 0.26780 -0.00899
0.01887 0.25740 -0.03494
0.10602 0.29172 0.03453
-0.21965 0.07294 -0.27773
-0.04428 0.27183 0.02894
-0.15087 0.29172 0.06916
0.21074 -0.08658 -0.31231
0.01770 -0.26899 -0.27113
-0.18970 0.14671 -0.27113
0.11471 0.29172 0.02501
0.05674 0.25740 -0.28415
0.13783 0.25740 -0.04218
-0.16048 0.25740 0.16924
-0.21965 0.04605 0.27169
0.21965 -0.18460 0.29524
-0.16009 -0.28586 0.31231
0.13244 0.26236 -0.11457
0.09143 0.29172 -0.11216
0.11432 0.29172 0.30862
0.17846 0.06332 0.28742
-0.04895 -0.28759 0.27113
0.21965 0.11910 -0.30623
0.03895 0.25740 -0.25200
-0.16629 0.25740 0.13898
-0.17849 0.25561 0.09786
0.04408 0.27479 0.33201
0.17846 -0.14434 -0.28398
-0.17548 -0.29172 -0.30439
0.17663 0.27500 0.25050
0.05419 0.25740 -0.31474
0.19686 0.15876 -0.31231
-0.04428 0.25910 -0.24918
-0.21965 0.16820 -0.28724
-0.12042 0.25740 -0.10224
0.04201 0.25740 0.22939
0.17334 0.25740 -0.33480
-0.21783 0.17404 0.31231
-0.08670 0.28126 -0.11779
0.04228 -0.29172 0.27644
0.00442 0.25740 -0.01311
0.08826 0.27659 0.20327
0.13244 0.28587 -0.24387
0.04585 0.27058 0.18572
0.16283 0.25740 -0.20285
0.04408 0.27382 0.12161
0.14220 0.29172 -0.19185
-0.17184 0.25740 0.21150
0.16284 0.25561 0.27430
-0.02200 0.27987 0.34155
-0.08847 0.28072 -0.29017
-0.08289 0.26920 0.34155
0.17663 0.25927 0.15395
0.09003 0.27378 0.14813
-0.18166 0.17458 -0.27113
-0.04252 0.28993 0.28435
0.18251 -0.21649 -0.31231
-0.14174 -0.25979 -0.31231
-0.09052 0.25740 -0.33463
0.10654 -0.27084 0.27113
0.10331 0.29172 0.28982
-0.14618 0.25740 0.24200
-0.21965 0.08370 -0.29476
-0.19013 0.05836 -0.31231
-0.08670 0.29045 0.20504
0.17326 0.25561 -0.11395
0.18544 -0.06167 -0.31231
-0.21568 -0.20976 0.27113
0.17663 0.28315 0.16736
-0.17846 -0.10834 0.28419
0.06237 0.29172 0.25301
-0.01859 0.26259 0.33769
-0.15101 0.25566 0.10410
-0.20592 0.22300 0.27113
-0.18448 0.18569 0.27113
0.17846 0.21200 0.29467
-0.08670 0.27347 0.03998
-0.00886 0.26764 0.34155
0.19106 -0.09914 0.31231
-0.08670 0.25872 -0.05072
-0.06315 0.29172 -0.31108
0.21965 -0.14698 -0.30476
0.08826 0.27981 -0.11689
-0.07256 0.29172 -0.17669
-0.04936 0.29172 0.22905
-0.16825 0.25740 -0.18054
0.19196 -0.06774 -0.27113
-0.21965 -0.23596 -0.29402
0.04585 0.25904 -0.25799
0.21965 -0.10698 0.30213
-0.12510 -0.25053 -0.28462
0.01498 0.29172 -0.20068
0.09785 0.25740 -0.05836
-0.20802 0.26515 0.29214
-0.17374 0.29172 -0.04013
0.04408 0.26472 0.33089
-0.00528 0.25564 -0.34155
-0.17506 0.26401 0.23389
0.04585 0.25879 -0.17615
0.03118 0.29172 -0.06017
-0.02970 0.25561 -0.32320
0.09003 0.26295 0.32030
0.15553 0.29172 -0.04358
0.21306 0.19490 0.31231
-0.12769 0.29172 0.28209
-0.20461 -0.25956 -0.27113
-0.04252 0.28335 -0.03216
-0.08847 0.26848 -0.06135
-0.17846 0.08751 0.28132
-0.18234 0.03708 -0.27113
-0.13771 0.29172 -0.24620
0.09003 0.26506 0.00781
-0.21330 0.07502 -0.27113
0.08326 0.25740 -0.11479
0.17846 0.21514 0.28727
-0.08847 0.26616 -0.31492
0.02660 0.25740 0.24513
-0.21965 -0.09765 -0.30093
-0.04048 0.25740 0.02430
0.14767 0.29172 -0.25446
0.10413 0.25740 -0.24457
-0.05107 0.25740 -0.07257
0.16501 0.25740 0.20154
0.20479 0.18051 0.27113
0.20641 0.14356 0.31231
0.16256 -0.28852 -0.31231
0.08105 0.29172 0.10854
-0.12156 0.26063 0.34155
-0.20709 0.25621 -0.27113
0.19274 0.12636 -0.27113
-0.18025 0.26639 0.31777
-0.16688 0.29172 -0.09835
0.03793 0.25740 0.13517
-0.19282 0.20900 -0.31231
-0.17846 0.14198 -0.27158
-0.14852 0.29172 0.17400
0.21965 -0.13823 0.29756
-0.14821 0.25740 -0.06413
0.14337 0.25740 -0.02284
0.04585 0.27029 -0.31689
0.04585 0.25975 -0.09735
0.07752 0.28086 -0.34155
-0.17506 0.27258 -0.23303
-0.08670 0.27443 0.21777
0.04585 0.27720 -0.01931
-0.00010 0.28201 0.22162
-0.05274 0.28743 -0.33759
0.17846 0.14257 -0.29394
0.14495 0.29172 0.32836
0.11869 0.25740 0.06406
-0.09574 0.29172 -0.14389
0.05978 0.29172 -0.19227
-0.07645 0.25740 -0.12296
0.21200 -0.11487 -0.31231
0.08826 0.27088 -0.04375
-0.11675 -0.29172 0.27557
-0.12555 0.25740 0.32975
0.17663 0.27633 -0.22253
-0.17506 0.28315 -0.19617
-0.01453 -0.29172 -0.31135
0.15643 0.25740 -0.23843
-0.10026 -0.28278 0.31231
-0.21891 0.04936 -0.27113
0.17846 0.12191 0.27455
0.13244 0.26426 0.23921
-0.00010 0.29063 -0.21853
-0.17846 -0.17284 0.29053
-0.08645 0.25740 0.27897
-0.09475 0.29172 0.31421
0.15427 0.25561 0.19101
-0.04428 0.27762 -0.26309
0.21965 -0.16541 0.29027
0.03368 0.25740 0.17351
-0.17506 0.28467 -0.23712
-0.00683 -0.29172 0.29439
0.08826 0.28043 0.02889
0.14618 -0.26659 0.27113
-0.20500 -0.29172 0.28283
-0.21937 -0.29172 0.29184
0.21162 0.26275 0.28398
-0.18960 0.10241 0.31231
-0.21965 0.18192 -0.29913
-0.13088 0.27610 0.16354
0.16139 -0.27315 -0.27113
-0.08847 0.28077 0.17026
-0.01825 -0.25053 -0.30695
0.09003 0.26833 -0.32604
0.17846 0.22456 0.28342
-0.06909 0.29172 -0.26398
0.18918 -0.27033 0.27113
-0.11335 0.27326 -0.34155
-0.04252 0.25893 0.24631
0.03497 0.25740 0.18474
0.04585 0.27342 -0.16571
0.17124 0.25740 -0.00313
-0.19398 0.03836 -0.31231
0.04079 0.25740 0.20152
-0.21965 0.20894 -0.29919
0.13244 0.28794 0.26053
-0.09532 0.25740 0.14863
-0.06974 0.29172 -0.10158
-0.21965 0.01475 -0.27514
-0.09373 0.25740 -0.08865
-0.00469 0.25740 -0.10649
0.12287 0.29172 0.04898
-0.04572 -0.25053 -0.28176
-0.02712 -0.27579 0.27113
-0.04428 0.28950 0.14708
-0.20114 -0.29172 -0.31186
0.19249 0.10121 -0.27113
-0.19352 0.19321 0.31231
0.20323 0.04759 -0.27113
-0.12945 0.29172 0.26775
0.20610 -0.17809 0.27113
-0.02545 0.25740 0.11941
-0.14082 0.29172 0.29436
0.00247 0.25740 -0.32656
-0.05570 0.29172 0.08993
-0.08670 0.25782 0.31892
0.21965 0.14655 -0.30663
0.19346 0.02609 0.27113
0.00166 0.26153 -0.29381
-0.08670 0.27756 -0.11046
0.01365 0.29172 0.05265
-0.17846 -0.05623 -0.29895
-0.13088 0.27209 0.18333
-0.21965 -0.20455 0.30666
0.13421 0.26175 0.28962
0.21965 -0.05492 0.29820
-0.13088 0.26731 -0.12927
0.00967 0.29172 -0.11837
-0.08670 0.28087 -0.16898
0.15243 0.29172 -0.06358
-0.17846 0.05221 0.29231
-0.17846 0.12214 0.30742
-0.12347 -0.29172 0.29648
0.00265 -0.28070 -0.27113
-0.04252 0.28159 -0.25848
-0.01132 0.29172 -0.31391
-0.04454 0.25740 -0.28087
-0.21965 -0.09633 0.29192
0.21103 0.00959 -0.27113
-0.00770 -0.25053 -0.30585
-0.18025 0.27476 0.22923
-0.00308 0.25740 0.33640
-0.08847 0.28908 -0.25602
0.12968 0.27418 -0.34155
0.08328 0.25740 0.00160
0.00166 0.28970 -0.15098
-0.04428 0.28904 -0.03739
-0.17846 0.20247 0.29384
0.16382 0.29172 0.08079
0.04900 0.25740 0.09195
0.13115 0.25740 -0.04050
0.09402 -0.27301 -0.31231
-0.18333 0.26608 0.27113
-0.21965 -0.11542 -0.30397
-0.10098 0.29172 0.11179
-0.21965 0.22939 0.30881
-0.06811 0.25740 -0.24313
0.04585 0.27804 0.18360
0.21965 0.05049 -0.28602
0.13421 0.26120 -0.19834
-0.17154 0.25740 -0.20364
0.19485 -0.02490 -0.27113
0.19533 -0.18452 -0.31231
-0.17846 -0.22380 0.29916
0.17846 0.17751 -0.28124
0.18241 -0.27272 -0.27113
-0.12033 0.29172 0.14250
-0.06232 0.29172 -0.15668
-0.17846 0.22964 -0.27126
0.13421 0.28324 0.14212
-0.12350 0.25740 0.13429
-0.21027 0.26365 0.27365
-0.10369 0.25740 -0.19206
-0.18025 0.27619 -0.14112
0.20107 -0.29172 -0.28152
-0.11379 0.29172 0.32573
0.13378 -0.25053 -0.30621
0.05619 0.29172 0.19182
-0.05666 0.25740 -0.04109
-0.00010 0.27974 0.23065
0.04585 0.25914 0.14637
-0.13908 0.29172 0.21252
-0.02083 -0.25409 -0.27113
-0.21965 0.02373 0.31115
-0.13265 0.28479 -0.33194
-0.10003 0.25740 -0.22184
-0.21965 -0.06680 -0.29615
0.09003 0.28882 -0.09844
0.00586 0.25740 0.11616
0.04408 0.27497 0.22135
-0.03286 0.29172 0.25631
-0.10959 -0.29172 -0.27664
0.16111 0.25561 -0.00397
0.16196 0.29172 0.15132
0.11864 0.25740 -0.08305
-0.10067 0.29172 0.05998
-0.00010 0.27462 -0.19688
-0.15183 0.25740 -0.22623
0.18382 0.05890 0.27113
0.07956 0.29172 -0.09288
0.00166 0.27087 0.29956
-0.06182 0.25740 -0.19086
0.11316 -0.25143 -0.27113
0.14088 0.27381 0.33769
-0.03520 0.25740 -0.13980
0.12784 0.25884 0.34155
0.10754 0.29172 0.23533
0.04160 0.25740 -0.28607
0.15670 0.25740 0.28220
-0.13265 0.25920 -0.14971
0.08788 0.25740 -0.07126
0.11607 -0.29172 0.30988
0.04585 0.27973 -0.10569
-0.18700 -0.09642 -0.31231
-0.04252 0.25769 -0.29842
0.09179 0.25740 -0.29151
0.11838 0.25740 -0.32277
-0.21866 0.18966 0.31231
0.09003 0.27773 -0.28715
-0.01819 0.29172 0.28633
-0.01150 -0.25053 -0.29218
0.08415 0.29172 -0.01292
0.17663 0.27086 0.29857
-0.21965 -0.01695 -0.28662
0.00840 -0.29172 0.28370
-0.14942 0.25740 -0.19779
-0.03440 0.29172 -0.13731
-0.08847 0.27472 -0.21912
0.04408 0.27790 -0.11644
-0.16526 0.25561 -0.27081
0.03200 0.25740 0.09579
0.09003 0.29162 -0.18742
-0.18025 0.28093 -0.16204
0.15247 -0.28675 0.31231
0.02664 -0.26077 -0.31231
-0.08670 0.28118 -0.19330
-0.12960 0.25740 -0.24182
0.16051 0.29172 0.00930
0.17575 0.25740 0.32508
-0.04252 0.26124 -0.08735
-0.18800 0.04138 -0.31231
0.08826 0.27785 0.12259
-0.08847 0.26360 -0.00262
-0.18025 0.26341 -0.02651
-0.13088 0.27302 -0.22733
0.01321 0.25740 -0.04224
0.15410 0.25740 -0.14213
-0.17846 0.19229 0.27399
0.17663 0.27079 0.09104
-0.08670 0.25984 -0.24111
-0.13088 0.26390 -0.09763
-0.02970 0.29172 0.16717
0.15640 0.25740 -0.23069
-0.00488 0.25740 0.20842
0.06780 0.27719 -0.34155
0.13421 0.25878 -0.23280
-0.00010 0.27337 0.14501
-0.19082 -0.21798 0.31231
-0.08847 0.26569 0.07460
-0.17846 0.12657 0.31150
-0.18409 -0.09511 -0.27113
0.18025 0.28437 0.02197
-0.00010 0.28552 -0.01484
-0.10773 0.25740 -0.11502
-0.06675 0.25740 0.29657
-0.20843 0.05315 -0.27113
0.13244 0.28300 -0.30105
-0.04252 0.26752 -0.16445
0.13421 0.26857 -0.19514
-0.11961 0.26367 -0.33827
-0.21512 -0.29172 -0.30821
-0.13088 0.28275 -0.05734
-0.09731 -0.29172 0.27639
-0.17506 0.26547 -0.06058
-0.08847 0.29032 0.23160
-0.04252 0.25971 0.05393
0.12461 0.25561 -0.32559
-0.19527 -0.08320 -0.27113
-0.05878 0.25740 -0.01997
0.08826 0.25836 0.29425
0.12185 0.25740 -0.10148
0.15745 0.29172 0.15869
0.15380 0.25740 -0.18397
-0.21189 -0.07822 -0.27113
0.21965 0.02006 0.27795
-0.10158 0.29172 0.02245
-0.13265 0.26209 0.21273
-0.09185 0.25740 -0.31435
-0.20530 -0.15317 -0.27113
-0.21965 0.22402 0.28873
-0.11587 0.25740 -0.05168
0.17846 -0.20504 -0.30299
0.21830 -0.22283 -0.27113
-0.01389 0.29172 0.06275
0.14067 0.26207 -0.33827
0.05472 0.29172 0.11198
-0.00010 0.29149 -0.17125
0.04585 0.27238 -0.21094
0.12239 0.29172 0.08596
-0.08220 0.29172 0.19075
-0.02661 0.29172 -0.30432
0.21965 -0.01363 0.29734
0.21728 -0.25373 0.31231
0.20544 -0.00969 -0.31231
-0.19572 0.16604 0.27113
0.04117 0.28410 0.34155
-0.00613 0.25740 0.22745
-0.16486 0.29172 -0.29686
0.21965 0.23706 -0.29402
-0.17846 -0.14397 0.31163
-0.21768 -0.22940 -0.27113
0.18025 0.26927 0.32448
0.21260 -0.27807 -0.31231
0.01564 0.25740 -0.11010
-0.05468 0.29172 -0.14606
0.13421 0.26909 0.11629
0.17846 0.09305 0.28933
-0.17846 -0.02406 0.30106
0.00798 0.25740 -0.17217
0.21965 -0.20273 -0.27916
0.17846 -0.05785 0.29946
0.17846 -0.11850 -0.27279
0.18808 -0.25924 0.27113
-0.14114 -0.29172 -0.28258
0.17846 -0.10718 -0.28330
-0.19228 -0.29172 0.30933
0.08194 0.25740 -0.09288
0.10483 0.29172 -0.19339
-0.00403 0.29172 0.20821
0.20568 0.12470 -0.27113
-0.11124 0.25740 -0.13410
-0.19893 -0.20521 -0.27113
0.16805 0.29172 0.24234
0.08826 0.26910 -0.16560
0.16555 0.25740 0.03103
0.10356 -0.29172 0.28301
-0.08670 0.26470 -0.20460
-0.13088 0.27746 -0.01487
-0.10105 0.25740 0.02276
-0.08670 0.28458 -0.27231
0.01379 0.25740 0.31743
0.17663 0.26443 -0.29528
-0.00010 0.26399 0.29539
0.21965 0.25090 -0.27244
-0.13088 0.28834 0.15278
-0.21575 0.13800 -0.31231
-0.17846 0.18161 -0.27629
0.08826 0.25967 0.08191
0.19171 -0.16413 -0.27113
-0.04907 0.26119 0.33769
-0.04428 0.26047 -0.07614
-0.09804 0.25947 0.33769
0.17846 -0.14546 -0.27333
0.17852 -0.04565 -0.27113
0.17463 0.25740 0.11183
-0.00010 0.28387 -0.13156
-0.00010 0.27859 0.17753
-0.17846 -0.19642 0.27420
0.04199 0.25740 -0.31450
0.13244 0.28823 0.23869
0.21548 0.07667 -0.31231
0.20600 0.10116 -0.31231
-0.21630 0.15796 -0.31231
0.18025 0.27788 0.16268
0.00166 0.27937 -0.33517
-0.20020 -0.18820 0.27113
-0.11420 0.25740 0.25843
0.08826 0.28284 -0.03264
0.21781 0.24431 -0.27113
-0.09586 0.25740 0.03100
-0.21533 0.16226 0.31231
0.20870 0.19765 -0.27113
-0.13088 0.26194 0.24036
-0.04428 0.27024 -0.03727
0.18750 0.27883 -0.29779
0.17094 0.25561 0.26141
-0.07843 -0.29172 0.30128
0.17663 0.27605 0.31290
-0.18474 0.22338 -0.27113
-0.08670 0.27987 0.15801
-0.04057 0.29172 -0.28062
-0.16373 -0.29172 -0.30660
-0.03922 -0.26664 -0.31231
-0.18113 -0.25101 0.31231
0.10789 0.29172 -0.01545
-0.15183 0.25740 0.05021
0.17846 0.18884 0.28528
-0.01405 -0.25851 -0.31231
0.19995 -0.05269 0.27113
0.04408 0.27436 0.05864
-0.15332 0.25740 0.00275
0.11015 0.26970 -0.33827
0.05008 0.29172 0.26163
0.04408 0.28921 -0.29796
0.19999 -0.02486 0.27113
-0.02831 0.25740 0.15700
0.21063 -0.00723 0.27113
0.13244 0.26724 0.17054
-0.04252 0.26867 0.33401
0.12536 0.29172 0.15054
-0.21521 -0.20091 0.31231
-0.15090 0.29172 -0.03521
0.12489 0.25740 0.14322
0.01100 -0.27561 0.27113
0.08313 0.29172 0.15549
0.06831 0.25851 -0.33827
-0.17846 -0.09501 -0.31145
0.01563 0.29172 0.28560
0.10724 0.29172 -0.24839
-0.13895 0.29172 -0.01534
-0.07838 -0.28271 -0.31231
0.20964 -0.29172 -0.29488
0.17511 0.25561 -0.28063
0.19578 0.24134 -0.27113
0.00166 0.28975 0.23345
0.00998 -0.25053 0.27765
0.18040 -0.06207 -0.27113
0.00642 0.29172 0.30373
0.11716 0.29172 0.18753
0.17846 -0.09771 -0.29616
0.04408 0.26049 0.09623
-0.04946 0.29172 -0.30556
0.21965 -0.01680 -0.28310
0.10413 0.25740 0.19886
0.04408 0.26629 -0.15838
0.01683 -0.25480 0.27113
-0.00622 -0.27259 -0.27113
0.11098 0.25740 0.17686
0.04408 0.29086 -0.04307
-0.14397 0.25740 -0.21373
-0.17566 0.25740 0.02902
-0.13007 0.25561 -0.31508
0.13421 0.28902 -0.20111
0.15304 -0.29172 -0.29112
0.20369 0.03119 0.27113
