0.08596 0.19059 0.41982
-0.05389 0.20471 0.11449
0.13882 0.19059 -0.31056
-0.06409 0.20471 0.19032
0.12353 0.13573 -0.07680
0.16942 0.19424 -0.08441
-0.06376 0.19059 -0.15804
0.02541 0.19059 -0.16957
0.03755 0.20471 -0.12672
-0.15638 -0.18532 0.39128
-0.16885 0.19059 -0.25809
0.13548 -0.06688 -0.40926
-0.07742 0.19059 -0.25416
0.01880 0.20471 0.15810
0.12353 0.14323 -0.28544
0.12353 0.14007 -0.25568
-0.10102 0.20471 0.39236
-0.12353 0.16264 -0.19371
0.13089 0.20471 0.40692
-0.13013 0.20471 0.34022
-0.11095 0.18777 0.36530
0.16795 0.20471 -0.38828
0.02047 0.20471 -0.05339
0.03272 0.19059 -0.17234
0.13412 0.15996 0.21858
0.15651 -0.10598 -0.40486
-0.13281 0.13412 0.15498
-0.13064 -0.20272 -0.37769
0.13708 -0.15364 0.38599
-0.03753 0.16591 -0.38825
-0.14555 -0.04709 -0.38430
-0.15579 0.19059 0.23597
0.14377 0.19059 -0.37791
-0.07062 0.19059 -0.20136
0.16205 0.20471 -0.08354
-0.02617 0.20471 -0.25453
-0.09232 0.19059 -0.33218
-0.06722 0.20471 -0.03991
0.07199 0.19059 0.03116
-0.01742 0.20471 -0.00565
0.03038 0.20471 -0.25033
-0.06397 0.20471 0.12365
0.13412 0.14114 0.14154
-0.01766 0.19059 -0.04591
0.08482 0.19059 -0.19998
0.03669 0.19059 0.10032
0.14724 0.19059 0.01809
-0.16114 0.19059 0.16508
-0.13412 0.18399 0.27429
0.15460 0.20471 -0.36340
0.11014 0.20471 -0.14649
-0.16027 0.19228 -0.42355
0.08113 0.20471 -0.02027
-0.12353 0.14060 -0.12401
0.04932 0.19059 -0.07119
-0.04366 0.19059 -0.10784
-0.13412 0.17795 -0.34294
-0.10961 0.19059 0.37428
0.13412 0.13559 0.14497
0.05214 0.20471 0.17268
0.15456 0.20471 0.28392
-0.12353 0.13706 -0.14678
0.14740 -0.17648 0.39639
-0.03000 0.20471 0.19476
0.12266 0.16719 0.36177
-0.09085 0.16208 0.37766
-0.06847 0.20471 -0.19129
-0.10649 0.16107 -0.37309
0.15027 0.11701 -0.38563
0.12353 0.14480 -0.31736
-0.16384 0.20471 0.32292
-0.09581 0.20471 0.36674
-0.14370 -0.17648 0.39227
-0.13678 0.19059 -0.08212
0.08103 0.20471 -0.06933
-0.13412 0.18930 -0.22631
-0.00413 0.19059 0.17740
-0.15402 -0.17648 -0.40208
-0.12056 0.15584 -0.36030
0.01922 0.20471 0.32225
0.02692 0.18615 0.38825
-0.12749 0.20471 -0.19912
0.13412 0.17226 0.11341
0.12353 0.18666 0.02062
-0.07620 0.19059 -0.32262
0.13091 0.13412 -0.28198
-0.15220 0.19059 -0.07220
-0.00180 0.13451 0.38825
0.12353 0.15017 0.01746
0.03855 0.20471 0.19096
-0.05257 0.16570 0.37766
0.02643 0.20471 0.26815
0.14909 0.16765 0.41132
0.13227 -0.00354 -0.40580
0.11997 0.19059 -0.03814
-0.13006 -0.05545 0.39771
-0.03944 0.19059 0.29903
-0.03363 0.20471 -0.00496
-0.10580 0.15609 0.38913
-0.05058 0.19059 -0.36215
-0.00676 0.20471 0.22421
0.03387 0.19059 0.16878
0.14042 0.20471 -0.22890
0.14420 -0.20471 -0.39992
0.10396 0.19059 -0.21904
0.04967 0.20471 -0.32348
0.02016 0.20471 0.41507
0.13412 0.18960 -0.26686
-0.05072 0.19059 0.05395
0.12353 0.15782 -0.13056
0.04918 0.19059 -0.06318
-0.01099 0.20471 -0.10327
0.12353 0.14544 0.24532
0.15259 -0.04857 -0.38710
-0.07869 0.19059 -0.39971
0.13500 0.15256 0.35004
-0.15574 0.19059 0.02712
-0.13412 0.18227 0.23503
0.10634 0.15117 0.37384
-0.12353 0.14689 -0.05907
-0.12353 0.15559 -0.19585
0.14664 0.19059 0.08511
0.00256 0.19059 -0.42114
-0.12353 0.13646 -0.31016
0.16138 0.19059 -0.15059
0.03067 0.19059 0.04924
0.15197 0.08867 0.40984
0.11070 0.13432 -0.37112
-0.13245 -0.20118 -0.41151
0.09418 0.19059 -0.22217
0.00725 0.19059 0.01112
-0.13018 0.19059 0.40869
-0.04730 0.19059 -0.30895
-0.16942 0.20117 -0.19162
0.09961 0.19059 -0.20648
0.13832 -0.10766 -0.38548
0.13012 0.01590 0.39922
0.13906 -0.14881 0.38517
0.13416 0.09119 0.40825
-0.10585 0.19059 0.32099
-0.13412 0.16388 0.05711
-0.14923 0.19059 0.19917
0.12353 0.13457 0.00110
0.01652 0.19059 0.13354
-0.15074 0.02209 -0.38583
0.15443 0.12471 -0.38869
-0.13412 0.13605 0.16479
-0.16810 0.20471 0.01067
0.13412 0.13914 -0.07967
-0.08740 0.19059 0.17595
-0.12353 0.13643 -0.22888
-0.15761 0.06596 0.40221
-0.14350 0.20471 -0.08816
-0.13293 -0.20358 -0.40667
-0.12353 0.17471 0.32888
0.02535 0.19059 0.02576
0.13412 0.16595 0.25997
-0.12353 0.17478 -0.18140
0.05522 0.19059 -0.16450
0.08920 0.20471 -0.00813
-0.05304 0.19059 0.40540
0.04220 0.19059 -0.01321
0.12284 0.19059 -0.19019
0.15871 0.20471 0.20435
0.09111 0.19059 -0.15579
0.13482 -0.15572 -0.38771
-0.14269 0.20471 -0.39019
0.03647 0.20471 -0.24457
-0.13412 0.16995 -0.27741
-0.11726 0.20471 -0.24789
0.13412 0.13897 -0.10558
0.00255 0.20471 -0.38575
0.13278 -0.02068 -0.38999
-0.15797 -0.17626 0.40013
-0.14158 -0.06081 -0.38445
-0.06505 0.20471 0.03650
0.16942 0.19155 0.22170
0.13262 -0.20187 0.41999
-0.13412 0.15774 -0.26656
0.05881 0.19059 -0.29079
0.16538 0.20471 0.06230
0.00013 0.20471 0.24147
0.12353 0.19008 -0.03367
0.14048 -0.17648 -0.39213
-0.08387 0.16407 -0.38825
0.01680 0.19059 0.28674
0.13412 0.15769 0.19472
0.10378 0.20471 0.25704
-0.03122 0.20471 -0.04864
0.16254 0.20471 0.35565
-0.13412 0.17603 -0.29958
-0.01866 0.20471 0.08080
0.13022 0.17355 0.39649
-0.15790 0.13524 -0.39574
0.10794 0.19059 -0.07739
-0.00556 0.20471 0.00958
0.14027 0.04546 0.41179
0.15545 0.20471 -0.02320
0.13005 -0.06796 -0.39774
0.03730 0.19059 -0.26133
-0.14622 0.19059 0.02265
0.13619 0.19059 -0.10685
0.06191 0.20471 0.39789
-0.13327 0.13412 -0.17698
0.07928 0.19059 0.21291
-0.14581 -0.03884 -0.41213
0.01212 0.19059 0.03212
0.13924 0.19059 0.41456
-0.15465 0.02150 0.40748
-0.16942 0.20156 -0.26746
0.14337 0.19059 -0.16447
-0.12353 0.13861 -0.32823
-0.13784 -0.03518 -0.41079
0.16942 0.19307 -0.14775
-0.16942 0.20050 0.38355
-0.06390 0.20471 -0.30671
0.02538 0.20471 0.06873
0.05585 0.17954 0.37766
0.11034 0.19059 -0.30787
-0.00770 0.20471 0.33309
0.08696 0.20471 -0.23191
0.15794 0.07233 -0.40036
0.15373 0.04704 0.38798
0.06179 0.19059 -0.41430
0.15802 -0.12975 -0.39672
-0.13029 0.09254 0.39593
-0.13055 0.13412 -0.25270
-0.12979 0.20471 0.25193
-0.13261 0.06608 0.39022
-0.11542 0.20471 0.12096
0.15762 0.19059 -0.31403
0.03649 0.20471 0.21355
0.13754 -0.20118 0.41770
-0.10025 0.19059 -0.10637
0.04363 0.19059 0.16380
0.06646 0.19059 -0.23619
0.13972 0.19059 0.07596
-0.10564 0.20471 -0.16725
0.13412 0.18979 0.18509
0.16485 0.19059 -0.00440
0.13019 -0.08587 0.39974
-0.10497 0.16024 0.37766
-0.11219 0.20471 0.15760
0.13386 0.20471 0.19627
-0.08412 0.20471 0.36592
0.12353 0.18915 -0.30207
0.00570 0.20471 0.32526
-0.10742 0.19059 -0.40042
0.13009 -0.07372 0.39743
-0.13359 0.14790 -0.40753
0.10617 0.20471 0.38395
0.15511 0.02445 0.38958
0.13380 0.18382 -0.40040
-0.12034 0.20471 -0.25297
-0.12065 0.19059 -0.31025
0.13006 -0.05150 0.39767
-0.08146 0.19059 0.10013
-0.12921 0.20471 -0.38840
0.05617 0.20471 0.24277
-0.00146 0.20471 -0.41457
0.16870 0.20471 -0.36845
0.00352 0.20471 -0.25206
0.02907 0.20471 -0.40480
-0.13680 0.19059 0.01742
0.07937 0.19059 0.31730
0.15542 0.12170 0.40648
0.15233 0.20471 -0.28877
0.12171 0.20471 0.18751
-0.07308 0.19059 -0.12302
-0.14207 -0.04076 0.38438
0.12138 0.14219 -0.36234
0.15661 0.19059 -0.15430
0.07035 0.13525 -0.37766
0.12353 0.15987 -0.06375
0.15783 -0.02869 -0.39526
0.05780 0.14885 0.38825
0.13412 0.17991 -0.07285
-0.15856 -0.20471 0.41206
0.06166 0.20471 0.17457
-0.13412 0.15348 0.31683
-0.11043 0.20471 0.17862
-0.12304 0.19059 0.35087
0.07712 0.19059 -0.26061
0.00201 0.19059 0.35202
0.12353 0.15051 0.15266
0.14130 0.05476 0.41198
-0.12815 0.13412 0.04168
0.04898 0.19059 0.11735
-0.15049 -0.17648 0.39941
0.07702 0.19059 -0.14993
-0.00353 0.20471 0.38677
0.15736 0.20471 0.28004
0.12353 0.18368 0.19015
-0.14672 0.04158 -0.41201
0.09774 0.14296 0.37766
0.05243 0.20471 -0.17236
0.13406 -0.19563 0.40814
-0.10934 0.20471 -0.22413
-0.14874 0.20471 -0.19004
-0.13187 0.00925 -0.40527
0.15694 0.20471 -0.40041
-0.16536 0.20471 0.14343
0.00068 0.19059 0.08690
0.15289 0.20471 -0.09967
-0.11809 0.19059 0.11217
-0.06531 0.19059 0.02251
-0.11292 0.20471 -0.36395
0.16700 0.19059 0.15373
0.04283 0.19059 0.06949
-0.12353 0.14494 0.12954
0.15640 0.20471 0.05852
0.05626 0.19059 -0.01113
-0.15784 -0.13480 0.39530
-0.13412 0.17670 0.17770
0.14662 0.20471 -0.41836
-0.11653 0.20471 0.34601
-0.12353 0.16358 -0.08890
0.13412 0.14921 -0.19607
-0.03493 0.19059 -0.15193
-0.12353 0.18184 -0.28219
-0.13685 0.20471 0.38134
0.16942 0.19926 -0.11540
0.13263 0.19059 -0.39398
-0.14601 0.20471 -0.05348
0.00748 0.20471 0.21312
0.01497 0.19059 0.21720
0.13412 0.13946 -0.12978
0.06977 0.20471 0.08032
0.10711 0.19059 0.40954
0.15710 -0.08092 0.40343
0.03117 0.20471 0.23409
0.08222 0.19059 -0.13714
0.04741 0.20471 0.16940
0.11609 0.19059 0.02345
0.02623 0.20471 0.05207
-0.02362 0.20471 -0.22988
-0.16942 0.20074 0.08678
-0.14668 0.19059 -0.36481
0.10645 0.19059 0.13625
-0.09818 0.20471 0.24319
-0.07251 0.20471 -0.32033
-0.13412 0.15768 -0.30342
-0.16942 0.19951 -0.05070
-0.01520 0.20471 -0.40700
0.10642 0.16268 0.38076
-0.12353 0.18260 0.17697
0.13349 -0.04538 0.40739
0.09269 0.20471 -0.19912
-0.05502 0.20471 0.33620
0.14727 -0.09822 0.41193
-0.16694 0.20471 0.20701
-0.02024 0.20471 -0.40032
0.13104 0.20471 -0.18299
-0.14564 0.17994 -0.39404
-0.12353 0.16093 -0.08394
0.03404 0.20471 0.10160
0.13035 0.10437 0.39546
-0.16442 0.20471 -0.35910
-0.15265 0.20402 0.42355
-0.11681 0.19059 -0.21111
-0.13647 0.20471 0.25114
0.14498 -0.15533 -0.38423
-0.09738 0.17169 -0.38913
0.05190 0.20471 0.00590
0.03490 0.17652 0.37766
0.15712 0.07613 0.39308
0.16942 0.20384 -0.23387
-0.06699 0.20471 -0.26771
0.13389 -0.14270 -0.38855
0.14111 -0.19106 0.41196
-0.16942 0.19825 -0.24723
0.13412 0.16317 0.23239
-0.10672 0.17830 -0.37241
0.16671 0.20471 -0.32734
0.08159 0.20471 -0.27015
-0.13412 0.13759 -0.28674
-0.13412 0.18073 -0.30072
0.07959 0.16284 -0.37766
-0.15325 0.20471 0.00236
0.12631 0.13412 -0.09842
0.12353 0.17601 0.00756
-0.13412 0.16419 -0.15142
0.01170 0.19059 0.30465
-0.14163 0.19059 0.04239
0.02775 0.19059 -0.30770
0.04872 0.19059 0.35193
0.13520 0.14791 0.38742
0.16128 0.20471 -0.00223
0.01187 0.20471 0.04385
-0.01032 0.19059 -0.01002
0.13412 0.14219 0.26782
-0.09389 0.19059 -0.27525
0.00529 0.20471 -0.30959
-0.14796 -0.06404 0.38468
0.01151 0.19059 0.00738
-0.15827 0.20471 -0.36197
0.09921 0.20471 -0.35529
0.06406 0.20471 0.01049
0.04309 0.20471 0.04938
0.05239 0.19059 0.08743
-0.08786 0.19059 -0.19196
0.00024 0.18468 -0.37766
-0.02070 0.19059 -0.28648
0.12353 0.17541 -0.14161
0.05493 0.20471 -0.31482
0.05089 0.20471 -0.20272
-0.03584 0.19059 0.30252
0.01970 0.20471 -0.31804
-0.13437 -0.13814 0.40841
0.14492 0.20471 0.23664
0.10745 0.19059 -0.00043
0.04066 0.20471 0.13824
-0.15685 -0.16961 -0.40404
0.01199 0.19059 -0.24754
0.04513 0.19059 0.37013
0.08646 0.20471 -0.28881
0.11163 0.19059 0.24123
0.01781 0.19059 -0.02960
0.08355 0.19059 -0.27837
0.12228 0.20471 0.29681
-0.07062 0.20471 0.33775
-0.11340 0.13961 0.36785
0.13167 0.16826 0.40480
0.04437 0.20471 0.10535
-0.16942 0.20174 -0.02222
-0.02692 0.20471 -0.23812
-0.15805 0.08760 0.39957
-0.13412 0.15891 0.28486
-0.08912 0.20471 0.36969
-0.02573 0.19059 -0.20601
0.09326 0.20471 -0.04338
0.15545 0.19059 -0.21928
-0.13412 0.13636 -0.10386
0.15407 0.19059 0.28715
-0.14646 -0.16579 -0.41204
-0.14658 0.04319 0.41202
0.13412 0.17636 0.09468
0.11234 0.19059 0.26175
-0.13412 0.18151 -0.18063
-0.10260 0.20471 0.36491
0.12444 0.20471 0.32368
0.05727 0.20471 0.29540
0.13500 0.15400 0.35805
0.09001 0.20471 0.08262
-0.08504 0.20471 -0.28975
0.01616 0.19059 -0.32164
-0.15279 -0.20471 0.37746
-0.09893 0.15895 0.38913
-0.00846 0.14744 0.38825
-0.14996 -0.02317 -0.41096
-0.07286 0.20471 -0.35981
0.06348 0.20471 -0.26193
0.12672 0.20471 0.25374
-0.13412 0.14919 -0.17480
0.06434 0.19059 -0.35737
-0.16942 0.19904 -0.17041
0.13002 0.05337 -0.39849
-0.14265 0.19059 -0.29411
0.11020 0.19059 -0.07047
0.10756 0.17247 -0.37024
0.16330 0.20471 -0.04967
-0.03823 0.19059 0.01729
-0.14119 0.20471 0.01729
-0.13412 0.16147 0.31812
0.06258 0.20471 0.28116
0.09061 0.19059 0.07447
-0.01560 0.19059 -0.06209
-0.10886 0.19059 0.23739
0.03923 0.17622 0.38825
-0.15437 0.15424 0.40785
0.08391 0.19059 0.28704
-0.12802 -0.20471 -0.41234
0.09862 0.19805 0.42355
0.15775 0.19059 -0.26164
0.08569 0.20471 0.28615
-0.00435 0.19726 0.42355
0.09967 0.19059 -0.13803
0.16254 0.20471 -0.35652
0.10825 0.19059 0.06699
0.10722 0.19059 -0.11549
0.05671 0.19059 0.06169
-0.13412 0.14053 -0.29306
0.13816 0.20471 0.23090
-0.14751 0.20471 -0.15797
0.12353 0.17738 -0.06960
0.12252 0.19059 -0.31682
-0.07481 0.20471 0.14004
-0.14893 -0.09889 0.41138
-0.13412 0.18851 0.22851
0.13412 0.13594 -0.18339
0.15784 -0.10958 -0.39533
-0.05441 0.13412 -0.38338
-0.08729 0.20471 -0.19567
0.08310 0.13513 0.38825
-0.15794 0.04515 0.39606
0.12889 0.13412 -0.13093
-0.06788 0.20471 -0.08166
0.13378 0.18073 -0.36001
-0.12429 0.13412 0.02009
-0.07846 0.19059 0.05175
-0.14137 0.19059 0.35872
0.13412 0.13748 0.03135
-0.12353 0.15056 0.17404
-0.16942 0.19709 -0.04027
-0.04811 0.19059 0.34999
0.09444 0.19059 0.30271
-0.12462 0.20471 0.24507
-0.16942 0.19074 -0.21844
0.13412 0.16235 0.23744
-0.14924 -0.08455 0.41126
-0.11420 0.20471 -0.22525
0.13412 0.18312 -0.14527
0.12353 0.16120 0.08576
-0.10728 0.15046 0.37781
0.12353 0.17547 0.15191
0.10725 0.20471 -0.07123
0.14145 0.19059 0.15433
0.15312 0.16190 -0.38751
-0.15766 -0.16292 -0.39438
0.06787 0.13412 0.37872
0.05164 0.20471 -0.05226
0.15717 -0.14588 0.39320
-0.15428 0.19059 0.12055
-0.12353 0.17151 -0.07723
0.09844 0.19059 0.10879
0.05727 0.19059 -0.22726
-0.03529 0.19059 -0.29298
-0.03917 0.20471 -0.30959
-0.13188 0.00736 -0.39117
-0.16942 0.19698 -0.23036
-0.15782 -0.12045 -0.40132
-0.02463 0.20471 -0.20804
-0.02653 0.20471 0.12082
-0.02600 0.20471 -0.09509
-0.12353 0.14528 0.15853
-0.01588 0.20471 0.40214
0.12353 0.15929 -0.23294
-0.08040 0.19059 0.04230
0.02620 0.19059 0.04121
-0.13485 0.19059 0.29114
0.12961 0.13412 0.19648
0.10502 0.19059 -0.31552
0.07069 0.19059 -0.03336
-0.04197 0.20471 -0.35872
0.14663 0.19059 -0.41149
0.07332 0.14301 -0.37766
0.08355 0.15751 -0.37766
-0.15108 0.19059 -0.08597
0.16087 0.20471 0.12327
-0.10948 0.19059 0.22190
-0.15772 -0.12637 0.39451
-0.16032 0.20471 0.23961
0.14897 -0.08115 0.41137
-0.15679 -0.16510 0.40419
0.14791 -0.01552 0.38466
-0.13034 -0.00288 -0.40090
-0.14451 0.20471 0.15447
0.10960 0.20471 0.14456
-0.01837 0.19059 0.27674
0.05930 0.20471 -0.16892
0.05986 0.19059 0.23306
-0.08645 0.19059 0.29370
0.07576 0.20471 -0.17339
-0.01824 0.20471 -0.31159
-0.11554 0.20471 0.08667
0.14755 0.20471 -0.36232
0.15205 -0.13903 -0.40978
-0.12353 0.15685 -0.23830
-0.02512 0.19059 0.28043
-0.01018 0.19059 0.03017
-0.12353 0.17368 0.01165
-0.03510 0.20471 -0.06042
0.05872 0.19059 0.29403
-0.02701 0.19059 0.22717
0.12705 0.20471 0.13495
0.16480 0.19059 0.31720
0.13263 0.20471 0.12502
0.00222 0.20471 0.02940
-0.14092 -0.20460 -0.42252
-0.15575 0.19059 -0.08696
0.00389 0.19059 0.12227
0.11513 0.20471 0.06188
0.08051 0.19059 0.38978
-0.15915 0.19059 -0.19674
-0.12299 0.14336 0.36161
0.13412 0.16025 -0.23209
-0.12454 0.13412 0.35510
0.13046 -0.07831 -0.40180
0.11642 0.20471 -0.41197
-0.13412 0.16144 0.11399
0.13594 -0.20271 -0.37510
0.03572 0.20471 -0.03466
-0.01876 0.20471 -0.42292
-0.07953 0.20471 0.00747
-0.13412 0.14404 0.15019
0.07554 0.19059 0.39407
0.06441 0.19059 -0.40844
0.16942 0.20277 0.16434
0.04457 0.19059 0.37529
-0.06384 0.19059 0.04824
-0.15393 -0.03281 0.40834
-0.01614 0.20471 0.38721
-0.14379 0.20471 -0.17989
0.05396 0.20471 -0.12359
0.05729 0.20471 0.25437
0.07048 0.20471 0.19107
-0.15927 0.20471 0.22130
0.12353 0.15725 0.21615
0.13370 0.16405 0.40766
0.11757 0.20471 -0.23513
-0.04207 0.20471 -0.26455
-0.11523 0.19059 -0.24976
0.13225 0.01604 0.39069
-0.09577 0.20471 0.14849
-0.00976 0.19059 -0.14103
-0.15119 0.20471 0.05983
-0.00347 0.19059 0.20630
-0.02340 0.19059 0.19839
0.09444 0.20471 -0.23351
0.08410 0.19059 -0.17702
-0.15320 0.19059 -0.18548
0.12119 0.20471 0.39034
-0.03523 0.19059 0.21621
0.01984 0.20471 -0.18505
0.13412 0.18842 -0.30781
-0.15675 -0.19505 -0.40429
0.04437 0.19059 -0.40020
-0.05272 0.19059 0.19242
-0.13412 0.13724 -0.19104
0.08196 0.20471 -0.29897
0.03909 0.18843 -0.38825
-0.08266 0.15397 0.37766
-0.12353 0.16418 0.13143
0.04576 0.18455 0.38825
0.00979 0.19059 0.15897
0.12353 0.14981 0.09046
0.16204 0.19059 0.20838
-0.04250 0.20471 -0.02558
0.14022 0.20471 -0.11177
0.14006 0.02975 -0.38476
-0.03187 0.20471 -0.39307
0.15597 0.19059 -0.19362
-0.13156 0.16652 0.36001
0.13799 0.20471 0.12226
0.06165 0.20471 -0.14209
-0.13412 0.15863 -0.10823
-0.12130 0.20471 0.38233
-0.13727 0.17994 -0.40276
-0.09111 0.19059 -0.03938
-0.01150 0.19059 -0.00083
0.09773 0.13412 0.38521
0.03277 0.14885 -0.38825
0.13412 0.13651 -0.06472
-0.12353 0.17229 -0.16416
-0.00974 0.20471 0.38256
-0.12353 0.16337 -0.17445
0.15005 0.20471 0.05120
-0.02547 0.18862 0.38825
-0.05732 0.20471 -0.22110
0.07495 0.20471 -0.14295
0.13467 -0.08424 0.38783
0.13706 0.19059 -0.16494
-0.12353 0.18999 -0.12334
-0.16670 0.20471 -0.08236
0.12353 0.17946 0.28899
-0.03792 0.15072 0.38825
0.04802 0.20471 0.19295
0.04704 0.20471 0.37147
0.04519 0.20471 0.22919
0.00631 0.20471 -0.16920
0.05558 0.19059 0.07885
0.06717 0.19059 0.16318
-0.01707 0.19059 0.26732
0.01437 0.19059 0.24047
0.13412 0.16684 -0.24760
0.10138 0.17943 0.37766
-0.16942 0.19434 0.10707
-0.10126 0.19059 0.10026
0.15919 0.19059 -0.07304
-0.16942 0.19937 0.41526
0.16942 0.19194 0.41770
0.12598 0.20471 0.03181
-0.15039 0.15471 0.41078
0.14345 0.19059 -0.21988
0.05537 0.20471 -0.40062
-0.09279 0.15775 -0.38913
0.00469 0.19059 -0.36644
0.11230 0.20471 -0.17675
0.15606 -0.05038 -0.39082
-0.15160 0.00568 -0.41013
-0.12353 0.15748 0.03384
0.16800 0.19059 -0.17860
0.06327 0.20471 -0.24632
0.16645 0.19059 0.25874
-0.15404 0.10953 -0.40825
0.10476 0.16014 0.38913
0.15133 -0.13074 0.41034
0.07987 0.19059 0.27177
-0.13412 0.14686 -0.30542
0.00513 0.20471 0.39489
0.14621 -0.13024 -0.41207
-0.07244 0.13412 0.37920
0.04772 0.17280 0.37766
0.12353 0.14156 0.11856
0.01159 0.19059 -0.25268
-0.11884 0.19059 -0.41535
-0.15386 0.13303 -0.40839
0.09566 0.20471 0.39882
0.14012 0.20471 -0.39117
-0.03029 0.19059 -0.27397
0.09932 0.19431 -0.42355
0.13737 0.20471 -0.06771
-0.14642 0.20471 -0.16290
-0.12353 0.14897 -0.07294
0.09921 0.20471 -0.39012
-0.09603 0.19059 0.03485
-0.13265 -0.20471 0.40367
0.13262 0.17994 -0.40376
0.12353 0.16144 -0.05627
-0.00879 0.20471 0.08696
-0.04692 0.19373 0.42355
0.10157 0.20471 0.03950
-0.02648 0.19059 0.18580
-0.13052 0.20471 0.28470
0.13412 0.14156 -0.30872
0.11692 0.14953 0.36488
0.14363 0.19059 -0.19628
0.16942 0.19394 -0.42296
0.03927 0.20471 0.01612
0.12671 0.20471 -0.41425
-0.13901 0.20471 0.36940
0.13699 0.19059 -0.00609
-0.16942 0.20406 -0.10617
0.10201 0.20471 -0.25612
-0.06219 0.20471 -0.23477
-0.13412 0.16033 0.22726
0.14029 0.18354 0.41133
0.15370 0.14661 0.40852
0.10112 0.20471 0.39276
0.12353 0.17497 0.21178
-0.13298 0.16832 -0.38973
-0.12353 0.13992 0.03780
0.06066 0.19059 0.06509
-0.13412 0.15149 0.22291
-0.13412 0.14801 0.12734
-0.08098 0.20471 -0.40810
0.07276 0.19059 -0.18154
0.05856 0.20471 0.34114
-0.02472 0.19059 -0.16009
-0.13403 0.14633 0.38838
0.15616 -0.19403 0.40552
0.10651 0.19059 -0.38979
0.14078 0.06400 -0.38455
0.02887 0.19059 0.33783
-0.12121 0.13412 0.36108
0.13777 0.01857 0.41076
-0.14076 0.19059 0.07353
0.14574 0.20471 -0.17626
0.11220 0.20471 -0.01957
-0.01991 0.20471 -0.18853
-0.11810 0.20471 -0.16633
0.12930 0.13412 -0.11466
-0.12353 0.17898 -0.01180
-0.12353 0.13466 -0.06839
0.06862 0.20471 -0.36878
0.12353 0.15957 0.13544
0.03763 0.18841 0.37766
0.13683 0.20471 -0.28285
-0.03261 0.13690 -0.38825
0.01811 0.19059 0.06307
-0.13564 0.19059 0.07069
0.15792 0.10390 0.39590
0.15538 0.20471 0.41160
-0.13161 -0.03047 0.40464
0.12353 0.15196 -0.13268
-0.02639 0.20471 0.01098
-0.15663 -0.09157 0.39189
-0.04994 0.20471 -0.23852
0.12689 0.13412 -0.06700
-0.13050 -0.10695 -0.39450
-0.00149 0.20471 -0.07612
-0.09642 0.19059 0.25679
0.12353 0.17580 0.22163
0.02662 0.19059 0.05885
-0.12353 0.15174 0.14686
-0.00453 0.19059 0.23329
-0.06994 0.19059 0.34276
-0.13093 0.20471 0.05472
-0.11449 0.20471 0.21178
0.03374 0.19059 -0.36565
-0.09967 0.20471 0.19775
-0.04464 0.20471 -0.38300
0.01466 0.20471 -0.29098
0.16942 0.19353 0.02038
-0.13500 0.16028 -0.35441
-0.15251 -0.16674 -0.40942
-0.04868 0.20471 0.41561
-0.16857 0.20471 0.40113
0.11885 0.20471 -0.31248
0.12353 0.18473 0.32696
-0.04837 0.19059 -0.32951
0.06781 0.20471 -0.00594
-0.00341 0.19059 0.30833
0.07322 0.19059 0.33103
0.08610 0.20471 -0.08006
0.01880 0.20471 0.10899
-0.10961 0.20471 -0.04488
0.10589 0.15845 -0.38812
0.15017 -0.15029 -0.38559
-0.16857 0.19296 -0.42355
0.09479 0.19059 -0.40678
0.14594 -0.20471 0.39420
-0.06474 0.19059 0.26938
0.10606 0.19059 -0.02295
0.00194 0.20471 0.29254
0.16689 0.19059 0.17777
-0.12083 0.20471 0.08494
-0.03867 0.20471 -0.03671
-0.11738 0.19059 -0.37315
0.12780 0.19059 -0.39847
-0.02171 0.19059 0.14434
0.16183 0.19059 -0.01321
-0.12353 0.18941 -0.02611
-0.13412 0.14777 -0.13978
-0.15055 0.20471 0.03880
-0.04262 0.20471 -0.23969
-0.06410 0.19059 0.41447
-0.13412 0.13525 0.00055
-0.00930 0.18476 0.38825
0.15556 0.19059 0.31641
-0.00181 0.19059 0.29793
-0.12994 0.13412 0.01821
0.15043 0.19059 0.35273
0.13412 0.16101 0.26897
-0.07711 0.19059 -0.16197
0.15588 -0.00743 -0.40588
0.05938 0.20471 -0.08678
-0.05530 0.20471 0.09032
-0.08783 0.19059 0.37328
0.12353 0.18703 0.03318
-0.05255 0.19059 0.06674
0.15553 0.19059 0.33131
-0.16743 0.20471 -0.03559
0.13622 0.20471 -0.16647
-0.09036 0.19059 -0.30072
0.11908 0.20471 -0.09755
-0.12353 0.18013 0.21871
-0.14040 0.10402 -0.41185
-0.14891 0.20471 0.11002
0.13412 0.16969 0.03965
0.15549 0.16576 -0.39007
-0.14514 0.20471 0.30544
0.05646 0.19059 0.03970
0.04439 0.20471 0.37752
-0.08739 0.19059 -0.20533
0.15001 -0.14545 0.38553
-0.12353 0.13484 0.34058
0.14254 0.10205 -0.41214
-0.14804 0.06113 -0.38471
0.05536 0.18849 0.38825
0.02962 0.20471 0.25572
-0.14056 0.19059 -0.06346
0.09000 0.20471 -0.27193
-0.08039 0.19394 -0.42355
0.14788 -0.04650 -0.41182
0.12353 0.13955 -0.01982
-0.06482 0.20471 -0.00378
-0.12353 0.18025 0.15354
-0.13522 0.19059 -0.30691
-0.13725 0.19059 0.17158
-0.07442 0.20471 -0.08528
0.12895 0.20471 -0.39810
-0.14856 0.20471 0.03354
-0.10641 0.19059 0.18521
0.12353 0.19009 0.26228
-0.02620 0.19059 0.21303
0.14366 -0.06717 -0.38417
0.15119 0.20471 -0.14915
0.01513 0.19059 0.11259
-0.13412 0.18489 -0.06695
0.11529 0.20471 -0.17213
-0.13412 0.17124 -0.12903
0.06904 0.19059 0.05401
-0.14061 -0.14622 -0.38457
0.15088 0.17508 -0.38589
-0.07834 0.20471 0.42174
-0.03066 0.20471 0.10594
0.12353 0.14296 0.07279
-0.04317 0.19059 0.14541
0.12353 0.18100 -0.02802
-0.11306 0.20471 0.29273
0.05972 0.19059 0.28671
0.11523 0.19059 0.00838
0.13173 -0.17175 0.39154
0.15547 0.20471 -0.41016
0.12353 0.15155 -0.00450
-0.13412 0.15981 0.30626
-0.08442 0.19059 0.32597
-0.06246 0.19059 -0.11355
-0.08696 0.20471 -0.06652
0.12353 0.18424 0.35929
-0.15965 0.19059 0.01747
-0.11345 0.20471 0.05986
0.16942 0.19176 -0.36308
0.02224 0.20471 0.39710
-0.06899 0.20471 0.04052
-0.03164 0.20471 -0.10356
-0.06057 0.20471 0.31772
0.16942 0.19996 -0.40622
0.13412 0.18519 -0.31252
0.11822 0.19059 -0.27573
-0.01817 0.20471 0.05249
0.14982 0.19059 0.10372
0.10213 0.20471 -0.27189
0.11859 0.20471 0.34252
-0.15657 0.20471 -0.26081
-0.13412 0.16157 0.12255
-0.02227 0.20471 -0.12380
-0.13412 0.13783 0.01782
-0.00609 0.19059 0.24479
-0.13132 0.13412 -0.04240
-0.00264 0.19059 -0.11097
0.14947 -0.03041 -0.38530
0.08787 0.19059 0.12961
0.05021 0.19059 0.08242
-0.12353 0.17340 0.01680
-0.10010 0.19059 0.26224
0.13512 0.20471 -0.24426
-0.09100 0.14916 0.38825
0.03401 0.20471 -0.22632
0.06917 0.20471 -0.01845
0.04027 0.20471 -0.10994
0.02633 0.19059 -0.04239
-0.12353 0.18272 0.06179
-0.10863 0.20471 -0.20148
-0.12353 0.14198 -0.07966
-0.15931 0.20471 0.26690
0.07670 0.19059 0.20757
0.13412 0.14873 -0.10762
0.14632 0.20471 0.32845
-0.12353 0.13459 0.34691
0.05097 0.20471 -0.42146
-0.16536 0.20471 -0.31490
-0.12353 0.14291 -0.35385
0.16942 0.20313 0.23597
0.16942 0.19871 0.14508
0.04902 0.20471 -0.03134
0.13320 0.12621 -0.38945
0.07561 0.19591 0.42355
-0.15599 0.17155 -0.40574
0.09434 0.19059 -0.23875
-0.05597 0.20471 0.14115
0.12353 0.15688 -0.22291
-0.10589 0.14197 -0.38744
-0.13041 0.00268 -0.39504
-0.13607 -0.01913 -0.40971
0.16696 0.19059 -0.15715
0.04794 0.20471 -0.28225
-0.08972 0.20471 -0.17243
-0.07150 0.19059 0.17128
-0.13005 -0.01782 -0.39779
-0.02149 0.20471 0.09347
-0.00862 0.20471 -0.07382
0.15506 0.20471 0.34515
0.07419 0.20471 -0.39733
0.06595 0.20471 -0.22270
0.03655 0.20471 -0.40886
-0.10708 0.20471 0.15127
0.08318 0.19059 0.29522
-0.16942 0.20259 0.19120
0.07699 0.17685 -0.37766
-0.04723 0.19059 -0.24410
0.06006 0.17039 -0.38825
-0.03403 0.19059 -0.30892
0.09273 0.20471 0.34743
-0.09067 0.16497 -0.37766
-0.12353 0.13549 0.24915
0.13980 0.19059 0.01913
-0.16866 0.20471 0.06112
0.16942 0.19645 0.39770
-0.14570 0.20471 -0.41163
0.12353 0.13830 -0.14019
-0.02263 0.20471 -0.00594
0.08246 0.19059 0.17378
-0.03072 0.19059 0.09982
-0.06349 0.19059 0.12983
-0.13141 -0.02886 -0.39231
-0.03191 0.20471 -0.35026
-0.14308 -0.20471 0.41580
0.13412 0.16678 -0.00044
-0.03778 0.19059 -0.18734
-0.12353 0.16087 -0.24666
0.01990 0.18166 0.37766
-0.02669 0.20471 -0.01972
0.13412 0.14586 0.08431
-0.15587 -0.08991 -0.40590
-0.12353 0.15592 0.25700
0.05292 0.20471 0.09615
0.11646 0.20471 0.39413
0.03112 0.20240 0.42355
0.01098 0.16600 0.37766
-0.00059 0.18468 -0.38825
-0.15527 0.03160 -0.38979
0.10815 0.19059 -0.06616
0.14694 0.19059 -0.02046
-0.01495 0.20471 -0.14333
0.16942 0.20359 0.18419
-0.16264 0.19059 0.13909
-0.12353 0.16401 0.29207
0.07425 0.20471 -0.38373
0.10923 0.20471 0.18487
0.13412 0.15715 0.16923
0.09324 0.20471 -0.10362
-0.08646 0.20471 -0.29784
0.12353 0.17571 -0.08987
-0.15162 0.09450 0.41011
0.12358 0.20471 -0.21911
0.12353 0.16537 0.12419
-0.13040 0.10445 0.39507
0.04074 0.19059 0.03434
-0.10089 0.20471 0.11356
0.12109 -0.20118 -0.39431
0.12353 0.14354 -0.19757
-0.02331 0.20471 0.28758
0.12353 0.16606 -0.03237
-0.12353 0.14369 -0.28184
0.04083 0.19059 0.10486
0.13459 -0.20118 0.40932
-0.09214 0.20471 0.09498
-0.13500 0.15332 0.35538
-0.13989 0.19059 -0.09565
0.10467 0.19059 -0.01321
-0.12353 0.16492 0.06665
0.09584 0.19059 -0.20127
0.14725 0.20471 -0.23463
-0.07242 0.19059 0.28139
0.05754 0.19059 0.31256
-0.08536 0.20471 0.28354
0.15791 -0.09114 -0.40058
0.12353 0.16240 -0.11073
-0.08034 0.20471 0.08057
0.08988 0.19059 -0.36124
0.02711 0.19059 0.06941
0.03970 0.19059 -0.28942
0.13332 0.10782 0.40717
0.15709 -0.06236 0.39299
-0.15113 0.18354 -0.40786
-0.01486 0.20471 -0.01781
0.13412 0.15826 -0.13980
-0.13412 0.17906 -0.17520
0.12873 0.15414 -0.36024
-0.08575 0.20471 0.19835
-0.14478 0.19059 0.24588
-0.09754 0.17932 0.38946
0.14153 0.20471 -0.33447
0.05319 0.15495 -0.37766
0.14596 0.20471 0.40310
-0.00707 0.17031 -0.37766
0.11096 0.18473 0.36528
-0.12462 0.13412 0.20140
-0.05242 0.20471 0.13518
0.01648 0.19059 -0.06329
0.16942 0.19131 -0.12638
0.02160 0.20471 0.20822
-0.12353 0.17610 -0.00418
0.02096 0.18113 -0.38825
-0.16054 0.20471 0.00583
-0.14913 -0.02183 -0.38516
0.15318 -0.14683 0.40892
0.15372 0.20471 0.18955
0.15787 -0.06414 -0.39555
-0.03200 0.20471 0.23899
-0.15446 0.19059 0.06229
-0.13412 0.14145 -0.05971
0.08722 0.20033 -0.42355
0.13034 0.06457 -0.40093
0.12353 0.16758 0.11470
0.12353 0.18475 -0.00154
-0.03140 0.19059 -0.16683
0.16720 0.20471 -0.17448
-0.12353 0.16636 0.17351
-0.04356 0.19059 0.29144
-0.12129 0.19059 -0.39111
-0.11478 0.20471 0.04671
-0.01614 0.20471 0.32449
-0.05408 0.19059 0.39483
0.05766 0.20471 -0.09272
-0.12353 0.18417 -0.02864
0.15818 -0.03777 -0.39857
-0.00182 0.20471 -0.17041
0.12353 0.16127 0.32467
-0.16401 0.20471 -0.10175
0.10399 0.19059 0.33066
0.16728 0.19643 0.42355
-0.10530 0.19059 0.32945
-0.01072 0.20471 -0.15177
-0.14338 0.20471 0.18210
0.11007 0.20471 0.04986
-0.13412 0.17605 -0.06148
-0.13664 -0.12193 -0.38632
-0.12353 0.14906 -0.33296
0.14437 0.19059 -0.16986
-0.13412 0.15333 0.11801
0.13412 0.14815 0.23645
0.12353 0.15157 0.31651
-0.11754 0.19059 -0.33210
0.13371 0.13589 0.38879
0.10440 0.19059 0.08099
0.14793 0.19059 0.30695
-0.14370 -0.09129 -0.41230
0.04470 0.20471 0.27355
-0.15471 0.06094 0.40741
-0.01486 0.19059 0.17472
0.14116 0.20471 -0.27504
-0.13491 -0.08592 0.38765
0.13412 0.17676 -0.31535
-0.06507 0.19059 0.35527
-0.12353 0.15590 0.13637
-0.05980 0.20471 -0.14941
0.14999 0.20471 0.10662
0.15580 0.19059 0.15509
-0.02145 0.19059 0.13625
0.13135 -0.00053 0.39245
0.11437 0.19059 0.09540
0.15163 0.07280 0.38636
-0.14041 0.07845 0.41185
-0.05799 0.19059 0.12479
-0.16181 0.20471 -0.18153
0.06749 0.19059 -0.27569
0.13412 0.17995 0.06752
0.12353 0.19006 0.35118
-0.02695 0.19059 -0.16872
0.14874 -0.08183 -0.41146
0.13500 0.17325 -0.35834
0.11733 0.19059 0.26266
0.06057 0.19059 0.24361
0.06866 0.20471 0.38551
-0.00524 0.19059 -0.26823
0.12353 0.15624 0.31349
-0.10354 0.20471 -0.29017
-0.11033 0.19059 0.30798
-0.13967 0.18354 0.38754
-0.13238 0.06907 -0.39052
-0.12353 0.18850 0.20144
0.13580 0.19059 -0.18185
-0.12353 0.15149 0.31813
-0.10676 0.20471 -0.09618
-0.07181 0.20471 0.38284
-0.13867 -0.12962 -0.38533
-0.13412 0.14620 0.16229
-0.13412 0.14555 0.23752
0.06100 0.20471 -0.41341
0.06589 0.19059 -0.38970
-0.13412 0.16155 0.14966
-0.01480 0.19059 0.14718
-0.00200 0.20471 -0.19507
0.10376 0.20471 0.40113
-0.03707 0.20280 0.42355
-0.12564 0.13412 -0.35985
-0.15680 0.19059 0.18859
0.01689 0.19059 -0.13002
0.12353 0.17214 0.14848
-0.10155 0.19059 -0.02471
0.14169 -0.20471 -0.37658
0.05419 0.20471 0.39332
0.16942 0.19091 0.22869
0.06626 0.20471 -0.21673
-0.05015 0.20471 -0.29459
-0.05354 0.19059 0.10598
-0.13412 0.14003 -0.23362
-0.02848 0.18483 0.38825
0.00074 0.19059 0.19068
-0.09855 0.19059 0.31849
-0.06050 0.20471 -0.04549
0.15556 -0.00774 0.40630
0.14420 0.19059 -0.20949
0.15062 0.20471 -0.00988
-0.09128 0.20471 -0.01426
-0.09273 0.19059 0.36528
0.13964 -0.17755 -0.41153
-0.06559 0.19059 -0.18419
0.05984 0.20471 0.23499
-0.06879 0.20471 -0.09992
0.10535 0.19059 0.22800
0.01329 0.19059 0.33692
-0.09326 0.19059 0.20377
0.13488 0.20471 -0.04635
0.12353 0.15560 -0.26203
0.13563 0.19059 0.07248
-0.14582 -0.00177 -0.38434
0.02175 0.20471 0.24328
-0.12353 0.13640 -0.10522
0.16750 0.19059 -0.08727
-0.09093 0.19059 0.12326
-0.03344 0.20471 0.17327
0.12353 0.15263 0.00996
-0.05378 0.19059 -0.09849
0.13412 0.15177 -0.12247
-0.13901 0.19059 0.30969
-0.12353 0.17731 -0.04201
0.06279 0.19059 -0.12981
-0.15343 0.04546 -0.38774
0.13412 0.17545 -0.05927
-0.13054 -0.09406 0.40205
-0.15779 -0.00549 -0.39492
-0.05969 0.20471 -0.09092
0.02116 0.20471 -0.22505
0.15607 0.13294 0.39083
-0.13412 0.13970 -0.02980
0.13412 0.18524 0.13606
-0.12353 0.17176 0.07293
0.13751 0.19059 0.10163
-0.15800 0.13022 0.39993
0.05530 0.20471 -0.30876
0.13412 0.16868 -0.22162
-0.12353 0.14408 -0.16094
-0.12353 0.17474 -0.30312
-0.13781 -0.06984 0.41078
0.12233 0.20471 0.32986
0.14333 0.16859 0.41225
-0.01478 0.20471 0.37911
0.12480 0.20471 0.15884
-0.09887 0.19059 0.17991
-0.10212 0.20471 -0.16280
0.06444 0.20471 -0.11851
0.15262 -0.20210 0.42122
-0.15629 -0.13394 -0.40534
0.12353 0.16038 0.34117
0.13047 0.09555 -0.40190
0.13045 -0.14179 0.40176
-0.13412 0.15028 -0.01327
0.16942 0.19120 -0.02623
-0.14107 0.19059 -0.36247
-0.02049 0.20471 0.38954
-0.11457 0.19059 0.04773
-0.12367 0.20471 -0.05524
-0.15591 0.19059 0.37262
0.01203 0.13423 -0.38825
-0.15970 0.19059 0.22931
0.13412 0.14301 0.07719
-0.16509 0.19059 -0.11094
0.06604 0.19059 0.30166
0.12353 0.14341 -0.33902
-0.15592 -0.00085 0.39064
0.03268 0.19059 0.20183
-0.16824 0.20471 -0.28302
0.12353 0.14672 0.08111
-0.15695 0.07662 -0.39266
0.11976 0.19059 0.39773
0.03530 0.19059 -0.34042
0.07415 0.19059 0.42075
0.15000 0.20471 0.00628
0.14648 0.20471 -0.05682
-0.12353 0.13764 -0.29008
0.15302 -0.10355 -0.40904
0.04805 0.14346 -0.38825
0.13181 0.12334 -0.40512
0.14331 0.20471 0.34991
0.01514 0.19059 0.10253
0.15255 0.20471 -0.29640
0.13412 0.18796 0.20918
-0.02379 0.20471 -0.03537
-0.08034 0.20471 0.13418
-0.10523 0.19059 0.07485
-0.15055 -0.05299 0.38575
0.09206 0.19059 -0.13530
-0.02292 0.17452 -0.38825
-0.16727 0.19059 -0.28086
-0.12353 0.15148 -0.26102
-0.03275 0.14377 0.38825
-0.05690 0.20471 -0.29049
0.06532 0.20471 0.27538
-0.08129 0.19059 0.28400
-0.06864 0.18121 0.38825
0.07772 0.20471 0.25580
0.15791 -0.18158 0.40062
0.05044 0.19059 -0.27083
0.06722 0.19059 0.14873
0.14305 -0.07149 -0.41221
-0.12353 0.14569 0.10856
0.05291 0.14267 0.37766
-0.12353 0.18548 -0.31284
0.12335 0.20471 -0.28932
0.01027 0.17618 0.37766
0.14226 0.20471 -0.03228
-0.08464 0.20471 0.21075
0.11418 0.19059 -0.16822
0.13412 0.16664 0.25082
-0.00800 0.20471 -0.38189
-0.11396 0.14092 0.36288
-0.13753 0.11806 0.38581
-0.12603 0.13412 0.17036
0.15077 -0.17648 -0.39683
0.08356 0.20471 -0.26399
-0.05655 0.20471 -0.21436
0.12178 0.20471 0.24113
0.12969 0.13412 -0.17267
0.13412 0.14251 0.12475
0.12719 0.13412 0.16405
-0.05856 0.20471 -0.39731
0.12523 0.17866 0.36095
-0.01498 0.18542 0.37766
0.06495 0.16444 0.37766
0.08825 0.19059 -0.12862
-0.13412 0.17723 -0.21190
0.04918 0.19059 0.07719
-0.15513 0.20471 0.16476
-0.14651 0.19059 -0.12110
-0.06318 0.20471 0.13550
-0.15450 -0.17648 0.39315
-0.14907 0.14533 -0.41132
0.07273 0.20471 -0.07659
0.12353 0.16338 -0.11710
-0.13084 -0.17991 -0.39367
-0.13339 0.17983 0.36001
0.11089 0.19133 -0.42355
0.07209 0.19059 -0.20225
-0.05956 0.20471 0.25827
0.08304 0.20471 0.28107
-0.12353 0.15720 -0.26337
-0.14123 -0.17236 -0.41197
0.15808 0.16624 0.39931
-0.07241 0.19059 0.09177
0.04243 0.19059 0.08834
-0.09670 0.19059 0.06620
-0.13950 0.20471 -0.05375
0.01526 0.20471 0.21508
-0.03295 0.19059 -0.19551
0.08735 0.20471 0.41368
-0.13412 0.15747 -0.05525
-0.13150 0.02895 0.39209
-0.10623 0.19059 0.40825
-0.14861 0.20471 0.19778
0.13380 0.13412 0.30566
0.13412 0.16390 -0.05536
0.13412 0.17044 0.21758
-0.09710 0.20471 -0.35589
0.04192 0.13412 0.38767
-0.01652 0.19059 -0.41283
0.10889 0.19059 0.03959
-0.03839 0.20471 0.32214
-0.06538 0.20471 0.27992
-0.10025 0.20471 -0.00735
-0.16215 0.20471 0.35416
0.16242 0.20471 -0.00845
0.05209 0.20471 0.04049
0.16942 0.20114 0.10055
-0.11300 0.19059 0.13093
0.02182 0.19059 0.25963
-0.09664 0.19059 -0.13320
-0.09295 0.20471 -0.10409
0.12353 0.15243 -0.19135
-0.13412 0.16849 -0.04358
-0.12541 0.20471 0.23015
0.02282 0.20471 -0.08706
0.08598 0.20471 -0.31561
0.16134 0.20471 0.15755
-0.15525 0.20471 -0.39736
0.15766 0.07977 -0.40208
-0.13438 0.17658 -0.40841
0.12353 0.17469 -0.33352
-0.12353 0.15323 0.16246
-0.13412 0.13723 -0.25518
0.11216 0.20471 -0.02490
0.12927 -0.20367 -0.41772
0.13700 -0.06659 -0.38604
-0.15815 -0.14094 -0.39883
0.14095 0.03361 -0.41193
0.12353 0.16801 -0.18106
-0.11517 0.19059 0.12175
0.16855 0.20471 0.09656
0.14206 0.13686 0.41208
-0.15307 0.19059 -0.15416
0.06011 0.19059 -0.13699
-0.14182 -0.05033 -0.38442
0.15610 0.20471 0.23982
0.15813 -0.19986 -0.39892
0.07575 0.20471 -0.15934
-0.05848 0.20471 -0.08040
-0.15227 0.20471 0.35367
-0.16754 0.19059 0.31272
0.04016 0.19059 -0.32272
0.10601 0.13412 -0.37755
-0.14168 0.19059 0.36818
0.08084 0.20471 0.10118
0.14119 0.19059 0.21345
-0.15585 -0.09369 -0.39054
-0.13854 0.20471 -0.11567
-0.00672 0.15202 0.37766
0.01066 0.20471 0.24091
-0.12353 0.13521 0.26175
0.11664 0.20471 -0.42341
-0.15781 0.12937 0.39507
-0.04672 0.19059 -0.16400
0.12908 0.16369 0.36019
-0.12353 0.14293 0.31047
-0.10833 0.19059 -0.26269
0.09121 0.20471 0.23034
0.13645 -0.15040 -0.38646
0.13351 0.04248 -0.38905
0.13412 0.15620 0.15846
0.07888 0.20471 0.07772
-0.06666 0.14543 0.37766
-0.00620 0.19059 0.08937
-0.13412 0.15275 -0.04594
0.07879 0.19059 -0.27749
0.13859 0.17607 -0.41110
0.12353 0.17804 -0.23449
0.15805 -0.01796 0.39692
0.03419 0.20471 0.05662
-0.07139 0.19059 0.05372
-0.03618 0.20471 -0.39096
-0.14209 -0.08984 0.41208
-0.14501 0.01839 -0.38423
-0.01914 0.19059 0.16204
-0.09465 0.17070 -0.37766
0.13249 0.13412 0.22452
-0.10608 0.19059 0.14585
0.08184 0.20471 0.41923
0.13544 -0.17378 0.38724
-0.11463 0.19059 0.26539
-0.05445 0.19059 -0.25080
0.00872 0.19059 0.13853
-0.01721 0.20471 0.22228
-0.02498 0.20471 0.03068
-0.13708 0.16439 -0.38599
-0.05271 0.19059 0.30673
-0.04977 0.19059 -0.37661
-0.11463 0.16480 0.36675
-0.12353 0.15683 -0.29447
-0.12353 0.16276 -0.06964
0.14372 0.20471 0.07797
-0.12353 0.14426 0.31925
-0.14192 -0.15165 -0.38440
-0.03536 0.19003 -0.37766
0.06809 0.20471 -0.28344
0.13412 0.14090 -0.23211
0.13675 0.19059 0.01041
0.12381 0.13412 -0.22593
0.08057 0.20471 -0.19810
0.13412 0.15009 -0.26337
0.03444 0.17894 -0.38825
0.12181 0.19059 0.36565
0.09044 0.19059 0.05040
0.13398 0.13412 0.26562
-0.00691 0.19059 -0.16090
-0.12853 0.19059 0.38364
-0.13412 0.18110 0.21239
-0.05629 0.18362 0.38825
-0.10834 0.20471 0.34473
0.07795 0.20471 -0.16762
-0.11159 0.19059 -0.30056
0.10947 0.19059 -0.08201
-0.00629 0.20471 -0.18459
-0.12353 0.18417 0.22415
0.13102 -0.12987 0.39324
-0.16046 0.19059 -0.06477
0.05799 0.20471 0.27377
0.11728 0.20471 -0.14911
-0.01372 0.20471 0.25148
0.14615 0.19059 0.07409
-0.10529 0.19059 0.01417
-0.13334 0.20471 0.18014
-0.16745 0.19059 0.18208
0.10429 0.19059 -0.17755
0.13177 0.19059 0.40926
-0.08716 0.19059 -0.06338
-0.12353 0.17034 0.10038
0.07072 0.19059 -0.41729
-0.07792 0.20471 0.18431
-0.12353 0.16784 -0.09714
-0.07619 0.20471 -0.21223
0.09015 0.20471 -0.11306
-0.11671 0.19059 -0.10775
-0.12353 0.14835 0.10286
-0.06224 0.19059 -0.14140
-0.06726 0.20471 -0.11111
0.15590 -0.11636 0.40586
-0.05167 0.20471 -0.17754
0.14334 -0.17836 0.38422
-0.14288 0.19059 0.28965
-0.04839 0.19059 -0.27558
0.09846 0.18219 -0.38887
0.13202 0.13412 0.05435
-0.12572 0.13412 -0.03672
-0.08186 0.20471 0.03781
-0.13412 0.17987 0.07600
0.07509 0.20471 -0.41065
0.05389 0.17273 0.38825
-0.08520 0.15768 0.38825
-0.09781 0.20471 -0.17384
0.13412 0.18119 0.28922
-0.16942 0.19869 0.26059
0.04472 0.19059 0.30146
-0.13412 0.17388 -0.33329
-0.00211 0.20471 -0.12653
-0.10667 0.19059 0.06009
0.13362 -0.01616 -0.40756
0.04962 0.19317 0.42355
0.13326 -0.20391 -0.38938
-0.08940 0.19059 -0.25789
0.12545 0.13412 0.27461
0.13019 -0.01317 -0.39671
-0.06613 0.19059 0.36742
0.11243 0.20471 -0.19299
-0.11776 0.20471 -0.02362
0.03230 0.20471 0.34012
0.09031 0.20471 0.31834
-0.07030 0.14432 -0.38825
-0.13037 -0.12170 0.40117
-0.14927 0.19059 0.24220
0.13179 0.10759 -0.39138
0.15578 0.02075 -0.39045
0.13978 0.02565 0.38488
0.12353 0.15855 -0.33829
-0.15481 0.20471 -0.11790
-0.13106 0.11933 -0.39314
0.13412 0.18988 0.32027
0.13548 0.18226 0.35433
-0.12353 0.17625 -0.32744
-0.02486 0.20471 0.40104
0.12353 0.16951 0.22586
0.14928 0.19059 0.00570
-0.04859 0.20471 -0.27404
-0.00845 0.19059 -0.41995
0.11104 0.17600 -0.37060
0.12353 0.14689 -0.04649
0.12595 -0.20471 -0.39196
0.01316 0.19059 -0.33324
0.13066 0.20471 0.03290
0.15751 0.17840 0.40246
-0.15818 -0.11443 0.39790
0.15503 0.19059 0.00636
-0.09379 0.19059 -0.19138
0.11581 0.19243 -0.42355
-0.02730 0.20471 -0.33193
-0.08782 0.19059 0.11114
0.07195 0.19059 0.15207
-0.00356 0.20471 -0.37652
0.12353 0.13653 0.32612
-0.03537 0.20471 -0.31562
-0.16316 0.19059 0.05075
0.15226 0.17664 -0.40962
0.15798 -0.13326 0.40009
0.13412 0.14908 0.29821
0.00122 0.18275 0.37766
0.13412 0.16097 -0.11706
-0.15643 -0.13209 0.40505
0.08378 0.19059 0.06832
-0.06762 0.20471 -0.34536
-0.11195 0.18198 -0.36952
-0.04870 0.20471 0.38340
-0.12353 0.14797 0.00630
0.15457 0.20471 -0.41805
0.06981 0.20471 0.31895
0.15320 0.20471 -0.20485
-0.12842 -0.20118 0.41353
-0.07501 0.19059 0.06361
-0.13015 -0.08228 -0.39703
-0.08035 0.17854 0.37766
-0.13412 0.16136 0.18962
-0.15909 0.20471 -0.13265
-0.03850 0.19059 -0.30417
0.00273 0.19059 0.10899
-0.15505 -0.20471 0.39926
-0.15082 0.19059 -0.31179
0.13863 -0.00911 -0.41111
-0.13412 0.14525 0.35266
-0.06319 0.19059 0.19621
-0.12608 0.19059 -0.39146
-0.10489 0.20471 -0.34014
-0.08408 0.20471 0.29373
-0.14868 0.19059 -0.18791
-0.02253 0.19059 -0.05790
0.13412 0.14073 0.16936
0.06260 0.20471 -0.11047
0.16057 0.19059 -0.23350
0.13412 0.13965 -0.22471
-0.12066 0.20471 0.22927
0.00173 0.19059 0.40107
-0.13501 0.18354 -0.39173
-0.15331 -0.20471 0.39381
0.14020 0.19059 -0.22525
-0.06696 0.19059 -0.11905
-0.14534 0.19059 -0.16144
-0.14546 -0.14100 0.38429
-0.03562 0.19059 -0.38990
0.07333 0.20471 0.09900
-0.06637 0.19059 0.24017
-0.14884 0.03649 0.41142
-0.02750 0.20471 0.24121
0.16314 0.19059 -0.24042
0.06121 0.20471 0.40830
0.16674 0.20471 -0.08465
0.12353 0.17646 0.10355
-0.11270 0.15816 0.36866
0.06474 0.19059 -0.15621
0.10444 0.20471 0.35154
-0.10444 0.19059 0.17358
0.04712 0.19059 0.02034
-0.05639 0.19059 0.13767
-0.08532 0.20471 0.30049
0.04158 0.20471 -0.35408
0.05278 0.15982 0.37766
-0.14617 0.20471 -0.32266
0.16795 0.19059 -0.25914
-0.13412 0.18621 -0.05996
-0.13412 0.17385 0.14444
0.01304 0.20471 -0.24794
-0.01554 0.19059 0.05982
-0.14363 -0.15629 -0.41229
0.10657 0.16290 0.37285
-0.16942 0.20116 0.00257
-0.10597 0.19059 0.04130
-0.16666 0.19059 -0.18929
0.07822 0.20471 -0.21000
0.15478 -0.18286 0.40731
0.14599 0.04948 -0.38436
-0.13304 0.13412 -0.01909
0.13412 0.18446 -0.28351
-0.00825 0.19059 0.07298
-0.15418 0.17994 -0.40138
0.13412 0.17886 -0.14214
-0.12868 0.20471 -0.27047
0.12353 0.18281 -0.23685
0.12353 0.17703 0.08090
-0.13248 0.20471 0.00996
-0.11073 0.20471 0.35531
-0.03291 0.20471 0.27028
0.08174 0.19059 -0.35486
-0.10785 0.19059 -0.22661
-0.13429 -0.03109 -0.38812
0.13412 0.15072 -0.27982
0.13412 0.14942 -0.04864
-0.04894 0.20471 0.16786
-0.13386 0.01154 0.40787
0.05269 0.20471 -0.24018
0.14986 0.19059 0.14821
0.13024 0.20471 0.41837
-0.09512 0.19059 -0.29063
-0.15543 0.20471 -0.02989
0.12245 -0.20337 -0.40996
0.12421 0.20471 0.05298
-0.01384 0.20471 -0.29141
0.10275 0.19059 -0.27486
-0.15774 0.04277 -0.39456
0.01772 0.19059 -0.16250
-0.10301 0.20471 -0.34739
-0.00980 0.19059 -0.33729
0.12353 0.14987 -0.08019
-0.13412 0.16977 -0.10111
0.12353 0.14052 0.19555
-0.16265 0.19059 -0.20111
0.13412 0.16363 -0.20246
0.01991 0.14315 0.38825
-0.13412 0.15831 -0.31666
0.12062 0.19059 0.23827
-0.13161 0.09570 0.39182
-0.01500 0.19059 -0.28697
0.02061 0.19059 0.09026
-0.02971 0.13412 -0.38247
-0.16279 0.19059 0.21823
-0.05015 0.20471 0.34039
-0.11832 0.19059 0.01028
0.10557 0.19059 -0.13153
-0.05635 0.19059 -0.41598
-0.12353 0.18517 0.05035
0.07740 0.19059 -0.06339
0.02864 0.20471 -0.05660
-0.14517 -0.17491 -0.38425
0.09485 0.19059 -0.29423
-0.13295 -0.12368 -0.40668
-0.13412 0.16432 0.34520
0.13781 -0.16817 0.41078
-0.13610 0.20471 -0.31682
-0.13094 0.13412 0.26298
-0.07803 0.19059 0.16975
-0.10749 0.20471 -0.11732
-0.14079 0.20471 0.21722
-0.05092 0.19059 0.15847
-0.12315 0.19059 -0.25056
-0.11185 0.19059 0.00569
0.13645 0.17057 -0.38647
-0.00036 0.20471 0.35372
-0.16275 -0.20118 0.40215
0.00671 0.20471 -0.03862
0.11960 0.19059 -0.39641
0.16857 0.19059 -0.34047
-0.13412 0.16569 -0.33228
-0.15439 0.08289 -0.38864
0.12137 0.20471 -0.36598
0.12353 0.15345 -0.02175
-0.13468 -0.16846 -0.40864
0.00377 0.20471 0.33204
0.03266 0.13795 -0.38825
0.14482 0.07271 -0.38421
0.04271 0.20471 0.12909
-0.15436 0.17994 0.39311
0.13412 0.14449 -0.08403
0.00433 0.20471 0.31888
0.16942 0.19395 0.41253
-0.07514 0.13479 0.38825
-0.14457 -0.11586 0.41229
0.13412 0.16330 -0.02218
-0.12353 0.16351 0.20901
-0.10673 0.19333 -0.42355
0.01735 0.19059 0.27831
-0.12353 0.16134 0.23497
0.09177 0.17320 0.38849
-0.00290 0.20471 0.36047
0.13412 0.14614 0.29073
0.00514 0.20471 -0.27977
-0.15701 0.19059 0.03880
0.13120 0.03238 0.39282
-0.02928 0.19059 0.24820
-0.01586 0.15330 0.37766
0.16405 0.19059 0.41182
-0.12353 0.14107 0.04827
0.14145 0.18001 0.39776
0.04074 0.20471 -0.30624
0.09590 0.20471 0.03920
0.12711 0.20471 -0.16157
-0.10476 0.20471 0.35335
0.02328 0.20471 0.05936
0.13412 0.13431 0.32239
0.02914 0.20471 0.28763
0.07995 0.19059 0.40657
0.12353 0.17041 0.19677
-0.13616 0.04443 0.40978
0.15068 0.01363 0.41066
0.13724 0.20471 -0.00195
0.16942 0.19109 0.10669
0.13412 0.16540 0.08817
0.13197 0.20471 0.17401
-0.13412 0.14710 0.17022
0.12924 0.13412 -0.10959
0.08884 0.19059 -0.40958
0.13765 0.20471 0.35504
0.15779 -0.19057 0.40149
-0.04824 0.19059 -0.09876
0.16246 0.19059 0.13660
-0.00120 0.20471 0.15676
0.13665 0.02547 0.41016
-0.07368 0.19059 -0.09323
-0.00213 0.20471 0.07279
0.00705 0.14019 0.37766
-0.01595 0.20471 0.26397
-0.16362 0.19059 0.32703
-0.08744 0.20471 -0.11127
-0.10215 0.19059 -0.26249
0.14220 -0.18219 -0.41210
0.02190 0.19059 -0.39307
-0.00292 0.20471 -0.20136
-0.02349 0.20471 -0.18235
0.14842 0.00416 -0.41159
-0.04812 0.19059 -0.36725
0.13412 0.16248 -0.29187
0.10887 0.19059 -0.23800
0.14072 0.03488 0.38456
0.12427 0.20471 -0.10360
-0.16942 0.20232 -0.11849
0.11839 0.17841 0.36081
0.13412 0.14435 0.31090
0.08524 0.20471 -0.35849
0.04127 0.20471 -0.31967
-0.14204 -0.19082 -0.41208
-0.01599 0.19059 -0.39748
0.10475 0.15100 0.38913
0.03568 0.16172 -0.37766
-0.11523 0.20471 -0.30070
0.04277 0.19059 -0.33119
-0.13412 0.18196 0.11873
-0.01143 0.20471 0.21933
-0.13412 0.16319 0.02158
0.00742 0.19059 0.25015
0.15167 -0.10983 -0.41007
0.13025 -0.11341 -0.40026
0.13004 -0.12595 0.39863
0.13412 0.13928 -0.15291
0.16942 0.19283 0.07857
0.09378 0.20471 -0.16102
-0.13103 0.00377 -0.40324
-0.10743 0.20471 0.21960
-0.16942 0.19911 -0.32539
0.13884 0.20471 -0.19504
0.13412 0.14653 0.20236
-0.13412 0.17671 -0.23228
0.14891 0.20471 -0.18257
0.14601 0.20471 -0.28240
-0.10591 0.20471 -0.30006
0.14567 0.19059 -0.01311
-0.02145 0.16485 0.37766
-0.05721 0.20471 0.22669
-0.11515 0.19059 -0.07974
-0.04433 0.20471 0.08393
-0.08060 0.19059 -0.20680
-0.06100 0.20471 0.33880
-0.06358 0.16824 -0.37766
-0.03614 0.20471 0.07966
0.15516 0.03562 -0.40682
-0.02913 0.19059 -0.20028
0.00456 0.15352 -0.38825
0.13412 0.15270 -0.01302
0.15696 0.19059 -0.30688
-0.12353 0.14052 0.22698
0.09215 0.20471 -0.13456
0.03355 0.19059 0.01171
0.13412 0.18346 -0.03509
-0.15125 0.19059 0.03710
-0.10172 0.13734 0.38913
0.09278 0.19059 -0.26132
-0.13412 0.16297 0.14292
0.00955 0.19059 -0.08593
0.14561 0.20471 0.10008
-0.03058 0.20471 -0.31571
-0.06072 0.20471 -0.01120
0.13412 0.13841 -0.04163
-0.13412 0.14677 0.26657
0.08533 0.19059 -0.00593
-0.08398 0.20471 0.15574
0.06572 0.19059 -0.35060
0.05859 0.19059 -0.04722
0.15060 0.19059 -0.23724
-0.03006 0.20471 -0.19106
0.09503 0.19059 -0.12626
-0.01694 0.19059 -0.03645
0.15142 -0.20471 0.39052
-0.05616 0.19059 -0.13593
0.14736 0.02250 0.38454
0.12187 0.19059 0.19113
0.03020 0.19059 0.19643
0.02103 0.15740 -0.38825
0.15785 0.03055 0.39543
-0.08180 0.20471 -0.23625
-0.06561 0.19059 0.21638
-0.11753 0.19059 0.18805
-0.04683 0.18433 0.38825
-0.13412 0.17834 -0.10094
-0.12353 0.14985 0.32323
0.11427 0.20471 0.22650
