-0.09483 0.17916 -0.32294
0.11763 0.11553 -0.23556
0.15621 0.11553 -0.25238
-0.17246 -0.08380 0.09394
-0.18418 0.13048 0.32211
-0.02146 -0.16725 0.35831
0.11513 0.12557 0.18764
0.05736 0.12557 0.02760
0.14047 0.12557 0.34209
0.09191 0.12557 0.27868
-0.00027 0.12557 0.29233
0.16926 0.12557 -0.02287
0.09114 0.12557 -0.14359
0.13205 0.12557 -0.23948
0.08537 0.12557 0.03537
0.12309 0.12557 0.15366
0.16884 0.12557 -0.25456
0.10173 0.12557 0.10360
0.07865 0.12557 0.09375
0.07401 0.12557 -0.05078
0.00368 0.12557 0.25822
0.07413 0.12557 0.23095
0.04514 0.12557 0.21229
0.08888 0.12557 0.31925
0.12736 0.12557 -0.21829
-0.07787 0.12557 0.35532
0.03516 0.12557 0.13851
0.14462 0.12557 0.03282
0.12197 0.12557 0.11657
0.17467 0.12557 -0.25144
0.01298 0.12557 0.22618
0.06217 0.12557 0.24020
0.02560 0.12557 0.21265
0.11892 0.12557 -0.23937
-0.10346 0.12557 0.28298
0.12259 0.12557 -0.04614
0.17872 0.12557 -0.35095
0.03222 0.12557 0.22168
0.03162 0.12557 0.02495
-0.15239 0.12557 0.32334
0.14716 0.12557 0.07386
0.12160 0.12557 0.04440
0.15724 0.12557 -0.24887
-0.00880 0.12557 0.02964
0.04307 0.12557 -0.04833
-0.08517 0.12557 0.21125
-0.07384 0.12557 0.37441
0.01074 0.12557 0.03684
-0.13725 0.12557 0.32602
0.15963 0.12557 -0.30056
0.02475 0.12557 0.22259
0.17829 0.12557 -0.17509
0.03868 0.12557 0.21671
0.00338 0.12557 0.06689
0.09400 0.12557 -0.01298
-0.09816 0.13981 -0.22898
-0.10728 0.13981 -0.19438
-0.16233 0.12692 -0.18250
-0.14507 0.04521 0.14780
-0.14763 0.04521 0.24887
0.17151 0.10046 0.11989
-0.16980 -0.01098 0.05693
-0.16859 0.17246 0.21754
-0.17605 0.17246 0.24922
0.16701 0.05525 -0.20181
0.15404 -0.06405 0.37135
0.16490 0.11553 0.14798
-0.17012 -0.15237 -0.25060
0.12547 0.05549 -0.14902
-0.10045 0.09273 -0.14902
0.00315 0.11553 0.36015
0.10712 0.05748 -0.31310
-0.16795 -0.14232 -0.21511
-0.02477 0.05970 0.24780
-0.18418 0.24758 0.16205
-0.11540 0.11553 0.24309
0.16409 0.10874 0.01222
-0.10935 0.06136 -0.31645
-0.15917 -0.21503 -0.34898
-0.17162 -0.17217 0.35463
-0.16829 0.05190 -0.22126
-0.10454 0.12985 -0.26455
0.02344 0.03753 -0.36227
0.16409 0.08273 0.02483
-0.16917 0.12557 -0.13329
0.09889 -0.08382 -0.35998
0.05707 0.06028 0.29733
-0.04267 0.06028 0.24192
-0.06064 0.06028 0.20527
-0.05202 0.06028 0.25616
0.01972 0.06028 0.24689
-0.05536 0.06028 0.29393
-0.08170 0.06028 0.30778
-0.02583 0.06028 0.31526
0.15404 0.08345 -0.37041
-0.06048 0.06240 0.16576
0.05939 0.10548 -0.24972
-0.11510 0.12892 -0.26695
-0.14403 0.18379 0.14567
-0.08553 0.17581 -0.26858
-0.15818 0.25450 0.16296
-0.05023 0.16168 -0.17477
-0.16567 0.11553 -0.25319
0.08621 0.11553 -0.25429
-0.16619 0.13646 -0.23491
-0.10153 0.16687 -0.16995
0.03498 -0.16201 0.36835
-0.01070 -0.15394 0.36835
-0.16967 -0.05490 0.00335
0.17413 0.06331 -0.31558
0.17413 0.06158 -0.25778
-0.18378 0.17231 0.35161
-0.15964 0.17900 0.16409
-0.18753 0.11866 0.04134
-0.11888 0.07903 0.03267
-0.11888 0.07175 -0.02764
-0.17413 -0.17281 0.25292
0.11385 0.00352 -0.36337
-0.14159 0.14512 0.27124
-0.16241 0.15472 -0.29293
0.17068 0.04186 -0.30151
-0.15877 0.13646 -0.13056
0.11205 0.05525 -0.01909
-0.10716 -0.12086 -0.36628
-0.15538 0.18217 -0.35161
0.06948 0.11553 0.23550
-0.07368 0.11553 0.25196
-0.12060 0.11553 0.25276
0.09832 0.11553 0.25070
-0.11794 0.15957 0.26455
-0.05023 0.16686 -0.08555
-0.05023 0.13421 0.02850
-0.10728 0.13227 -0.25723
-0.09560 0.15772 0.19171
-0.11636 0.16646 0.25701
0.04271 0.01592 0.35998
-0.10985 0.13981 -0.08287
-0.07370 0.13981 -0.07258
-0.16154 0.13981 -0.06736
0.14331 0.05525 0.31604
-0.12760 0.12725 0.16218
-0.14923 0.21473 0.04828
-0.07814 0.13227 -0.13725
-0.13301 0.17162 -0.18899
-0.17447 -0.00482 0.37170
-0.17562 -0.17745 0.37170
-0.08404 0.05700 0.16911
-0.06407 0.14552 0.10465
0.09609 0.12256 -0.38175
-0.16614 0.16559 -0.17330
0.13730 0.05148 0.11861
0.16409 0.05497 -0.11637
-0.16881 0.04094 0.05023
-0.05533 0.13227 -0.08243
-0.05777 0.13227 -0.32572
-0.09645 0.13471 -0.08288
-0.05218 0.15167 -0.09711
-0.17413 -0.16934 0.19507
-0.18753 0.21270 -0.24775
-0.18753 0.24618 0.14160
-0.18753 0.22335 -0.18357
-0.18753 0.25939 0.05414
-0.18753 0.22189 0.10853
-0.18753 0.15555 -0.32204
-0.18753 0.22410 -0.25204
-0.18753 0.17744 -0.13471
-0.18753 0.22794 -0.17428
-0.18753 0.16145 -0.21829
-0.18753 0.21052 -0.13271
-0.18753 0.20834 -0.25125
-0.18753 0.24355 -0.19343
-0.18753 0.23582 0.20211
-0.18753 0.23740 -0.23530
-0.18753 0.23223 -0.26615
-0.18753 0.24396 0.18369
-0.18753 0.18305 -0.20588
0.17413 0.11323 -0.23680
0.04505 0.06152 0.14567
-0.16576 0.02191 -0.24653
-0.09060 0.17727 -0.35329
-0.06302 0.04521 0.17187
0.01705 0.04521 0.17231
-0.13967 0.17095 0.19171
-0.14310 0.17576 -0.26455
-0.02854 -0.15237 0.36639
0.09376 -0.11856 0.36086
-0.09693 0.01184 0.36668
-0.05249 0.05211 0.34491
0.00335 -0.07438 -0.36261
-0.10066 0.18655 0.35161
-0.15764 0.21473 -0.03879
-0.16829 -0.02300 0.34826
-0.09335 0.17246 0.13446
-0.06140 0.17246 0.13998
-0.16743 0.16011 -0.19136
0.11615 0.05525 -0.01201
0.04738 0.06028 -0.07574
0.12876 0.06028 -0.14024
0.06206 0.06028 -0.02509
-0.05161 0.06028 -0.12516
0.10965 0.06028 -0.10670
-0.04165 0.06028 -0.14436
0.00334 0.06028 -0.10834
0.16310 0.06028 0.03792
0.04803 0.06028 -0.09760
0.11545 0.06028 0.00625
0.15842 0.06028 -0.00147
0.10108 0.06028 0.03117
0.08547 0.06028 -0.09146
-0.03461 0.06028 -0.12739
0.00412 0.06028 -0.02681
-0.03398 0.09759 -0.14902
-0.12694 -0.09318 -0.35998
-0.13322 0.13227 0.30035
-0.17413 0.05355 0.01805
-0.17413 0.05330 0.19185
-0.17413 0.05540 0.07041
-0.17413 0.04571 0.08909
-0.17413 0.05966 0.31151
-0.17413 0.05070 -0.02869
-0.17413 0.06026 0.23971
-0.17719 0.17581 -0.09111
-0.14755 0.13227 0.22781
0.16450 -0.22732 0.37170
0.17369 -0.26154 0.37170
0.10752 0.00913 -0.36668
-0.15532 0.21934 -0.31324
-0.17736 0.21934 -0.33817
-0.16743 0.17038 -0.01574
0.16732 0.04186 0.09768
0.12404 -0.15827 -0.35831
0.01333 -0.14694 -0.35831
0.09452 0.02620 0.35998
-0.17413 -0.16676 -0.17663
0.17413 0.08415 0.12350
0.17413 0.09012 -0.00494
0.17413 0.07582 0.04653
-0.09618 0.12557 0.19279
-0.06155 0.12557 0.19997
-0.15014 0.12557 0.22104
-0.07985 0.12557 0.28717
-0.13850 0.05190 0.33919
-0.16703 0.26129 -0.35161
-0.05693 0.16157 0.12985
-0.14456 0.04521 -0.10799
-0.15324 0.17916 -0.15674
-0.04589 0.08352 -0.31310
-0.00856 0.08309 -0.31310
-0.12135 0.12557 -0.27354
0.17132 0.11553 -0.33594
0.16997 0.11553 -0.15462
-0.09898 0.13227 -0.03542
-0.16577 0.13227 0.03914
-0.16942 0.13227 -0.02271
-0.16720 0.13227 0.04825
-0.12538 0.13374 0.27208
0.10630 0.06028 -0.23424
0.17413 0.08100 -0.13169
0.17413 0.08160 -0.12518
-0.13035 0.13646 0.10243
0.12011 0.05525 0.32411
0.01107 0.05525 0.32585
0.16680 0.10046 -0.12842
-0.10888 0.10046 0.16828
0.11385 -0.01696 0.36333
-0.13067 0.22255 0.14818
-0.13730 0.05283 0.25769
-0.17416 -0.23306 0.35123
-0.16889 0.04339 -0.20594
-0.16576 0.00208 -0.09197
-0.17135 0.13508 0.35161
-0.17246 0.04732 0.01527
-0.06439 0.06362 -0.14494
-0.16997 0.21934 0.21023
0.03014 0.03559 0.36286
-0.12200 0.13227 0.00619
-0.05821 0.13227 0.04582
-0.06967 0.13227 -0.00163
-0.05744 0.13227 0.07301
0.16409 0.05227 -0.21602
-0.03935 0.15480 -0.30845
-0.17545 0.17811 -0.18250
-0.16409 -0.16877 0.07333
-0.11218 0.07604 -0.12912
-0.11218 0.07738 0.00799
-0.09518 0.14256 -0.19171
-0.13865 0.04856 0.31662
-0.05358 0.14972 0.25965
-0.13310 0.13227 0.08538
-0.15823 0.05525 0.32854
-0.14246 0.18872 -0.07283
-0.13194 0.13646 0.21543
-0.11693 0.13646 0.22261
0.16409 0.05931 -0.06510
-0.16734 0.13646 -0.31694
-0.16192 0.25283 0.05511
-0.17225 0.25283 -0.03841
-0.10064 0.12557 0.17354
0.16595 0.10214 0.26506
-0.17232 -0.13624 -0.19925
-0.08293 0.13981 -0.06817
-0.15431 0.13981 -0.03523
-0.17063 0.13981 -0.03169
-0.15126 0.13981 -0.02930
-0.15083 -0.14739 0.36835
-0.09531 0.08612 -0.16911
0.17413 0.06959 0.15914
-0.04881 0.04186 -0.36420
-0.05677 0.13646 -0.14338
0.15617 0.05525 -0.21855
-0.12319 0.19459 -0.14567
0.15404 -0.04121 0.35224
-0.17246 -0.05696 0.05403
-0.16743 0.16132 -0.31810
-0.04280 0.05493 0.00670
0.06369 0.06028 -0.00677
0.12588 0.06028 -0.25117
-0.12636 0.15714 -0.19171
0.08870 0.06913 0.14902
0.16409 0.04896 0.33838
-0.17798 0.14803 0.18418
0.15935 0.01644 -0.37170
0.17295 -0.21904 -0.37170
0.16241 0.10046 -0.14893
-0.07241 0.17246 -0.16603
-0.11523 0.17246 -0.17825
-0.12132 0.24016 -0.35831
0.17473 -0.02823 0.34826
-0.17424 0.21934 -0.21248
-0.14733 0.21934 -0.25966
-0.12211 0.21264 0.22542
-0.13443 0.21264 0.21551
-0.18418 0.13028 -0.26015
0.03014 0.04380 -0.36029
-0.15621 0.23816 0.14567
0.16683 0.10214 0.25406
-0.10670 0.16797 0.17664
-0.16828 -0.11238 0.25283
-0.08842 0.13646 0.23199
0.10439 0.05525 -0.34480
0.14153 0.04856 -0.32784
-0.08015 0.05525 0.22559
0.01371 0.02682 0.35998
-0.11218 0.09977 -0.05710
-0.11218 0.08950 0.04828
0.14557 0.07575 0.16241
0.05484 0.12557 -0.10099
0.15218 0.12557 -0.15894
-0.09031 0.12557 0.25535
0.09048 0.12557 0.34884
0.10588 0.12557 -0.00838
0.08727 0.12557 -0.14867
0.18329 0.12557 -0.15487
0.18527 0.12557 0.35095
0.13195 0.12557 -0.03629
-0.03179 0.12557 0.28346
-0.03909 0.12557 0.16391
0.10015 0.12557 0.28482
0.02319 0.12557 0.11481
0.05864 0.12557 0.20490
0.09485 0.12557 0.01846
0.17446 0.12557 -0.05850
0.07835 0.12557 0.00718
0.09952 0.12557 0.04809
0.04834 0.12557 0.03998
0.00726 0.12557 0.21849
-0.11256 0.12557 0.37400
-0.00599 0.12557 0.27191
0.12695 0.12557 -0.25772
0.14098 0.12557 0.25046
0.00442 0.12557 0.01436
0.03899 0.12557 0.01211
0.00566 0.12557 0.35264
0.15043 0.12557 0.35357
-0.14332 0.12557 0.35200
0.11124 0.12557 -0.01859
-0.05076 0.12557 0.33302
0.14281 0.12557 0.12086
-0.01999 0.12557 0.27561
0.00119 0.12557 0.13585
-0.04168 0.12557 0.19420
0.07064 0.12557 -0.04108
0.10654 0.12557 -0.07745
-0.06561 0.12557 0.25242
-0.12137 0.12557 0.38150
0.00349 0.12557 0.31087
-0.12507 0.12557 0.27890
0.17784 0.12557 0.29886
-0.00376 0.12557 0.07103
0.01843 0.12557 0.13199
0.07517 0.12557 0.18849
0.13149 0.12557 -0.08170
-0.10988 0.12557 0.24278
0.14027 0.12557 -0.10399
0.11290 0.12557 -0.17322
-0.01472 0.09970 0.16911
0.05341 0.09048 0.16911
0.17319 0.10214 0.00533
0.17391 0.04186 0.04450
0.09376 -0.08338 -0.36334
-0.16937 0.20219 -0.07283
0.15404 -0.11244 0.34967
-0.17923 0.22213 -0.16409
-0.16576 -0.12834 0.04103
0.14734 0.05005 0.14179
0.04373 0.04696 0.17413
0.01599 0.06028 0.06900
-0.12357 0.06028 -0.01500
-0.10248 0.06028 0.01885
-0.04463 0.06028 0.01308
-0.09211 0.06028 -0.03723
-0.04622 0.06028 0.00684
0.07271 0.06028 0.10952
-0.08544 0.06028 0.08298
-0.07710 0.06028 -0.05386
0.01316 0.06028 0.02833
-0.09014 0.06028 0.11992
-0.10660 0.06028 0.00602
-0.03358 0.06028 0.10800
-0.00205 0.06028 0.02211
-0.04701 0.06028 0.00107
-0.11544 0.12921 -0.09711
-0.09545 0.16704 -0.17748
0.16409 0.07989 0.03897
-0.17086 -0.07552 0.23943
-0.04207 0.07845 0.31310
-0.03459 0.09764 0.31310
-0.15323 -0.17229 -0.35831
-0.17217 -0.07103 -0.09041
-0.09864 0.13705 -0.08958
-0.12956 0.14071 0.26455
0.03684 0.04559 0.36391
0.04244 0.05525 -0.31699
-0.03964 0.05525 -0.31831
0.14982 0.08312 0.31310
-0.06241 0.07352 0.31980
-0.09853 0.08419 0.31980
-0.11780 0.06652 0.16576
-0.10964 0.16565 -0.09711
0.13349 0.04186 0.36332
-0.13730 0.04652 0.21150
-0.05982 0.06362 -0.10892
-0.07679 0.06362 0.03007
-0.03112 0.06362 -0.04062
0.16276 0.06362 -0.14368
0.13417 0.06362 -0.14163
-0.09388 0.06362 0.01444
-0.07108 0.06362 -0.10062
-0.04399 0.06362 0.02048
-0.03021 0.06362 0.01438
0.04118 0.06362 -0.12980
-0.05034 0.06362 0.06756
0.01578 0.06362 -0.10508
-0.03950 0.06362 -0.12429
-0.07630 0.06362 -0.06687
-0.11739 0.06362 -0.09108
0.00303 -0.01774 -0.35998
-0.16576 -0.15114 -0.08035
0.14450 0.05525 0.15340
0.14039 0.05525 0.23771
-0.16790 0.04163 -0.37170
-0.13730 0.05103 0.20733
-0.13759 0.05525 -0.31453
-0.13984 0.05525 -0.00105
0.00262 0.06028 -0.23931
-0.05938 -0.16720 -0.35831
-0.11888 0.07343 0.25621
0.10046 0.07995 -0.16911
-0.05929 0.05548 0.24780
-0.13671 0.05023 0.23591
-0.09484 0.11553 0.00896
-0.00940 0.11553 0.01141
-0.13038 0.12598 0.18250
-0.16614 -0.14232 -0.19248
-0.17347 0.13227 0.21206
-0.07704 0.17162 0.08865
-0.12309 0.13554 -0.17748
-0.16576 -0.11367 -0.06581
-0.12707 0.14166 0.17664
-0.05732 0.12892 -0.26726
-0.15650 0.05525 -0.06602
-0.16576 -0.02534 -0.09150
0.00810 0.08086 0.35831
0.00496 0.09415 0.35831
-0.11903 0.10693 0.35831
-0.12714 0.09132 0.35831
-0.18319 0.17246 -0.14157
-0.12698 0.17246 -0.14019
-0.10583 0.13227 0.12275
0.16409 0.08261 -0.25244
-0.07613 0.05273 0.24780
-0.14840 0.11553 -0.25626
-0.17425 0.11553 0.27680
-0.11181 0.11553 0.34841
0.04726 0.11553 0.15937
-0.16528 0.11553 0.37738
-0.15524 0.11553 0.30594
-0.00583 0.11553 0.05568
0.17307 0.11553 0.37095
-0.17683 0.11553 -0.20086
-0.13470 0.11553 0.02924
-0.18667 0.11553 0.36663
-0.17825 0.11553 -0.23944
-0.09529 0.11553 0.27394
-0.17961 0.11553 0.21740
-0.03347 0.11553 0.03371
-0.16916 0.11553 -0.15664
-0.06048 0.11553 0.37689
-0.11320 0.11553 0.35597
-0.17906 0.11553 0.27294
-0.04570 0.11553 0.09887
-0.18635 0.11553 0.02149
-0.06049 0.11553 0.35133
-0.15199 0.11553 0.31709
0.07681 0.11553 0.28361
-0.14289 0.11553 -0.15730
0.06227 0.11553 0.24701
-0.07415 0.11553 0.20539
-0.14967 0.11553 0.20262
-0.18235 0.11553 0.28272
-0.02139 0.11553 0.12548
-0.12410 0.11553 0.13801
0.08133 0.11553 0.38122
0.11954 0.11553 0.33918
-0.06564 0.11553 0.29758
-0.00726 0.11553 0.25802
-0.18685 0.11553 0.29642
-0.12478 0.11553 0.24634
0.17373 0.11553 0.36101
0.06593 0.11553 0.20727
-0.06795 0.11553 0.35802
-0.17381 0.11553 0.17768
-0.17097 0.11553 -0.10634
-0.11590 0.11553 0.16349
-0.00163 0.11553 0.29403
-0.13803 0.11553 -0.27438
-0.04783 0.11553 0.26822
0.06294 0.11553 0.34589
-0.03920 0.11553 -0.05334
-0.12175 0.11553 0.20357
-0.17191 0.11553 -0.00627
-0.18035 0.11553 -0.28302
-0.16931 0.02099 0.00335
-0.01156 0.04521 0.14434
-0.03063 0.04521 0.14096
0.15404 -0.14852 -0.35029
-0.14379 0.18985 0.14567
-0.16885 0.02125 -0.03684
-0.09051 0.13646 0.34655
-0.17093 -0.09404 -0.08372
-0.16699 0.12557 -0.28785
-0.14587 0.12557 -0.24467
-0.15417 0.12557 -0.18447
-0.14798 0.12557 -0.26750
-0.14759 0.13227 -0.08316
-0.17146 0.23411 -0.16157
0.16585 0.10883 -0.25098
-0.11218 0.08816 -0.28131
-0.16604 0.17162 0.19090
-0.16657 0.25283 -0.22749
-0.17266 0.25283 -0.25502
0.15415 0.05525 0.14813
-0.16457 -0.14232 -0.13097
-0.05507 0.13981 0.31465
0.03047 0.06065 0.16576
-0.06166 0.13646 -0.12322
-0.12255 0.13646 -0.15873
-0.12136 0.13227 0.17207
-0.05125 0.09705 -0.14232
0.07230 0.09489 -0.14232
-0.14489 0.15924 0.25701
-0.08369 0.17246 0.29631
-0.05872 0.17246 0.30244
0.17077 0.08577 0.37170
0.17496 -0.10634 0.37170
0.07183 0.10548 -0.00448
0.10088 0.10548 -0.00893
-0.01462 -0.15096 0.35998
0.12643 -0.14259 -0.36835
-0.04915 -0.14579 -0.36835
0.02138 0.05827 -0.22101
-0.17246 -0.07108 -0.24662
0.10999 0.10548 0.00335
-0.00269 0.10548 -0.01080
0.12478 -0.14770 0.36668
-0.05023 0.15139 0.10029
-0.04562 0.05548 -0.26120
0.16406 0.04521 -0.11371
0.13369 0.06238 -0.14902
-0.15566 0.22900 0.17748
-0.10716 -0.08880 0.36637
-0.16412 0.16616 -0.35831
-0.17413 0.08433 -0.21654
-0.17413 0.09625 -0.07550
-0.17413 0.09283 -0.08213
-0.17413 0.10756 -0.02243
-0.17413 0.10952 0.11024
-0.17413 0.09522 0.04275
-0.17413 0.07748 -0.18300
-0.17413 0.11256 -0.08643
-0.17413 0.10126 -0.02889
-0.17413 0.07866 -0.31966
-0.12198 0.04891 0.35831
0.04809 0.06505 0.35831
0.14802 0.08501 0.35831
0.02994 0.07085 0.35831
0.16289 0.10883 -0.36187
-0.16401 0.13996 -0.18418
-0.17001 0.17916 0.11783
0.17581 0.07574 -0.24973
0.16911 0.06204 0.29120
0.12686 0.06747 0.31980
-0.17413 -0.15900 -0.24501
-0.16293 0.19846 0.35831
-0.13767 0.22363 0.35831
-0.11792 0.17093 -0.34408
-0.16515 0.04186 -0.31037
-0.03964 0.06028 -0.11980
-0.07544 0.06028 -0.12664
0.15648 0.06028 0.09756
0.06068 0.06028 0.02784
0.06963 0.06028 -0.07794
0.00169 0.06028 -0.04911
0.08553 0.06028 -0.08152
0.01847 0.06028 -0.01533
0.13004 0.06028 -0.12309
0.15846 0.06028 -0.10405
0.06808 0.06028 -0.10335
-0.01678 0.06028 -0.08491
0.16702 0.06028 0.06550
0.17145 0.07572 -0.32147
-0.16988 -0.01337 -0.09041
0.16636 0.06686 -0.15069
-0.08633 0.13646 -0.28625
-0.18714 0.26287 0.09296
0.17413 0.10842 0.28944
-0.16241 0.14643 0.30896
-0.17339 0.25283 -0.14229
-0.16747 -0.07989 -0.20594
-0.13881 0.25952 0.15173
-0.15351 0.25952 -0.22921
-0.15784 0.25952 -0.32240
-0.15128 0.25952 -0.28228
-0.14423 0.25952 0.08394
-0.14360 0.25952 -0.02182
-0.05023 0.16779 0.30885
-0.02344 -0.08773 -0.36196
-0.08755 0.06362 -0.23561
-0.05045 0.06362 -0.24305
0.02581 0.06362 -0.26648
-0.11125 0.06362 -0.22887
0.05574 0.06362 -0.27645
0.06274 0.06362 -0.26865
0.08604 0.06362 -0.30782
-0.02587 0.06362 -0.23046
-0.11482 0.14670 0.35077
-0.17120 -0.06581 -0.07702
0.12055 -0.00126 0.36503
-0.14118 0.05525 0.22220
-0.14552 0.05525 0.02362
-0.14383 0.13336 -0.27208
-0.15207 0.22195 0.17748
-0.06862 0.06028 -0.28865
0.06549 0.06028 -0.30420
-0.06995 0.06028 -0.30800
0.08034 0.06028 -0.31066
0.13853 0.06028 -0.19038
-0.02123 0.06028 -0.30823
0.09112 0.06028 -0.22568
-0.04118 0.06028 -0.29179
0.12443 -0.15057 -0.36668
-0.07478 0.13481 -0.09041
-0.16409 0.04988 -0.06448
-0.16409 0.04821 0.09063
0.16409 0.05130 0.08311
0.16409 0.04650 -0.14697
-0.16743 0.16307 0.34494
-0.16025 0.13007 0.35329
-0.12324 0.06028 0.23239
-0.17246 -0.05985 0.25227
-0.05023 0.15244 -0.28630
-0.13861 0.16428 -0.18501
-0.16409 -0.14867 -0.26261
-0.16409 -0.15241 0.09736
-0.16409 -0.14384 0.19360
-0.16409 -0.15713 -0.05704
-0.18147 0.12675 0.16409
0.16409 0.10001 0.08071
0.11648 0.04186 0.36461
-0.10402 0.05023 0.00166
-0.17393 0.11553 0.33756
0.16409 0.07989 0.33107
-0.06932 0.13646 -0.31048
0.13730 0.04791 0.07898
-0.16241 0.15824 0.31959
-0.03939 0.14708 0.30920
-0.18012 0.13227 -0.34564
-0.17264 0.13227 -0.31307
-0.11888 0.10006 0.12566
-0.11888 0.07506 -0.09830
0.00646 0.07227 -0.31310
-0.10704 0.13574 0.26371
0.16409 0.07305 -0.08808
-0.06614 0.13391 -0.13227
-0.18753 0.14590 -0.07905
-0.18753 0.14857 0.06891
-0.18753 0.14028 -0.00003
-0.18753 0.15577 0.10573
-0.18753 0.17906 0.21702
-0.18753 0.15383 0.11991
-0.18753 0.17989 0.15483
-0.18753 0.19434 0.23115
-0.18753 0.15334 0.01248
-0.18753 0.19730 0.22008
-0.18753 0.14375 0.11271
-0.18753 0.16814 0.16825
-0.18753 0.15400 -0.07289
-0.18753 0.13530 0.08313
-0.18753 0.17768 0.09047
-0.18753 0.14019 -0.09194
-0.18753 0.22290 0.34368
-0.11377 0.17246 0.33297
-0.17543 0.17246 0.27809
-0.02485 0.11337 -0.22771
-0.01571 0.08436 0.36835
0.08848 0.08424 0.36835
0.13719 0.07305 0.36835
0.05905 0.06829 0.36835
-0.13406 0.17246 -0.33063
-0.13249 0.17246 -0.33537
-0.11571 0.16489 0.19171
-0.12639 0.21775 0.07283
-0.15868 0.22627 -0.35161
0.10149 0.06574 0.16241
-0.10033 0.07708 0.31310
-0.07689 0.09853 0.31310
-0.17246 -0.13504 0.23646
-0.11218 0.09424 0.02309
-0.11218 0.09212 -0.03372
0.17748 -0.08745 0.35031
0.16575 0.10214 -0.02052
-0.18753 0.11777 -0.31406
-0.03684 -0.09106 -0.36563
0.15979 0.06362 0.31498
0.05389 0.06362 0.27883
0.05683 0.06362 0.26955
0.04567 0.06362 0.24546
-0.06692 0.06362 0.29419
-0.03918 0.06362 0.28109
0.11270 0.06362 0.30774
-0.03791 0.06362 0.29074
-0.13066 0.25283 -0.11361
0.15404 -0.18485 0.35913
-0.08365 0.13646 0.31240
-0.10228 0.06028 -0.23340
-0.17496 0.13195 -0.35329
-0.08843 0.17246 -0.23252
-0.14140 0.17246 -0.24573
-0.16576 -0.05536 -0.20819
0.07781 0.06585 0.16911
-0.07107 0.17246 -0.10696
-0.05651 0.17246 -0.11278
-0.11881 0.16842 0.34408
-0.16870 0.04186 -0.27853
-0.16038 0.04829 0.34826
-0.06022 0.17497 0.35329
-0.07011 0.14807 -0.19171
-0.00238 0.06226 0.14567
-0.15181 0.17035 0.08958
0.16409 0.10355 -0.36239
-0.10483 0.19399 0.35831
-0.08739 0.12142 0.38175
-0.00057 0.11329 -0.01339
0.01674 -0.00304 0.36328
-0.17377 0.18746 -0.35161
0.15404 -0.07868 -0.36036
0.14968 0.04521 0.20838
0.14225 0.04521 0.23879
-0.15468 0.12958 -0.17915
0.17497 0.07795 0.11969
-0.09062 0.13227 -0.23972
-0.18418 0.17683 0.04756
-0.05960 0.16818 0.18418
0.05729 0.05022 -0.30808
-0.18418 0.21809 0.19027
-0.17124 0.13646 0.22575
0.17748 0.07024 -0.34955
-0.07635 0.17375 -0.27124
-0.11218 0.09760 0.27366
-0.13812 0.12557 0.16016
-0.14796 0.16865 0.09711
-0.14756 0.25283 0.34862
-0.14608 0.25283 0.32770
-0.12041 0.17162 0.08632
0.13154 0.11083 -0.25450
0.03091 0.09108 -0.31980
-0.11522 0.17162 0.09843
-0.16161 0.25450 0.07283
-0.14322 0.19398 0.35831
-0.17454 -0.16863 -0.37170
-0.16986 0.07627 -0.37170
-0.14348 0.04521 -0.28809
-0.15663 0.04521 0.09160
-0.13047 0.24640 -0.07032
-0.12900 0.17246 0.20650
-0.13695 0.17246 0.21556
-0.15630 0.13316 0.27124
-0.12136 0.14610 0.27124
0.15822 0.05525 -0.19635
-0.11105 0.21883 -0.35831
-0.09364 0.13981 0.29831
-0.16108 0.13981 0.30404
-0.02349 -0.16947 -0.36751
-0.18753 0.16264 -0.18424
-0.18753 0.21965 0.09593
-0.18753 0.22879 -0.25361
-0.18753 0.21313 -0.11130
-0.18753 0.17132 -0.18790
-0.18753 0.14579 -0.35465
-0.18753 0.25507 0.30906
-0.18753 0.25094 -0.32603
-0.18753 0.21611 0.03836
-0.18753 0.18509 -0.13326
-0.18753 0.17713 -0.15884
-0.18753 0.24466 -0.02036
-0.18753 0.21838 -0.03628
-0.18753 0.25084 -0.25470
-0.18753 0.25950 -0.35432
-0.18753 0.18827 -0.06178
-0.18753 0.20874 -0.27328
-0.10741 0.06362 -0.21018
0.00959 0.06362 -0.30973
-0.12136 0.06362 -0.28982
-0.08230 0.06362 -0.27603
-0.08853 0.06362 -0.28500
-0.03984 0.06362 -0.28514
-0.10156 0.06362 -0.17988
0.03630 0.06362 -0.26219
-0.16549 0.16614 0.10130
0.14288 0.05525 0.12786
0.14323 0.05525 0.03725
-0.14719 0.17916 0.17517
-0.07090 0.13227 -0.18585
0.10318 0.05525 -0.23172
-0.04689 0.15121 -0.22688
-0.17748 -0.15923 0.36026
0.16409 0.07167 -0.20334
0.04095 0.05569 -0.36835
-0.01358 0.07988 -0.36835
0.00795 0.04910 -0.36835
-0.13755 0.05948 -0.36835
-0.05023 0.13294 -0.15833
-0.13730 0.05288 0.04737
0.16409 0.07351 -0.24757
-0.13962 0.16123 0.09711
-0.05693 0.16196 -0.25300
-0.17246 -0.13129 0.19502
-0.04412 0.09810 -0.35831
-0.10874 0.09260 -0.35831
-0.06496 0.10508 -0.35831
-0.13537 0.07741 -0.35831
0.16409 0.05808 0.11241
-0.13695 0.12557 -0.19731
-0.17050 0.12557 -0.30636
-0.10012 0.12557 -0.22495
-0.16409 0.09755 -0.16623
-0.18557 0.12557 -0.18108
-0.10935 0.05802 0.26120
0.01481 0.05923 -0.22101
-0.10479 0.13981 -0.23660
-0.16265 0.13981 -0.24672
-0.09843 0.05493 0.34491
-0.17748 -0.25734 0.35625
-0.11218 0.06662 -0.25976
0.15869 0.00223 0.34826
0.09041 0.06028 0.24444
-0.11523 0.16553 0.10465
-0.12317 0.17963 0.14818
-0.05023 0.15118 -0.25988
-0.11888 0.09196 -0.06958
-0.11888 0.09516 0.01707
-0.16822 0.21225 0.14818
0.02518 0.05525 0.25327
-0.16021 0.12557 0.09339
0.02132 0.08097 -0.16241
-0.17146 -0.13935 0.01674
-0.01099 0.10797 0.01339
-0.12979 0.13528 0.14232
-0.05579 0.05692 -0.00670
-0.16576 0.04353 -0.05326
-0.16168 0.08874 0.36082
-0.17246 -0.01216 -0.23617
-0.16797 -0.15207 0.09041
0.15404 0.09879 -0.35824
0.17748 -0.21568 0.34913
0.03075 0.10548 0.00351
0.00577 0.10548 0.00575
-0.16242 0.13646 0.32083
-0.10329 0.13646 0.32574
0.03014 -0.15044 -0.36446
0.08830 0.08299 0.16911
-0.17246 -0.09942 -0.25230
-0.04353 -0.05557 -0.36180
-0.11630 0.13227 0.01271
-0.12622 0.24817 -0.14567
-0.18753 0.12076 0.10831
0.16873 0.09528 -0.35831
0.15700 0.01431 0.34826
0.05620 0.05609 0.24780
0.01005 -0.07000 -0.36624
-0.09252 0.13227 -0.10438
-0.06566 0.14913 -0.35077
-0.14060 0.17246 0.29246
-0.09922 0.17246 0.31987
-0.16576 -0.03308 0.05233
0.13937 0.05190 0.15145
-0.07927 0.13415 0.00502
-0.12213 0.17131 0.35077
0.09570 0.01606 -0.36668
-0.12432 0.12557 0.13354
0.05184 0.05525 -0.16404
-0.17107 -0.10227 -0.01005
0.05489 0.05525 -0.01294
0.16500 0.09081 -0.16074
0.11285 0.07415 -0.31980
-0.05023 0.14790 -0.21200
-0.17960 0.13227 -0.11774
-0.17164 0.13227 -0.15070
-0.16678 0.11051 -0.01269
0.17413 0.05523 0.05123
0.12970 0.06028 0.22566
-0.08105 0.16436 0.16995
-0.11490 0.13267 -0.35077
0.03795 -0.07471 -0.35998
-0.16782 -0.17981 -0.30123
0.16409 0.09502 -0.12154
-0.18418 0.17766 -0.25893
-0.16995 0.14172 0.17748
-0.16996 0.00597 -0.19925
-0.09690 0.10981 -0.22771
0.00335 -0.13341 -0.36009
-0.01665 0.06362 0.09397
0.15255 0.06362 -0.09091
-0.06249 0.06362 0.09489
0.01824 0.06362 0.07490
0.14771 0.06362 -0.09376
0.07520 0.06362 0.06117
0.00046 0.06362 0.08051
0.10257 0.06362 0.07147
-0.10364 0.06362 0.14079
0.06826 0.06362 0.11293
0.01150 0.06362 0.05856
0.09112 0.06362 0.02956
0.12158 0.06362 0.02862
0.09005 0.06362 -0.05310
0.11600 0.06362 0.10341
-0.11969 0.21692 -0.05539
-0.15464 0.24806 -0.14818
-0.17055 -0.14167 -0.34826
0.09376 -0.14952 -0.36234
-0.15742 0.13227 -0.20554
-0.13142 0.13227 -0.19629
-0.17334 0.14882 -0.34408
-0.17246 -0.12504 -0.09523
-0.16747 -0.15166 0.06363
-0.05523 0.15738 -0.35161
0.09219 0.09192 0.35831
0.00934 0.06137 0.35831
0.07308 0.07426 0.35831
-0.00062 0.04857 0.35831
-0.14330 0.04856 0.31301
-0.10384 0.17246 -0.29462
-0.18418 0.17793 0.33076
0.07853 0.05737 0.24780
-0.10254 0.21556 0.18418
-0.05023 0.13282 -0.23326
-0.09376 0.04321 -0.36567
-0.16743 0.16831 -0.20816
0.01381 0.11068 -0.22771
0.16409 0.04648 0.26129
0.16409 0.04977 0.04842
-0.08251 0.08364 0.14232
-0.05490 0.09694 0.14232
0.09376 -0.10369 0.36468
-0.07753 0.13646 0.22934
-0.09763 -0.17381 0.35831
0.10716 -0.05813 0.36643
-0.15963 0.21726 0.35329
-0.18233 0.17916 -0.33930
-0.05762 0.17916 -0.18338
-0.12587 0.17916 -0.23047
-0.16917 0.17916 -0.28886
-0.08065 0.19576 -0.35831
-0.16724 0.16952 0.17330
-0.05411 0.08550 0.36835
-0.07971 0.08858 0.36835
0.01489 0.04377 0.36835
0.00864 0.07237 0.36835
-0.17246 -0.09433 -0.09511
0.01469 0.05190 0.00670
-0.16906 -0.14232 -0.00677
-0.05607 0.04521 -0.32315
-0.07634 0.04795 -0.34491
-0.15166 0.13227 0.30511
-0.13470 0.13227 0.33248
-0.14734 0.04971 0.13878
0.17036 0.08858 -0.14902
-0.16409 0.06024 0.00089
-0.16409 0.04954 0.02060
-0.16409 0.04794 0.18044
-0.16409 0.07865 -0.17608
-0.16409 0.07113 -0.27278
-0.16409 0.09971 -0.34747
-0.16409 0.05668 -0.22654
-0.16409 0.04397 -0.06960
-0.15052 0.21934 0.31022
-0.15498 0.21934 0.27133
-0.17413 0.16265 0.26342
-0.12114 0.25952 0.32035
-0.13929 0.21197 0.35831
0.14542 0.08968 -0.16241
-0.16938 -0.05556 -0.05023
0.16802 0.10214 -0.28731
0.17297 0.05525 -0.08301
-0.11569 0.08057 0.31645
-0.16409 0.05209 -0.27198
-0.02344 0.02477 0.36523
-0.17521 -0.21450 0.34891
-0.16727 0.11553 0.00327
-0.16927 0.11553 0.00981
-0.05258 0.17246 0.28674
-0.17246 -0.01464 -0.22205
-0.13632 0.17916 0.01152
-0.16666 -0.07877 -0.22604
0.15394 0.04521 -0.29259
0.15977 0.04521 0.08929
-0.16409 -0.15712 0.28213
-0.14851 0.13646 -0.07987
-0.06011 0.13646 -0.07764
-0.06459 0.13646 -0.04205
-0.06717 0.13646 0.04095
-0.16241 0.15058 -0.22312
-0.13329 0.05525 -0.16747
0.03172 0.05525 -0.17226
-0.14861 0.13981 -0.16329
-0.11182 0.13981 -0.14094
-0.11218 0.07472 -0.16842
-0.15945 0.15356 -0.08958
-0.15573 -0.07490 0.34826
-0.16241 0.17049 -0.11266
0.17748 -0.14385 -0.34952
-0.16302 0.24789 -0.07032
-0.16968 0.13646 -0.14080
0.17149 -0.00664 0.34826
-0.08627 0.13299 0.13227
0.17111 0.05525 0.04465
-0.08583 0.12557 0.35693
-0.03595 0.05525 0.24872
-0.18078 0.18466 0.16157
-0.05715 0.17246 0.11741
-0.15737 0.17246 0.11191
-0.17672 0.13227 -0.17789
-0.11888 0.09161 -0.21622
-0.18072 0.13227 0.30814
-0.16630 0.01916 0.25283
-0.17413 -0.15563 -0.27607
0.17338 0.07162 0.15069
-0.12514 0.24140 -0.07032
0.15774 0.00948 -0.34826
-0.11561 0.13233 0.34408
-0.06184 0.17246 0.21547
-0.08182 0.17246 0.24516
0.10238 0.10548 0.24084
0.06501 0.10548 0.23671
-0.05358 0.16098 0.17076
-0.16944 0.05208 0.25283
-0.12422 0.13646 0.34091
0.07917 0.06028 -0.00352
-0.15404 0.03524 -0.35421
-0.10433 -0.14232 -0.36167
-0.18171 0.24126 0.35831
-0.16323 0.19258 0.35831
0.00454 0.08326 0.16241
-0.02175 0.05842 -0.02009
-0.16743 0.15779 0.32109
-0.05002 0.05792 0.26120
-0.18100 0.16697 0.35161
0.15404 -0.17804 -0.36771
0.14777 0.05525 -0.14562
0.01848 0.08338 -0.31310
-0.09595 0.06989 -0.31310
0.11085 0.06362 -0.31378
-0.01005 -0.00024 -0.36018
-0.11821 0.13477 -0.18501
0.09762 0.02027 -0.35998
-0.16920 0.15620 -0.16995
-0.12748 0.10896 0.36835
-0.06470 0.05300 0.36835
-0.01865 0.05938 0.36835
-0.07025 0.07007 0.36835
0.16693 0.05525 0.22829
-0.16128 0.17953 0.07032
-0.15051 0.14592 -0.16995
-0.01348 0.06988 -0.16911
-0.10978 -0.15237 0.36004
-0.07426 0.05525 0.32243
-0.10135 0.05525 0.31218
-0.13926 0.17916 -0.11049
-0.13112 0.13969 0.18836
-0.11888 0.07606 0.18396
0.01541 0.08576 -0.16241
-0.15458 0.13943 -0.34742
-0.13490 0.12892 0.09206
-0.17413 -0.14675 -0.25927
-0.17413 -0.15155 -0.20364
-0.16586 -0.14751 0.00335
0.15404 -0.10960 0.36699
-0.07109 0.13462 0.14232
-0.07836 0.13646 0.12093
-0.10614 0.17581 0.09489
-0.07644 0.13981 -0.13877
-0.08697 0.13981 -0.14856
-0.13050 0.25406 0.07283
0.17748 -0.03511 0.35796
-0.17413 -0.16223 -0.09308
-0.01595 0.05525 -0.23122
-0.08117 0.08289 -0.16911
0.07938 0.09441 -0.16911
-0.17403 -0.14232 0.15788
0.00335 -0.14638 0.36583
-0.17246 -0.06675 -0.01208
-0.13480 0.06028 -0.24513
-0.06706 0.15552 0.27124
-0.14018 0.04856 -0.31716
-0.05023 0.14628 0.31590
-0.09463 0.05096 -0.23441
-0.12066 0.21473 -0.03762
-0.00561 0.11553 -0.24109
-0.15517 0.11553 -0.23882
-0.16241 0.16071 -0.19559
0.04353 -0.11841 0.36372
-0.09557 0.15525 0.27878
-0.17645 0.22540 -0.17748
-0.12555 0.17916 0.02552
-0.16231 0.17916 -0.03491
-0.17530 0.17246 0.12568
-0.09354 0.17246 0.16240
-0.05343 0.17352 -0.35161
-0.07736 0.17916 -0.06047
-0.16955 0.14899 -0.25701
-0.09213 0.13227 -0.16165
-0.15658 0.13227 -0.11572
0.17144 0.11553 0.02766
-0.03876 -0.05488 -0.35998
0.08247 0.08810 0.14232
-0.02552 0.05531 0.00670
-0.18038 0.25952 0.33569
-0.16975 0.25952 0.07809
-0.16833 0.25952 0.17246
-0.17802 0.25952 0.22559
-0.16859 0.25952 0.11694
-0.17607 0.25952 0.15475
-0.16136 0.25952 0.07860
-0.07642 0.11474 -0.36835
0.13734 0.09854 -0.36835
0.03985 0.09908 -0.36835
0.15112 0.05902 -0.36835
-0.08623 0.13981 -0.32819
-0.15702 0.13981 -0.31044
-0.17226 -0.05979 -0.05693
-0.08335 0.13227 -0.33188
-0.16660 0.10565 0.35681
-0.18418 0.21901 0.24411
-0.18418 0.16940 0.21135
-0.18418 0.22500 0.30613
-0.18418 0.22992 -0.03617
-0.18418 0.23146 -0.10000
-0.18418 0.25803 0.10471
-0.18418 0.15159 0.28652
-0.18418 0.25778 0.09513
-0.18418 0.17023 0.26478
-0.18418 0.25033 0.32801
-0.18418 0.18699 0.06721
-0.18418 0.21927 0.06287
-0.18418 0.22116 -0.03417
-0.18418 0.23906 0.21066
-0.18418 0.25760 -0.09000
-0.18418 0.24761 0.26243
-0.18418 0.25447 -0.07696
-0.18418 0.21050 0.10751
-0.12279 0.25283 0.27865
-0.17770 0.25283 0.16838
-0.17280 -0.15911 -0.34826
-0.12812 0.16445 -0.27124
-0.17390 0.12892 0.26844
-0.06769 0.13981 -0.05865
-0.09173 0.13981 0.05007
-0.12891 0.13981 0.06814
-0.17800 0.22283 0.18418
0.17748 0.05031 -0.35657
-0.16707 0.02027 0.19255
-0.07246 -0.16111 -0.36835
0.15404 0.05115 -0.36611
-0.12158 0.13227 0.28458
-0.16165 0.13227 0.27937
0.06930 0.05703 0.23441
-0.16576 -0.10361 -0.06496
0.09268 0.10629 -0.36835
0.07928 0.11349 -0.36835
0.14236 0.05403 -0.36835
0.06186 0.11413 -0.36835
0.12993 0.08394 0.16241
-0.17604 0.13227 -0.18684
-0.13431 0.13227 -0.23112
-0.16158 0.13646 -0.23849
-0.11450 0.13646 -0.21702
-0.16403 0.23151 -0.16157
-0.16241 0.15081 0.27948
-0.11728 0.12557 -0.12193
-0.16409 -0.16897 -0.24444
-0.15838 0.16207 -0.08288
-0.10662 0.16617 -0.26455
0.12400 -0.01726 -0.35998
-0.10928 0.21934 0.19579
-0.17748 0.09113 -0.35130
-0.16743 0.15754 -0.11250
-0.05743 0.15775 0.16995
-0.08433 0.13646 0.00170
-0.18753 0.16343 -0.04151
-0.18753 0.16291 0.15166
-0.18753 0.19635 0.20153
-0.18753 0.13893 -0.16307
-0.18753 0.20572 0.31025
-0.18753 0.12994 0.33686
-0.18753 0.17557 0.34003
-0.18753 0.18214 -0.03383
-0.18753 0.18545 0.01436
-0.18753 0.13958 -0.03736
-0.18753 0.17909 -0.01150
-0.18753 0.20058 0.13785
-0.18753 0.12706 0.14930
-0.18753 0.16737 -0.09245
-0.18753 0.17354 -0.06065
-0.18753 0.15609 0.09571
0.17413 0.08413 -0.19142
0.17413 0.08087 -0.22663
-0.09915 0.15120 0.08288
-0.05137 0.17916 -0.13586
-0.07033 0.17916 -0.02176
-0.09635 0.17916 0.16762
-0.06641 0.17916 0.15870
-0.06157 0.17916 0.03598
-0.07723 0.05384 -0.17413
-0.05358 0.13376 -0.34536
-0.05693 0.16719 0.03692
0.16106 0.10815 -0.25450
-0.16576 -0.05344 -0.08371
-0.12596 0.25283 -0.07418
0.16586 0.10046 0.27976
-0.01674 -0.04408 0.36659
0.09010 -0.15196 0.35831
0.17748 -0.18609 0.35536
0.15892 -0.12787 -0.34826
-0.16241 0.14333 -0.34302
-0.11615 0.21934 0.28192
-0.15987 0.17246 0.33043
-0.14504 0.17246 0.32390
-0.05693 0.15328 -0.15910
0.06522 0.06362 -0.31526
0.16104 -0.17004 0.36612
-0.17157 0.00719 0.09041
0.17115 0.10389 0.35831
-0.16241 0.14549 -0.05304
0.17413 0.05536 0.18160
0.04796 0.06028 -0.23186
0.17581 0.07655 -0.09064
-0.17408 0.15258 0.35077
-0.02749 0.04591 0.34491
0.15404 0.05493 0.35570
-0.16576 -0.08102 -0.05186
0.12659 -0.16850 0.36835
0.14710 -0.17303 0.36835
-0.08262 -0.14500 0.36835
-0.13121 0.12725 0.14629
-0.16409 -0.17763 0.28967
-0.16138 0.13646 0.13309
-0.15404 -0.00379 -0.35499
-0.00639 0.04610 -0.17413
-0.05684 0.17098 0.34408
-0.07229 0.12892 -0.09392
-0.17748 0.09721 -0.36421
0.12055 -0.13384 0.36112
-0.11368 0.11553 -0.36372
-0.09220 0.15127 0.17664
-0.14798 0.13646 0.23495
-0.17043 -0.14232 -0.06269
-0.16828 0.25283 -0.06991
-0.16342 0.17805 0.14567
0.15933 0.06163 0.14902
-0.16409 -0.14676 0.23106
-0.16409 -0.15539 0.17341
-0.11431 0.10046 -0.18243
-0.11013 0.13227 -0.29752
-0.12400 0.16479 0.27878
-0.16692 -0.09433 0.23273
-0.01034 0.10548 0.24235
-0.11532 0.10548 0.23729
-0.09962 0.17916 0.04128
0.08192 0.05892 -0.24780
-0.08564 0.13227 -0.22388
-0.05607 0.13646 -0.16612
0.06084 0.11291 -0.25450
-0.16265 -0.20801 0.34826
-0.12957 0.13227 -0.31428
-0.04353 0.04120 0.36302
-0.01452 -0.03602 -0.35998
0.16945 0.08874 -0.34912
-0.13540 0.14363 0.16995
-0.06647 0.05525 -0.01949
-0.18753 0.23302 0.35508
-0.10930 0.17246 0.17802
-0.12893 0.05525 0.33132
-0.16241 0.15132 0.16962
-0.15752 0.13227 -0.09849
-0.16950 -0.09402 -0.23943
-0.16533 0.21473 0.03221
0.17633 0.07792 0.23219
-0.05023 0.14313 0.20286
0.01674 0.00478 -0.36255
-0.03014 -0.10164 -0.36249
0.16409 0.07118 0.04207
-0.14956 0.13745 0.27543
-0.15717 0.13981 0.19616
0.03112 0.05525 0.24922
-0.00193 0.09107 0.14902
-0.17748 -0.18086 -0.36411
-0.17748 -0.05645 -0.36945
-0.09448 0.13519 0.35831
-0.05074 0.17246 0.30597
-0.18138 0.17916 0.22834
-0.10338 0.17916 0.30259
-0.13111 0.17916 0.27843
-0.11695 0.17916 0.31833
-0.09796 0.13227 0.01607
-0.14649 0.13227 0.04199
-0.17797 0.13227 0.08462
-0.07505 0.13227 0.05464
0.17413 0.07827 0.00629
0.17413 0.06863 0.07228
-0.16409 0.11449 0.14282
-0.12404 0.25952 0.16495
-0.17844 0.22188 -0.14567
0.16409 0.08919 -0.00185
-0.10591 -0.17225 0.36835
-0.14078 0.05190 0.33038
-0.17030 0.03471 0.07032
-0.12255 0.17246 0.03901
-0.14275 0.17246 0.06462
-0.12356 0.17246 0.07350
-0.13587 0.17246 0.05306
-0.17029 -0.12429 -0.21934
0.13145 0.09281 0.31310
-0.11346 0.17246 0.17417
-0.12315 0.17246 0.14002
0.16662 0.04186 -0.02593
0.16824 0.04186 0.08367
-0.09375 0.05572 0.31310
-0.01712 0.04521 0.31715
0.00592 0.04521 0.31177
-0.16248 0.13646 0.22653
-0.16660 -0.15074 0.35232
-0.11385 -0.06829 0.36273
-0.12317 0.24598 0.16157
-0.00674 -0.16921 0.36073
0.16409 0.04921 -0.08328
-0.03684 -0.04829 -0.36026
0.16161 -0.14902 0.36440
-0.08009 0.13646 0.12867
-0.05191 0.07668 0.14232
-0.09844 0.07766 0.14232
0.15910 0.05525 0.01813
0.17413 0.05094 -0.17138
0.17413 0.04302 -0.27885
0.15135 0.04521 0.14177
-0.09358 0.13646 -0.34652
-0.15010 0.13646 -0.34381
-0.05023 0.15818 -0.01774
0.05304 0.07370 0.16911
0.16998 0.11553 0.18186
0.04961 0.11553 0.06923
0.18737 0.11553 0.15386
0.09018 0.11553 -0.04252
-0.07498 0.11553 -0.31500
0.02574 0.11553 -0.36370
0.18685 0.11553 -0.19925
0.08734 0.11553 0.10175
0.16793 0.11553 0.00810
0.10934 0.11553 -0.00248
0.10793 0.11553 0.03854
0.05791 0.11553 0.00778
0.06000 0.11553 -0.13698
0.11347 0.11553 -0.21703
0.08611 0.11553 -0.37680
0.15541 0.11553 0.02408
-0.03931 0.11553 -0.30904
0.12999 0.11553 0.25022
0.01360 0.11553 -0.06784
-0.09608 0.11553 -0.25421
0.02165 0.11553 -0.11124
-0.02961 0.11553 -0.29973
0.17027 0.11553 0.30559
0.14988 0.11553 0.14891
-0.03549 0.11553 -0.31435
0.00887 0.11553 -0.37119
0.16061 0.11553 -0.05793
0.05009 0.11553 -0.34774
0.08634 0.11553 -0.02255
0.16992 0.11553 0.32825
-0.10021 0.11553 -0.27239
0.10479 0.11553 -0.36942
0.08614 0.11553 -0.06463
0.13350 0.11553 -0.07886
0.06264 0.11553 -0.37312
0.01011 0.11553 -0.34760
0.05643 0.11553 -0.33654
0.18172 0.11553 -0.08529
-0.00341 0.11553 -0.29752
-0.05396 0.11553 -0.34351
0.15793 0.11553 -0.34022
-0.02674 0.11553 -0.35990
0.16374 0.11553 0.01683
-0.01933 0.11553 -0.11190
-0.03413 0.11553 -0.07292
0.08074 0.11553 -0.28739
-0.02779 0.11553 -0.32969
0.13305 0.11553 -0.09302
-0.10349 0.11553 -0.32597
0.13975 0.11553 -0.27473
0.18459 0.11553 0.01636
0.09925 -0.05949 0.36668
0.16409 0.05907 0.05267
-0.15465 0.25952 -0.14696
-0.14413 0.25952 -0.08927
-0.14731 0.25952 -0.21376
-0.13070 0.25952 -0.12145
-0.16740 0.25952 -0.20080
-0.14613 0.25952 -0.22288
-0.16659 0.25952 -0.14246
-0.05023 0.16110 -0.24032
-0.08005 0.16298 0.25701
-0.18418 0.14673 0.26665
-0.17419 0.23792 0.18418
-0.15404 -0.05375 -0.35492
-0.12419 0.05525 -0.26001
-0.16636 0.11553 0.32710
-0.05023 0.13614 -0.06245
-0.05023 0.14048 0.04616
-0.12248 0.10046 0.14783
-0.09658 0.14910 -0.08958
-0.13093 0.25304 0.16157
-0.15858 0.21590 -0.14567
-0.01515 0.05514 0.13730
-0.16893 -0.02871 -0.04353
-0.12436 0.21725 0.06283
-0.14462 0.12557 0.09304
-0.12605 0.05281 -0.13730
-0.16177 0.12557 -0.05656
0.00086 0.05190 0.36345
0.13210 0.06028 -0.27825
0.13701 0.06028 -0.20514
0.12247 0.06028 -0.27439
0.16867 0.06028 -0.23868
-0.03514 0.06028 -0.29292
0.09066 0.06028 -0.25419
-0.18418 0.23856 -0.19812
-0.18418 0.24590 -0.25676
-0.18418 0.26115 -0.25023
-0.18418 0.22993 0.33153
-0.18418 0.24621 -0.23361
-0.18418 0.25516 -0.22437
-0.18418 0.24773 0.21614
-0.18418 0.24753 -0.19289
-0.18418 0.24560 -0.02419
-0.18418 0.20387 0.34622
-0.18418 0.16182 0.21193
-0.18418 0.22729 0.04764
-0.18418 0.17559 0.30560
-0.18418 0.21166 0.19323
-0.18418 0.21727 0.02182
-0.18418 0.22392 0.03707
-0.18418 0.21769 0.13992
-0.18418 0.25050 0.13494
-0.16867 0.21934 0.19634
-0.15983 0.21934 0.19853
-0.14647 0.21934 0.21858
-0.07000 0.13981 -0.12590
-0.18217 0.25952 -0.35195
-0.09342 0.15721 0.34408
-0.10072 0.13646 0.05943
-0.12546 0.13646 0.01325
-0.13731 0.13646 0.05531
-0.16526 0.14275 -0.09795
0.16409 0.11517 0.06713
-0.16576 0.04171 -0.09253
-0.03014 -0.10920 0.36024
-0.17246 -0.13135 -0.00047
-0.11798 0.13695 0.18502
-0.17588 0.22480 -0.35161
-0.13209 0.17116 -0.09041
-0.10728 0.17138 -0.10465
-0.06790 0.17110 -0.26371
-0.16693 0.01813 -0.02344
-0.17904 0.19209 0.14818
0.01674 0.04514 -0.36106
0.11369 0.01844 -0.35998
-0.10331 0.13646 0.19036
-0.06688 0.13646 0.20492
-0.01276 -0.14879 0.36668
0.14723 0.04521 0.28116
0.13782 0.04521 0.29913
0.15282 0.04521 0.35152
-0.07315 0.13646 -0.30697
-0.12487 0.13646 -0.23686
0.17162 0.06048 0.35074
-0.10842 0.04521 0.32786
-0.16971 0.04386 0.03684
0.00613 0.10465 0.36835
0.02101 0.10907 0.36835
0.10562 0.05603 0.36835
0.01154 0.08044 0.36835
0.17413 0.11061 -0.16997
0.16509 0.11218 0.24583
-0.06380 0.17246 0.22936
-0.01674 -0.14064 -0.36057
-0.16409 0.10561 0.33325
0.16669 -0.21294 0.37170
0.17074 -0.21031 0.37170
0.12521 0.05168 0.23441
-0.16409 0.05451 -0.36377
-0.11116 -0.14257 0.35998
-0.17246 0.04804 -0.00215
0.03541 0.04521 -0.30949
-0.08540 0.04521 -0.31837
-0.09086 0.16029 -0.09711
-0.16576 -0.14915 -0.02492
-0.11475 0.12557 -0.07330
-0.06924 0.12557 -0.12469
-0.09376 -0.13658 -0.36017
-0.05570 0.14401 0.27878
-0.03013 0.05102 -0.35998
0.13395 0.06762 0.16241
-0.16640 -0.17480 -0.37170
-0.17209 -0.22125 -0.37170
0.17748 0.01636 0.35366
-0.16349 0.04521 0.18600
-0.12346 -0.07013 -0.35998
-0.03792 -0.02688 0.35998
0.04552 0.05023 -0.23442
-0.17748 0.08978 0.35166
0.16409 0.08567 -0.13612
-0.08372 0.15615 -0.10465
-0.00322 0.07970 -0.14232
-0.08909 0.06697 -0.14232
-0.16884 -0.02336 -0.19255
-0.10431 0.05525 0.16697
-0.17413 -0.15363 -0.34426
-0.12351 0.13360 -0.35077
-0.11888 0.07390 0.27450
-0.16944 -0.05410 0.21934
-0.16991 0.00156 -0.08372
0.08415 0.10046 -0.31705
-0.09547 0.16094 -0.19171
-0.10716 -0.01236 0.36036
-0.14285 0.16818 -0.17664
-0.17777 0.25450 -0.07076
-0.15521 0.04521 -0.19930
-0.08693 0.13227 0.21495
-0.09104 0.13575 -0.26455
-0.16241 0.15889 -0.10132
0.02560 0.07254 -0.14902
0.05338 0.07142 -0.14902
-0.05450 0.13227 -0.23855
-0.17246 0.01399 -0.23462
-0.14853 0.21264 -0.33461
-0.14426 0.21264 -0.34833
-0.17748 -0.09600 0.35506
-0.17748 0.11174 0.35498
-0.09004 0.17246 0.00185
-0.12237 0.17246 0.00513
-0.11069 0.17246 0.06328
-0.08700 0.17246 0.08819
-0.06408 0.06565 0.31310
-0.18418 0.12784 -0.06618
-0.15832 0.21264 0.27340
-0.13170 0.21264 0.32483
0.16223 0.11553 -0.00706
0.12600 0.09836 -0.16241
-0.06681 0.13553 -0.27124
0.18753 0.12138 -0.14602
0.18753 0.11644 -0.08243
0.12352 -0.05487 0.35998
0.17748 -0.24015 -0.35780
-0.17432 0.17284 0.09041
-0.13154 0.05450 0.23441
-0.12004 0.13945 -0.35831
-0.09559 0.13783 0.09041
-0.05023 0.16518 0.27030
-0.17489 0.12557 0.20314
-0.17260 0.12557 0.23058
-0.17380 0.12557 0.25734
-0.13547 0.13646 0.08517
-0.17944 0.12557 0.12966
-0.06055 0.14380 -0.18501
-0.11767 0.13598 -0.31645
-0.06870 0.05525 -0.33201
-0.05376 0.05525 -0.34369
-0.17076 -0.04061 -0.01674
-0.18083 0.13547 0.31586
-0.00335 -0.13505 0.36198
-0.10554 0.13955 -0.09041
-0.08748 0.13070 -0.09041
0.15404 0.05680 -0.35852
0.16409 0.04398 0.13996
0.14799 0.06028 0.25033
-0.08563 0.05525 0.14848
-0.05922 0.13646 0.30084
-0.17051 -0.11927 -0.02344
0.12597 0.04391 -0.36668
-0.13089 0.13227 -0.09860
0.00538 0.07750 -0.31980
0.06080 0.05849 -0.31980
-0.09773 0.13646 0.27965
-0.17121 0.13981 0.23367
-0.11218 0.07648 0.19739
-0.09483 0.17581 -0.26644
0.00760 0.06028 0.14465
-0.14696 0.13981 -0.33216
-0.11406 0.06362 -0.00186
-0.12861 0.17916 0.09706
-0.16743 0.14054 -0.12273
-0.11855 0.12557 0.09931
-0.16462 0.11051 0.25200
-0.10963 0.06028 -0.25515
-0.16409 0.06675 -0.34477
-0.16409 0.07768 -0.30683
-0.16409 0.08545 -0.09671
-0.16409 0.06699 -0.31809
-0.16409 0.08354 -0.06200
-0.16409 0.05736 0.14627
-0.16409 0.05760 0.07480
-0.16409 0.05331 -0.11295
-0.16409 0.08229 -0.31459
-0.16885 -0.05200 -0.03014
0.03427 0.11553 -0.24149
0.15418 0.11553 -0.24491
-0.06684 0.15391 -0.10465
-0.01005 -0.13386 0.36452
0.08187 0.05972 -0.26120
-0.02691 0.04521 -0.33381
-0.04646 0.06028 0.30292
-0.03661 0.06028 0.31578
-0.05781 0.06028 0.31190
-0.08524 0.06028 0.31529
-0.09219 0.06028 0.24447
0.03231 0.06028 0.30332
-0.01565 0.06028 0.25856
-0.15404 0.05558 0.36072
0.15803 -0.16861 -0.34826
-0.08339 0.17916 0.30236
-0.12510 0.17916 0.25308
-0.09503 0.17916 0.27210
-0.06659 0.17916 0.22203
-0.16680 0.11051 0.23140
0.02594 0.06028 0.22582
0.04207 0.06028 0.19824
0.16229 0.06028 0.21845
0.02775 0.06028 0.21957
0.00940 0.06028 0.18341
-0.13060 0.15322 0.26455
0.09376 0.02191 -0.36372
-0.17088 0.02792 0.19255
-0.04117 -0.08562 0.36668
-0.12322 0.15967 0.08288
-0.13572 0.25450 -0.16174
-0.09578 0.13227 0.31007
-0.07653 0.13227 0.30821
-0.12557 0.06337 0.11175
-0.10587 0.14287 0.26455
0.00703 0.05525 0.01509
-0.01005 0.00462 0.36000
-0.16743 0.17148 0.31387
-0.05358 0.13693 0.29427
0.01553 -0.16756 0.36835
0.10295 0.11509 0.01339
-0.05023 0.15207 0.07506
0.12912 0.10752 -0.22771
0.16604 0.10214 0.03310
0.08504 -0.17385 0.35981
-0.09345 0.17916 -0.05819
-0.09974 0.17916 -0.08925
0.17748 -0.22200 -0.36026
-0.18413 0.25283 -0.26890
-0.17064 0.25283 -0.29758
-0.16241 0.15033 0.07624
-0.10826 -0.13597 0.35998
-0.17246 0.01629 -0.09219
0.10660 0.11023 0.25450
-0.06831 0.04521 -0.15435
-0.04230 0.04521 -0.17362
-0.05525 0.04521 -0.16759
-0.17162 0.06317 -0.35466
0.16660 0.09846 -0.35019
-0.17147 -0.08627 -0.06362
0.09796 -0.06660 0.36668
-0.05988 0.13581 -0.29636
0.12713 -0.03678 -0.35998
-0.17748 0.01336 0.37006
-0.17748 -0.13719 0.36416
0.01674 -0.08152 0.36236
0.15648 0.07188 0.31980
-0.10046 -0.04089 -0.36101
-0.12107 0.15856 -0.34408
-0.05436 0.14014 -0.08958
-0.16409 0.11533 0.33406
-0.10729 0.11553 -0.21206
0.10879 0.11553 0.22624
0.07850 0.11553 0.22061
-0.04723 0.11553 0.06783
-0.06396 0.11553 -0.00601
0.01204 0.11553 0.14042
-0.04973 0.11553 -0.10114
-0.11194 0.11553 0.01145
-0.13501 0.11553 0.22973
-0.06327 0.11553 0.31562
0.13736 0.11553 0.33733
-0.14793 0.11553 0.03822
-0.11883 0.11553 0.30672
-0.15382 0.11553 0.04623
-0.12066 0.11553 0.16481
-0.06861 0.11553 0.33449
-0.15709 0.11553 -0.15590
-0.14660 0.11553 0.37809
-0.13767 0.11553 0.24341
-0.12189 0.11553 0.03268
-0.01808 0.11553 0.04945
-0.16737 0.11553 0.24479
-0.06137 0.11553 -0.09876
-0.00810 0.11553 0.28604
-0.16000 0.11553 -0.00624
-0.07255 0.11553 -0.13367
0.12155 0.11553 0.25765
-0.01077 0.11553 0.26402
-0.06892 0.11553 0.28915
-0.01592 0.11553 0.06404
-0.08961 0.11553 0.32594
-0.18010 0.11553 0.01114
0.04346 0.11553 0.29934
0.11068 0.11553 0.35687
-0.13383 0.11553 -0.17571
-0.13786 0.11553 0.29964
-0.18376 0.11553 0.05869
0.07297 0.11553 0.30813
-0.03307 0.11553 0.28757
-0.07421 0.11553 0.35751
0.00887 0.11553 0.13285
-0.18634 0.11553 -0.29535
-0.16710 0.11553 -0.01346
-0.03413 0.11553 0.24493
0.10368 0.11553 0.27517
-0.10301 0.11553 -0.13502
0.00216 0.11553 0.10676
0.03010 0.11553 0.17328
-0.09190 0.11553 0.15600
-0.17413 -0.16764 -0.08147
0.09579 0.06946 -0.35831
0.10781 0.10398 -0.35831
0.14483 0.09174 -0.35831
0.07803 0.07053 -0.35831
-0.09114 0.12557 -0.12926
-0.10255 0.19626 -0.35161
0.15404 -0.08057 -0.35089
-0.06494 0.18286 0.18418
0.16345 0.05525 0.28841
-0.16579 0.13981 0.30032
-0.16241 0.14870 -0.04810
-0.09758 0.14889 0.17748
0.16722 0.05525 -0.31406
-0.03051 0.04418 -0.35831
0.07442 0.09444 -0.35831
0.01632 0.05988 -0.35831
0.10930 0.07133 -0.35831
0.16845 0.11218 -0.00554
0.17748 -0.07660 0.36340
0.17566 0.08623 -0.25634
-0.11767 0.21790 0.35329
0.17413 0.05330 -0.08868
0.17413 0.05017 0.06180
0.17065 -0.04555 0.37170
0.17703 -0.21704 0.37170
-0.17246 -0.08281 -0.25012
0.11531 0.06436 -0.14902
-0.15884 0.11553 0.35442
0.11100 0.05525 0.25342
0.10833 0.08283 -0.31980
-0.11274 0.17581 -0.09556
-0.14084 0.25952 0.24083
-0.17805 0.25952 0.25570
-0.17455 0.25952 0.23291
-0.15045 0.25952 0.19476
-0.18050 0.25952 -0.12109
-0.17473 0.25952 0.30775
-0.15842 0.20805 0.18418
-0.16692 -0.08822 -0.19255
-0.16033 0.12557 -0.04743
-0.12772 0.12557 -0.04872
-0.17099 -0.03999 -0.09711
-0.18456 0.26287 0.24926
-0.10335 0.06028 -0.07235
0.02483 0.06028 0.10864
-0.07306 0.06028 0.04374
-0.11714 0.06028 -0.13361
-0.04345 0.06028 0.12221
-0.08510 0.06028 0.02281
0.10072 0.06028 0.09505
-0.08374 0.06028 0.06781
0.03395 0.06028 0.07223
-0.03690 0.06028 0.08631
-0.05004 0.06028 0.02151
-0.01033 0.06028 0.07555
-0.03544 0.06028 0.04504
-0.10849 0.06028 0.02968
0.01723 0.06362 -0.20830
-0.05642 0.06362 -0.19044
0.13090 0.06362 -0.19343
0.11330 0.06362 -0.24019
0.09218 0.06362 -0.24994
0.14631 0.06362 -0.22493
0.07384 0.06362 -0.19896
0.04630 0.06362 -0.19382
0.08729 0.05525 0.26063
-0.14067 0.14984 -0.17748
0.11648 0.11089 -0.01339
-0.16981 0.25395 0.16409
-0.07852 0.13227 -0.32710
-0.15722 0.13227 -0.28525
-0.16576 -0.02373 0.22290
-0.16576 -0.00821 -0.24981
-0.14230 0.12557 0.20866
-0.05771 0.12557 -0.37788
0.07327 0.12557 -0.30990
-0.16213 0.12557 -0.36998
-0.07141 0.12557 0.11443
-0.15423 0.12557 -0.28796
-0.14293 0.12557 0.05267
-0.16176 0.12557 -0.21026
-0.13798 0.12557 -0.07254
0.04651 0.12557 -0.35903
-0.10846 0.12557 0.07200
-0.18445 0.12557 -0.32072
-0.07801 0.12557 -0.07475
-0.00900 0.12557 -0.01508
-0.18463 0.12557 -0.33619
-0.07216 0.12557 -0.20571
-0.17641 0.12557 -0.29287
-0.04871 0.12557 -0.33337
-0.02944 0.12557 -0.32260
-0.16211 0.12557 0.03206
0.05928 0.12557 -0.12576
-0.11334 0.12557 -0.28994
0.01386 0.12557 -0.18893
0.05320 0.12557 -0.19782
-0.14064 0.12557 0.28537
0.04436 0.12557 -0.34408
-0.16163 0.12557 -0.23827
-0.10994 0.12557 -0.35617
-0.12731 0.12557 0.07232
-0.15124 0.12557 -0.14771
-0.16245 0.12557 0.27620
-0.17411 0.12557 0.31554
0.06951 0.12557 -0.30501
-0.16190 0.12557 -0.34218
-0.05518 0.12557 0.00713
-0.03596 0.12557 -0.21033
-0.09719 0.12557 -0.15016
-0.12090 0.12557 -0.31216
-0.12912 0.12557 0.05456
-0.10090 0.12557 -0.01552
-0.08689 0.12557 -0.26230
0.11997 0.12557 -0.29270
-0.13836 0.12557 -0.18960
-0.06833 0.12557 -0.01748
-0.15322 0.12557 -0.09822
-0.11573 0.12557 -0.33325
-0.13926 0.12557 -0.01586
-0.14013 0.04856 -0.16658
-0.05023 0.17818 -0.25565
-0.10258 0.20000 0.35161
0.05368 0.05525 0.23019
