0.20415 -0.23053 -0.15116
0.27119 0.19758 -0.05424
0.24070 0.17945 -0.09687
0.24070 0.18169 -0.16026
0.24070 0.22659 -0.20852
0.24070 0.16236 -0.13265
0.24070 0.21325 -0.13973
0.24070 0.16754 -0.14813
0.24070 0.18657 -0.09199
0.24070 0.17649 -0.22850
-0.28138 0.31130 0.06867
-0.28138 0.30579 -0.08049
-0.28138 0.30496 0.07827
-0.28138 0.30637 -0.13229
-0.28138 0.30184 -0.21034
-0.27894 0.02709 0.23053
-0.26987 0.09670 0.23053
-0.27316 0.08761 0.23053
0.25531 0.31189 -0.12731
0.23734 0.31189 -0.16040
0.25726 0.31189 -0.02991
0.25577 0.31189 -0.21674
0.25384 0.31189 0.01631
0.24462 0.31189 -0.18517
0.22035 -0.19872 -0.13867
0.22035 -0.21514 -0.14541
0.22035 -0.20233 -0.06056
0.22035 -0.21015 -0.20605
0.22035 -0.19859 -0.17917
-0.28138 0.28826 0.20782
-0.28138 0.27325 -0.12186
-0.28138 0.29067 0.19776
-0.28138 0.30188 0.17583
-0.28138 0.28036 -0.12231
0.23891 0.27121 -0.14817
0.23285 0.27121 -0.09920
-0.25460 0.30551 0.27121
-0.26002 -0.18985 -0.26746
0.24170 0.27121 -0.00777
0.24400 0.27121 -0.09930
0.24212 0.27121 -0.03135
-0.26456 0.18113 -0.23053
0.23555 -0.11411 0.27121
0.23482 0.03476 0.27121
0.23536 -0.08389 0.27121
0.22433 0.02950 0.27121
-0.24183 0.31189 -0.19414
-0.24427 0.31189 0.13565
-0.25213 0.31189 -0.10398
-0.24762 0.31189 0.03115
-0.25649 0.31189 -0.17299
-0.24622 0.31189 0.00967
0.17698 -0.23053 0.25356
-0.05239 -0.23053 0.24002
-0.23002 -0.23053 0.23138
-0.09126 -0.23053 0.23108
0.21085 -0.23053 0.26794
0.05221 -0.23053 0.24178
0.23754 0.16357 0.23053
0.17967 -0.28368 0.03699
0.17967 -0.23982 0.16468
0.17967 -0.25798 0.11066
0.17967 -0.26907 0.05732
0.17967 -0.29154 -0.03485
0.17967 -0.30866 -0.14984
0.17967 -0.27834 0.16027
0.17967 -0.29822 0.07849
0.17967 -0.24454 0.18481
-0.04040 -0.18985 -0.24706
0.11481 -0.18985 -0.24075
-0.03151 -0.18985 -0.24304
0.04062 -0.18985 -0.24839
0.18971 -0.18985 -0.24634
0.12118 -0.18985 -0.23393
0.24070 0.24896 0.09162
0.24070 0.22581 -0.00919
0.24070 0.24687 -0.00913
0.24070 0.23904 0.02139
0.24070 0.26760 -0.08201
0.24070 0.25315 -0.07941
0.24070 0.21945 0.07362
0.24070 0.26514 -0.16569
0.26782 0.20508 -0.03242
-0.14508 0.29479 -0.27121
-0.08956 0.29681 -0.27121
-0.15020 0.30182 -0.27121
-0.11144 0.30560 -0.27121
0.10454 0.30946 -0.27121
-0.24070 -0.19890 -0.09482
-0.24070 -0.20591 0.06840
-0.24070 -0.19002 0.10968
-0.24070 -0.21590 0.08703
-0.24070 -0.20617 0.10884
0.26104 -0.10253 -0.26806
0.26104 -0.13825 -0.24478
0.26104 -0.03250 -0.26166
0.26104 0.06774 -0.25721
0.26104 -0.11042 -0.24790
0.26104 -0.21108 0.23590
0.25498 -0.18985 0.13457
0.26015 -0.18985 0.07218
0.24956 -0.18985 -0.11689
0.24474 -0.18985 -0.16505
0.26012 -0.18985 -0.04999
0.24070 0.23204 -0.07675
-0.24600 -0.04823 0.27121
-0.25309 0.22094 0.27121
-0.24285 -0.11185 0.27121
-0.25583 0.15237 0.27121
-0.25759 0.25505 0.27121
0.22035 0.27699 -0.24998
-0.27056 0.27121 -0.01857
-0.26480 0.27121 0.12101
0.27753 0.18306 0.00584
0.22035 -0.20966 0.16281
0.22035 -0.21853 -0.06088
0.22035 -0.21446 0.18695
0.22035 -0.21426 -0.02426
0.22255 -0.06031 -0.27121
0.24189 0.19572 -0.27121
0.23795 0.24465 -0.27121
0.23261 0.05592 -0.27121
0.25098 0.15812 -0.27121
-0.20001 -0.24045 -0.13542
-0.20001 -0.27160 0.10764
-0.20001 -0.25049 0.14350
-0.20001 -0.23620 -0.09018
-0.20001 -0.24532 0.11253
-0.20001 -0.30469 0.15778
-0.20001 -0.26273 0.12887
-0.20001 -0.25839 0.09664
-0.20001 -0.23569 0.07590
-0.20001 -0.26122 0.18403
-0.27452 0.27121 -0.16149
-0.26770 0.27121 0.06384
-0.26558 0.27121 0.08848
-0.23091 -0.18985 -0.09333
-0.12306 -0.18985 0.15569
-0.14140 -0.18985 0.02083
-0.06397 -0.18985 0.11126
-0.12169 -0.18985 0.06495
-0.19400 -0.18985 -0.01256
-0.18340 -0.18985 0.02939
-0.02277 -0.18985 -0.00037
-0.20831 -0.18985 -0.15636
-0.03733 -0.18985 0.13053
-0.07563 -0.18985 -0.05159
0.07233 -0.18985 0.10461
-0.02061 -0.18985 0.18796
-0.04492 -0.18985 0.03055
0.10289 -0.18985 0.12424
-0.13651 -0.18985 -0.12166
-0.19973 -0.18985 0.12665
-0.23519 -0.18985 0.21813
-0.06293 -0.18985 0.18715
-0.14554 -0.18985 0.08703
-0.12230 -0.18985 0.00724
0.07198 -0.18985 0.19153
0.11614 -0.18985 0.16097
-0.12004 -0.18985 -0.02836
-0.03460 -0.18985 0.03539
-0.10334 -0.18985 0.20475
-0.11123 -0.18985 -0.08890
-0.19937 -0.18985 0.08609
-0.11135 -0.18985 0.17153
0.04517 -0.18985 0.07009
-0.24001 -0.18985 0.08536
-0.16098 -0.18985 -0.10422
-0.22338 -0.18985 -0.19104
-0.13569 -0.18985 -0.07674
0.00022 -0.18985 0.16841
-0.17282 -0.18985 0.18827
-0.08770 -0.18985 -0.01928
-0.19511 -0.18985 -0.07516
0.00767 -0.18985 0.22542
-0.09132 -0.18985 0.03803
0.00245 -0.18985 0.13935
0.02086 -0.18985 0.03380
-0.23025 -0.18985 -0.03318
-0.06288 -0.18985 0.21848
-0.01966 -0.18985 0.21993
-0.10977 -0.18985 0.12873
-0.15203 -0.18985 -0.11530
0.10200 -0.18985 0.14240
-0.18958 -0.18985 0.17047
-0.02829 -0.18985 0.16360
-0.21033 -0.18985 -0.07429
-0.10069 -0.18985 -0.04377
0.06814 -0.18985 0.15496
-0.19741 -0.18985 -0.12472
-0.21955 -0.18985 0.17858
-0.17481 -0.18985 0.05501
-0.15807 -0.18985 -0.02081
-0.14231 -0.18985 0.16933
0.17682 -0.18985 0.22579
0.15147 -0.18985 0.19210
-0.21518 -0.18985 0.16080
0.07548 0.13916 0.25087
-0.09969 0.20984 0.25087
-0.12838 0.17378 0.25087
-0.18898 0.23648 0.25087
-0.16213 0.23390 0.25087
-0.02383 0.19347 0.25087
-0.12770 0.23006 0.25087
-0.08656 0.18049 0.25087
-0.15242 0.14425 0.25087
-0.23680 0.21098 0.25087
0.07492 0.15163 0.25087
0.06927 0.16330 0.25087
-0.19174 0.20628 0.25087
-0.00753 0.15334 0.25087
-0.22882 0.12735 0.25087
-0.21277 0.19478 0.25087
-0.07297 0.16675 0.25087
-0.10928 0.20088 0.25087
-0.04977 0.16466 0.25087
0.04779 0.12507 0.25087
-0.26104 0.24922 -0.18456
-0.26104 0.26488 -0.13460
-0.26104 0.23368 -0.13022
-0.26104 0.24003 -0.08569
-0.26104 0.20735 -0.07582
-0.26104 0.16517 -0.12314
-0.26104 0.18154 -0.13570
-0.26104 0.21174 -0.22069
-0.26104 0.25790 0.18800
-0.26104 0.21025 -0.12473
-0.26104 0.26457 0.07545
-0.26104 0.21976 -0.13973
-0.26104 0.25997 0.13000
-0.26104 0.26214 -0.15379
-0.26104 0.16671 -0.21395
-0.26104 0.22487 0.00997
-0.26104 0.14668 -0.16736
-0.26104 0.17971 -0.14922
-0.26104 0.21046 -0.02983
-0.28138 0.30324 -0.23345
0.24070 0.19365 0.20771
0.24070 0.16103 0.21211
0.24070 0.21190 0.13912
0.24070 0.18398 0.11940
0.24070 0.15445 0.17154
0.24070 0.17041 0.21788
0.24070 0.13653 0.21461
-0.28138 0.10638 -0.23076
-0.28138 -0.00446 -0.23454
-0.28138 -0.11068 -0.23246
-0.28138 -0.15443 -0.26464
-0.28138 0.03299 -0.24788
-0.28138 -0.04680 -0.25110
0.22035 -0.21126 0.24757
-0.27946 0.07178 -0.27121
-0.26707 0.15346 -0.27121
-0.26819 0.06650 -0.27121
-0.27142 0.18451 -0.27121
-0.27635 0.22956 -0.27121
-0.09048 0.27121 -0.25509
-0.23574 0.27121 -0.26973
-0.19498 0.27121 -0.26058
0.05334 0.28498 -0.27121
0.03536 0.29241 -0.27121
0.09799 0.29460 -0.27121
0.20519 0.29464 -0.27121
0.10321 0.27291 -0.27121
-0.25178 0.12204 0.20770
-0.25358 0.12204 -0.05898
-0.25292 0.12204 0.11299
-0.26440 0.27121 -0.23367
-0.24070 0.27978 -0.24885
0.24586 0.25146 0.23053
-0.25231 -0.18985 0.23287
0.26104 0.30985 0.20831
0.26104 0.29255 0.08862
0.26104 0.30221 0.04301
0.26104 0.29335 0.18550
0.26104 0.28317 0.11345
0.22035 0.04402 -0.24282
0.22035 -0.00900 -0.25700
0.27620 0.18306 0.02422
0.21772 0.27121 -0.26096
0.18505 0.27121 -0.26496
0.08818 0.28367 0.27121
0.08595 0.28956 0.27121
0.20947 0.28937 0.27121
0.12632 0.30776 0.27121
0.16498 0.30080 0.27121
-0.01900 0.30162 0.27121
0.22774 0.17473 0.23053
0.26087 -0.23053 -0.16348
0.25872 -0.23053 -0.10752
0.26067 -0.23053 -0.12503
0.23989 -0.23053 -0.05182
0.25412 -0.23053 0.09175
0.25007 -0.23053 -0.16280
-0.24070 -0.00920 0.26584
-0.24070 0.00523 0.27063
-0.24070 0.07532 0.25951
0.22035 0.18532 -0.19472
0.22035 0.20009 -0.00215
0.22035 0.20926 -0.06964
0.22035 0.20027 -0.11093
0.22035 0.19143 -0.07335
0.22035 0.25640 -0.19265
0.22035 0.23586 -0.09399
0.22035 0.26897 -0.15956
0.22035 0.23680 -0.21631
0.22035 0.19061 -0.05830
0.22035 0.18814 -0.20450
0.22035 0.26824 -0.11669
0.22035 0.26819 0.00137
0.22035 0.23225 -0.17575
0.22035 0.24463 -0.03715
0.22035 0.24598 -0.09667
0.22035 0.19296 -0.17163
0.22035 0.23732 -0.15988
0.22035 0.25695 -0.08896
0.22035 0.24267 -0.05760
0.22035 0.24392 0.23799
-0.01282 -0.24219 -0.18985
0.15886 -0.28718 -0.18985
-0.01343 -0.25630 -0.18985
-0.09612 -0.24073 -0.18985
0.08732 -0.24646 -0.18985
-0.12398 -0.23957 -0.18985
0.03360 -0.27451 -0.18985
0.06761 -0.23642 -0.18985
0.10321 -0.24677 -0.18985
0.23813 0.12204 -0.06601
0.23602 0.12204 -0.18899
0.22760 0.12204 -0.07231
-0.28138 -0.22260 0.19692
-0.28138 -0.20826 0.13766
-0.28138 -0.22002 -0.04473
-0.28138 -0.22457 0.22457
-0.28138 -0.20736 0.11964
-0.28076 0.27290 0.23053
0.17240 0.12204 -0.23324
0.18102 0.12204 -0.24668
0.15782 0.12204 -0.24657
0.22035 0.24945 0.21471
0.22035 0.19462 0.19436
0.22035 0.14964 0.10289
0.22035 0.19903 0.08283
0.22035 0.22661 0.19009
0.22035 0.20323 0.04507
0.22035 0.22223 0.09906
0.22035 0.14188 -0.00238
0.22035 0.13081 0.07115
0.22035 0.19040 0.22795
0.22035 0.19292 0.17353
0.22035 0.13312 0.12549
0.22035 0.20091 0.15745
0.22035 0.15911 0.16975
0.22035 0.19898 0.02330
0.22035 0.24445 0.20000
0.22035 0.18198 0.10996
0.22035 0.14824 0.06382
0.22035 0.17259 0.21700
0.22035 -0.19668 0.01891
0.22035 -0.20142 0.01080
0.22035 -0.20652 0.04099
0.22035 -0.19113 -0.20438
0.22035 -0.21610 -0.18657
-0.25110 0.31189 -0.14667
-0.27015 0.31189 -0.16175
-0.25645 0.31189 -0.20330
-0.24616 0.31189 -0.03590
-0.24218 0.31189 -0.18446
0.06296 -0.22636 0.27121
0.01825 -0.21347 0.27121
-0.18942 -0.19968 0.27121
-0.23830 -0.21746 0.27121
-0.28138 0.29142 -0.23593
0.23436 0.12204 0.01459
0.23715 0.12204 -0.04142
0.23818 0.12204 -0.03224
0.22297 0.22805 0.23053
-0.24346 -0.23053 0.15953
-0.24401 -0.23053 0.10152
-0.24211 -0.23053 0.00401
-0.26063 -0.23053 -0.02103
-0.24201 -0.23053 -0.12003
-0.26422 -0.23053 -0.20538
0.25811 0.19465 -0.23053
0.25119 0.21644 -0.23053
0.25605 0.21254 -0.23053
-0.26333 -0.18985 0.00462
-0.25634 -0.18985 0.19976
-0.26578 -0.18985 0.15283
-0.24807 -0.18985 0.15546
-0.27692 -0.18985 0.01966
-0.26968 -0.18985 0.20919
0.26104 0.29092 -0.08102
0.26104 0.28709 0.03004
0.26104 0.27214 -0.20518
0.26104 0.28603 -0.16230
0.26104 0.27992 -0.06407
0.26104 0.29119 0.20016
0.26104 0.30605 -0.05562
0.26104 0.29556 0.06249
0.26104 0.29805 0.01867
0.26104 0.30655 0.18785
0.26104 0.30945 0.14436
-0.26104 0.16436 0.21905
-0.26104 0.12943 -0.12039
-0.26104 0.16475 -0.00408
-0.26104 0.16869 0.15106
-0.26104 0.12397 0.06937
-0.26104 0.21184 0.08278
-0.26104 0.14159 -0.08682
-0.26104 0.13417 0.16822
-0.26104 0.14758 -0.12267
-0.26104 0.21757 0.22078
-0.26104 0.13925 -0.00724
-0.26104 0.19564 0.09845
-0.26104 0.17311 0.17697
-0.26104 0.14109 -0.02064
-0.26104 0.20861 0.11102
-0.26104 0.15370 0.20165
-0.26104 0.12877 -0.01753
-0.26104 0.26671 0.22233
-0.26104 0.15349 -0.09585
-0.26104 0.16206 -0.06589
0.24070 0.13189 0.12960
0.24070 0.14747 0.05116
0.24070 0.14582 -0.08669
0.24070 0.13737 0.00056
0.24070 0.12434 -0.17456
0.24070 0.16476 -0.07020
0.24070 0.14541 -0.03798
0.24070 0.12319 0.03447
-0.24070 0.30565 -0.26869
0.24086 -0.07052 0.27121
0.22680 0.19415 0.27121
0.22766 0.00544 0.27121
0.22566 -0.18784 0.27121
0.19503 -0.23053 0.19279
0.18782 -0.23053 0.13339
0.18511 -0.23053 0.16970
0.21521 -0.23053 0.13912
0.20667 -0.23053 -0.01698
0.22035 -0.21681 0.24134
0.25199 0.27121 0.12558
0.24597 0.27121 -0.09200
0.26104 -0.19358 0.08837
0.26104 -0.20060 -0.03355
0.26104 -0.22653 0.20256
0.26104 -0.19604 0.07935
0.26104 -0.20316 0.12538
0.26104 -0.20807 0.00034
-0.18617 -0.21576 -0.23053
-0.05800 -0.20867 -0.23053
-0.19076 -0.19889 -0.23053
-0.15684 -0.19271 -0.23053
-0.20433 -0.21213 -0.23053
-0.13120 -0.19227 0.23053
0.05332 -0.19106 0.23053
-0.00516 -0.20393 0.23053
-0.22409 -0.21443 0.23053
-0.04698 -0.20798 0.23053
-0.26213 0.31189 0.25751
0.03287 0.27976 0.23053
0.19683 0.27310 0.23053
-0.14448 0.29085 0.23053
-0.13751 0.30019 0.23053
-0.20912 0.30054 0.23053
-0.04819 0.27121 0.26299
-0.01312 0.27121 0.26676
-0.16644 0.12204 -0.24643
0.01373 0.12204 -0.23064
-0.08194 0.12204 -0.23894
0.18959 -0.23053 0.18546
0.20709 -0.23053 -0.06965
0.19813 -0.23053 0.12722
0.20149 -0.23053 -0.00888
0.19705 -0.23053 0.15685
0.20269 -0.23053 0.05886
-0.24070 0.20502 0.26015
0.23357 0.27924 0.23053
-0.28138 -0.16225 0.25295
-0.28138 -0.14888 0.25635
-0.28138 -0.16611 0.23637
-0.28138 -0.02735 0.26486
-0.28138 -0.09557 0.26477
-0.26747 0.20982 -0.23053
-0.22797 0.30228 -0.23053
0.14671 0.30760 -0.23053
-0.16796 0.29471 -0.23053
-0.11816 0.29569 -0.23053
-0.06195 0.30120 -0.23053
0.16336 0.31189 -0.24584
-0.02318 0.31189 -0.26615
0.11572 0.31189 -0.26826
0.21360 0.31189 -0.25445
0.14355 0.31189 -0.26379
-0.07506 0.31189 -0.26836
-0.13277 -0.23053 0.24511
-0.03177 -0.23053 0.26435
-0.20736 -0.23053 0.24122
-0.22528 -0.23053 0.24223
-0.17572 -0.23053 0.24160
-0.21714 -0.23053 0.26452
-0.21069 0.31189 0.24766
0.01971 0.31189 0.25725
0.05848 0.31189 0.26998
-0.16247 0.31189 0.25133
-0.06440 0.31189 0.26042
-0.24070 -0.18874 0.26608
-0.24070 -0.12958 0.24863
-0.24070 -0.11773 0.24890
-0.24070 -0.07532 0.23416
0.24243 0.23576 -0.23053
0.25638 -0.04302 -0.23053
-0.24070 -0.20572 -0.26701
0.28138 0.20011 0.02259
0.22035 -0.22997 -0.26985
0.26104 0.30527 -0.26248
0.22035 0.19335 0.24388
-0.07095 0.27121 0.23120
-0.28138 0.03285 0.27046
-0.28138 -0.07631 0.26259
-0.28138 -0.15638 0.26778
-0.28138 -0.12352 0.25358
-0.28138 -0.13624 0.24401
0.23236 -0.05817 -0.27121
0.25415 -0.00983 -0.27121
0.26027 -0.12395 -0.27121
0.25428 -0.05756 -0.27121
0.25696 -0.15205 -0.27121
0.24479 -0.02684 -0.27121
-0.01106 -0.23053 0.25395
-0.02871 -0.23053 0.25394
0.13084 -0.23053 0.26361
-0.21091 -0.23053 0.26872
0.02534 -0.23053 0.26717
0.25272 0.28694 0.23053
0.24070 0.23890 -0.18780
0.24070 0.21725 -0.22492
0.24070 0.20794 -0.18474
0.24070 0.20281 -0.14535
0.24070 0.18137 -0.12374
-0.26713 0.31189 0.24379
0.05056 -0.23053 -0.04971
0.10076 -0.23053 -0.06979
-0.07916 -0.23053 -0.17502
0.13800 -0.23053 0.00632
-0.09240 -0.23053 -0.15389
-0.03760 -0.23053 -0.13615
-0.09073 -0.23053 -0.09435
0.13229 -0.23053 -0.12095
0.12848 -0.23053 0.05480
-0.09794 -0.23053 -0.09277
0.16128 -0.23053 0.07388
0.07436 -0.23053 -0.08874
0.01346 -0.23053 -0.00127
0.15700 -0.23053 0.04334
0.03964 -0.23053 -0.00863
0.16690 -0.23053 -0.10642
-0.00100 -0.23053 -0.10267
0.06674 -0.23053 -0.18670
-0.12844 -0.23053 -0.14555
-0.06782 -0.23053 -0.09451
-0.11319 -0.23053 -0.10484
0.17645 -0.23053 0.00118
0.06238 -0.23053 -0.11256
0.10074 -0.23053 -0.13183
0.09381 -0.23053 -0.04164
-0.15116 -0.23053 -0.18452
0.00778 -0.23053 -0.18651
0.17343 -0.23053 -0.02153
-0.03839 -0.23053 -0.08400
0.01013 -0.23053 -0.10982
0.02722 -0.23053 -0.16629
-0.10167 -0.23053 -0.17490
0.16682 -0.23053 0.14676
-0.17176 -0.23053 -0.17110
0.14746 -0.23053 0.12800
-0.13514 -0.23053 -0.16899
0.09333 -0.23053 0.01950
0.13031 -0.23053 0.06629
0.07557 -0.23053 -0.12387
0.12605 -0.23053 -0.12317
-0.00501 -0.23053 -0.06709
0.02964 -0.23053 -0.08337
0.11021 -0.23053 0.04863
-0.11309 -0.19329 0.27121
0.15180 -0.20487 0.27121
0.17571 -0.20819 0.27121
0.09285 -0.19627 0.27121
0.13787 -0.20573 0.27121
-0.11845 0.21573 -0.25087
0.13434 0.24346 -0.25087
-0.18365 0.14507 -0.25087
0.07313 0.23289 -0.25087
-0.21960 0.24830 -0.25087
-0.20960 0.17943 -0.25087
-0.18108 0.19278 -0.25087
-0.16981 0.22571 -0.25087
-0.11356 0.26419 -0.25087
0.07956 0.26177 -0.25087
0.20485 0.27050 -0.25087
-0.02289 0.22992 -0.25087
0.07856 0.25119 -0.25087
-0.14881 0.24559 -0.25087
-0.17782 0.17474 -0.25087
-0.08656 0.21826 -0.25087
-0.05462 0.19591 -0.25087
-0.01178 0.20183 -0.25087
-0.09156 0.22749 -0.25087
0.06461 -0.22151 -0.27121
0.05887 -0.21301 -0.27121
0.04966 -0.20684 -0.27121
-0.08645 -0.22040 -0.27121
0.07775 -0.22026 -0.27121
0.26104 0.22253 -0.25531
0.26104 0.04629 -0.24992
0.26104 0.22113 -0.23714
0.26104 0.26683 -0.25761
0.26104 -0.00519 -0.23707
0.26104 0.22902 -0.26731
0.26104 -0.20940 0.25984
-0.27704 0.05337 0.27121
-0.24830 -0.17616 0.27121
-0.26473 -0.17919 0.27121
-0.26366 0.01338 0.27121
-0.25327 -0.08366 0.27121
0.27818 0.21019 0.03124
0.22604 -0.23053 0.11752
0.24424 -0.23053 0.12285
0.22097 -0.23053 0.18988
0.22515 -0.23053 -0.13836
0.23439 -0.23053 0.13431
0.22169 -0.23053 0.15674
-0.27652 0.15417 -0.23053
-0.27879 0.19559 -0.23053
-0.27745 0.14367 -0.23053
-0.24408 0.06630 0.23053
-0.24581 -0.14991 0.23053
0.22035 0.28251 -0.19473
0.22035 0.30591 -0.12800
0.22035 0.30322 -0.06153
0.22035 0.28834 -0.15753
0.22035 0.30048 -0.12365
0.22035 0.29035 -0.08372
-0.28138 -0.22598 -0.02983
-0.28138 -0.20142 0.10910
-0.28138 -0.22675 0.11918
-0.28138 -0.23036 -0.15946
0.23509 0.27121 -0.22785
0.23864 0.27121 -0.18525
0.22035 0.29013 0.17222
0.22035 0.27550 -0.08012
0.22035 0.29486 0.13668
0.22035 0.27932 -0.12343
0.22035 0.28014 0.00985
0.22035 0.27786 0.07035
-0.03318 -0.23053 -0.20030
-0.05122 -0.23053 -0.19639
-0.00027 -0.23053 -0.20626
-0.04782 -0.23053 -0.21018
-0.02246 -0.23053 -0.23828
-0.20749 -0.23053 -0.23963
-0.23087 -0.23053 -0.25654
-0.22528 -0.23053 -0.25128
0.19715 -0.23053 -0.23186
-0.16740 -0.23053 -0.25587
0.28138 0.18469 -0.04942
0.24070 0.23309 -0.13260
0.25298 -0.04385 -0.27121
0.25694 -0.07053 -0.27121
0.24543 -0.13634 -0.27121
0.25940 0.02981 -0.27121
0.24274 -0.10870 -0.27121
0.22069 -0.21743 -0.27121
-0.19667 -0.25002 0.18985
-0.11599 -0.23431 0.18985
-0.12887 -0.29482 0.18985
-0.05570 -0.26550 0.18985
0.01117 -0.26541 0.18985
-0.09639 -0.27600 0.18985
-0.03706 -0.27354 0.18985
0.22611 -0.07016 -0.23053
0.22102 -0.12610 -0.23053
0.02947 -0.23053 -0.21401
0.11767 -0.23053 -0.23023
-0.07996 -0.23053 -0.22272
-0.01531 -0.23053 -0.22683
0.11322 -0.23053 -0.20770
-0.24070 -0.20727 -0.25399
0.24070 0.18936 0.03596
0.22035 0.21590 -0.25176
0.22900 0.29484 0.27121
0.26104 0.28620 -0.24165
-0.14738 0.27121 -0.23556
-0.19714 0.27121 -0.24480
-0.23693 0.27121 -0.24023
-0.24070 0.06516 -0.25047
-0.07821 -0.19710 -0.23053
0.03898 -0.19666 -0.23053
-0.15334 -0.21710 -0.23053
-0.21344 -0.20510 -0.23053
-0.18247 -0.20403 -0.23053
0.23381 -0.23053 -0.20243
0.25747 -0.23053 -0.15615
0.23677 -0.23053 -0.15503
0.24774 -0.23053 -0.13308
0.23240 -0.23053 -0.13746
0.22035 -0.14678 -0.25962
0.22035 -0.17874 -0.24752
0.22035 0.00346 -0.23193
0.22035 -0.18532 -0.23843
0.06406 0.22431 0.25087
0.06031 0.18143 0.25087
-0.16131 0.25070 0.25087
0.21843 0.19856 0.25087
-0.06227 0.24693 0.25087
0.13423 0.23849 0.25087
0.12983 0.19122 0.25087
0.19245 0.17709 0.25087
0.17988 0.17790 0.25087
0.17038 0.19858 0.25087
0.06275 0.19543 0.25087
0.05098 0.25557 0.25087
0.15029 0.19949 0.25087
0.06197 0.25081 0.25087
0.13802 0.25820 0.25087
0.21228 0.16365 0.25087
0.08974 0.17477 0.25087
0.14676 0.26917 0.25087
0.09713 0.24858 0.25087
-0.22690 0.27026 0.25087
0.22035 0.26040 0.24598
0.22035 -0.03481 0.23282
0.22035 0.05844 -0.25627
0.22035 0.18485 -0.26501
0.22035 0.08344 -0.26442
-0.25273 -0.23053 -0.15094
-0.24618 -0.23053 0.04838
-0.25347 -0.23053 0.05284
-0.25040 -0.23053 -0.00211
-0.25100 -0.23053 0.06080
0.26104 0.29740 -0.22837
0.26104 0.30629 -0.22174
0.26104 0.27761 -0.19873
0.26104 0.30342 -0.15321
0.23939 -0.11982 0.23053
0.25973 0.14419 0.23053
0.22723 -0.13425 0.23053
0.23716 -0.07771 0.23053
0.25993 -0.18559 0.23053
0.25270 -0.16836 0.23053
0.12693 0.30708 -0.27121
-0.17488 0.30615 -0.27121
-0.22933 0.30350 -0.27121
0.02680 -0.28419 0.18985
-0.11484 -0.30463 0.18985
0.17800 -0.24983 0.18985
0.13889 -0.30264 0.18985
0.17937 -0.28215 0.18985
0.12392 -0.26340 0.18985
0.15737 -0.25993 0.18985
0.08918 -0.29801 0.18985
0.09930 -0.29257 0.18985
0.19357 0.29828 -0.23053
-0.03194 0.28878 -0.23053
-0.09262 0.27998 -0.23053
-0.01765 0.27700 -0.23053
-0.01513 0.28989 -0.23053
0.03205 -0.23053 0.12904
0.06481 -0.23053 0.11018
0.05891 -0.23053 0.08520
-0.18804 -0.23053 0.08600
0.00445 -0.23053 0.04742
-0.02863 -0.23053 0.15712
-0.19926 -0.23053 0.06211
-0.03185 -0.23053 0.13995
-0.14720 -0.23053 -0.04300
-0.07680 -0.23053 0.01598
-0.06973 -0.23053 -0.02211
-0.02993 -0.23053 0.17708
-0.03346 -0.23053 -0.02002
0.00337 -0.23053 0.08986
-0.09583 -0.23053 0.08329
-0.07522 -0.23053 0.11550
-0.11965 -0.23053 0.14746
-0.00559 -0.23053 0.17575
-0.12487 -0.23053 0.13925
-0.10164 -0.23053 0.01771
-0.03077 -0.23053 0.04935
0.01164 -0.23053 0.06747
-0.10109 -0.23053 -0.00054
-0.15099 -0.23053 -0.02764
-0.19234 -0.23053 -0.03087
-0.00074 -0.23053 0.03187
-0.08975 -0.23053 -0.04100
-0.05592 -0.23053 0.18552
-0.18988 -0.23053 0.10075
-0.19196 -0.23053 -0.04496
-0.08389 -0.23053 0.09886
-0.16454 -0.23053 -0.11377
-0.07917 -0.23053 -0.05230
-0.16104 -0.23053 -0.06526
-0.05380 -0.23053 0.02536
-0.18172 -0.23053 0.13001
-0.02867 -0.23053 0.09945
-0.06658 -0.23053 -0.01625
-0.03387 -0.23053 0.09580
-0.15184 -0.23053 -0.07885
0.22035 -0.04677 0.23644
0.26104 0.00403 -0.24397
0.26104 0.26961 -0.26454
0.26104 0.15368 -0.25410
0.26104 0.12796 -0.24793
0.26104 0.05505 -0.24590
0.25378 0.27121 -0.15414
0.25902 0.27121 -0.12925
0.25265 0.27121 -0.02974
-0.03780 0.27121 -0.26146
-0.15692 0.27121 -0.26283
0.22035 0.13487 0.15954
0.22035 0.12334 -0.07526
0.22035 0.21938 0.07186
0.22035 0.14406 0.13300
0.22035 0.13596 -0.06558
0.22035 0.13204 0.14139
0.22035 0.17557 0.03468
0.22035 0.23226 0.18679
0.22035 0.14395 0.22162
0.22035 0.15856 -0.02772
0.22035 0.18766 0.12988
0.22035 0.13859 -0.04402
0.22035 0.20841 0.05289
0.22035 0.13287 -0.08267
0.22035 0.13527 0.19546
0.22035 0.13561 0.22970
0.22035 0.15810 0.01841
0.22035 0.20202 0.14855
0.22035 0.13692 0.17108
0.22035 0.16245 0.02397
0.22035 0.18169 0.02016
0.24574 0.31189 -0.24037
0.25293 0.10700 0.23053
0.25647 0.05775 0.23053
0.25003 0.04361 0.23053
0.22917 -0.10045 0.23053
0.24867 -0.01051 0.23053
-0.24705 0.29796 -0.23053
0.22035 -0.16624 0.23878
0.22035 0.21322 -0.26754
0.22035 0.11005 -0.25629
-0.16376 0.27121 -0.24919
-0.13638 0.27121 -0.24714
0.11374 0.27121 -0.24160
-0.16298 -0.23053 0.21626
0.06248 -0.23053 0.21804
-0.04801 -0.23053 0.21964
-0.01579 -0.23053 0.22253
0.24675 0.20853 0.05424
-0.24557 0.12204 -0.10536
-0.24818 0.12204 -0.16070
-0.24666 0.12204 -0.04624
0.24030 0.31189 -0.11095
0.25130 0.31189 -0.06269
0.25963 0.31189 -0.07859
0.24135 0.31189 -0.04193
-0.27759 0.27121 0.24211
-0.25390 -0.16810 0.27121
-0.27827 0.06480 0.27121
-0.27646 0.08609 0.27121
-0.26277 -0.09726 0.27121
-0.27099 -0.05945 0.27121
0.25980 0.18927 0.05424
0.22509 0.12204 0.17966
0.22492 0.12204 -0.06315
0.22321 0.12204 -0.08582
-0.12166 -0.20388 0.23053
-0.15908 -0.21931 0.23053
-0.23436 -0.20884 0.23053
-0.21856 -0.21028 0.23053
-0.05954 -0.19023 0.23053
-0.02065 -0.19481 0.23053
0.27809 0.20090 0.05424
0.22957 -0.02162 0.23053
-0.19355 0.27121 0.23559
-0.19560 -0.23053 0.16876
-0.08097 -0.23053 0.00116
0.02264 -0.23053 0.04876
-0.11787 -0.23053 -0.06644
-0.19183 -0.23053 0.06476
-0.19743 -0.23053 0.18979
-0.13237 -0.23053 -0.04390
0.04932 -0.23053 0.17118
-0.11747 -0.23053 0.00853
-0.05501 -0.23053 0.08710
-0.09647 -0.23053 0.05270
-0.10622 -0.23053 -0.02581
0.02422 -0.23053 0.05667
-0.06079 -0.23053 0.15475
-0.14331 -0.23053 0.05540
-0.15576 -0.23053 -0.00333
0.00152 -0.23053 0.16896
0.02343 -0.23053 0.11762
-0.02516 -0.23053 0.15171
0.02267 -0.23053 0.08572
0.09030 -0.23053 0.17181
-0.12231 -0.23053 0.09550
-0.14823 -0.23053 -0.09160
-0.05511 -0.23053 0.14264
-0.04493 -0.23053 -0.02204
-0.16421 -0.23053 0.11757
0.09290 -0.23053 0.12554
-0.05781 -0.23053 -0.03491
-0.06749 -0.23053 0.03284
-0.03568 -0.23053 0.11887
-0.17253 -0.23053 0.11236
-0.11845 -0.23053 0.06248
-0.17450 -0.23053 0.02361
-0.12123 -0.23053 0.16502
-0.10848 -0.23053 0.05093
-0.05891 -0.23053 -0.04327
-0.15708 -0.23053 0.08738
0.10271 -0.23053 0.16638
-0.05725 -0.23053 0.00895
-0.10675 -0.23053 0.04037
0.23006 -0.05831 0.23053
-0.24070 0.27951 -0.12843
-0.24070 0.28642 0.06960
-0.24070 0.27157 0.22656
-0.24070 0.27179 0.15039
0.00072 -0.22221 0.23053
-0.16341 -0.22809 0.23053
0.11026 -0.21502 0.23053
0.07212 -0.22031 0.23053
-0.05455 -0.22340 0.23053
-0.25947 0.12204 -0.01941
-0.25849 0.12204 -0.14486
-0.25607 0.12204 -0.02702
-0.24070 -0.10143 -0.26036
-0.24070 -0.15033 -0.25513
-0.24070 0.03158 -0.25272
-0.24070 -0.17763 -0.24707
-0.24070 -0.15718 -0.23746
-0.24070 0.08276 -0.26235
-0.24070 0.27010 -0.25379
0.24447 0.14705 0.23053
0.14696 0.27121 0.03978
-0.05540 0.27121 0.14155
-0.07545 0.27121 0.18485
0.03076 0.27121 0.09630
-0.02805 0.27121 0.20304
0.17396 0.27121 -0.09363
0.18294 0.27121 0.01002
0.16963 0.27121 0.22982
0.15089 0.27121 0.01904
0.07985 0.27121 0.22269
-0.05284 0.27121 0.18895
-0.08433 0.27121 0.16420
0.14343 0.27121 0.06271
-0.10363 0.27121 0.17831
0.17714 0.27121 0.03263
-0.02465 0.27121 0.04874
-0.18099 0.27121 0.21640
-0.03800 0.27121 0.04600
-0.12211 0.27121 0.20935
-0.04796 0.27121 0.12047
0.14008 0.27121 -0.08191
0.20602 0.27121 -0.19092
0.21393 0.27121 -0.06571
0.20931 0.27121 0.12006
0.08423 0.27121 0.16880
0.08188 0.27121 -0.00683
-0.14771 0.27121 0.22061
0.06387 0.27121 0.13650
0.06683 0.27121 0.00700
0.04631 0.27121 0.16157
0.13392 0.27121 -0.13137
0.02484 0.27121 0.10922
0.01985 0.27121 0.13783
0.05140 0.27121 0.18018
0.02599 0.27121 0.05870
0.14384 0.27121 0.19288
-0.05493 0.27121 0.13519
0.18609 0.27121 -0.17756
-0.07806 0.27121 0.21051
-0.20971 0.27121 0.20930
0.10439 0.27121 -0.02967
-0.01702 0.27121 0.13202
0.18402 0.27121 0.03932
0.19799 0.27121 -0.02051
0.10214 0.27121 0.22302
0.00124 0.27121 0.06641
-0.01942 0.27121 0.05776
0.11106 0.27121 -0.04677
0.17829 0.27121 -0.18168
0.03328 0.27121 0.14491
0.03409 0.27121 0.08584
-0.01593 0.27121 0.16046
0.07900 0.27121 -0.02967
-0.17898 0.27121 0.22493
0.00131 0.27121 0.11541
0.07677 0.27121 0.07243
-0.01847 0.27121 0.10329
0.01873 0.27121 0.17782
0.25660 0.27121 0.24524
0.22048 0.27121 0.20720
0.23012 0.27121 0.20845
0.22302 0.27121 0.02391
-0.27102 -0.18985 0.06446
-0.27398 -0.18985 0.21582
-0.25560 -0.18985 0.13462
-0.28049 -0.18985 -0.00958
-0.27280 -0.18985 -0.08063
-0.24508 0.31189 0.27061
-0.04809 0.30035 0.23053
0.10579 0.30304 0.23053
0.08276 0.29638 0.23053
0.03700 0.29661 0.23053
0.21636 0.28652 0.23053
-0.25303 -0.20328 -0.23053
-0.04368 -0.18985 0.00994
-0.16293 -0.18985 -0.08029
-0.16299 -0.18985 0.22802
0.13538 -0.18985 0.15017
-0.19366 -0.18985 0.08154
-0.21083 -0.18985 0.22659
-0.14835 -0.18985 -0.13181
-0.15607 -0.18985 0.12899
-0.11597 -0.18985 0.13625
-0.15640 -0.18985 -0.05512
0.02618 -0.18985 0.14879
-0.06633 -0.18985 0.14334
-0.07226 -0.18985 0.04358
-0.11648 -0.18985 0.03063
0.03243 -0.18985 0.11387
0.06375 -0.18985 0.09168
-0.20699 -0.18985 0.15731
0.02040 -0.18985 0.13016
-0.05837 -0.18985 0.12471
0.05246 -0.18985 0.13003
-0.14954 -0.18985 0.19533
-0.16526 -0.18985 0.06644
-0.22218 -0.18985 0.08172
-0.19929 -0.18985 -0.13404
-0.20424 -0.18985 -0.08255
-0.11132 -0.18985 0.04018
-0.16893 -0.18985 -0.07775
-0.14244 -0.18985 0.20575
0.03872 -0.18985 0.22510
-0.15310 -0.18985 -0.08298
0.02152 -0.18985 0.04154
-0.03223 -0.18985 -0.01056
0.15292 -0.18985 0.21429
0.01055 -0.18985 0.03828
-0.04623 -0.18985 0.10157
-0.12264 -0.18985 0.11760
-0.06131 -0.18985 -0.01510
-0.13202 -0.18985 0.19337
-0.10463 -0.18985 -0.07669
-0.18307 -0.18985 0.05113
-0.20081 -0.18985 0.16384
-0.19364 -0.18985 0.22296
-0.02311 -0.18985 0.06224
-0.14641 -0.18985 0.22472
-0.23132 -0.18985 0.01341
-0.00655 -0.18985 0.13016
-0.10336 -0.18985 0.10965
0.03300 -0.18985 0.14399
0.01688 -0.18985 0.18802
-0.17266 -0.18985 0.09188
-0.11102 -0.18985 0.10221
-0.21232 -0.18985 -0.11601
0.05904 -0.18985 0.14342
-0.05076 -0.18985 0.00360
0.28138 0.20216 -0.00776
-0.01748 0.12204 0.24922
-0.00008 0.12204 0.24729
-0.02388 0.31189 0.24016
0.04965 0.31189 0.24382
0.08980 0.31189 0.23319
0.11006 0.31189 0.25596
0.09105 0.31189 0.25025
0.22035 0.30528 0.24561
-0.24142 0.27121 0.05760
-0.24220 0.27121 0.00892
-0.25245 0.27121 -0.06840
0.22035 0.30140 0.10273
0.22035 0.28579 -0.21729
0.22035 0.30013 -0.05455
0.22035 0.29548 -0.20467
0.22035 0.27986 -0.17272
0.22035 0.30560 0.07291
-0.26104 0.17009 -0.07998
-0.26104 0.19790 0.14122
-0.26104 0.13627 0.08477
-0.26104 0.15431 0.12930
-0.26104 0.14444 0.15144
-0.26104 0.15275 0.02130
-0.26104 0.14666 0.13679
-0.26104 0.19804 0.18724
-0.26104 0.17910 0.00495
-0.26104 0.20999 0.21751
-0.26104 0.21807 0.13143
-0.26104 0.19297 0.18218
-0.26104 0.23892 0.20419
-0.26104 0.19263 0.01670
-0.26104 0.17574 0.12930
-0.26104 0.18340 0.01324
0.27888 0.18843 -0.05424
-0.28138 -0.13724 0.23065
-0.28138 0.17299 0.24023
-0.28138 -0.06140 0.24136
-0.28138 -0.03319 0.23151
-0.28138 0.07362 0.23359
0.24070 0.20722 0.03399
0.17967 -0.26471 -0.03722
0.17967 -0.24804 0.09108
0.17967 -0.24649 -0.02646
0.17967 -0.26534 0.01337
0.17967 -0.23434 -0.17765
0.17967 -0.25499 -0.02415
0.17967 -0.25232 -0.09635
0.17967 -0.24042 0.05634
0.17967 -0.27660 -0.04568
0.22918 0.31189 0.20285
0.22038 0.31189 -0.17548
0.24011 0.31189 0.08555
0.23584 0.31189 0.04267
0.23804 0.31189 0.19149
0.22050 0.31189 0.14560
0.26104 -0.07905 0.24866
0.26104 -0.13025 0.23578
0.26104 0.05011 0.23688
0.26104 0.18146 0.23739
0.26104 0.04323 0.23192
0.26104 -0.16642 0.23520
-0.15718 0.31189 0.23913
-0.12793 0.31189 0.24821
-0.08952 0.31189 0.25770
-0.05213 0.31189 0.26839
-0.21857 0.31189 0.25182
-0.09825 0.31189 0.25987
0.25086 -0.18985 0.10142
0.24356 -0.18985 -0.20207
0.25890 -0.18985 0.05751
0.25374 -0.18985 0.03559
0.22477 -0.18985 -0.22201
0.25552 -0.18985 0.08859
0.27164 0.18306 -0.03957
0.07561 -0.23053 0.25694
-0.09806 -0.23053 0.23239
-0.11064 -0.23053 0.23615
0.09068 -0.23053 0.23104
0.09685 -0.23053 0.23774
0.26104 0.08700 0.23323
0.26104 -0.12959 0.24793
0.26104 0.02988 0.23911
0.26104 -0.04198 0.23817
0.26104 0.09784 0.23473
0.26104 0.09409 0.24436
0.22035 -0.10515 0.24707
0.22035 -0.07371 0.26159
0.22035 -0.16791 0.25693
0.22035 -0.18315 0.23899
-0.27269 0.27121 0.22812
-0.27326 0.27121 -0.03171
-0.27690 0.27121 0.04195
-0.28138 -0.20833 -0.18267
-0.28138 -0.19219 -0.22123
-0.28138 -0.19471 0.01817
-0.28138 -0.22334 -0.21351
0.24158 -0.23053 -0.25903
0.24070 0.24991 -0.05960
0.24070 0.25358 -0.03113
0.24070 0.24209 0.06337
0.24070 0.24371 -0.07134
0.24070 0.26341 -0.10367
0.24070 0.23243 0.00563
0.24070 0.26968 0.09316
-0.24428 0.28242 -0.27121
-0.20793 0.31189 -0.18768
-0.19326 0.31189 -0.09897
-0.21369 0.31189 -0.05579
-0.16387 0.31189 0.20935
-0.07724 0.31189 0.11328
-0.19034 0.31189 0.04549
-0.08730 0.31189 0.14168
0.16915 0.31189 0.21477
-0.01804 0.31189 0.03162
0.00183 0.31189 0.22864
-0.19015 0.31189 -0.02493
-0.18722 0.31189 0.12044
-0.10242 0.31189 0.17168
-0.20281 0.31189 0.03506
-0.05482 0.31189 -0.00845
-0.13339 0.31189 0.19064
0.00327 0.31189 0.17471
-0.14885 0.31189 0.20516
-0.07621 0.31189 -0.01021
-0.20402 0.31189 0.19939
0.06446 0.31189 0.22360
-0.21243 0.31189 0.18016
-0.18241 0.31189 -0.09964
-0.10289 0.31189 0.05711
-0.22712 0.31189 0.00438
-0.14194 0.31189 0.18689
-0.21856 0.31189 -0.10249
0.14702 0.31189 0.22312
-0.08139 0.31189 0.08991
-0.12056 0.31189 0.08529
-0.13147 0.31189 0.19831
-0.06470 0.31189 0.22653
-0.20590 0.31189 0.12752
0.14324 0.31189 0.18326
-0.00296 0.31189 0.19017
-0.03035 0.31189 0.17057
0.03699 0.31189 0.13704
-0.10042 0.31189 0.22531
0.11949 0.31189 0.20414
-0.09167 0.31189 0.21216
-0.18001 0.31189 0.09892
-0.04669 0.31189 0.10212
-0.22084 0.31189 0.21831
-0.08265 0.31189 0.18733
-0.20604 0.31189 0.12007
-0.22462 0.31189 -0.04775
-0.12705 0.31189 0.14953
0.01251 0.31189 0.12641
-0.18240 0.31189 0.04735
-0.03128 0.31189 0.14362
-0.07978 0.31189 0.05798
0.12023 0.31189 0.18185
-0.14537 0.31189 -0.00111
-0.21227 0.31189 -0.01625
-0.07442 0.31189 0.18617
-0.10004 0.31189 0.07987
-0.21537 0.31189 -0.02631
-0.16008 0.31189 0.06780
-0.07237 0.31189 0.04536
-0.16375 0.31189 0.03419
-0.23717 0.31189 -0.20099
-0.24684 -0.22882 -0.27121
-0.11876 0.26439 0.25087
0.15433 0.17937 0.25087
0.20515 0.14078 0.25087
0.13686 0.16977 0.25087
-0.04258 0.22812 0.25087
-0.07559 0.26545 0.25087
0.13999 0.23168 0.25087
-0.05742 0.27022 0.25087
-0.08890 0.27101 0.25087
0.21167 0.12923 0.25087
-0.15069 0.25952 0.25087
0.20237 0.15692 0.25087
0.06018 0.23770 0.25087
0.06170 0.20488 0.25087
0.16238 0.14925 0.25087
0.01961 0.21152 0.25087
0.09586 0.22898 0.25087
0.09192 0.21047 0.25087
0.00631 0.24488 0.25087
-0.27012 -0.23053 0.24970
0.06394 0.28100 0.27121
-0.22714 0.28172 0.27121
-0.17988 0.27740 0.27121
0.26104 0.10565 0.25544
0.26104 -0.08907 0.26444
0.26104 0.12017 0.24983
0.26104 0.24191 0.25164
0.26104 -0.06765 0.27020
-0.24763 -0.10759 0.23053
-0.26131 -0.08298 0.23053
-0.27083 -0.16518 0.23053
-0.25757 -0.11489 0.23053
-0.24070 0.29932 -0.20209
-0.24070 0.28821 -0.08783
-0.24070 0.29543 0.03955
-0.24070 0.28024 -0.15157
-0.24070 0.27852 -0.22349
-0.24070 0.29779 -0.13956
-0.03954 0.27121 0.24404
0.09690 0.27121 0.25086
0.18791 0.27121 -0.24682
0.09444 0.27121 -0.24590
0.03204 0.27121 -0.24912
-0.24070 -0.19285 -0.23966
0.22035 0.10951 -0.24341
0.22035 -0.21710 -0.23157
0.24070 0.20144 0.07735
0.24070 0.12870 0.21754
0.24070 0.21045 0.19545
0.24070 0.19749 0.21688
0.24070 0.21990 0.19866
0.24070 0.17382 0.15951
0.24070 0.19249 0.07805
0.24070 0.19876 0.13840
0.24070 0.19670 0.15597
0.23960 -0.22120 0.27121
0.04128 -0.18985 0.24968
0.15085 -0.18985 0.25127
0.21016 -0.18985 0.23676
0.19130 -0.18985 0.24243
0.09724 -0.18985 0.23318
-0.02305 -0.18985 0.24576
-0.27363 -0.18985 0.25679
0.22981 -0.19815 -0.27121
-0.13965 -0.18985 0.23484
-0.05326 -0.18985 0.23240
0.21375 -0.18985 0.26505
0.22488 -0.18985 0.26422
0.24292 -0.18985 0.15879
0.24886 -0.18985 0.10780
0.22431 -0.18985 -0.17711
0.22535 -0.18985 0.02106
0.22887 -0.18985 0.20260
0.15580 0.31189 -0.23829
0.19772 0.31189 -0.24541
0.18406 0.31189 -0.24544
0.21893 0.31189 -0.26156
0.04742 0.31189 -0.24789
0.25767 0.20473 -0.05424
-0.26130 0.19458 0.23053
-0.26234 0.31189 0.23257
0.26104 -0.21272 -0.12769
0.26104 -0.22942 -0.03374
0.26104 -0.21216 -0.15069
0.26104 -0.21273 -0.00977
0.26104 -0.22522 -0.00079
0.09550 0.12204 0.24811
-0.23479 0.12204 0.24118
-0.28138 0.27663 0.23619
-0.24631 0.31189 -0.26465
0.26782 0.19501 0.02957
-0.28138 0.30539 0.23081
0.16606 -0.23053 0.02025
0.09795 -0.23053 -0.18414
0.09332 -0.23053 0.06156
0.03268 -0.23053 0.00497
0.12319 -0.23053 -0.04498
-0.06864 -0.23053 -0.11834
0.10958 -0.23053 -0.17623
0.11044 -0.23053 0.00794
0.17694 -0.23053 -0.16548
0.16908 -0.23053 0.06481
-0.00142 -0.23053 -0.03042
0.11892 -0.23053 0.02930
-0.04430 -0.23053 -0.17301
0.07959 -0.23053 0.06484
0.05199 -0.23053 -0.15413
-0.05733 -0.23053 -0.17118
0.11931 -0.23053 -0.18016
0.09583 -0.23053 -0.09946
0.09309 -0.23053 -0.16549
0.06345 -0.23053 -0.09633
0.14140 -0.23053 -0.04393
-0.05821 -0.23053 -0.12685
0.06585 -0.23053 -0.10220
0.10170 -0.23053 -0.00400
0.07046 -0.23053 0.00429
0.14006 -0.23053 0.08796
-0.01988 -0.23053 -0.08858
0.15055 -0.23053 0.09137
0.06751 -0.23053 -0.07668
0.03510 -0.23053 -0.16617
0.12023 -0.23053 -0.09286
0.12677 -0.23053 -0.13078
0.16452 -0.23053 0.09053
0.05313 -0.23053 0.01778
0.16610 -0.23053 -0.07955
0.16139 -0.23053 0.05442
-0.23978 -0.23053 0.10682
-0.23480 -0.23053 -0.13610
-0.23101 -0.23053 -0.12687
-0.21825 -0.23053 0.09215
-0.23527 -0.23053 0.12928
-0.21403 -0.23053 0.10562
-0.27963 0.31189 0.17311
-0.27324 0.31189 0.10891
-0.24493 0.31189 0.20008
-0.26517 0.31189 0.02453
-0.28098 0.31189 -0.14940
-0.26064 0.31189 0.01519
-0.28138 -0.21943 0.25387
-0.23381 -0.23053 0.00441
-0.23410 -0.23053 -0.00483
-0.23524 -0.23053 -0.06536
-0.23766 -0.23053 0.14391
-0.23898 -0.23053 -0.20597
-0.23499 -0.23053 0.02192
0.14589 0.31189 0.16856
0.01844 0.31189 0.19756
0.01104 0.31189 0.18005
0.19210 0.31189 0.22255
-0.14947 0.31189 0.08106
-0.12571 0.31189 0.07416
-0.04107 0.31189 0.09051
0.01100 0.31189 0.05029
-0.20652 0.31189 0.09337
-0.19473 0.31189 0.00536
-0.02155 0.31189 0.13953
-0.02420 0.31189 0.03654
-0.06466 0.31189 0.16000
-0.07551 0.31189 0.19410
-0.17682 0.31189 0.07597
-0.08831 0.31189 0.16032
-0.21687 0.31189 0.18683
-0.14331 0.31189 0.22682
0.08822 0.31189 0.10696
0.02342 0.31189 0.14142
0.03708 0.31189 0.16636
-0.10735 0.31189 -0.06309
-0.13673 0.31189 -0.05523
-0.07054 0.31189 0.15505
-0.22580 0.31189 -0.10221
0.08438 0.31189 0.17166
-0.17184 0.31189 0.13340
0.00518 0.31189 0.16537
-0.16745 0.31189 -0.01209
-0.14782 0.31189 -0.01907
-0.16346 0.31189 0.18584
-0.19774 0.31189 -0.07416
-0.14513 0.31189 0.09502
-0.18043 0.31189 0.12587
-0.18252 0.31189 -0.03660
-0.10608 0.31189 -0.09418
-0.21232 0.31189 0.08720
-0.14228 0.31189 0.05835
-0.19714 0.31189 0.09110
-0.18612 0.31189 -0.01995
0.00322 0.31189 0.14057
-0.20165 0.31189 -0.00497
-0.24066 0.31189 0.01414
-0.15084 0.31189 0.02057
-0.11787 0.31189 0.01979
-0.06281 0.31189 -0.01359
-0.05582 0.31189 0.10809
-0.17457 0.31189 0.08328
-0.15041 0.31189 0.06909
0.06891 0.31189 0.17768
-0.21509 0.31189 0.13503
0.05607 0.31189 0.06973
-0.05080 0.31189 0.16783
0.20367 0.31189 0.21435
-0.03713 0.31189 0.22728
0.03670 0.31189 0.09245
-0.19668 0.31189 0.22411
-0.15469 0.31189 -0.13820
0.09047 0.31189 0.13365
-0.25863 0.12204 -0.22118
-0.25276 0.12204 -0.11581
0.24070 0.15932 0.07169
0.24070 0.17874 0.00528
-0.27915 0.28981 0.27121
-0.24338 0.06141 -0.27121
-0.25713 -0.07981 -0.27121
-0.26811 -0.15341 -0.27121
-0.26056 -0.03664 -0.27121
-0.24909 0.14893 -0.27121
-0.25050 -0.00006 -0.27121
-0.24403 0.27121 -0.21728
-0.24335 0.27121 -0.05660
-0.24695 0.27121 0.01927
-0.27856 0.08012 -0.23053
-0.27353 -0.06757 -0.23053
-0.27397 0.18875 -0.23053
-0.08271 -0.18985 -0.25009
-0.13364 -0.18985 -0.26887
-0.02015 -0.18985 -0.26853
0.02319 -0.18985 -0.26429
-0.14887 -0.18985 -0.26217
0.16520 0.31189 -0.23190
0.02899 0.31189 -0.24000
0.17167 0.31189 -0.23464
-0.03795 0.31189 -0.25218
-0.12991 0.31189 -0.26018
0.24344 -0.18985 0.05425
0.22988 -0.18985 -0.05957
0.22437 -0.18985 0.11445
0.23091 -0.18985 0.01783
-0.26393 0.29613 -0.23053
-0.27051 0.29400 0.27121
-0.24070 -0.11318 -0.23359
-0.24070 0.01685 -0.23719
-0.24070 0.02812 0.25911
-0.24070 0.16693 0.26507
-0.24070 0.04998 0.25659
-0.12212 0.12204 0.12099
0.07291 0.12204 0.09647
-0.22478 0.12204 0.02250
-0.04193 0.12204 0.08417
0.16208 0.12204 0.22220
-0.13580 0.12204 -0.01795
-0.01605 0.12204 0.04081
-0.18511 0.12204 0.11546
-0.12474 0.12204 0.13150
-0.00086 0.12204 0.06862
-0.11540 0.12204 0.15360
-0.00929 0.12204 0.03344
-0.11976 0.12204 0.06288
-0.11906 0.12204 0.18042
-0.10153 0.12204 0.08085
-0.01243 0.12204 0.22641
0.05216 0.12204 0.22460
0.03430 0.12204 0.06712
-0.13864 0.12204 0.21586
0.05269 0.12204 0.21123
-0.13970 0.12204 0.10647
-0.20391 0.12204 -0.07850
0.01443 0.12204 0.18860
-0.19171 0.12204 0.09793
-0.01686 0.12204 0.02398
0.00025 0.12204 0.10774
-0.16371 0.12204 0.21725
-0.18147 0.12204 -0.06065
-0.00546 0.12204 0.16039
-0.08499 0.12204 0.18364
0.05290 0.12204 0.11694
0.02160 0.12204 0.17795
-0.10942 0.12204 0.03323
0.17754 0.12204 0.19762
0.19495 0.12204 0.22947
-0.21020 0.12204 0.13550
-0.00851 0.12204 0.07244
-0.18555 0.12204 -0.10078
-0.05469 0.12204 0.13930
-0.16121 0.12204 -0.00838
0.07811 0.12204 0.11121
-0.15303 0.12204 0.11884
-0.08765 0.12204 -0.00652
-0.07639 0.12204 0.14805
-0.23929 0.12204 -0.13264
-0.14267 0.12204 -0.07779
-0.19495 0.12204 0.22160
-0.17655 0.12204 -0.15319
-0.07617 0.12204 0.05310
0.03782 0.12204 0.19861
-0.09243 0.12204 -0.02762
0.01570 0.12204 0.04243
0.03077 0.12204 0.21089
0.07465 0.12204 0.08856
-0.05806 0.12204 0.22289
-0.22269 0.12204 -0.08876
-0.13745 0.12204 0.18851
-0.24070 0.27768 0.25621
-0.24424 -0.00545 -0.23053
-0.25559 0.12037 -0.23053
-0.26547 -0.23053 -0.24782
-0.21145 -0.23053 -0.19547
-0.21793 -0.23053 -0.19171
-0.21427 -0.23053 -0.14722
-0.28138 -0.22297 0.24137
0.14111 0.31189 -0.05666
0.00556 0.31189 -0.22857
0.12240 0.31189 -0.04333
0.09096 0.31189 0.03341
0.15912 0.31189 -0.12189
0.19687 0.31189 -0.00506
0.05776 0.31189 0.03514
-0.00764 0.31189 -0.18355
0.10423 0.31189 -0.20389
0.21566 0.31189 -0.05087
0.15721 0.31189 0.10383
0.03871 0.31189 -0.19473
0.18098 0.31189 -0.14491
0.03188 0.31189 -0.07189
0.08822 0.31189 -0.11044
0.03941 0.31189 -0.04418
0.20316 0.31189 0.09391
0.01900 0.31189 -0.11800
0.20058 0.31189 0.17156
0.09682 0.31189 -0.14846
0.06467 0.31189 -0.20969
0.16127 0.31189 -0.16161
-0.14323 0.31189 -0.14718
-0.10391 0.31189 -0.12723
0.19626 0.31189 0.15304
0.17986 0.31189 0.14894
0.03089 0.31189 0.01108
0.10281 0.31189 -0.21084
-0.09125 0.31189 -0.20002
0.10451 0.31189 -0.09152
0.19774 0.31189 -0.14659
-0.10645 0.31189 -0.15734
0.21114 0.31189 0.04022
-0.00525 0.31189 -0.19586
0.03231 0.31189 -0.14744
-0.04015 0.31189 -0.11219
0.17254 0.31189 -0.06087
-0.00640 0.31189 -0.11562
0.04862 0.31189 -0.22956
0.06317 0.31189 -0.15603
0.05112 0.31189 -0.04607
-0.12210 0.31189 -0.20913
0.18740 0.31189 -0.10044
0.01179 0.31189 -0.09111
0.04503 0.31189 0.02974
-0.04340 0.31189 -0.12530
0.11163 0.31189 0.10629
0.12015 0.31189 -0.19788
0.05109 0.31189 -0.06732
0.04400 0.31189 -0.18152
-0.10885 0.31189 -0.19140
0.16833 0.31189 0.17082
0.08912 0.31189 -0.05099
0.14128 0.31189 0.03614
0.19559 0.31189 0.04117
0.21265 0.31189 0.10994
0.21240 0.31189 0.05917
0.26104 -0.20368 -0.04254
0.26104 -0.20877 0.11534
0.26104 -0.20440 0.15549
0.26104 -0.20313 0.04834
0.22035 0.15404 0.26144
-0.26869 0.31189 -0.01825
-0.27819 0.31189 -0.01867
-0.27312 0.31189 0.00733
-0.27274 0.31189 0.08124
-0.27368 0.31189 0.09534
-0.24957 0.31189 0.20621
-0.20001 -0.28590 -0.14399
-0.20001 -0.29303 -0.08998
-0.20001 -0.25483 -0.17503
-0.20001 -0.29327 -0.01150
-0.20001 -0.27945 -0.14940
-0.20001 -0.29871 -0.18906
-0.20001 -0.28047 -0.09869
-0.20001 -0.29427 -0.10171
-0.24070 -0.03604 -0.26899
-0.24070 -0.10409 -0.27039
-0.24070 0.13013 -0.26739
-0.24070 0.04406 -0.26943
-0.24070 0.02345 -0.26316
-0.25832 0.27121 0.14900
-0.25010 0.27121 0.12874
-0.25671 0.27121 0.13869
0.23378 0.27121 0.23667
-0.24070 -0.21229 -0.09283
-0.24070 -0.22227 0.12620
-0.24070 -0.21336 0.00122
-0.09323 -0.21663 -0.27121
-0.17697 -0.21587 -0.27121
-0.12245 -0.19943 -0.27121
-0.03119 -0.19253 -0.27121
-0.11857 -0.21560 -0.27121
0.08333 -0.19344 -0.27121
0.13894 -0.23053 0.20923
0.10428 -0.23053 0.19588
0.08716 -0.23053 0.21181
-0.24949 -0.22257 -0.23053
0.22094 0.31189 0.02851
0.23780 0.31189 -0.03071
0.22735 0.31189 -0.11249
0.24264 0.31189 0.04584
0.26926 0.18306 0.04804
0.00039 -0.18985 -0.05881
0.21680 -0.18985 -0.10112
0.12665 -0.18985 -0.22607
0.09736 -0.18985 -0.01976
0.17023 -0.18985 0.06718
0.09591 -0.18985 -0.09466
-0.07911 -0.18985 -0.18802
-0.02346 -0.18985 -0.22321
0.02961 -0.18985 -0.14780
0.08036 -0.18985 0.04310
0.01993 -0.18985 -0.09871
0.19307 -0.18985 -0.07884
0.07374 -0.18985 -0.03491
0.05724 -0.18985 -0.07510
0.10951 -0.18985 -0.21157
-0.09337 -0.18985 -0.09211
0.16299 -0.18985 0.04856
-0.06509 -0.18985 -0.13104
0.13457 -0.18985 -0.01282
-0.07758 -0.18985 -0.20925
0.01887 -0.18985 -0.14032
0.06616 -0.18985 -0.01383
0.07520 -0.18985 -0.09470
0.07921 -0.18985 -0.11350
0.08445 -0.18985 0.02400
-0.08528 -0.18985 -0.10069
0.10101 -0.18985 0.07470
-0.16664 -0.18985 -0.20010
-0.01375 -0.18985 -0.12869
0.06653 -0.18985 -0.00108
0.09874 -0.18985 0.06058
0.19496 -0.18985 -0.06230
-0.00441 -0.18985 -0.23051
0.13362 -0.18985 0.01047
0.11139 -0.18985 0.08049
0.07639 -0.18985 0.03160
0.05815 -0.18985 -0.03393
0.09045 -0.18985 -0.05600
0.05274 -0.18985 -0.15837
-0.03631 -0.18985 -0.05753
0.08542 -0.18985 0.07316
0.11521 -0.18985 -0.17228
0.12492 -0.18985 0.01843
0.01896 -0.18985 -0.18796
-0.10308 -0.18985 -0.20312
0.07276 -0.18985 0.08252
0.20777 -0.18985 0.08509
0.07921 -0.18985 -0.03930
-0.02986 -0.18985 -0.04422
-0.14657 -0.18985 -0.22703
0.09959 -0.18985 -0.08420
0.12114 -0.18985 0.05994
0.00625 -0.18985 0.01451
0.19391 -0.18985 -0.22692
0.13911 -0.18985 -0.17492
-0.15131 -0.18985 -0.20219
-0.12220 -0.18985 -0.20668
0.15500 -0.18985 0.15687
0.23577 0.26930 0.23053
0.22983 0.27121 0.03356
0.22739 0.27121 0.01950
0.22078 0.27121 -0.17961
0.05762 -0.21521 -0.23053
0.16477 -0.20126 -0.23053
0.15552 -0.20010 -0.23053
0.07972 -0.22897 -0.23053
0.11103 -0.20861 -0.23053
0.22035 0.19237 0.25787
0.03434 0.12204 0.23339
-0.07186 0.27502 -0.27121
0.08271 0.29217 -0.27121
-0.08964 0.27682 -0.27121
-0.08002 0.27329 -0.27121
0.15172 0.30216 -0.27121
0.25425 0.31189 -0.25645
0.21337 0.27121 0.24396
0.25033 0.27121 -0.17245
0.25796 0.27121 -0.01249
0.26101 0.27121 0.13111
-0.28138 0.31112 -0.07533
-0.28138 0.30210 -0.18520
-0.28138 0.29247 -0.17732
-0.28138 0.30246 -0.03526
0.26104 -0.22263 0.05893
0.26104 -0.21895 0.00391
0.26104 -0.19702 -0.18674
0.26104 -0.21447 -0.18358
-0.12256 0.15505 -0.25087
0.03668 0.13424 -0.25087
0.11503 0.16389 -0.25087
0.21100 0.14649 -0.25087
0.14336 0.22109 -0.25087
-0.06933 0.17436 -0.25087
0.19425 0.23824 -0.25087
0.14597 0.13770 -0.25087
0.14303 0.23993 -0.25087
0.16051 0.18631 -0.25087
-0.04721 0.16071 -0.25087
0.06584 0.17459 -0.25087
-0.03071 0.17989 -0.25087
0.01601 0.13510 -0.25087
-0.00358 0.18565 -0.25087
-0.05301 0.15558 -0.25087
0.21288 0.19692 -0.25087
0.20248 0.23794 -0.25087
-0.28051 -0.23053 0.01310
-0.24554 -0.23053 0.22367
-0.25476 -0.23053 0.11413
-0.27190 -0.23053 -0.09800
-0.26784 -0.23053 0.09114
0.24070 0.14707 0.00953
0.24070 0.12605 0.19324
0.24070 0.16402 0.02646
0.24070 0.15965 0.00857
0.24070 0.12804 -0.20507
0.24070 0.16230 0.00054
0.24070 0.13338 0.01856
0.24070 0.14568 -0.09342
0.22712 0.27879 -0.23053
-0.24214 -0.18985 -0.07441
-0.25333 -0.18985 -0.05698
-0.25994 -0.18985 -0.21539
-0.24935 -0.18985 -0.12559
-0.25004 -0.18985 0.01743
0.22035 -0.12874 0.24513
0.22035 0.03840 0.25621
0.22035 0.08578 0.25871
0.22035 -0.18786 0.25752
0.25308 0.27404 -0.23053
-0.24070 0.30683 0.16488
-0.24070 0.30836 -0.22177
-0.24070 0.28764 -0.04998
0.20896 0.27121 0.26425
0.04598 0.27121 0.26223
-0.24070 0.02701 -0.24833
-0.26135 -0.18985 0.26790
0.02587 0.12204 0.23171
-0.28138 0.02992 0.24188
-0.28138 0.13983 0.23061
-0.28138 0.21818 0.23533
-0.28138 0.00172 0.23260
-0.28138 0.22019 0.26580
-0.28072 -0.16877 0.23053
-0.27600 0.12525 0.23053
-0.27682 0.04265 0.23053
-0.26051 0.31189 -0.27028
-0.01909 0.27121 0.24066
-0.24499 -0.21745 0.27121
0.05942 -0.22098 0.23053
0.02530 -0.23046 0.23053
0.14233 -0.21830 0.23053
0.15849 -0.19781 0.23053
0.08636 -0.22376 0.23053
0.21844 -0.19544 0.23053
0.17967 -0.24689 -0.05154
0.17967 -0.27536 -0.07958
0.17967 -0.23823 0.14662
0.17967 -0.24521 -0.03821
0.17967 -0.24189 0.09335
0.17967 -0.24200 0.02676
0.17967 -0.27021 -0.03028
0.17967 -0.28952 -0.08875
0.17967 -0.26043 -0.17047
0.26104 -0.22256 0.25924
-0.26361 -0.16601 -0.23053
-0.25662 -0.03452 -0.23053
-0.25832 -0.02715 -0.23053
0.24996 -0.18985 -0.23449
-0.25729 -0.18985 -0.10172
-0.27047 -0.18985 -0.11552
-0.25372 -0.18985 0.07036
-0.24753 -0.18985 -0.18787
-0.24354 -0.18985 0.05891
-0.25040 -0.18985 0.08828
-0.26727 0.22473 0.27121
-0.25626 0.05425 0.27121
-0.24864 0.24494 0.27121
-0.26715 0.26787 0.27121
-0.24070 -0.22207 0.24907
0.22035 0.27124 0.17063
0.22035 0.27228 0.05819
0.22035 0.28143 0.12749
0.22035 0.28151 0.04685
0.22035 0.28536 0.03605
0.23401 0.30205 -0.23053
-0.24070 -0.22165 0.09062
-0.24070 -0.22073 -0.09847
-0.24070 -0.22064 -0.10595
-0.24070 -0.22997 -0.04085
-0.24070 -0.19341 -0.19271
-0.24070 -0.22298 -0.21024
-0.07885 -0.18985 -0.25710
-0.22778 -0.18985 -0.26204
-0.05050 -0.18985 -0.25098
0.09993 -0.18985 -0.26555
0.09209 -0.18985 -0.26403
-0.06950 -0.18985 -0.25280
-0.24070 0.27833 0.24214
0.24838 -0.23053 0.19282
0.23249 -0.23053 -0.08068
0.23048 -0.23053 0.07496
0.22397 -0.23053 0.13148
0.24784 -0.23053 0.16265
0.22035 0.25111 -0.11440
0.22035 0.26266 -0.12158
0.22035 0.27084 -0.03632
0.22035 0.22576 -0.18545
0.22035 0.22059 -0.05993
0.22035 0.18623 -0.10974
0.22035 0.25514 -0.04475
0.22035 0.22517 -0.16285
0.22035 0.26959 0.11687
0.22035 0.21723 -0.14054
0.22035 0.24155 -0.20450
0.22035 0.22304 0.02907
0.22035 0.16372 -0.10963
0.22035 0.19546 -0.13707
0.22035 0.26345 0.13512
0.22035 0.26550 -0.17451
0.22035 0.17412 -0.11742
0.26782 0.19147 0.00662
-0.18998 -0.18985 0.25256
-0.00235 -0.18985 0.25501
0.07610 -0.18985 0.26689
-0.21774 -0.18985 0.25162
-0.05657 -0.18985 0.24880
-0.20927 -0.18985 0.24786
-0.20092 -0.23053 -0.10833
-0.20808 -0.23053 -0.18964
-0.20211 -0.23053 0.12671
-0.20238 -0.23053 -0.07165
-0.02996 0.27121 -0.05173
-0.06494 0.27121 -0.15840
0.03094 0.27121 -0.21556
-0.21649 0.27121 -0.16938
-0.20044 0.27121 0.02388
-0.09404 0.27121 -0.08502
