-0.21876 0.17771 0.17765
-0.21876 0.15249 0.06119
-0.21876 0.15126 0.29211
-0.21876 0.16232 -0.01457
-0.21876 0.16138 0.12058
-0.21876 0.14348 0.03444
-0.21876 0.18782 0.12587
-0.21876 0.16668 0.14675
-0.21876 0.16652 0.19827
-0.21876 0.15058 0.09398
-0.21876 0.14926 -0.09393
-0.21876 0.14835 0.02464
-0.21876 0.14558 0.28345
-0.21876 0.15097 -0.13857
-0.21876 0.16281 -0.06067
0.20661 0.20256 0.00842
0.25205 0.21095 0.17667
0.21876 0.20119 0.28215
-0.02977 0.16441 0.02461
0.03715 0.15225 -0.02130
-0.10923 0.15225 -0.02255
0.19648 -0.12837 0.31277
0.19619 -0.11650 0.31850
0.19404 -0.02674 0.31790
0.19240 0.04186 0.33250
0.19676 -0.14004 0.30894
0.19780 -0.18364 0.31736
0.03749 0.21610 -0.36425
-0.02431 0.17621 -0.15303
-0.02431 0.19273 -0.06908
-0.02431 0.19737 -0.04841
-0.02431 0.16094 -0.08059
-0.02431 0.15972 -0.10373
0.08773 0.15257 0.02886
0.01934 0.20965 -0.02408
0.18965 0.20965 0.21198
0.10272 0.20965 -0.21178
0.10248 0.20965 -0.18182
0.06280 0.20965 -0.28126
0.14360 0.20965 0.11964
0.20640 0.20965 0.09277
0.15493 0.20965 -0.02598
-0.05426 0.20965 -0.09414
0.19373 0.20965 0.04981
0.18741 0.20965 0.19361
0.19600 0.20965 0.07445
-0.04157 0.20965 -0.16376
-0.00447 0.20965 -0.11489
0.15955 0.20965 0.08788
0.16959 0.20965 -0.09421
-0.01320 0.20965 -0.16345
0.19375 0.20965 -0.18435
0.15372 0.20965 -0.17666
0.17860 0.20965 0.04226
0.19839 0.20965 -0.19867
-0.10713 0.20965 -0.26650
-0.07786 0.20965 -0.16670
0.08190 0.20965 -0.23862
0.03209 0.20965 -0.17535
0.16900 0.20965 -0.10168
0.06634 0.20965 -0.08931
0.03503 0.20965 -0.11497
-0.10053 0.20965 -0.23275
0.12794 0.20965 -0.20200
-0.05128 0.20965 -0.08038
0.09787 0.20965 -0.19169
0.18721 0.20965 0.24430
-0.15770 0.20965 -0.28479
-0.05393 0.20965 -0.26245
-0.08517 0.20965 -0.16511
-0.08150 0.20965 -0.21986
0.17868 0.20965 -0.14147
0.03370 0.20965 -0.03641
0.04454 0.20965 -0.17988
0.20560 0.20965 0.08376
0.01931 0.20965 -0.07899
-0.03366 0.20965 -0.05858
-0.04489 0.20965 -0.20837
0.04868 0.20965 -0.18640
-0.01298 0.20965 -0.04124
0.14450 0.20965 0.07799
0.16447 0.20965 -0.07784
-0.02784 0.20965 -0.13243
0.04025 0.20965 -0.25282
-0.05860 0.20965 -0.11948
0.05540 0.20965 -0.22702
-0.14719 0.20965 -0.28367
0.12053 0.20965 0.03652
0.18501 0.20965 -0.16898
0.00469 0.20965 -0.03736
-0.02102 0.20965 -0.05251
-0.08316 0.20965 -0.25527
0.15859 0.20965 -0.17983
-0.01015 0.20965 -0.03739
0.12581 0.20965 0.09141
0.13797 0.20965 0.01041
0.05636 0.20965 0.00464
-0.01880 0.20965 -0.11339
-0.03495 0.20965 -0.23887
-0.09170 0.20965 -0.20801
0.13430 0.20965 -0.17773
0.15784 0.20965 0.19081
0.10497 0.20965 -0.07518
0.15540 0.20965 -0.08746
0.13215 0.20965 -0.26280
0.11901 0.20965 0.01863
-0.02700 0.20965 -0.06889
0.09522 0.20965 -0.07098
0.01072 0.20965 -0.12121
-0.01262 0.20965 -0.01946
0.04618 0.20965 -0.10777
0.05022 0.20965 0.01773
0.12983 0.20965 -0.04120
0.13961 0.20965 0.09782
0.18406 0.20965 -0.19139
0.16345 0.20965 0.13858
0.17482 0.20965 -0.18232
0.09782 0.20965 -0.14904
0.19566 0.20965 -0.13996
0.18366 0.20965 -0.26773
-0.08201 0.20965 -0.13752
0.03210 0.20965 -0.06065
0.18989 0.20965 -0.23293
-0.08061 0.20965 -0.23496
0.08684 0.20965 0.04973
0.09683 0.20965 0.03850
0.09391 0.20965 -0.03384
0.16056 0.20965 -0.15337
0.15673 0.20965 0.04571
0.13680 0.20965 0.05854
0.14145 0.20965 0.00455
0.09138 0.20965 -0.07953
0.11833 0.20965 -0.03028
0.06808 0.20965 -0.23886
0.12081 0.20965 0.08891
0.15823 0.20965 -0.04010
0.19567 0.20965 -0.19235
0.14035 0.20965 0.14752
0.15614 0.20965 0.10339
0.04994 0.20965 -0.00628
-0.20661 0.20486 -0.00346
-0.20661 0.20564 -0.22368
-0.20661 0.17442 0.21800
-0.20661 0.18069 0.04780
-0.20661 0.17364 0.01940
-0.20661 0.20527 0.09133
-0.20661 0.20819 -0.01350
-0.20661 0.18823 -0.09375
-0.20661 0.15874 0.11373
-0.20661 0.20054 0.15127
-0.20661 0.20745 0.27447
-0.20661 0.17972 0.00758
-0.20661 0.19370 -0.10842
-0.20661 0.18241 -0.02213
-0.20661 0.15944 0.13931
-0.20661 0.20874 0.05552
-0.20661 0.16910 0.23772
-0.20661 0.19358 -0.14333
-0.20408 0.16441 0.24115
-0.23668 0.20965 0.30975
-0.24598 0.20965 -0.03249
-0.24912 0.20965 0.05575
-0.24779 0.20965 0.25201
-0.24645 0.20965 -0.20072
-0.24568 0.20965 0.16569
-0.24041 0.20965 0.12179
-0.24382 0.20965 0.17077
-0.23900 0.20965 0.25391
-0.17622 0.16244 -0.30962
0.21876 0.15907 -0.01438
0.21291 -0.12639 0.33130
0.20050 -0.12607 0.33130
0.20880 -0.16224 0.33099
-0.22091 0.04568 -0.32935
-0.22178 0.08204 -0.31352
-0.21936 -0.01907 -0.32636
-0.21881 -0.04179 -0.32788
-0.21624 -0.14911 -0.32622
-0.21821 -0.06678 -0.32551
0.18838 0.15001 0.30168
-0.06195 0.22610 0.36183
-0.18528 0.15799 0.23386
0.16271 0.15799 -0.06733
0.13519 0.16441 -0.24103
0.07591 0.20965 -0.33093
-0.17622 0.15134 0.29266
-0.20006 0.20965 0.19340
-0.18903 0.20965 0.07275
-0.20554 0.20965 -0.02590
-0.20290 0.20965 -0.03374
-0.20402 0.20965 -0.23441
-0.20352 0.20965 0.04307
-0.18546 0.20965 0.19294
-0.11101 0.15225 -0.23386
-0.20636 0.15225 -0.24053
-0.11606 0.15225 -0.23971
-0.10270 0.20965 -0.33644
0.05467 0.20965 -0.34172
-0.22516 0.20965 -0.35800
-0.13681 0.20965 -0.33714
0.20661 0.19117 -0.00412
0.18838 0.19025 -0.31196
0.24560 0.21997 -0.36451
0.07788 0.16441 0.02277
0.11048 0.20965 0.29310
-0.04253 0.20965 0.29660
0.16786 0.20965 0.31391
0.08814 0.20965 0.30212
-0.00622 0.20965 0.29015
-0.13376 0.19281 0.32814
-0.09961 0.15954 0.32814
-0.01871 0.17538 0.32814
0.02263 0.13834 0.32814
0.10900 0.14227 0.32814
-0.11900 0.17126 0.32814
-0.00217 0.14236 0.32814
0.01540 0.16737 0.32814
-0.12323 0.19304 0.32814
-0.13913 0.18336 0.32814
-0.05085 0.14444 0.32814
-0.11388 0.19483 0.32814
-0.18949 0.14208 -0.28560
0.19201 0.14896 -0.29776
0.19463 0.20389 -0.28560
0.02019 0.15565 0.23243
-0.10178 0.20965 -0.00724
0.13336 0.20965 0.27404
-0.17149 0.20965 0.00343
-0.08514 0.20965 0.28514
-0.04764 0.20965 0.25108
-0.08636 0.20965 -0.03230
-0.17446 0.20965 -0.13841
-0.15456 0.20965 0.19903
-0.03628 0.20965 0.01252
0.01171 0.20965 0.08387
-0.09422 0.20965 0.11344
-0.13581 0.20965 0.05395
-0.07071 0.20965 0.01094
0.11727 0.20965 0.26841
0.15407 0.20965 0.26295
-0.03354 0.20965 0.18643
-0.18257 0.20965 -0.09977
-0.13429 0.20965 -0.06133
0.05535 0.20965 0.10885
-0.16760 0.20965 -0.08039
-0.13842 0.20965 -0.17348
-0.16034 0.20965 -0.17955
-0.10395 0.20965 0.16686
-0.05839 0.20965 0.10229
-0.19770 0.20965 -0.20264
0.09650 0.20965 0.27783
0.07109 0.20965 0.13777
-0.13308 0.20965 -0.04212
-0.02718 0.20965 0.28143
-0.09805 0.20965 0.05754
-0.06460 0.20965 0.00216
0.05064 0.20965 0.14642
0.04783 0.20965 0.10992
-0.07746 0.20965 0.27323
0.05537 0.20965 0.27109
-0.08547 0.20965 0.21275
0.01336 0.20965 0.20353
-0.09984 0.20965 0.17487
0.03861 0.20965 0.21014
0.10443 0.20965 0.26027
0.09305 0.20965 0.24779
-0.13503 0.20965 0.28364
-0.04431 0.20965 -0.00430
-0.13267 0.20965 0.13823
0.03628 0.20965 0.22554
-0.01738 0.20965 0.23384
-0.12349 0.20965 -0.14444
-0.07118 0.20965 -0.01916
-0.10610 0.20965 0.23771
-0.10819 0.20965 -0.09329
-0.07786 0.20965 -0.03494
-0.14527 0.20965 0.24358
-0.06320 0.20965 -0.05068
-0.07416 0.20965 -0.06502
0.02627 0.20965 0.11480
-0.18227 0.20965 -0.02055
0.15080 0.20965 0.25415
-0.13456 0.20965 0.00817
-0.17627 0.20965 0.07032
0.06124 0.20965 0.21397
-0.00239 0.20965 0.04552
0.05236 0.20965 0.20924
-0.03923 0.20965 0.17989
-0.18248 0.20965 0.13700
-0.05051 0.20965 0.13381
-0.12840 0.20965 0.09941
-0.16160 0.20965 0.15636
-0.09003 0.20965 -0.04481
0.00330 0.20965 0.25963
0.13955 0.20965 0.25887
-0.19665 0.20965 -0.12978
-0.05301 0.20965 0.14854
-0.12962 0.20965 -0.13499
-0.05497 0.20965 0.24263
-0.19198 0.20965 -0.02976
-0.19778 0.20965 -0.20864
0.03621 0.20965 0.19891
0.02783 0.20965 0.20699
-0.07845 0.20965 0.18425
-0.01336 0.20965 0.05673
0.07659 0.20965 0.16681
-0.04298 0.20965 0.18419
-0.10293 0.20965 0.20745
-0.17668 0.20965 -0.14464
-0.08677 0.20965 0.18128
-0.14603 0.20965 -0.13228
-0.13266 0.20965 -0.16764
-0.06067 0.20965 0.02230
-0.13162 0.20965 -0.09126
0.18838 0.15864 -0.32758
0.15357 0.15929 0.02431
-0.19005 0.01719 -0.32340
-0.19092 -0.08374 -0.32372
-0.19010 0.01112 -0.31960
-0.19132 -0.12991 -0.31434
-0.18970 0.05758 -0.32722
0.19509 0.15799 -0.03348
-0.02087 0.15799 -0.12065
0.05171 0.15799 -0.08382
0.05320 0.15799 -0.04417
0.11120 0.15799 -0.04350
-0.00291 0.15799 -0.12657
0.07054 0.15799 -0.02939
-0.00508 0.15799 -0.09366
0.08307 0.15799 -0.11535
0.07033 0.15799 -0.07864
0.03405 0.15799 -0.10205
0.03858 0.15799 -0.13400
0.14906 0.15799 -0.04942
0.08888 0.15799 -0.03725
-0.01655 0.15799 -0.22296
0.01244 0.15799 -0.09507
0.08089 0.15799 -0.05515
-0.00435 0.15799 -0.15877
0.01644 0.15799 -0.18505
0.01641 0.15799 -0.03326
0.11693 0.15799 -0.10212
0.07883 0.15799 -0.03129
0.06300 0.15799 -0.08717
0.18405 0.16350 0.01671
0.17781 0.15264 0.01671
0.17736 0.13673 0.30238
0.20661 0.16869 0.23789
0.20661 0.15414 0.09023
-0.03780 0.15663 0.24459
-0.15990 0.15475 0.24459
-0.20661 0.19174 -0.25030
-0.20661 0.14082 -0.18833
-0.20661 0.15032 -0.06511
-0.20661 0.19500 -0.21556
-0.20661 0.14989 0.14918
-0.20661 0.16665 -0.06758
-0.20661 0.14573 0.09472
-0.20661 0.14577 -0.22913
-0.20661 0.18536 -0.26914
-0.20661 0.18302 -0.20319
-0.20661 0.16946 -0.15340
-0.20661 0.17611 -0.14847
-0.20661 0.15154 0.10099
-0.20661 0.14306 -0.08942
-0.20661 0.18659 -0.22918
-0.20661 0.15760 0.06193
-0.20661 0.13965 0.02705
-0.20661 0.17606 -0.20656
-0.20661 0.13815 -0.01479
-0.20661 0.18753 -0.19844
0.20661 0.15218 0.20033
0.20661 0.15003 0.09336
0.20661 0.14031 0.04387
0.20661 0.13844 0.11922
0.20661 0.13937 0.15016
0.20661 0.15249 0.21071
0.21919 0.18263 -0.10217
0.20661 0.17391 0.26015
0.06575 0.20661 -0.04597
0.14718 0.20661 -0.15252
0.09423 0.20661 -0.12628
0.20253 0.20661 -0.13778
0.13582 0.20661 -0.09288
0.04850 0.20661 -0.04410
0.18793 0.20661 -0.15515
0.11499 0.20661 -0.11856
0.11638 0.20661 -0.10400
0.15288 0.20661 -0.13975
0.18916 0.20661 -0.12406
0.20628 0.20661 -0.16676
0.11204 0.20661 -0.05910
0.18910 0.20661 -0.14880
0.16871 0.20661 -0.18445
0.07114 0.20661 -0.07035
0.12468 0.20661 -0.10054
0.19940 0.20661 -0.08147
0.12335 0.20661 -0.07232
0.02956 0.20661 -0.06485
0.13399 0.15500 -0.02886
0.18424 0.15754 -0.02886
0.18953 0.16170 0.30721
0.19601 -0.10883 0.31024
0.18942 0.16628 0.30176
0.18899 0.18408 0.33002
0.19038 0.12616 0.30776
0.19100 0.10034 0.32414
-0.20327 0.20116 -0.28560
0.13707 0.15842 0.02431
-0.19237 0.16441 -0.01760
-0.19372 0.16441 -0.24088
-0.19833 0.16441 -0.23718
-0.10433 0.15610 -0.23243
-0.00021 0.15225 -0.24392
0.14318 0.15225 -0.23957
-0.12753 0.15225 0.24364
-0.10271 0.15225 0.24142
0.21876 0.19541 0.13733
0.21876 0.20524 0.09829
0.20661 0.15266 -0.06720
-0.18838 0.16628 -0.32435
-0.19379 0.14838 -0.29776
0.22110 -0.22064 -0.30385
-0.02381 0.16441 0.23738
-0.11994 0.22788 -0.15329
-0.09272 0.22788 0.05976
-0.02515 0.22788 -0.23506
-0.17233 0.22788 -0.21527
-0.13770 0.22788 -0.21408
-0.23902 0.22788 -0.29792
-0.03809 0.22788 -0.14530
-0.14178 0.22788 -0.00994
-0.07873 0.22788 -0.21604
0.03028 0.22788 -0.17531
0.09770 0.22788 -0.14175
-0.16803 0.22788 -0.30075
-0.21404 0.22788 0.06853
0.19676 0.22788 -0.32011
-0.19716 0.22788 -0.01215
-0.16578 0.22788 -0.04508
0.10764 0.22788 -0.25736
0.03982 0.22788 -0.31289
-0.23823 0.22788 -0.06287
0.00161 0.22788 -0.15571
-0.15981 0.22788 0.14623
-0.14345 0.22788 0.17926
-0.25035 0.22788 0.34374
0.15688 0.22788 -0.34431
-0.14686 0.22788 -0.09798
-0.23844 0.22788 0.17749
0.11957 0.22788 -0.30618
-0.08156 0.22788 -0.17267
-0.17103 0.22788 -0.11579
-0.02704 0.22788 0.00796
-0.23987 0.22788 0.11574
-0.10243 0.22788 -0.14033
-0.22385 0.22788 0.01631
0.08926 0.22788 -0.32208
-0.19868 0.22788 -0.03164
-0.11743 0.22788 -0.11591
-0.04545 0.22788 -0.05736
-0.20435 0.22788 -0.00314
-0.21906 0.22788 0.21049
0.16124 0.22788 -0.25961
-0.15036 0.22788 0.21341
-0.16066 0.22788 0.06917
-0.07137 0.22788 -0.00022
-0.06573 0.22788 -0.00386
-0.20675 0.22788 0.28387
-0.24359 0.22788 0.27104
-0.12604 0.22788 -0.03755
0.04595 0.22788 -0.23680
-0.08521 0.22788 -0.02714
-0.10562 0.22788 0.02615
-0.08853 0.22788 -0.25692
0.00515 0.22788 -0.05396
0.00433 0.22788 -0.02157
-0.18114 0.22788 -0.05335
0.03861 0.22788 -0.32846
0.06407 0.22788 -0.20466
0.10110 0.22788 -0.20292
-0.12145 0.22788 -0.06752
-0.21654 0.22788 -0.27883
-0.00280 0.22788 -0.07890
-0.19147 0.22788 -0.06444
-0.19758 0.22788 -0.15722
0.12593 0.22788 -0.25348
0.05200 0.22788 -0.11587
-0.11097 0.22788 0.13381
0.08724 0.22788 -0.25986
-0.04622 0.22788 -0.27837
-0.22081 0.22788 0.16884
0.18789 0.22788 -0.33554
-0.16966 0.22788 0.10504
0.11305 0.22788 -0.19053
-0.12435 0.22788 -0.22976
0.07711 0.22788 -0.31760
-0.10360 0.22788 -0.29581
-0.23476 0.22788 -0.34596
-0.04147 0.22788 -0.12163
-0.15642 0.22788 0.17886
-0.11088 0.22788 -0.06930
-0.22347 0.22788 -0.09174
-0.21720 0.22788 0.24211
-0.22729 0.22788 0.28395
-0.24631 0.22788 -0.13435
-0.23157 0.22788 -0.30668
-0.13688 0.22788 -0.12851
-0.22343 0.22788 0.20668
0.10423 0.22788 -0.35763
-0.17850 0.22788 -0.12996
-0.11306 0.22788 -0.25511
-0.21850 0.22788 -0.25012
-0.15225 0.22788 0.03255
-0.07244 0.22788 -0.25185
0.04537 0.22788 -0.21876
-0.05658 0.22788 -0.12273
-0.01360 0.22788 -0.34741
0.18362 0.22788 -0.26438
-0.12086 0.22788 -0.35480
0.02392 0.22788 -0.20895
-0.00926 0.22788 -0.10310
-0.14562 0.22788 0.17272
-0.00412 0.22788 -0.29037
-0.08082 0.22788 0.09452
-0.16847 0.22788 -0.29428
-0.24865 0.22788 -0.31079
-0.10980 0.22788 0.02020
-0.03886 0.22788 -0.11428
-0.23509 0.22788 -0.02276
-0.04455 0.22788 -0.31787
-0.14566 0.22788 0.16750
0.09175 0.22788 -0.21246
0.18825 0.22788 -0.27209
-0.03741 0.22788 -0.33674
-0.24755 0.22788 0.28146
-0.15629 0.22788 0.11279
-0.02405 0.22788 -0.29354
0.06510 0.22788 -0.22620
-0.07761 0.22788 -0.10244
-0.24226 0.22788 0.31441
-0.24525 0.22788 -0.24431
-0.10676 0.22788 -0.28653
-0.21299 0.22788 -0.25979
-0.14670 0.22788 -0.07496
-0.05173 0.22788 -0.08601
-0.14407 0.22788 -0.12795
-0.06227 0.22788 -0.31438
-0.06230 0.22788 -0.16910
0.09029 0.22788 -0.14453
0.21772 0.22788 -0.32146
-0.22675 0.22788 -0.07129
-0.15397 0.22788 0.20277
-0.10467 0.22788 0.14876
-0.21135 0.22788 -0.27414
-0.13118 0.22788 -0.30293
-0.09156 0.22788 0.02261
-0.14222 0.22788 -0.22469
-0.00560 0.22788 -0.21776
0.08272 0.22788 -0.29670
-0.03138 0.22788 -0.25672
0.11202 0.22788 -0.16988
0.01622 0.22788 -0.10214
-0.20418 0.22788 0.20944
0.11456 0.22788 -0.33553
-0.02553 0.22788 -0.02121
0.03372 0.22788 -0.29350
0.19149 0.22788 -0.30079
0.07981 0.22788 -0.34620
-0.08821 0.22788 -0.18863
-0.19826 0.22788 -0.17755
0.09258 0.22788 -0.25737
0.18403 0.22788 -0.31357
0.05836 0.22788 -0.34914
-0.13745 0.22788 0.11474
0.06688 0.22788 -0.34057
-0.08875 0.22788 -0.33254
-0.06026 0.22788 0.06622
-0.16672 0.22788 0.13474
-0.01123 0.22788 -0.11694
-0.04736 0.22788 -0.04979
-0.22296 0.22788 0.24160
-0.09690 0.22788 -0.14182
0.20063 0.22788 -0.30782
-0.24060 0.22788 -0.08487
-0.20459 0.22788 0.09205
-0.07305 0.22788 -0.22524
0.10593 0.22788 -0.01896
0.03564 0.22788 0.06925
0.04079 0.22788 0.12338
0.11334 0.22788 0.17481
-0.02681 0.22788 0.05575
0.14833 0.22788 0.17101
-0.09493 0.22788 0.22890
0.20683 0.22788 -0.23164
0.14996 0.22788 0.32713
-0.05332 0.22788 0.35788
0.09092 0.22788 0.17271
0.08361 0.22788 0.23826
0.00909 0.22788 0.24252
0.06843 0.22788 0.21549
-0.15277 0.22788 0.23881
0.14714 0.22788 0.11625
-0.04173 0.22788 0.19067
0.17698 0.22788 0.34243
0.21067 0.22788 0.24864
-0.11479 0.22788 0.24029
0.14448 0.22788 -0.11862
0.18577 0.22788 -0.25545
0.12628 0.22788 0.35766
0.04976 0.22788 0.32004
-0.12078 0.22788 0.24713
0.04395 0.22788 -0.02556
0.19687 0.22788 -0.25000
0.15327 0.22788 0.24323
0.18967 0.22788 0.25308
0.20975 0.22788 -0.26011
-0.16453 0.22788 0.27113
0.22464 0.22788 -0.27576
0.13367 0.22788 -0.06817
0.00840 0.22788 0.21920
0.16807 0.22788 -0.06613
0.05133 0.22788 0.00821
0.21720 0.22788 0.28504
-0.09456 0.22788 0.16933
-0.07860 0.22788 0.13453
0.17189 0.22788 0.10838
0.17977 0.22788 -0.02759
0.00536 0.22788 0.09912
0.17314 0.22788 -0.10584
0.20768 0.22788 0.15533
0.12463 0.22788 -0.02478
-0.07331 0.22788 0.24017
-0.03991 0.22788 0.20486
0.17389 0.22788 0.30510
0.21196 0.22788 0.10545
0.13984 0.22788 0.30643
0.22480 0.22788 -0.14421
0.08793 0.22788 0.31092
0.19032 0.22788 0.35030
0.06763 0.22788 0.20456
-0.10949 0.22788 0.27606
-0.06949 0.22788 0.31232
0.01574 0.22788 0.23748
0.00321 0.22788 0.15746
0.24116 0.22788 0.15135
0.08859 0.22788 0.00828
0.12720 0.22788 0.05334
0.23122 0.22788 -0.06684
0.11838 0.22788 -0.14525
0.19046 0.22788 0.05266
0.16582 0.22788 -0.12502
0.05275 0.22788 0.01480
0.16649 0.22788 -0.07393
0.09516 0.22788 0.26998
-0.20083 0.22788 0.33326
0.16198 0.22788 0.24991
0.03308 0.22788 0.22711
0.08093 0.22788 -0.05632
0.14005 0.22788 0.32909
0.13317 0.22788 0.12712
-0.07451 0.22788 0.27268
-0.08285 0.22788 0.29931
0.24537 0.22788 -0.18900
0.24915 0.22788 -0.25280
-0.09194 0.22788 0.29827
-0.14020 0.22788 0.32239
0.08352 0.22788 0.00438
0.01790 0.22788 0.27117
-0.05535 0.22788 0.16562
0.23891 0.22788 -0.04726
0.08788 0.22788 0.10482
-0.00266 0.22788 0.20982
-0.11415 0.22788 0.29919
0.22260 0.22788 0.28560
-0.15145 0.22788 0.29036
-0.13510 0.22788 0.24763
0.22677 0.22788 -0.09639
-0.15276 0.22788 0.24714
0.12635 0.22788 -0.18144
0.13445 0.22788 0.29414
0.13605 0.22788 -0.04451
0.14235 0.22788 -0.01794
-0.13845 0.22788 0.22688
0.24317 0.22788 0.21486
0.23888 0.22788 -0.15403
0.01993 0.22788 0.16729
0.15552 0.22788 -0.10741
-0.02791 0.22788 0.17794
0.22177 0.22788 0.24433
0.19251 0.22788 0.03903
-0.13190 0.22788 0.19884
0.04272 0.22788 0.07462
0.20853 0.22788 0.00850
-0.05243 0.22788 0.07884
-0.00078 0.22788 0.12715
0.11674 0.22788 0.10363
0.14671 0.22788 0.14726
0.15377 0.22788 0.19262
-0.17825 0.22788 0.35178
0.21154 0.22788 0.30469
-0.01440 0.22788 0.17285
0.24436 0.22788 -0.08918
0.04308 0.22788 0.20536
0.18583 0.22788 0.02035
0.22805 0.22788 0.32193
0.23445 0.22788 -0.22263
0.20303 0.22788 -0.07547
0.18020 0.22788 0.24824
0.24418 0.22788 -0.16329
0.18386 0.22788 0.15968
0.02987 0.22788 0.07433
0.19510 0.22788 0.12946
0.15439 0.22788 0.15962
0.24139 0.22788 -0.00415
0.11172 0.22788 0.11953
0.13801 0.22788 0.04538
0.24516 0.22788 -0.22294
0.22534 0.22788 -0.03854
0.07323 0.22788 0.11995
0.15201 0.22788 0.26783
0.05302 0.22788 0.26780
0.07984 0.22788 -0.07094
-0.00811 0.22788 0.16522
0.07812 0.22788 0.27494
0.14154 0.22788 0.15121
0.13588 0.22788 0.35413
-0.04238 0.22788 0.23909
0.09061 0.22788 0.29854
0.04463 0.22788 0.22147
0.14808 0.22788 -0.00641
0.23451 0.22788 -0.02840
0.10094 0.22788 0.17806
0.06314 0.22788 0.03584
-0.01250 0.22788 0.14769
0.19509 0.22788 0.27040
0.12546 0.22788 0.20145
0.23590 0.22788 -0.32947
0.00710 0.22788 0.06806
0.17348 0.22788 0.02299
-0.01035 0.22788 0.04999
0.13075 0.22788 -0.03831
0.10025 0.22788 0.12005
0.02778 0.22788 0.28839
-0.00748 0.22788 0.19295
0.25509 0.21704 -0.13526
-0.22037 0.16540 -0.29814
-0.20298 0.13018 -0.29845
-0.21230 0.16449 -0.29815
-0.21812 0.15313 -0.29825
-0.19149 0.07326 -0.29894
-0.21768 0.18709 -0.29796
-0.19127 -0.10874 -0.30052
0.14911 0.15225 -0.02681
0.03536 0.15225 -0.02797
0.15994 0.15225 -0.02003
-0.02431 0.17631 -0.17154
-0.02431 0.20590 -0.09529
-0.02431 0.18934 -0.21030
-0.02431 0.19961 -0.17999
-0.02431 0.19533 -0.13702
0.20937 -0.22526 0.30380
-0.19399 0.15225 -0.02230
-0.04218 0.15225 -0.02236
0.25286 0.21190 -0.02499
0.06161 0.15267 0.23243
-0.19769 -0.18854 0.33076
-0.21145 -0.17422 0.33089
-0.21437 0.04469 0.33279
-0.21840 0.11055 0.33336
-0.20869 -0.11404 0.33141
0.22203 0.06036 0.33292
0.21519 0.20708 0.33420
0.22328 0.16692 0.33385
0.20702 0.02996 0.33266
0.21213 0.15809 0.33377
0.19484 0.18700 0.33402
0.21508 0.00491 0.33244
-0.21608 0.21328 0.36314
0.23292 0.20965 -0.02248
0.23838 0.20965 -0.09406
0.24051 0.20965 -0.29997
0.22526 0.20965 0.24072
0.24306 0.20965 -0.18867
0.22763 0.20965 0.08325
0.23339 0.20965 -0.00300
0.20161 0.00247 0.30064
0.21662 -0.15712 0.30285
0.20313 -0.10522 0.30213
0.20881 -0.17700 0.30313
0.20814 -0.19201 0.30334
-0.25511 0.21731 -0.09621
0.02099 0.16441 -0.02219
0.21247 0.18099 -0.29776
0.19883 -0.22658 -0.32116
-0.05923 0.16357 -0.24459
0.07515 0.16434 -0.24459
0.21876 0.18932 -0.12993
-0.21439 0.13673 -0.24032
-0.20753 0.13673 -0.23868
-0.21198 0.13673 -0.13158
0.01419 0.18489 -0.23699
0.13094 0.19717 -0.23699
0.07766 0.18102 -0.23699
0.07207 0.18892 -0.23699
0.07390 0.20576 -0.23699
-0.00042 0.21437 0.36367
0.02802 0.15910 -0.02431
-0.21995 0.20965 0.13037
-0.21994 0.20965 0.15498
0.18838 0.16899 -0.30075
0.22312 0.18791 0.14119
0.21876 0.20722 -0.06899
-0.20437 0.20965 -0.18085
-0.18769 0.20965 0.13968
-0.20280 0.20965 -0.05677
-0.18104 0.20965 0.22586
-0.20408 0.20965 0.15684
-0.18540 0.20965 0.11762
-0.19995 0.20965 -0.15582
-0.19135 0.20965 0.23745
0.16573 0.15934 -0.23699
0.25392 0.22400 -0.19131
0.25133 0.21030 -0.35805
-0.06450 0.16441 0.02289
-0.02431 0.17712 -0.16590
-0.02431 0.19956 -0.12171
0.25522 0.21871 -0.24794
0.20661 0.16640 -0.02120
-0.25255 0.21154 -0.24496
0.02532 0.18319 0.02431
-0.02365 0.16853 0.02431
0.00354 0.19912 0.02431
-0.01179 0.19329 0.02431
0.02205 0.18921 0.02431
0.25501 0.21669 0.34904
0.10803 0.22149 0.36423
-0.03863 0.15685 0.01671
-0.04901 0.15647 0.01671
0.01653 0.15332 0.01671
0.08329 0.20965 0.35608
0.22900 0.20965 0.35184
0.22488 0.20965 0.34777
-0.19055 0.20965 0.35710
0.11900 0.20965 0.34231
-0.19898 -0.22788 -0.32400
0.19981 0.16441 0.01703
0.19353 0.14182 -0.33328
0.21462 -0.19778 -0.32856
0.20491 -0.07695 -0.33024
0.19519 0.10567 -0.33277
0.17622 0.16042 -0.28681
0.10713 0.20965 0.16150
0.04076 0.20965 0.05960
-0.08387 0.20965 -0.11196
-0.07084 0.20965 -0.09081
-0.01707 0.20965 -0.01567
-0.04647 0.20965 -0.05630
0.01299 0.20965 0.01857
0.13551 0.20965 0.19257
0.20661 0.15218 -0.10832
0.20661 0.13800 -0.27145
-0.18721 0.16097 -0.02431
0.21876 0.20527 0.25698
0.21876 0.20807 0.29194
-0.22489 0.20965 -0.08908
-0.22683 0.20965 0.09610
-0.23391 0.20965 -0.12894
-0.23179 0.20965 -0.28203
-0.22924 0.20965 -0.02398
-0.23387 0.20965 -0.02318
-0.23157 0.20965 -0.29997
0.21876 0.20073 0.07878
0.20661 0.15597 0.04306
-0.02431 0.16000 0.10968
-0.02431 0.17108 0.19337
-0.02431 0.16412 0.10602
-0.02431 0.16073 0.21550
-0.02431 0.15899 0.18999
-0.17185 0.21019 0.36058
0.05982 0.20965 -0.08916
0.01517 0.20965 -0.23101
0.01632 0.20965 -0.11825
0.16865 0.20965 -0.12859
0.18491 0.20965 0.20378
0.18942 0.20965 -0.10177
0.05449 0.20965 0.07021
-0.03024 0.20965 -0.15370
-0.03444 0.20965 -0.28233
0.07060 0.20965 -0.26062
0.13066 0.20965 -0.19632
-0.00107 0.20965 -0.20455
-0.01017 0.20965 -0.05045
0.05899 0.20965 -0.07569
0.17389 0.20965 -0.13867
0.09846 0.20965 0.05563
0.11771 0.20965 -0.21845
0.09522 0.20965 -0.16418
0.02621 0.20965 -0.25787
0.06495 0.20965 -0.22993
0.19321 0.20965 0.01736
-0.00757 0.20965 -0.06186
0.15660 0.20965 -0.25219
0.18451 0.20965 0.05797
0.12622 0.20965 -0.02653
-0.06633 0.20965 -0.16058
0.09371 0.20965 -0.05091
-0.04862 0.20965 -0.19189
0.01132 0.20965 -0.02489
0.14150 0.20965 -0.15812
-0.00621 0.20965 -0.25421
-0.06278 0.20965 -0.26958
0.07816 0.20965 -0.05196
0.00469 0.20965 -0.00546
0.03990 0.20965 0.04039
0.02572 0.20965 -0.07230
0.12620 0.20965 -0.18442
0.15682 0.20965 0.16832
0.00093 0.20965 -0.13926
-0.11232 0.20965 -0.23036
-0.16094 0.20965 -0.26324
-0.14435 0.20965 -0.21372
0.12885 0.20965 -0.23245
-0.00093 0.20965 -0.13357
0.14071 0.20965 0.02534
0.17475 0.20965 0.03185
0.18952 0.20965 -0.06855
-0.00591 0.20965 -0.21674
-0.04577 0.20965 -0.21975
0.13989 0.20965 -0.24668
0.13452 0.20965 -0.18579
0.11894 0.20965 -0.18585
0.18838 0.20965 -0.11802
0.00753 0.20965 -0.10504
0.02449 0.20965 -0.18363
0.15560 0.20965 0.20094
0.16086 0.20965 -0.26777
0.14830 0.20965 0.16709
0.00568 0.20965 -0.01881
0.16262 0.20965 0.11868
0.16629 0.20965 0.17771
0.18459 0.20965 -0.07385
-0.01563 0.20965 -0.18062
0.10398 0.20965 -0.18907
-0.07019 0.20965 -0.18080
0.18494 0.20965 -0.21916
0.08096 0.20965 -0.13830
0.03689 0.20965 -0.05035
0.06659 0.20965 -0.16648
0.11365 0.20965 -0.04456
0.07181 0.20965 -0.21794
0.18984 0.20965 0.15674
0.03835 0.20965 0.01672
0.15519 0.20965 -0.07066
-0.09805 0.20965 -0.16345
0.01296 0.20965 -0.07652
0.14950 0.20965 -0.25376
-0.08782 0.20965 -0.21240
0.19763 0.20965 -0.26784
0.04543 0.20965 -0.14774
0.10175 0.20965 0.08626
-0.08952 0.20965 -0.27417
-0.00545 0.20965 -0.15965
0.00162 0.20965 -0.21060
0.05662 0.20965 -0.15584
-0.06748 0.20965 -0.22210
0.17727 0.20965 0.01032
-0.00978 0.20965 -0.07212
0.00848 0.20965 -0.09658
0.17830 0.20965 -0.17841
-0.09483 0.20965 -0.17367
0.14800 0.20965 -0.27789
0.14144 0.20965 0.07371
0.00556 0.20965 -0.23584
-0.02539 0.20965 -0.03920
0.09961 0.20965 -0.15650
0.05848 0.20965 -0.00808
-0.02471 0.20965 -0.12455
-0.18838 0.20285 -0.30394
0.25114 0.21014 -0.19897
0.20661 0.20050 0.27162
-0.18464 0.13673 0.28727
-0.17899 0.19742 0.28560
-0.17141 0.16296 -0.02431
0.25311 0.22531 0.02887
-0.19728 0.20965 0.32291
0.25185 0.22678 -0.16868
-0.01433 0.17765 -0.23699
0.02148 0.17025 -0.23699
0.15574 0.19989 -0.23699
0.04667 0.20288 -0.23699
0.09042 0.18568 -0.23699
0.16963 0.20965 -0.33533
-0.13922 0.16121 0.24459
0.06902 0.15537 0.24459
0.21876 0.17664 -0.29710
0.21876 0.17064 -0.27721
-0.21743 -0.04508 -0.29997
-0.21290 -0.07998 -0.30027
-0.21355 -0.03121 -0.29985
-0.21388 0.04444 -0.29919
-0.20848 -0.13711 -0.30077
-0.02786 0.21194 -0.36227
0.21876 0.16559 -0.18867
0.21876 0.16728 -0.12715
-0.04346 0.16441 -0.01726
-0.10526 0.16441 -0.01821
-0.17622 0.16508 -0.29195
-0.12169 0.20965 0.35643
-0.04757 0.20965 0.35309
0.23356 0.20965 0.35571
0.18043 0.20965 0.33689
0.11543 0.20965 0.34684
0.20854 0.20965 0.35456
-0.19275 0.16080 0.28560
-0.05065 0.21513 -0.36399
0.21876 0.20734 -0.00738
-0.00832 0.16441 -0.23902
-0.19767 -0.20757 0.33060
-0.15362 0.13673 0.32113
-0.02785 0.13673 0.32513
-0.25187 0.21076 0.28931
-0.01161 0.15225 0.02873
-0.09238 0.15225 0.02559
-0.20263 0.14325 -0.28560
-0.25516 0.21950 -0.16781
-0.15544 0.15976 0.23699
0.20661 0.14752 -0.26345
0.21876 0.16613 -0.10159
0.21876 0.15861 -0.15713
0.22350 0.20965 0.02794
0.22184 0.20965 -0.06012
-0.19200 -0.20741 -0.30216
-0.18838 0.16395 0.31259
-0.20292 0.19168 -0.29776
-0.20399 -0.22788 0.32698
0.20661 0.15524 -0.08467
0.21876 0.20346 -0.25010
0.18838 0.20787 0.30768
-0.16506 0.15403 0.01671
-0.06004 0.16272 0.01671
-0.17895 0.19170 -0.28560
-0.19243 0.17308 -0.28560
-0.18838 0.15948 0.30234
-0.17613 0.13673 -0.32153
-0.08368 0.13673 -0.32351
0.02241 0.20965 -0.33073
-0.18838 0.15078 0.30960
0.21876 0.17738 -0.01753
0.22534 0.17613 -0.13802
0.00857 0.15225 0.02393
-0.13952 0.15225 0.02305
0.21876 0.20232 -0.09291
0.21876 0.20118 -0.11227
-0.18388 0.15225 -0.02868
0.05217 0.20965 0.29516
0.14247 0.20965 0.29491
0.17547 0.20965 0.28858
-0.02457 0.20965 0.28664
-0.21676 0.21514 -0.36399
0.20673 0.13673 -0.20269
0.20900 0.13673 0.01550
0.21324 0.13673 -0.11223
0.16073 0.15799 -0.14350
0.18154 0.15799 -0.13359
0.10339 0.15799 -0.17917
0.19234 0.15799 -0.20192
0.06139 0.15799 -0.20026
0.07735 0.15799 -0.15601
0.06386 0.15799 -0.22216
0.08444 0.15799 -0.17695
0.16393 0.15799 -0.22410
-0.00033 0.15799 -0.22364
0.17134 0.15799 -0.11017
0.13793 0.15799 -0.11665
0.12480 0.15799 -0.16015
0.11096 0.15799 -0.15072
0.14986 0.15799 -0.08864
0.11656 0.15799 -0.21561
0.05025 0.15799 -0.20653
0.09047 0.15799 -0.17072
0.17842 0.15799 -0.09729
0.11421 0.15799 -0.16077
0.07396 0.15799 -0.22068
0.11160 0.15799 -0.16925
0.18905 0.18146 -0.29931
0.19748 -0.17036 -0.30581
0.19479 -0.05769 -0.31583
0.19772 -0.18005 -0.31323
0.19365 -0.01037 -0.31065
-0.23210 0.20965 -0.20884
-0.22245 0.20965 -0.04397
-0.23971 0.20965 -0.31093
-0.23506 0.20965 -0.04073
-0.23314 0.20965 -0.05449
-0.24489 0.20965 -0.33582
-0.21876 0.17509 0.04487
-0.21876 0.15458 0.25373
-0.21876 0.16270 -0.03701
-0.21876 0.13996 0.08299
-0.21876 0.15700 0.07403
-0.21876 0.15093 0.00769
-0.21876 0.14684 0.01217
-0.21876 0.15224 0.03212
-0.21876 0.13974 0.01969
-0.21876 0.15964 0.28467
-0.21876 0.14456 0.04986
-0.21876 0.14017 0.23078
-0.21876 0.17704 0.14629
-0.21876 0.14227 0.22160
-0.21876 0.15196 0.15359
-0.21876 0.19585 0.26939
-0.21876 0.13797 -0.26318
-0.21876 0.14646 -0.05809
-0.12115 0.18321 -0.32814
-0.11350 0.16508 -0.32814
0.09517 0.19505 -0.32814
-0.13658 0.17426 -0.32814
-0.15672 0.15123 -0.32814
0.04297 0.19801 -0.32814
-0.10988 0.16144 -0.32814
-0.05746 0.20925 -0.32814
-0.05193 0.16633 -0.32814
-0.10289 0.19590 -0.32814
-0.07814 0.20102 -0.32814
-0.14042 0.16363 -0.32814
0.15882 0.18564 0.23699
0.16561 0.20009 0.23699
0.18382 0.18860 0.23699
0.10948 0.19076 0.23699
0.03467 0.20052 0.23699
0.21876 0.14203 0.15618
0.21876 0.14845 -0.16817
0.21876 0.13951 -0.09591
0.21876 0.14974 -0.07646
0.21876 0.14315 -0.07579
0.21876 0.14764 -0.04038
0.20661 0.14372 -0.25726
0.20661 0.15000 -0.12682
0.21876 0.19563 -0.19421
0.21876 0.17457 0.05287
0.21876 0.16556 0.04728
-0.25202 0.22660 -0.14897
0.18551 0.18681 -0.02431
0.15185 0.17924 -0.02431
0.00722 0.20332 -0.02431
0.19305 0.20589 -0.02431
-0.20430 0.16441 0.01794
-0.01354 0.15799 0.02630
0.13616 0.15799 0.11544
0.18817 0.15799 0.15338
0.14450 0.15799 0.09577
0.15315 0.15799 0.13986
0.11945 0.15799 0.09583
0.18138 0.15799 0.04894
0.06184 0.15799 0.03033
0.04678 0.15799 0.07632
0.05820 0.15799 0.05019
0.08073 0.15799 0.08671
0.11305 0.15799 0.06237
0.07122 0.15799 0.05043
0.19172 0.15799 0.20916
0.20110 0.15799 0.18930
0.10280 0.15799 0.03000
0.18285 0.15799 0.09356
0.20165 0.15799 0.09963
0.17487 0.15799 0.07540
0.17066 0.15799 0.19423
0.08955 0.15799 0.10916
0.18696 0.15799 0.19984
0.21502 0.17269 -0.29776
0.08082 0.15799 -0.23438
-0.20498 0.13673 -0.28692
0.00046 0.19786 0.23699
0.08048 0.16981 0.23699
0.00417 0.18990 0.23699
0.10526 0.17229 0.23699
-0.17470 0.17152 0.29685
0.22450 0.17098 -0.30596
0.22212 -0.10320 -0.30778
0.22334 0.03680 -0.31675
0.22400 0.11358 -0.31918
0.22396 0.10887 -0.30650
0.17622 0.19662 -0.30634
0.20686 0.11850 0.33343
0.22377 0.20585 0.33419
0.21998 0.02732 0.33264
0.21151 0.14617 0.33367
0.20814 0.00648 0.33246
0.20034 0.10685 0.33333
0.20827 0.10202 0.33328
0.08329 0.17648 0.02431
0.19385 0.18073 0.02431
0.13087 0.15931 0.02431
0.16580 0.17639 0.02431
0.21876 0.17408 0.16784
-0.03951 0.15709 -0.02886
0.21876 0.18359 -0.21856
0.17306 0.22338 0.36358
0.13864 0.16433 -0.01671
0.09341 0.15628 -0.01671
0.13605 0.15799 0.17778
0.04971 0.15799 0.09259
0.04505 0.15799 0.12565
-0.01040 0.15799 0.06919
-0.02219 0.15799 0.14951
0.02490 0.15799 0.09756
-0.02221 0.15799 0.10097
0.15264 0.15799 0.19843
0.08556 0.15799 0.21087
0.12657 0.15799 0.17685
0.01518 0.15799 0.06516
0.11047 0.15799 0.17367
0.15949 0.15799 0.23210
0.04744 0.15799 0.19009
0.20323 0.15799 0.23554
0.02995 0.15799 0.17944
0.14099 0.15799 0.21337
0.09031 0.15799 0.19043
-0.08078 0.21218 -0.36247
0.25449 0.21485 -0.32475
0.15333 0.15870 -0.24459
0.19991 0.16206 -0.24459
0.24589 0.20965 -0.00969
0.24627 0.20965 0.31774
0.24389 0.20965 -0.14080
0.24051 0.20965 0.26035
0.24359 0.20965 -0.08505
0.23384 0.20965 0.22223
0.23685 0.20965 0.13648
0.24702 0.20965 0.28787
-0.25317 0.21232 0.14278
-0.04517 0.15691 -0.24459
0.16327 0.15482 -0.24459
0.20661 0.15686 0.27177
0.20661 0.18476 0.28064
-0.22343 0.15081 -0.30352
-0.22329 0.14519 -0.32986
-0.21996 0.00612 -0.31518
-0.22270 0.12024 -0.30850
-0.22263 0.11763 -0.31408
-0.22460 0.19989 -0.33298
0.25487 0.22141 0.15025
0.18874 0.19467 -0.30755
0.18887 0.18928 -0.32563
0.19126 0.08923 -0.30897
0.19096 0.10213 -0.32336
0.19756 -0.17356 -0.32796
0.18932 0.17031 -0.31848
-0.03678 0.15548 0.23243
-0.18838 0.20635 0.31415
-0.09327 0.20965 -0.31247
0.00683 0.20965 -0.30373
0.12489 0.20965 -0.29552
0.09565 0.20965 -0.30573
-0.23003 0.20965 0.19018
0.22307 0.00556 -0.32919
0.22280 -0.02504 -0.31651
0.22252 -0.05736 -0.32930
0.22132 -0.19569 -0.30816
0.22139 -0.18719 -0.32299
-0.17622 0.14074 0.29034
0.21617 -0.22001 0.30373
0.21876 0.13976 -0.07996
0.21876 0.14169 0.11061
0.21876 0.13702 0.15235
0.21876 0.13931 -0.20295
0.21876 0.14938 -0.06172
0.21876 0.13844 0.07944
-0.07706 0.15936 -0.23699
0.21379 -0.22788 -0.31579
-0.03063 0.15225 0.23733
0.15592 0.15225 0.23783
0.21835 0.01052 -0.33145
0.19564 0.18934 -0.33394
0.20760 0.00930 -0.33144
0.21455 0.18075 -0.33382
0.20617 0.09240 -0.33259
0.19713 0.18100 -0.33382
0.21339 -0.06074 -0.33046
0.18376 0.22273 -0.36385
0.21820 0.22055 0.36446
-0.18953 0.14555 0.29776
0.05851 0.16441 -0.23957
-0.20199 0.20965 0.30858
0.08436 0.16010 -0.01671
0.06226 0.16164 -0.01671
0.07913 0.15646 -0.01671
0.18838 0.14765 -0.30345
-0.25185 0.22678 0.22774
-0.19472 0.11894 0.29902
-0.19696 -0.01623 0.30090
-0.19923 -0.00263 0.30071
-0.20999 0.13290 0.29883
-0.20998 0.09960 0.29929
-0.19300 -0.12927 0.30246
-0.19953 -0.02189 0.30097
-0.14987 0.18321 0.31599
-0.13017 0.16165 0.31599
0.08073 0.19456 0.31599
0.12451 0.20046 0.31599
-0.15511 0.19161 0.31599
-0.01864 0.20540 0.31599
-0.04364 0.19816 0.31599
-0.12942 0.18168 0.31599
-0.07427 0.17536 0.31599
-0.09872 0.17902 0.31599
-0.06215 0.20152 0.31599
-0.00926 0.20349 0.31599
0.18817 0.17772 -0.23699
0.10691 0.16191 -0.23699
0.19034 0.19017 -0.23699
0.17943 0.16379 -0.23699
0.17380 0.17686 -0.23699
-0.02431 0.20263 0.22545
-0.02431 0.17267 0.22995
-0.02431 0.18721 0.22851
-0.02431 0.16681 0.20918
-0.02431 0.16991 0.11682
0.19984 0.20965 0.32516
-0.19213 -0.22282 -0.32344
0.20581 0.16284 -0.29817
0.19657 0.20017 -0.29784
0.22211 -0.02696 -0.29981
0.21548 0.12548 -0.29849
0.22307 0.06170 -0.29904
0.21722 -0.10261 -0.30047
0.21577 0.11511 -0.29858
0.11499 0.17045 0.23699
0.06828 0.18464 0.23699
0.03001 0.16833 0.23699
0.01087 0.18280 0.23699
0.03531 0.17386 0.23699
0.22123 -0.20622 0.31149
0.20522 0.20506 0.29782
0.19512 0.14621 0.29864
0.21146 0.00156 0.30065
0.20478 0.15999 0.29845
0.21544 0.05600 0.29989
0.21991 -0.02390 0.30100
-0.21436 -0.22762 0.32786
-0.08542 0.21355 -0.36331
-0.06936 0.15546 0.32814
0.05201 0.14658 0.32814
0.10079 0.14910 0.32814
-0.13130 0.19755 0.32814
-0.10301 0.17654 0.32814
-0.08838 0.15304 0.32814
-0.07064 0.13846 0.32814
-0.14701 0.18165 0.32814
-0.01650 0.15026 0.32814
-0.13857 0.17285 0.32814
0.01029 0.16934 0.32814
-0.08182 0.15586 0.32814
0.06754 0.15799 0.02567
-0.10698 0.15307 -0.01671
-0.19455 0.15480 -0.01671
0.09506 0.15600 0.02886
-0.18579 0.13673 0.32049
0.01976 0.22788 -0.33619
-0.20698 0.22788 0.02319
0.00629 0.22788 -0.10371
-0.06662 0.22788 0.05114
-0.09438 0.22788 0.01832
-0.00453 0.22788 -0.00669
-0.14529 0.22788 -0.19444
0.10183 0.22788 -0.33319
0.03137 0.22788 -0.06538
0.12796 0.22788 -0.20670
0.15759 0.22788 -0.31696
-0.16298 0.22788 -0.31073
-0.06046 0.22788 -0.05761
-0.20191 0.22788 0.12263
-0.08233 0.22788 0.01559
-0.23292 0.22788 0.03026
-0.19930 0.22788 0.18884
-0.13540 0.22788 -0.24713
-0.11049 0.22788 -0.02274
-0.15218 0.22788 -0.18354
-0.23805 0.22788 -0.16160
-0.19070 0.22788 -0.34449
0.07459 0.22788 -0.35455
-0.04793 0.22788 -0.30890
-0.13840 0.22788 0.06754
-0.14761 0.22788 -0.15837
-0.13950 0.22788 -0.23814
-0.09656 0.22788 -0.24065
-0.11775 0.22788 -0.18137
-0.14424 0.22788 0.06661
0.21022 0.22788 -0.31559
0.03002 0.22788 -0.16107
-0.03020 0.22788 -0.28299
-0.05271 0.22788 0.01073
0.06287 0.22788 -0.35489
-0.06779 0.22788 -0.31234
-0.22074 0.22788 -0.30130
0.11154 0.22788 -0.26720
0.08169 0.22788 -0.22380
0.01031 0.22788 -0.02639
-0.19691 0.22788 -0.23085
-0.07712 0.22788 -0.13581
-0.11045 0.22788 -0.35982
0.01743 0.22788 -0.15204
-0.05589 0.22788 -0.25712
-0.09047 0.22788 -0.35252
-0.18188 0.22788 -0.11454
0.02503 0.22788 -0.12400
-0.16999 0.22788 0.15186
-0.13255 0.22788 -0.19454
-0.18776 0.22788 -0.22579
-0.20928 0.22788 0.15388
-0.20061 0.22788 -0.04019
-0.24576 0.22788 -0.07034
-0.19820 0.22788 -0.04853
0.16094 0.22788 -0.30638
0.05052 0.22788 -0.13479
-0.15363 0.22788 0.15044
-0.04399 0.22788 -0.34293
-0.19257 0.22788 -0.28221
-0.14868 0.22788 0.02174
0.10601 0.22788 -0.23242
0.11556 0.22788 -0.24075
-0.14308 0.22788 0.07316
-0.20299 0.22788 -0.02782
-0.24227 0.22788 0.03507
-0.10683 0.22788 -0.12590
-0.20951 0.22788 -0.31466
0.15343 0.22788 -0.35756
-0.11776 0.22788 0.04968
-0.06486 0.22788 -0.22127
-0.14270 0.22788 -0.07965
0.13581 0.22788 -0.35515
-0.12186 0.22788 -0.32863
-0.18954 0.22788 0.05146
0.04361 0.22788 -0.11527
-0.23701 0.22788 0.26719
-0.13615 0.22788 -0.09331
-0.23131 0.22788 -0.20165
0.09209 0.22788 -0.24025
-0.19765 0.22788 -0.13073
-0.08207 0.22788 0.00903
-0.06492 0.22788 -0.09397
-0.24015 0.22788 -0.22466
-0.19704 0.22788 -0.09394
-0.14646 0.22788 -0.23676
-0.19251 0.22788 0.16000
-0.16027 0.22788 -0.29202
0.09871 0.22788 -0.25998
0.15926 0.22788 -0.32538
-0.07009 0.22788 0.04483
-0.21172 0.22788 0.30369
0.02067 0.22788 -0.28648
-0.16888 0.22788 0.05674
-0.10566 0.22788 -0.27866
-0.22191 0.22788 0.27476
-0.16104 0.22788 0.12519
-0.17396 0.22788 -0.35986
-0.08733 0.22788 -0.06991
-0.07828 0.22788 0.07181
-0.23048 0.22788 0.23749
-0.22436 0.22788 0.05063
-0.23046 0.22788 -0.14452
-0.18256 0.22788 -0.19682
-0.06955 0.22788 -0.19296
-0.09394 0.22788 -0.34729
-0.03674 0.22788 -0.28308
-0.23450 0.22788 0.07954
0.02737 0.22788 -0.04977
-0.09806 0.22788 0.09916
-0.14412 0.22788 0.04163
0.08267 0.22788 -0.26352
0.05377 0.22788 -0.08177
0.12196 0.22788 -0.29604
-0.23800 0.22788 -0.23736
-0.17231 0.22788 -0.23120
-0.20297 0.22788 -0.04639
0.04202 0.22788 -0.10637
-0.13397 0.22788 -0.18301
0.00239 0.22788 -0.22178
-0.11108 0.22788 -0.27570
-0.19945 0.22788 0.07749
-0.18625 0.22788 -0.32271
0.02533 0.22788 -0.14005
-0.05543 0.22788 0.02903
-0.02103 0.22788 0.02231
-0.20279 0.22788 -0.33658
-0.10226 0.22788 -0.32639
0.05478 0.22788 -0.29378
-0.20941 0.22788 -0.03152
-0.20811 0.22788 -0.15806
0.01529 0.22788 -0.23040
0.14858 0.22788 -0.35043
-0.06750 0.22788 -0.32403
0.04615 0.22788 -0.15154
-0.04524 0.22788 -0.20703
-0.23056 0.22788 -0.03328
0.19806 0.22788 -0.33011
-0.09570 0.22788 0.03156
-0.12900 0.22788 0.12820
-0.10442 0.22788 -0.13437
-0.24828 0.22788 0.06750
-0.12301 0.22788 0.14713
-0.09176 0.22788 -0.32123
0.02683 0.22788 -0.10211
-0.14876 0.22788 0.18068
0.04737 0.22788 -0.17766
0.00853 0.22788 -0.07454
0.03893 0.20965 -0.29236
-0.02115 0.20965 -0.28721
-0.06612 0.20965 -0.29353
-0.12984 0.20965 -0.29431
0.10234 0.20965 -0.28567
0.21876 0.18477 -0.15471
0.13655 0.22788 0.08319
0.11966 0.22788 0.00736
0.18673 0.22788 -0.13213
-0.00505 0.22788 0.10899
0.02206 0.22788 0.20442
0.09430 0.22788 0.21079
0.15807 0.22788 0.28031
-0.12923 0.22788 0.21032
0.22745 0.22788 0.21677
0.09307 0.22788 0.01670
0.00384 0.22788 0.31858
0.04660 0.22788 0.28171
0.22200 0.22788 -0.20708
0.21809 0.22788 0.12529
0.07195 0.22788 -0.07714
0.08580 0.22788 0.35409
0.22650 0.22788 -0.06376
0.17831 0.22788 0.22276
0.16340 0.22788 -0.18019
-0.09933 0.22788 0.27205
-0.14769 0.22788 0.25812
0.07326 0.22788 0.32404
0.14414 0.22788 -0.12492
0.22008 0.22788 0.17527
0.09733 0.22788 0.16149
0.13061 0.22788 0.20922
0.05778 0.22788 0.26754
0.19456 0.22788 0.27933
0.11884 0.22788 0.35408
-0.00448 0.22788 0.17225
0.20704 0.22788 0.05620
0.22222 0.22788 0.35043
0.21775 0.22788 0.04326
-0.10501 0.22788 0.26376
-0.05503 0.22788 0.09721
0.22255 0.22788 0.26554
0.04545 0.22788 0.19885
0.23419 0.22788 -0.08544
0.05916 0.22788 0.06088
-0.10443 0.22788 0.21438
-0.01406 0.22788 0.28972
0.20480 0.22788 0.24399
-0.01380 0.22788 0.03063
0.02646 0.22788 -0.00053
-0.11918 0.22788 0.17547
-0.04173 0.22788 0.22287
-0.05674 0.22788 0.23788
0.19092 0.22788 0.04764
-0.06860 0.22788 0.15307
0.07501 0.22788 0.30460
0.01765 0.22788 0.25072
0.03208 0.22788 0.00998
0.21764 0.22788 -0.18458
0.13226 0.22788 0.18534
0.18781 0.22788 -0.22041
0.02910 0.22788 0.03556
0.03775 0.22788 0.02757
-0.01637 0.22788 0.30550
0.24601 0.22788 -0.18243
0.14679 0.22788 0.10190
-0.05347 0.22788 0.31856
0.14171 0.22788 0.29580
0.15110 0.22788 -0.18299
0.05988 0.22788 0.30223
0.01012 0.22788 0.26499
0.16511 0.22788 -0.01034
0.07671 0.22788 0.04467
-0.02232 0.22788 0.26125
0.17107 0.22788 0.01665
0.19694 0.22788 -0.04527
0.09530 0.22788 0.14788
0.21852 0.22788 0.03310
0.02196 0.22788 0.18847
-0.04092 0.22788 0.21693
-0.00392 0.22788 0.06385
0.15568 0.22788 0.25521
0.21824 0.22788 -0.13539
0.21064 0.22788 -0.23789
0.14782 0.22788 0.21114
-0.15888 0.22788 0.31718
0.20502 0.22788 -0.02493
-0.14682 0.22788 0.23106
0.15267 0.22788 0.07145
0.05826 0.22788 0.03605
0.20964 0.22788 0.21131
-0.11646 0.22788 0.18196
0.03639 0.22788 0.21343
0.15553 0.22788 -0.11274
0.17748 0.22788 0.27165
-0.02946 0.22788 0.33999
-0.03545 0.22788 0.28075
-0.23469 0.22788 0.34038
0.23879 0.22788 -0.14783
0.10006 0.22788 0.00993
0.05892 0.22788 0.34498
0.06267 0.22788 0.05586
-0.05511 0.22788 0.25799
0.23495 0.22788 -0.17139
-0.05602 0.22788 0.33389
-0.20492 0.22788 0.33846
0.24748 0.22788 0.25464
0.13576 0.22788 0.06705
-0.00987 0.22788 0.11146
0.22503 0.22788 -0.07989
-0.09479 0.22788 0.17769
0.05581 0.22788 0.07299
0.18180 0.22788 -0.17955
0.03156 0.22788 0.13003
-0.06711 0.22788 0.17358
0.23268 0.22788 0.07300
0.12827 0.22788 0.08887
-0.04712 0.22788 0.22225
-0.02586 0.22788 0.27012
-0.04272 0.22788 0.08436
0.18269 0.22788 -0.05417
-0.02008 0.22788 0.25004
0.04283 0.22788 0.09891
0.22649 0.22788 -0.30801
0.04190 0.22788 -0.03701
-0.06539 0.22788 0.10995
-0.05933 0.22788 0.26378
-0.12462 0.22788 0.35410
0.09034 0.22788 0.19345
0.23792 0.22788 0.12024
0.17857 0.22788 0.12398
0.13191 0.22788 0.10943
0.22529 0.22788 -0.05060
-0.04863 0.22788 0.14940
0.03653 0.22788 -0.02345
0.04735 0.22788 0.11226
-0.14610 0.22788 0.24645
-0.00743 0.22788 0.13536
0.18440 0.22788 0.32884
0.19139 0.22788 0.30170
0.20621 0.22788 0.01964
0.18635 0.22788 -0.24298
0.09286 0.22788 -0.01484
0.22854 0.22788 0.24956
0.02105 0.22788 0.32751
0.22589 0.22788 -0.19366
-0.16070 0.22788 0.29502
-0.22182 0.22788 0.32513
0.03876 0.22788 0.04494
0.08112 0.22788 0.22749
0.08872 0.22788 0.02809
0.00796 0.22788 0.17027
0.11030 0.22788 0.21358
0.07308 0.22788 0.15939
0.17182 0.22788 -0.13139
-0.08136 0.22788 0.33047
0.12080 0.22788 0.11764
0.03854 0.22788 0.02301
-0.13573 0.22788 0.33811
0.14424 0.22788 0.26580
0.25410 0.22361 -0.14119
0.09023 0.17437 0.31599
0.11078 0.16981 0.31599
-0.02361 0.16670 0.31599
0.16625 0.14953 0.31599
0.12055 0.19367 0.31599
-0.01602 0.16180 0.31599
-0.05439 0.16019 0.31599
0.03801 0.15702 0.31599
0.08074 0.15214 0.31599
0.02306 0.14987 0.31599
0.12493 0.16302 0.31599
-0.06758 0.15810 -0.02431
0.21876 0.14344 0.26104
0.21876 0.15284 -0.03339
0.21876 0.14951 0.00884
0.02699 0.20965 0.33281
0.08020 0.20965 -0.34843
0.15065 0.20965 -0.33934
0.19237 0.20965 -0.35102
0.16104 0.20965 -0.34548
0.24499 0.20965 -0.35775
-0.02319 0.20965 -0.35941
0.20661 0.16265 -0.27655
0.17622 0.18864 0.29177
0.15543 0.13673 0.32743
-0.10688 0.13673 0.32802
0.22195 0.17725 0.14045
-0.25177 0.21067 -0.15572
0.19519 0.20781 0.28560
-0.19219 0.15799 -0.23450
0.18103 0.14103 -0.28560
-0.20540 -0.05871 0.30149
-0.20514 -0.16791 0.30300
-0.20441 -0.13856 0.30260
-0.19875 -0.16057 0.30290
0.19557 -0.09041 0.31836
0.19332 0.00349 0.31906
0.19609 -0.11226 0.32650
0.19348 -0.00316 0.32432
0.19754 -0.17272 0.31050
0.02880 0.21230 0.36254
-0.19680 0.13673 0.28751
-0.03251 0.20965 -0.31455
0.08528 0.20965 -0.30120
0.06382 0.20965 -0.31396
-0.10073 0.20965 -0.31153
-0.08152 0.20965 -0.30989
0.19680 0.16441 0.24369
-0.25498 0.21658 0.28289
-0.19700 0.19338 0.28560
-0.21324 -0.18619 -0.30119
-0.19568 -0.17390 -0.30109
-0.20972 0.00726 -0.29952
-0.20066 0.20965 0.32965
-0.20661 0.18741 -0.14501
-0.20661 0.16013 -0.01716
-0.20661 0.15192 0.11683
-0.20661 0.16329 -0.01244
-0.20661 0.14674 0.10404
-0.20661 0.13775 -0.20417
-0.20661 0.15848 -0.06949
-0.20661 0.15228 0.04221
-0.20661 0.14009 0.22923
-0.20661 0.14165 0.18008
-0.20661 0.16636 -0.19899
-0.20661 0.18291 -0.15302
-0.20661 0.14515 -0.21255
-0.20661 0.14362 0.05997
-0.20661 0.17282 -0.11637
-0.20661 0.15429 0.14021
0.19622 0.05403 -0.29911
0.19579 0.10282 -0.29869
0.20741 -0.14390 -0.30083
0.20786 -0.10229 -0.30047
0.21876 0.17615 0.28573
0.21876 0.16403 0.28902
0.21876 0.15717 -0.25561
0.21876 0.15205 -0.25553
-0.20499 0.14360 0.28560
0.12797 0.15799 -0.10579
0.07221 0.15799 -0.20817
0.20321 0.15799 -0.11599
0.06593 0.15799 -0.18496
0.20316 0.15799 -0.13460
0.16851 0.15799 -0.07054
0.14219 0.15799 -0.09701
0.11307 0.15799 -0.22172
0.14905 0.15799 -0.19712
0.05098 0.15799 -0.21796
0.15488 0.15799 -0.23319
0.16964 0.15799 -0.14387
0.03956 0.15799 -0.18328
0.08100 0.15799 -0.15056
0.17111 0.15799 -0.12420
0.18339 0.15799 -0.10019
0.16266 0.15799 -0.09130
-0.22451 0.20965 0.28288
-0.23525 0.20965 -0.00870
-0.13395 0.21937 -0.36455
0.22423 0.20965 -0.30903
-0.20179 0.20965 -0.33486
0.20661 0.15210 -0.23716
0.22322 0.02312 0.30324
0.22179 -0.14100 0.30608
0.22209 -0.10658 0.32060
0.22262 -0.04550 0.30423
-0.09560 0.16319 0.02431
-0.19227 -0.15091 0.30277
-0.19809 -0.12175 0.30236
-0.20621 0.14334 0.29868
-0.21011 0.20590 0.29781
-0.20038 0.12442 0.29894
-0.19601 0.16429 0.29839
-0.21876 0.19944 -0.28956
-0.21876 0.18496 -0.15005
-0.21876 0.15539 -0.24283
-0.21876 0.19734 0.04004
-0.21876 0.17051 -0.07513
-0.21876 0.18835 -0.10112
-0.21876 0.19352 0.14115
-0.21876 0.16594 -0.16362
-0.21876 0.17480 -0.21515
-0.21876 0.18757 0.07476
-0.21876 0.18795 -0.23679
-0.21876 0.17845 -0.09791
-0.21876 0.19808 -0.15752
-0.21876 0.20097 0.13567
-0.21876 0.18637 0.02761
-0.21876 0.20658 0.02189
-0.21876 0.17212 -0.25401
-0.18782 0.17073 -0.28560
0.21876 0.17411 0.04610
0.19959 0.15799 -0.23325
-0.19089 -0.07992 0.30755
-0.19125 -0.12117 0.30260
-0.19029 -0.01095 0.31187
-0.19093 -0.08382 0.31385
-0.19116 -0.11112 0.30662
-0.18965 0.06242 0.30359
0.20661 0.14751 -0.10562
0.25522 0.21870 0.05435
0.07421 0.21947 0.36455
-0.25472 0.22201 -0.27005
0.20955 0.14790 -0.29829
0.20085 0.06480 -0.29902
0.21954 -0.09120 -0.30037
0.21838 0.06288 -0.29903
0.21669 0.05531 -0.29910
0.21641 0.03417 -0.29928
0.20511 0.08289 -0.29886
-0.11015 0.15761 -0.02886
-0.20564 -0.10865 0.30218
-0.22330 0.18397 0.29812
-0.19694 -0.18025 0.30317
-0.20658 -0.03401 0.30114
0.22171 -0.15024 0.32930
0.22333 0.03624 0.31710
0.22320 0.02061 0.32029
0.22426 0.14296 0.32929
0.22428 0.14573 0.31159
0.22452 0.17347 0.32906
0.22287 -0.01657 0.32068
-0.21477 -0.21050 -0.30371
-0.19050 -0.03443 0.30487
-0.19131 -0.12854 0.31170
-0.19024 -0.00528 0.31414
0.05250 0.22442 0.36304
-0.19070 -0.05785 -0.32950
-0.19127 -0.12375 -0.32856
-0.19029 -0.01021 -0.33085
-0.19193 -0.20015 -0.31438
-0.19023 -0.00409 -0.32748
0.21876 0.18410 -0.20908
0.21876 0.16020 -0.23606
0.21876 0.18214 0.10407
0.17506 0.13673 0.32395
-0.02473 0.13673 0.31637
0.24139 0.22534 0.36247
0.00368 0.20965 0.30518
-0.05152 0.20965 0.30574
-0.11034 0.20965 0.31152
0.12976 0.20965 0.31378
-0.06094 0.20965 0.30217
0.18922 0.17464 0.31014
0.19211 0.05383 0.31901
0.19156 0.07674 0.31566
0.18922 0.17439 0.31749
0.19613 -0.11395 0.30635
0.19278 0.02579 0.30122
0.19145 0.08139 0.30891
-0.19037 -0.02003 0.32197
-0.19055 -0.04039 0.32296
-0.19017 0.00284 0.32672
-0.18975 0.05199 0.33008
-0.18903 0.13468 0.31686
-0.18916 0.11953 0.31479
-0.19341 0.20965 -0.33238
0.21876 0.18528 0.08380
0.18524 0.15799 -0.04784
0.18618 0.16753 -0.28560
0.05551 0.16231 -0.02431
-0.17734 0.15225 0.23623
-0.09322 0.16310 0.23699
0.00948 0.22781 -0.36002
-0.22037 0.09895 0.33326
-0.21557 -0.14658 0.33113
-0.21880 0.09433 0.33322
-0.06624 0.16441 -0.23724
0.18680 0.17545 0.28560
0.03986 0.20661 -0.21241
0.08936 0.20661 -0.14729
-0.01639 0.20661 -0.17248
0.17772 0.20661 -0.21193
0.01243 0.20661 -0.18651
-0.02060 0.20661 -0.18988
-0.01980 0.20661 -0.12167
0.04874 0.20661 -0.14158
-0.01425 0.20661 -0.14138
0.04275 0.20661 -0.14360
-0.00620 0.20661 -0.12329
0.07212 0.20661 -0.22168
0.05231 0.20661 -0.18569
0.01315 0.20661 -0.06945
-0.02247 0.20661 -0.11431
0.18297 0.20661 -0.23172
0.06353 0.20661 -0.20366
-0.00755 0.20661 -0.14399
-0.00016 0.20661 -0.11554
-0.11714 0.20911 0.32814
0.05523 0.18439 0.32814
-0.02413 0.20678 0.32814
0.12459 0.18409 0.32814
0.09921 0.15531 0.32814
0.04871 0.16919 0.32814
-0.04789 0.20567 0.32814
0.05395 0.19719 0.32814
0.18022 0.18160 0.32814
-0.08633 0.20109 0.32814
-0.21027 0.20965 -0.32572
0.25488 0.22135 -0.31962
-0.17622 0.14588 -0.29349
0.21295 0.13673 -0.20057
0.20772 0.13673 -0.21161
0.21092 0.13673 -0.13152
-0.21461 -0.21733 0.33025
0.20661 0.14841 0.14004
0.20661 0.14975 0.06554
0.20661 0.15310 0.15611
0.20661 0.13921 -0.08765
