-0.02441 -0.07345 0.31031
0.01178 -0.07345 0.08540
-0.04209 -0.07345 0.02637
-0.18483 -0.07345 0.04281
-0.11378 -0.07345 -0.06957
-0.30335 -0.07345 -0.06747
-0.26158 -0.07345 0.27349
0.14246 -0.07345 0.28899
-0.02400 -0.07345 0.25596
-0.18938 -0.07345 0.08894
0.14715 -0.07345 0.19078
-0.18121 -0.07345 0.21212
-0.15881 -0.07345 0.08385
-0.04315 -0.07345 0.12924
0.11922 -0.07345 0.23856
-0.04094 -0.07345 0.18521
-0.17274 -0.07345 -0.05824
-0.06334 -0.07345 0.29033
-0.23510 -0.07345 -0.09086
-0.11382 -0.07345 0.13501
-0.08846 -0.07345 0.08009
-0.24636 -0.07345 -0.13547
-0.02875 -0.07345 0.09513
-0.19625 -0.07345 -0.16051
-0.18099 -0.07345 0.25821
-0.27901 -0.07345 0.18421
-0.04695 -0.07345 -0.00005
-0.10923 -0.07345 0.02290
-0.20274 -0.07345 -0.14320
0.11112 -0.07345 0.24709
-0.28006 -0.07345 -0.14389
-0.17056 -0.07345 0.26504
-0.16213 -0.07345 0.28070
-0.07455 -0.07345 0.06060
-0.29006 -0.07345 -0.23758
-0.24739 -0.07345 0.25176
-0.06276 -0.07345 0.14961
0.04390 -0.07345 0.24917
0.10034 -0.07345 0.16283
0.15219 -0.07345 0.30181
-0.18780 -0.07345 0.26529
-0.15927 -0.07345 0.02891
-0.23187 -0.07345 -0.21226
-0.16979 -0.07345 -0.07681
-0.27875 -0.07345 -0.10518
-0.19570 -0.07345 0.29042
-0.26068 -0.07345 0.22480
-0.28577 -0.07345 0.02978
-0.21386 -0.07345 0.29839
-0.20574 -0.07345 0.18201
0.06722 -0.07345 0.26010
-0.11899 -0.07345 0.06608
-0.28733 -0.07345 -0.15124
-0.14020 -0.07345 0.23084
-0.22504 -0.07345 -0.12326
-0.08972 -0.07345 0.26933
-0.09027 -0.07345 0.31008
-0.22579 -0.07345 0.12025
-0.23814 -0.07345 -0.03085
-0.23861 -0.07345 -0.07123
-0.14326 -0.07345 0.23518
-0.19515 -0.07345 -0.05347
-0.20225 -0.07345 0.21800
-0.19306 -0.07345 0.07593
0.04417 -0.07345 0.26491
0.08516 -0.07345 0.22981
-0.13044 -0.07345 0.05300
-0.02430 -0.07345 0.26752
-0.22001 -0.07345 0.03322
0.02936 -0.07345 0.07959
-0.24887 -0.07345 -0.17210
-0.29023 -0.07345 0.26492
-0.15850 -0.07345 -0.00693
-0.22204 -0.07345 0.19872
-0.31107 0.14982 -0.32829
-0.31107 0.13962 -0.06655
-0.31107 0.13487 0.00189
-0.31107 0.13685 0.02311
0.20813 0.15026 -0.31107
-0.19142 0.14579 -0.31107
-0.31107 -0.09264 0.31405
0.33669 -0.09937 -0.02108
0.33508 -0.09937 0.30262
0.33440 -0.09937 -0.13732
0.33484 -0.09937 0.00709
0.33004 -0.09937 -0.04961
-0.33687 0.00827 0.31107
-0.32248 -0.01161 0.31107
0.24656 -0.07345 -0.32105
0.19785 -0.07345 -0.32153
0.23890 -0.07345 -0.32909
-0.21318 -0.07345 -0.33491
0.27636 -0.07345 -0.33668
-0.31107 -0.09588 -0.03893
-0.31107 -0.09153 0.05531
-0.31107 -0.09053 -0.00136
-0.31107 -0.09699 0.05333
-0.31107 -0.08570 -0.12728
0.19434 -0.12184 -0.25923
0.02694 -0.14139 -0.25923
-0.22018 -0.15057 -0.25923
0.17196 -0.11963 -0.25923
0.07501 -0.14313 -0.25923
0.18853 -0.14023 -0.25923
0.05068 -0.14899 -0.25923
0.18083 -0.13955 -0.25923
0.31107 0.14227 -0.07574
0.31107 0.13807 -0.12360
0.31107 0.13487 0.29459
0.31107 0.13263 0.21577
-0.24154 0.14935 0.31107
-0.04381 0.14288 0.31107
-0.07040 -0.09937 0.28942
0.20425 -0.09937 0.29523
0.30661 -0.09937 0.30886
0.21104 -0.09937 0.28263
0.18899 -0.09937 0.28391
0.01687 -0.09937 0.30113
-0.00921 -0.09937 0.30869
0.15024 -0.09937 0.28653
0.08520 -0.09937 0.28549
0.28737 -0.09937 0.29344
0.31965 0.12529 -0.19538
0.32400 0.12529 -0.05269
0.31546 0.12529 -0.30834
0.32183 0.12529 -0.08688
0.32995 0.12529 -0.12112
0.32260 0.12529 -0.04419
-0.18276 -0.07345 -0.17878
-0.13443 -0.07345 0.13769
-0.20023 -0.07345 0.02955
-0.03168 -0.07345 0.24034
-0.16415 -0.07345 0.16391
0.05049 -0.07345 0.18636
-0.06162 -0.07345 0.08413
0.25660 -0.07345 0.28062
-0.25387 -0.07345 0.19458
-0.19787 -0.07345 0.04382
-0.10529 -0.07345 0.23555
-0.09962 -0.07345 0.20483
-0.18170 -0.07345 0.10896
-0.02795 -0.07345 -0.01808
-0.16293 -0.07345 0.21391
-0.25718 -0.07345 0.06622
-0.26113 -0.07345 -0.22052
-0.02224 -0.07345 0.12232
-0.12818 -0.07345 -0.00263
-0.18144 -0.07345 -0.08149
-0.30255 -0.07345 -0.15053
-0.02923 -0.07345 0.03833
-0.25807 -0.07345 -0.13950
-0.07180 -0.07345 0.13106
0.08310 -0.07345 0.20821
-0.19981 -0.07345 -0.08363
-0.18793 -0.07345 0.22046
0.01745 -0.07345 0.29525
-0.18559 -0.07345 0.16202
0.16014 -0.07345 0.25317
0.10099 -0.07345 0.17259
0.00317 -0.07345 0.08866
-0.30082 -0.07345 0.16481
-0.00936 -0.07345 0.05827
-0.06409 -0.07345 -0.02283
0.09976 -0.07345 0.20622
-0.30516 -0.07345 -0.12471
-0.02713 -0.07345 0.14778
-0.11756 -0.07345 0.16728
-0.05168 -0.07345 0.13062
-0.28378 -0.07345 0.25112
0.12407 -0.07345 0.25714
-0.13959 -0.07345 0.20547
-0.16733 -0.07345 0.01423
-0.10559 -0.07345 0.12398
-0.19464 -0.07345 0.02659
-0.30821 -0.07345 0.28279
-0.18885 -0.07345 0.05048
-0.13075 -0.07345 0.15290
-0.29110 -0.07345 0.17681
-0.16176 -0.07345 0.22353
0.07094 -0.07345 0.08952
0.20450 -0.07345 0.21729
0.02697 -0.07345 0.25968
-0.13056 -0.07345 0.03003
-0.22746 -0.07345 -0.08814
-0.20533 -0.07345 0.19210
-0.17709 -0.07345 0.16588
-0.22581 -0.07345 -0.16419
0.17545 -0.07345 0.24318
-0.05928 -0.07345 0.18837
-0.30961 -0.07345 -0.01060
-0.21881 -0.07345 -0.00366
-0.07545 -0.07345 0.28320
0.20265 -0.07345 0.20979
-0.28616 -0.07345 -0.17505
-0.04892 -0.07345 0.20331
-0.18879 -0.07345 -0.06892
-0.25682 -0.07345 -0.16460
0.05301 -0.07345 0.08650
-0.04236 -0.07345 0.01701
0.09648 -0.07345 0.24496
-0.17101 -0.07345 0.29016
0.08079 -0.07345 0.14952
-0.15106 -0.07345 -0.06794
-0.19125 -0.07345 0.10915
-0.14079 -0.07345 -0.06381
-0.10586 -0.07345 0.22893
0.01094 -0.07345 0.03676
0.02377 -0.07345 0.14876
-0.28206 -0.07345 -0.12581
0.04001 -0.07345 0.08659
0.13107 -0.07345 0.18106
0.18672 -0.07345 0.25946
-0.25084 -0.07345 0.10916
-0.23291 -0.07345 -0.00494
-0.03091 -0.07345 0.15276
-0.24387 -0.07345 0.22345
0.20311 -0.07345 0.23263
0.02202 -0.07345 0.10207
-0.18701 -0.07345 -0.05413
-0.18263 -0.07345 0.13729
-0.17842 -0.07345 0.31078
0.13079 -0.07345 0.17073
-0.01809 -0.07345 0.13457
-0.13743 -0.07345 0.30212
-0.05865 -0.07345 -0.01602
-0.16000 -0.07345 0.26931
0.06096 -0.07345 0.13056
-0.08215 -0.07345 0.20741
-0.12186 -0.07345 0.18280
-0.04377 -0.07345 0.23297
-0.17249 -0.07345 0.11100
-0.02336 -0.07345 0.22636
-0.01475 -0.07345 0.19265
-0.01868 -0.07345 0.07378
-0.00368 -0.07345 0.22748
-0.20598 -0.07345 -0.16233
-0.21215 -0.07345 -0.15985
-0.22814 -0.07345 -0.09541
0.17626 -0.07345 0.17780
-0.28951 -0.07345 -0.05452
0.11076 -0.07345 0.23384
0.18013 -0.07345 0.28743
-0.27409 -0.07345 -0.11996
0.21092 -0.07345 0.21465
0.02927 -0.07345 0.30975
-0.12612 -0.07345 0.12317
-0.03345 -0.07345 0.19873
-0.06813 -0.07345 0.00378
0.07809 0.15122 -0.33442
0.03162 0.15122 -0.33393
-0.17698 0.15122 -0.33377
0.18180 0.15122 -0.33256
0.24009 0.15122 -0.32822
-0.23789 -0.09937 -0.26783
-0.14495 -0.09937 -0.28481
-0.11828 -0.09937 -0.29971
-0.01789 -0.09937 -0.28894
-0.17403 -0.09937 -0.29354
0.22830 -0.09937 -0.30500
-0.29135 -0.09937 -0.30933
-0.24937 -0.09937 -0.29171
-0.12554 -0.09937 -0.28020
-0.09116 -0.09937 -0.28543
-0.26495 -0.09937 -0.30861
-0.21228 0.14258 -0.12828
-0.03059 0.14258 0.14370
-0.14495 0.14258 0.24022
-0.22473 0.14258 0.08540
-0.27498 0.14258 0.11888
-0.04435 0.14258 0.11211
-0.01084 0.14258 0.30776
-0.16980 0.14258 0.17480
-0.22056 0.14258 -0.15942
-0.21261 0.14258 0.21039
-0.27965 0.14258 -0.10619
-0.13012 0.14258 0.03381
0.00936 0.14258 0.03680
0.20717 0.14258 0.28274
-0.07195 0.14258 0.09537
0.00122 0.14258 0.28652
0.15467 0.14258 0.29214
-0.25227 0.14258 0.01160
-0.23847 0.14258 0.30612
-0.21363 0.14258 0.26446
-0.28263 0.14258 -0.20469
0.01591 0.14258 0.27449
0.09651 0.14258 0.29965
-0.17885 0.14258 0.08333
-0.09643 0.14258 -0.07834
0.00130 0.14258 0.04776
0.05508 0.14258 0.11132
-0.02920 0.14258 0.05242
-0.06828 0.14258 0.10989
-0.16861 0.14258 0.09650
-0.04380 0.14258 0.15628
-0.26262 0.14258 0.01335
-0.26913 0.14258 0.21219
-0.26535 0.14258 0.26014
-0.30126 0.14258 0.24673
0.02859 0.14258 0.27666
-0.03941 0.14258 0.11801
-0.12692 0.14258 -0.06998
-0.25151 0.14258 -0.15137
0.01816 0.14258 0.22486
-0.01450 0.14258 0.29917
-0.02079 0.14258 0.22937
-0.29615 0.14258 -0.25120
0.03170 0.14258 0.05618
-0.18763 0.14258 0.29236
-0.24259 0.14258 0.11327
0.10352 0.14258 0.26926
-0.14935 0.14258 0.05450
0.24869 0.14258 0.27833
0.12703 0.14258 0.16734
-0.11412 0.14258 0.02742
0.20451 0.14258 0.27320
-0.21272 0.14258 0.27521
-0.08746 0.14258 -0.08581
-0.23082 0.14258 0.13397
-0.15964 0.14258 0.15761
0.07094 0.14258 0.19127
-0.30874 0.14258 -0.29496
-0.07137 0.14258 0.20410
-0.22797 0.14258 0.00939
-0.19619 0.14258 0.28345
-0.06712 0.14258 0.01778
-0.19302 0.14258 0.25958
-0.21457 0.14258 0.02262
-0.25935 0.14258 0.17055
-0.24729 0.14258 -0.08502
-0.30143 0.14258 -0.19454
0.04491 0.14258 0.28763
0.18479 0.14258 0.28567
-0.01383 0.14258 0.08652
0.14554 0.14258 0.24930
0.05299 0.14258 0.24443
0.10840 0.14258 0.26573
-0.30088 0.14258 0.28547
-0.30657 0.14258 -0.08259
-0.09459 0.14258 -0.04292
-0.01556 0.14258 0.19341
-0.20692 0.14258 -0.18661
-0.27299 0.14258 -0.11191
-0.14962 0.14258 0.09182
-0.23092 0.14258 0.01868
-0.01906 0.14258 0.17146
-0.20321 0.14258 0.22297
-0.15693 0.14258 0.04461
-0.14020 0.14258 0.21743
-0.02935 0.14258 0.31065
-0.15274 0.14258 -0.13445
0.07176 0.14258 0.31014
-0.19909 0.14258 -0.03754
-0.18799 0.14258 -0.15700
0.05944 0.14258 0.18022
0.02900 0.14258 0.07336
-0.25331 0.14258 0.29475
0.00917 0.14258 0.13700
-0.18434 0.14258 0.25234
-0.09930 0.14258 0.23468
-0.21233 0.14258 0.12191
-0.26661 0.14258 0.25093
-0.27834 0.14258 -0.13078
0.23433 0.14258 0.24175
-0.22554 0.14258 0.06880
-0.02013 0.14258 0.18606
-0.04504 0.14258 -0.04404
-0.21669 0.14258 0.08592
-0.17811 0.14258 0.22445
-0.30014 0.14258 0.08591
-0.03619 0.14258 0.03709
-0.24669 0.14258 -0.04529
-0.26785 0.14258 0.16547
-0.08784 0.14258 -0.03348
-0.01956 0.14258 -0.01697
-0.11540 0.14258 0.28364
-0.20029 0.14258 0.26534
-0.02346 0.14258 0.00547
-0.07994 0.14258 0.26713
-0.30870 0.14258 0.04983
-0.25392 0.14258 -0.09643
-0.16802 0.14258 -0.02567
0.08448 0.14258 0.25715
-0.00791 0.14258 0.16434
-0.10849 0.14258 0.23622
-0.22785 0.14258 -0.16759
-0.23925 0.14258 -0.09121
-0.24956 0.14258 0.23858
-0.29291 0.14258 -0.24300
-0.10341 0.14258 0.15501
-0.31496 -0.07345 0.28934
-0.32159 -0.07345 0.27814
-0.33019 -0.07345 -0.00386
-0.32771 -0.07345 0.01980
-0.33162 -0.07345 0.22236
-0.33005 -0.07345 0.06941
-0.31990 -0.07345 -0.26596
-0.32909 -0.07345 -0.19472
-0.33159 -0.07345 -0.21174
-0.32444 -0.07345 -0.15673
-0.31736 -0.07345 -0.07336
-0.31107 -0.03414 -0.32990
-0.31107 -0.04436 -0.33132
0.32291 -0.09937 -0.05983
0.31116 -0.09937 0.16260
0.31427 -0.09937 -0.13142
0.32673 -0.09937 -0.10206
0.32407 -0.09937 -0.06934
-0.31107 -0.09267 0.29235
-0.31107 -0.08365 0.13234
-0.31107 -0.08328 0.07331
-0.31107 -0.08063 -0.08085
-0.31107 -0.09040 0.20625
-0.31107 -0.08824 0.15793
-0.31107 -0.07377 -0.11821
-0.31107 -0.07585 0.27821
-0.31107 -0.08286 0.16928
0.33700 0.00415 -0.31191
0.33700 0.04860 -0.31907
-0.04618 -0.09937 -0.28947
-0.07943 -0.09937 -0.30908
-0.08731 -0.09937 -0.27637
-0.27971 -0.09937 -0.30340
-0.29468 -0.09937 -0.30013
0.18496 -0.09937 -0.30410
-0.15823 -0.09937 -0.28355
-0.25343 -0.09937 -0.26674
-0.16156 -0.09937 -0.29197
0.08165 -0.09937 -0.30092
-0.00863 0.15073 -0.33700
-0.13965 0.14537 -0.33700
-0.09604 0.14838 -0.33700
0.20849 0.13058 -0.33700
0.00498 0.14203 -0.33700
-0.11882 0.15122 -0.31500
-0.06803 0.15122 -0.31933
-0.09034 0.15122 -0.31857
0.08597 0.15122 -0.31422
-0.27937 0.15122 -0.31180
0.05680 0.15122 -0.31719
-0.33626 0.06539 -0.31107
-0.25923 -0.14914 0.08157
-0.25923 -0.11979 0.16339
-0.25923 -0.14933 0.13862
-0.25923 -0.14773 -0.20926
-0.25923 -0.12909 0.17029
-0.25923 -0.14538 0.19293
-0.25923 -0.13855 -0.12009
-0.25923 -0.15017 0.12469
-0.25923 -0.12188 0.05331
0.33211 -0.04426 0.33700
0.33700 0.00318 0.33668
0.33700 -0.02054 0.32337
-0.32850 0.12643 -0.33700
0.17300 0.13436 0.31107
-0.03837 0.14208 0.31107
0.19939 0.14249 0.31107
0.03429 -0.09937 0.27892
-0.06819 -0.09937 0.27430
-0.21182 -0.09937 0.26930
-0.14898 -0.09937 0.26714
-0.01305 -0.09937 0.26751
-0.03489 -0.09937 0.26769
-0.16555 -0.09937 0.26790
0.04303 -0.09937 0.27137
-0.04629 -0.09937 0.26672
-0.05246 -0.09937 -0.31548
0.10660 -0.09937 -0.31112
0.16210 -0.09937 -0.31411
0.08845 -0.09937 -0.32037
0.00564 -0.09937 -0.31509
0.33700 -0.09198 -0.03571
0.33700 -0.09699 -0.23941
0.33700 -0.09552 0.01844
0.33700 -0.07570 -0.26756
0.33700 -0.09145 0.00070
0.33700 -0.07840 -0.24987
0.31107 0.14703 -0.30628
0.31107 0.14433 0.14563
-0.31142 0.00648 0.33700
-0.31322 0.04026 0.33700
0.03402 0.13500 -0.33700
-0.18680 0.14362 -0.33700
-0.15593 0.12771 -0.33700
0.09927 0.13382 -0.33700
0.31107 0.02598 -0.31972
0.31107 0.11470 -0.31784
-0.23589 -0.13308 -0.25923
-0.18755 -0.11329 -0.25923
0.21863 -0.09965 -0.25923
-0.14111 -0.11666 -0.25923
0.02880 -0.11953 -0.25923
-0.06164 -0.12595 -0.25923
0.06754 -0.11299 -0.25923
-0.22677 -0.13908 -0.25923
0.18446 0.12529 -0.32462
0.01075 0.12529 -0.33632
0.21809 0.12529 -0.32497
0.26254 0.12529 -0.32490
-0.07520 0.12529 -0.33578
-0.13196 0.12529 -0.33107
0.28855 0.14258 0.00272
0.09278 0.14258 -0.23508
0.01835 0.14258 -0.14873
0.25700 0.14258 0.20808
0.29301 0.14258 -0.28891
-0.14470 0.14258 -0.26276
0.12328 0.14258 -0.15276
-0.11935 0.14258 -0.20261
0.22710 0.14258 -0.31055
-0.22357 0.14258 -0.23239
0.00954 0.14258 -0.30730
0.00695 0.14258 -0.08867
0.24998 0.14258 -0.30080
-0.00207 0.14258 -0.23027
0.23584 0.14258 -0.23086
-0.24264 0.14258 -0.26798
-0.10286 0.14258 -0.22482
0.24531 0.14258 -0.02239
0.06869 0.14258 -0.26404
-0.20267 0.14258 -0.30225
0.06715 0.14258 -0.30438
-0.03660 0.14258 -0.16772
0.30812 0.14258 0.22085
0.08015 0.14258 -0.04280
0.17838 0.14258 0.14425
-0.05237 0.14258 -0.18986
0.11586 0.14258 -0.13387
0.02299 0.14258 0.02259
0.07984 0.14258 -0.12879
-0.03756 0.14258 -0.25299
0.29289 0.14258 -0.20982
0.07531 0.14258 -0.29428
-0.16252 0.14258 -0.21724
0.03172 0.14258 -0.21135
0.04979 0.14258 -0.11788
0.22854 0.14258 -0.17942
0.27926 0.14258 0.01493
0.28667 0.14258 -0.11841
-0.00031 0.14258 -0.28803
0.23630 0.14258 -0.26194
-0.26903 0.14258 -0.28187
0.15167 0.14258 0.11515
0.20539 0.14258 -0.23069
0.21660 0.14258 -0.28225
-0.28692 0.14258 -0.30906
0.09055 0.14258 -0.20503
-0.04004 0.14258 -0.21474
0.24581 0.14258 0.01234
0.02676 0.14258 0.01386
0.21431 0.14258 -0.16839
0.20580 0.14258 0.04626
0.30867 0.14258 0.26670
0.22499 0.14258 -0.00036
-0.14568 0.14258 -0.20232
0.10289 0.14258 0.00600
0.23506 0.14258 0.16577
0.03690 0.14258 -0.14927
0.18878 0.14258 -0.22377
0.11791 0.14258 -0.02376
0.14306 0.14258 -0.18108
0.18862 0.14258 -0.08442
0.26507 0.14258 -0.08565
0.14625 0.14258 -0.29553
0.08128 0.14258 0.05028
0.15126 0.14258 -0.07453
0.18048 0.14258 -0.28403
0.10167 0.14258 -0.08127
0.19335 0.14258 0.18108
0.28954 0.14258 0.02424
-0.26607 0.14258 -0.28663
0.15101 0.14258 -0.03133
-0.14367 0.14258 -0.20837
0.12179 0.14258 0.07231
0.22460 0.14258 0.21198
0.19826 0.14258 -0.05545
0.02959 0.14258 0.02715
0.13445 0.14258 -0.06492
0.25578 0.14258 -0.27092
0.23585 0.14258 -0.09852
0.26833 0.14258 0.19982
0.23121 0.14258 0.17784
0.14122 0.14258 0.12988
-0.27618 0.14258 -0.29186
0.28799 0.14258 -0.24851
0.16033 0.14258 -0.10910
0.15731 0.14258 -0.01360
0.17101 0.14258 -0.02493
0.20985 0.14258 -0.01288
0.13088 0.14258 -0.28340
0.11782 0.14258 0.01623
0.17065 0.14258 -0.29319
0.01886 0.14258 -0.13432
0.20339 0.14258 -0.24056
0.15804 0.14258 -0.08930
0.28291 0.14258 -0.03719
0.24091 0.14258 0.17283
-0.05108 0.14258 -0.14512
0.23924 0.14258 -0.29359
0.22245 0.14258 -0.26358
0.13770 0.14258 0.09965
0.13056 0.14258 0.07118
-0.19550 0.14258 -0.26305
0.22595 0.14258 -0.13074
0.10792 0.14258 -0.15905
0.20150 0.14258 0.14415
0.07175 0.14258 0.05489
0.30304 0.14258 0.15632
0.30331 0.14258 0.03510
0.23126 0.14258 0.16157
-0.03736 0.14258 -0.06673
-0.03913 0.14258 -0.16093
-0.03892 0.14258 -0.09805
-0.00684 0.14258 -0.21189
-0.00984 0.14258 -0.17476
-0.02827 0.14258 -0.18949
0.26978 0.14258 -0.30593
0.23240 0.14258 -0.02038
0.16734 0.14258 -0.06824
0.26257 0.14258 -0.08092
0.19058 0.14258 0.07695
0.24332 0.14258 0.18544
0.32105 0.13872 0.33700
0.12741 0.12529 0.33483
-0.12139 0.12529 0.32516
-0.26867 0.12529 0.33650
-0.30519 0.12529 0.32143
-0.19132 0.12529 0.33545
-0.31107 -0.09744 -0.33173
0.31107 0.13180 -0.18870
0.31107 0.14075 -0.26746
0.31107 0.13150 0.00996
0.31822 -0.01243 0.31107
0.31137 -0.01596 0.31107
-0.31107 0.14366 0.00632
-0.31107 0.14317 -0.18614
0.31107 -0.09870 0.00834
0.31107 -0.08288 0.22267
0.31107 -0.09171 0.09928
0.31107 -0.08417 0.28013
-0.27175 -0.07605 0.33700
-0.27433 -0.08663 0.33700
-0.25810 -0.08388 0.33700
0.23265 -0.07598 0.33700
-0.07275 -0.08569 0.33700
-0.08722 -0.07957 0.33700
-0.23222 -0.07953 0.31107
-0.23151 -0.08626 0.31107
-0.21674 -0.07884 0.31107
-0.05767 -0.08609 0.31107
0.24539 -0.07553 0.31107
0.29021 -0.09937 0.04461
0.30581 -0.09937 0.10760
0.29609 -0.09937 0.02853
0.28702 -0.09937 -0.15336
0.29060 -0.09937 0.03624
0.29209 -0.09937 -0.04895
0.27117 -0.09937 -0.23254
0.30901 -0.09937 -0.17744
0.29892 -0.09937 -0.22747
0.27222 -0.09937 -0.18075
0.26693 -0.09937 -0.22482
-0.11224 0.15122 -0.31660
-0.09942 0.15122 -0.32656
-0.10997 0.15122 -0.32375
-0.29794 0.15122 -0.31222
-0.33345 -0.09937 0.08161
-0.31790 -0.09937 -0.19817
-0.32993 -0.09937 0.06894
-0.32860 -0.09937 -0.17744
-0.32043 -0.09937 -0.18094
-0.31359 -0.07345 -0.31502
0.32524 -0.07345 0.17763
0.31352 -0.07345 -0.17056
0.33120 -0.07345 0.29677
0.31999 -0.07345 0.09520
0.31402 -0.07345 -0.13572
0.33700 0.14913 0.24026
0.33700 0.13549 0.26560
0.33700 0.15022 0.08916
0.33700 0.15055 -0.15269
0.33700 0.13487 0.12454
0.07694 0.14145 0.31107
0.00191 0.13966 0.31107
0.02366 0.13409 0.31107
0.25816 0.13646 0.31107
0.18143 -0.09937 0.29708
-0.09844 -0.09937 0.30623
0.27688 -0.09937 0.30693
0.05833 -0.09937 0.28957
0.10770 -0.09937 0.30217
0.10024 -0.09937 0.30407
0.27183 -0.09937 0.31025
0.23985 -0.09937 0.29580
0.25281 -0.09937 0.31007
-0.14789 -0.09937 0.29793
0.22699 -0.09937 0.29147
0.13382 -0.08130 0.33700
0.24093 -0.09426 0.33700
0.11751 -0.09850 0.33700
0.02700 -0.09189 0.33700
0.11237 -0.08489 0.33700
-0.33700 -0.07947 0.31713
0.31107 0.14839 -0.20375
-0.33700 0.14189 0.32931
-0.31107 0.10379 0.32191
0.03280 0.15122 0.31438
-0.05177 0.15122 0.31441
0.25293 0.15122 0.33385
0.01395 0.15122 0.31958
0.27774 0.15122 0.31639
0.27302 0.15122 0.31986
-0.25923 -0.13338 0.20494
-0.25923 -0.14070 0.12844
-0.25923 -0.10168 0.24372
-0.25923 -0.14597 -0.08045
-0.25923 -0.12743 0.23638
-0.25923 -0.12121 0.21089
-0.25923 -0.14528 0.16911
-0.25923 -0.14192 0.03094
-0.33700 -0.09532 -0.10072
-0.33700 -0.09536 0.12277
-0.33700 -0.09932 0.03785
-0.33700 -0.08909 0.15486
-0.33700 -0.09255 0.16436
0.31107 -0.06323 -0.32667
0.31107 -0.01934 -0.32026
0.33700 0.14310 0.19014
0.33700 0.14700 -0.20414
0.33700 0.14914 0.00163
0.33700 0.14350 -0.03389
0.33700 0.14498 0.06925
0.17320 -0.09937 0.33192
0.20458 -0.09937 0.33097
0.14505 -0.09937 0.33645
0.02914 -0.09937 0.32811
0.20166 -0.09937 0.31659
0.24002 -0.09937 0.32378
-0.13682 -0.13987 0.25923
-0.05256 -0.12377 0.25923
0.06859 -0.13887 0.25923
0.10521 -0.14106 0.25923
0.03354 -0.14763 0.25923
0.02103 -0.14348 0.25923
0.14531 -0.14912 0.25923
0.05696 -0.13307 0.25923
-0.32968 0.13160 0.33700
-0.33700 -0.03244 -0.31657
-0.33260 0.15122 0.05558
-0.32716 0.15122 0.25829
-0.33303 0.15122 0.20114
-0.32309 0.15122 0.12445
-0.33486 0.15122 0.17147
-0.33025 0.07965 0.31107
0.31107 0.12568 -0.32618
0.32377 -0.03670 -0.33700
0.31861 0.01975 -0.33700
0.32176 0.01315 -0.33700
0.33700 -0.04038 -0.32113
0.33700 -0.05691 -0.31796
-0.33700 -0.08479 -0.33443
0.33700 -0.09613 -0.28077
0.33700 -0.07837 -0.22592
0.33700 -0.08358 -0.27482
0.33700 -0.09477 0.03041
0.33700 -0.09145 0.10535
0.33700 -0.07955 0.25920
0.33700 -0.09095 0.29162
0.33700 -0.09300 0.26401
0.33700 -0.07931 -0.16141
0.33700 -0.08337 0.15784
0.33700 -0.07542 -0.03237
-0.18661 -0.09032 -0.33700
-0.10256 -0.08613 -0.33700
-0.10960 -0.09769 -0.33700
0.11059 -0.09748 -0.33700
-0.08650 -0.09899 -0.33700
0.17726 -0.10039 0.25923
0.06931 -0.11503 0.25923
0.21252 -0.11152 0.25923
0.25429 -0.13179 0.25923
-0.03036 -0.11371 0.25923
0.18844 -0.13373 0.25923
0.07753 -0.12552 0.25923
0.05039 -0.12189 0.25923
-0.11360 -0.10527 0.25923
-0.31828 -0.05611 -0.31107
-0.33505 -0.01475 -0.31107
-0.31888 0.01570 -0.33700
0.15978 -0.09937 0.18368
-0.21813 -0.09937 0.23917
0.07805 -0.09937 0.16542
-0.01047 -0.09937 0.11695
0.21724 -0.09937 -0.08076
0.17037 -0.09937 -0.01413
0.06457 -0.09937 0.05680
0.24347 -0.09937 -0.17463
0.15275 -0.09937 0.15337
0.09583 -0.09937 0.11163
0.19797 -0.09937 0.11735
0.08089 -0.09937 0.20876
-0.18288 -0.09937 0.20623
0.17523 -0.09937 -0.15197
0.02736 -0.09937 0.19345
0.01728 -0.09937 0.11602
0.18766 -0.09937 -0.10411
0.24734 -0.09937 -0.06458
-0.07410 -0.09937 0.23761
0.17204 -0.09937 0.24768
0.14133 -0.09937 0.05654
0.20748 -0.09937 0.24483
0.11882 -0.09937 0.16197
0.22108 -0.09937 0.00877
0.22839 -0.09937 -0.16278
-0.00138 -0.09937 0.09783
0.25126 -0.09937 0.06032
0.24774 -0.09937 -0.02200
0.07589 -0.09937 -0.05993
0.22675 -0.09937 0.10942
0.00085 -0.09937 0.04778
-0.02462 -0.09937 0.25496
0.24135 -0.09937 0.05602
0.23896 -0.09937 -0.00692
0.07793 -0.09937 0.02292
0.21872 -0.09937 -0.12815
0.05900 -0.09937 0.22422
0.17104 -0.09937 -0.11424
-0.13914 -0.09937 0.24419
0.24648 -0.09937 0.12723
-0.00599 -0.09937 0.22674
0.10872 -0.09937 -0.02203
-0.05656 -0.09937 0.16083
0.09517 -0.09937 0.00927
0.05454 -0.09937 0.10790
-0.01110 -0.09937 0.18293
0.24711 -0.09937 0.25133
0.10618 -0.09937 0.17545
0.15945 -0.09937 -0.13178
0.09462 -0.09937 0.03034
0.23788 -0.09937 0.16282
0.08918 -0.09937 0.13628
0.03413 -0.09937 0.12941
0.22255 -0.09937 0.04156
0.14355 -0.09937 -0.12269
0.16805 -0.09937 0.05984
-0.02745 -0.09937 0.21431
0.03042 -0.09937 0.00906
0.19559 -0.09937 0.09081
0.19160 -0.09937 0.12496
0.02516 -0.09937 0.11194
0.21054 -0.09937 -0.20558
0.17688 -0.09937 0.15447
0.16999 -0.09937 0.20660
0.23279 -0.09937 0.03517
0.14142 -0.09937 0.13685
0.11772 -0.09937 0.10028
-0.18410 -0.09937 0.21695
0.23249 -0.09937 -0.14424
0.21778 -0.09937 -0.07024
-0.07456 -0.09937 0.14029
0.08150 -0.09937 0.04216
0.08544 -0.09937 -0.04524
-0.10864 -0.09937 0.21512
0.12525 -0.09937 0.00478
-0.00948 -0.09937 0.25616
-0.00556 -0.09937 0.05892
-0.06751 -0.09937 0.17172
0.02788 -0.09937 0.16528
0.12810 -0.09937 0.12243
0.10469 -0.09937 -0.08844
0.01658 -0.09937 0.11021
0.23374 -0.09937 0.13906
0.11582 -0.09937 0.10664
0.12906 -0.09937 0.20386
-0.08243 -0.09937 0.18543
0.19650 -0.09937 0.21635
0.06641 -0.09937 -0.01217
-0.00098 -0.09937 0.17921
0.18252 -0.07345 -0.25946
0.19961 -0.07345 -0.10489
0.04450 -0.07345 -0.22712
0.09086 -0.07345 0.03187
0.14638 -0.07345 0.13037
-0.06292 -0.07345 -0.25039
0.02599 -0.07345 -0.02804
0.00298 -0.07345 -0.16500
0.04743 -0.07345 -0.12103
0.29140 -0.07345 0.12203
0.27653 -0.07345 0.09692
0.09312 -0.07345 -0.01667
0.15111 -0.07345 -0.18426
0.18261 -0.07345 -0.21418
0.26348 -0.07345 -0.18278
-0.03720 -0.07345 -0.06520
0.01725 -0.07345 -0.26976
0.11601 -0.07345 0.04882
0.12128 -0.07345 0.02446
-0.10554 -0.07345 -0.14843
0.30878 -0.07345 -0.27730
0.21509 -0.07345 -0.05590
0.22062 -0.07345 -0.08397
-0.04494 -0.07345 -0.06076
-0.04074 -0.07345 -0.18400
0.24520 -0.07345 -0.26243
0.04692 -0.07345 0.02931
0.11389 -0.07345 -0.13969
0.09278 -0.07345 -0.17458
-0.18347 -0.07345 -0.21917
0.17162 -0.07345 -0.14533
0.19449 -0.07345 -0.19025
0.25369 -0.07345 0.08558
-0.02903 -0.07345 -0.17887
0.03360 -0.07345 -0.18351
0.23223 -0.07345 -0.16022
0.01767 -0.07345 -0.20384
0.05206 -0.07345 0.03654
-0.08597 -0.07345 -0.30722
0.13233 -0.07345 0.04621
0.15231 -0.07345 0.11677
0.16012 -0.07345 0.13269
-0.15158 -0.07345 -0.18394
0.27447 -0.07345 0.23601
-0.16313 -0.07345 -0.24530
0.22251 -0.07345 -0.12274
0.16865 -0.07345 -0.25711
0.16467 -0.07345 0.07825
-0.10775 -0.07345 -0.17704
0.30580 -0.07345 -0.26317
0.24578 -0.07345 -0.22353
0.11730 -0.07345 0.07419
0.25562 -0.07345 -0.29919
-0.14875 -0.07345 -0.26065
0.19299 -0.07345 -0.04409
0.30200 -0.07345 -0.27661
-0.07785 -0.07345 -0.19773
0.17161 -0.07345 0.03972
0.03909 -0.07345 -0.19679
0.17871 -0.07345 -0.23093
0.23694 -0.07345 -0.01119
-0.20541 -0.07345 -0.21283
0.24367 -0.07345 0.12252
0.16650 -0.07345 -0.29242
-0.12247 -0.07345 -0.14378
0.22198 -0.07345 -0.26376
0.20821 -0.07345 -0.00752
0.23087 -0.07345 -0.30357
0.29305 -0.07345 0.10077
0.25416 -0.07345 -0.11403
0.23037 -0.07345 0.08604
0.26345 -0.07345 0.10590
0.05634 -0.07345 -0.04809
0.10414 -0.07345 -0.01350
0.08565 -0.07345 -0.12961
0.25782 -0.07345 -0.12954
0.27951 -0.07345 -0.18790
-0.24135 -0.07345 -0.25143
0.06356 -0.07345 0.02517
0.08548 -0.07345 -0.16394
0.16130 -0.07345 -0.21761
0.18617 -0.07345 0.02668
0.02686 -0.07345 -0.29931
0.25785 -0.07345 0.23441
0.09830 -0.07345 -0.29165
-0.30572 -0.07345 -0.30823
0.16261 -0.07345 -0.12769
0.27553 -0.07345 -0.26695
-0.02311 -0.07345 -0.29677
0.22161 -0.07345 0.11895
0.23012 -0.07345 -0.15066
0.14220 -0.07345 -0.17361
0.19153 -0.07345 -0.12562
0.01876 -0.07345 -0.06269
0.19761 -0.07345 0.11251
0.11633 -0.07345 0.08025
0.19791 -0.07345 -0.05937
-0.25360 -0.07345 -0.27146
-0.21539 -0.07345 -0.30523
-0.08106 -0.07345 -0.18935
0.29238 -0.07345 -0.03110
-0.15490 -0.07345 -0.16394
0.17658 -0.07345 -0.16033
0.15060 -0.07345 -0.14046
0.22851 -0.07345 0.01736
-0.12966 -0.07345 -0.20014
-0.06683 -0.07345 -0.30210
-0.13861 -0.07345 -0.22668
-0.04014 -0.07345 -0.21013
0.10093 -0.07345 -0.08482
0.30527 -0.07345 -0.01026
0.23389 -0.07345 -0.09456
-0.26570 -0.07345 -0.29234
0.00856 -0.07345 -0.08908
0.29521 -0.07345 0.24364
0.23499 -0.07345 -0.08591
0.17424 -0.07345 0.06470
0.17256 -0.07345 0.08236
-0.02623 -0.07345 -0.25356
-0.27013 -0.07345 -0.28252
0.10357 -0.07345 -0.02499
0.25695 -0.07345 -0.06180
-0.05755 -0.07345 -0.14153
-0.03792 -0.07345 -0.28950
0.32258 0.11069 0.33700
0.31460 0.03711 0.33700
0.07643 0.15122 -0.04936
-0.09794 0.15122 -0.25772
0.09827 0.15122 0.09329
0.00554 0.15122 -0.01066
-0.03898 0.15122 -0.06789
-0.03469 0.15122 -0.06200
0.00324 0.15122 -0.04086
0.29567 0.15122 -0.21587
-0.03679 0.15122 -0.15703
0.06364 0.15122 -0.06705
-0.18231 0.15122 -0.20932
0.27382 0.15122 0.16297
0.28919 0.15122 0.25869
0.18729 0.15122 -0.29323
0.07857 0.15122 -0.26238
-0.06007 0.15122 -0.18925
-0.10786 0.15122 -0.13474
0.09364 0.15122 -0.01583
0.02284 0.15122 -0.18547
-0.07451 0.15122 -0.20656
0.04572 0.15122 -0.21619
0.22185 0.15122 -0.05748
0.15692 0.15122 -0.04418
-0.12871 0.15122 -0.30769
0.11614 0.15122 -0.25113
-0.13742 0.15122 -0.19157
0.24923 0.15122 -0.12534
-0.21651 0.15122 -0.23541
0.00766 0.15122 -0.14799
0.00828 0.15122 -0.30968
0.22881 0.15122 -0.14302
0.15189 0.15122 0.07423
-0.17664 0.15122 -0.19395
0.23805 0.15122 -0.02724
0.17545 0.15122 -0.14765
0.25546 0.15122 0.20037
0.03402 0.15122 -0.00770
0.06298 0.15122 -0.09148
0.03382 0.15122 -0.21299
0.30769 0.15122 0.22088
0.15646 0.15122 0.03250
0.10733 0.15122 -0.11747
-0.05743 0.15122 -0.13012
-0.09913 0.15122 -0.18580
0.05463 0.15122 -0.27338
0.27741 0.15122 0.24588
0.26628 0.15122 0.13582
0.13684 0.15122 -0.30189
0.09476 0.15122 -0.12071
-0.28036 0.15122 -0.29156
0.29457 0.15122 -0.26102
0.30175 0.15122 0.17031
0.21352 0.15122 0.00969
0.01276 0.15122 -0.09301
0.21767 0.15122 0.21746
-0.24551 0.15122 -0.30527
0.26414 0.15122 -0.22511
0.24092 0.15122 0.18362
-0.18130 0.15122 -0.23975
0.16644 0.15122 -0.15903
-0.08934 0.15122 -0.23047
0.12350 0.15122 0.01179
0.16422 0.15122 0.02837
0.09761 0.15122 0.06094
0.18414 0.15122 -0.28707
0.11641 0.15122 -0.07097
0.02580 0.15122 -0.26066
0.29231 0.15122 -0.08035
-0.04446 0.15122 -0.05646
-0.17008 0.15122 -0.31060
0.26938 0.15122 0.03081
0.25419 0.15122 -0.28340
0.19025 0.15122 -0.19517
0.13463 0.15122 0.11358
0.25361 0.15122 -0.23647
0.28104 0.15122 -0.05669
0.23364 0.15122 -0.10828
0.08300 0.15122 0.07722
-0.00349 0.15122 -0.16491
0.16200 0.15122 -0.15349
-0.02014 0.15122 -0.16156
0.19328 0.15122 0.17910
0.19592 0.15122 -0.07641
-0.09223 0.15122 -0.19590
-0.20130 0.15122 -0.25271
0.07940 0.15122 -0.06119
-0.02892 0.15122 -0.22439
0.00217 0.15122 -0.10128
0.11906 0.15122 -0.28296
0.09296 0.15122 -0.29141
0.30785 0.15122 0.02218
0.04533 0.15122 -0.11420
0.12068 0.15122 -0.16787
0.21160 0.15122 -0.14791
0.27481 0.15122 -0.27481
-0.02615 0.15122 -0.23469
-0.01024 0.15122 -0.24969
-0.02196 0.15122 -0.04011
0.29350 0.15122 0.14209
0.21448 0.15122 -0.26801
0.26358 0.15122 -0.19705
0.13587 0.15122 -0.08943
0.23084 0.15122 0.20119
-0.07945 0.15122 -0.22271
-0.08500 0.15122 -0.24907
0.22265 0.15122 -0.30485
-0.20833 0.15122 -0.28300
0.20376 0.15122 -0.23637
-0.10818 0.15122 -0.12861
-0.00274 0.15122 -0.02044
-0.07447 0.15122 -0.26658
0.21466 0.15122 -0.18870
0.30045 0.15122 -0.03037
0.28419 0.15122 0.22851
-0.00499 0.15122 -0.15225
-0.02574 0.15122 -0.27005
0.17297 0.15122 -0.23508
-0.14596 0.15122 -0.21676
-0.06084 0.15122 -0.24817
0.27132 0.15122 0.09892
0.17336 0.15122 0.14587
-0.02271 0.15122 -0.25214
0.15100 0.15122 0.03143
0.00108 0.15122 -0.05944
0.21326 0.15122 -0.17045
0.26383 0.15122 0.23342
0.32940 0.13629 -0.31107
-0.33700 0.14003 0.09831
-0.33700 0.14267 0.25637
-0.33700 0.15023 -0.13876
-0.33700 0.14086 0.00364
-0.33700 0.14876 0.00385
0.31688 -0.09937 -0.33058
0.26773 -0.09937 0.05155
0.29036 -0.09937 0.18238
0.26686 -0.09937 -0.05618
0.29014 -0.09937 0.25687
0.26970 -0.09937 -0.11528
0.29141 -0.09937 0.11445
0.28161 -0.09937 0.14450
0.27338 -0.09937 0.13567
0.32819 0.15122 -0.06247
0.32932 0.15122 -0.15544
0.32567 0.15122 -0.22677
0.33189 0.15122 -0.03492
0.31704 0.15122 -0.23090
0.19794 -0.09421 0.31107
0.09478 -0.08421 0.31107
0.20391 -0.09854 0.31107
0.18172 -0.09559 0.31107
0.26687 -0.08032 0.31107
-0.07168 0.15122 0.08272
-0.05391 0.15122 -0.02689
0.05761 0.15122 0.06315
0.02310 0.15122 0.23965
-0.29961 0.15122 -0.18725
-0.21700 0.15122 -0.09628
-0.08868 0.15122 0.14257
-0.25620 0.15122 -0.01260
-0.24027 0.15122 0.06870
-0.26901 0.15122 0.28310
-0.00943 0.15122 0.02572
-0.13915 0.15122 0.05857
-0.30462 0.15122 0.11757
-0.09677 0.15122 0.00322
0.18959 0.15122 0.27434
-0.07340 0.15122 0.07605
0.03787 0.15122 0.17712
-0.24266 0.15122 0.29459
0.04650 0.15122 0.21316
-0.27372 0.15122 -0.02232
0.08902 0.15122 0.13051
-0.13020 0.15122 0.13562
-0.14551 0.15122 0.21966
0.03383 0.15122 0.17410
-0.09905 0.15122 0.22074
-0.02073 0.15122 0.20318
0.17088 0.15122 0.24784
-0.01829 0.15122 0.10062
-0.26940 0.15122 0.02991
-0.23027 0.15122 0.06596
-0.03757 0.15122 0.13004
-0.08762 0.15122 0.23569
-0.13912 0.15122 0.02733
-0.02739 0.15122 0.27662
-0.08779 0.15122 0.12844
0.00142 0.15122 0.13425
-0.13281 0.15122 0.04350
0.24584 0.15122 0.26290
-0.05854 0.15122 0.17683
-0.27160 0.15122 -0.06166
-0.28789 0.15122 0.06863
-0.08782 0.15122 0.08162
-0.16947 0.15122 0.25662
-0.05697 0.15122 0.07381
-0.24532 0.15122 -0.12851
-0.13118 0.15122 0.24472
-0.11791 0.15122 0.02254
-0.26321 0.15122 0.00004
-0.28265 0.15122 0.03927
-0.08892 0.15122 0.22005
-0.05765 0.15122 0.14489
-0.20343 0.15122 0.10572
0.25662 0.15122 0.29691
-0.12200 0.15122 -0.03886
0.19030 0.15122 0.21300
-0.08458 0.15122 0.01505
-0.23563 0.15122 0.20998
-0.15222 0.15122 0.04604
0.09713 0.15122 0.29234
0.06442 0.15122 0.10786
-0.29344 0.15122 0.21442
-0.05055 0.15122 0.16089
-0.04587 0.15122 0.07787
0.04370 0.15122 0.08097
-0.01374 0.15122 0.25739
-0.27687 0.15122 0.03473
-0.17981 0.15122 0.20843
-0.27169 0.15122 -0.10516
0.01419 0.15122 0.11451
-0.27256 0.15122 -0.27121
-0.26739 0.15122 -0.13278
0.06915 0.15122 0.22262
-0.30823 0.15122 -0.00781
0.05015 0.15122 0.13949
0.11848 0.15122 0.28468
0.10507 0.15122 0.14940
-0.17203 0.15122 0.28806
0.06630 0.15122 0.28077
0.09808 0.15122 0.26302
-0.21945 0.15122 -0.11863
-0.29685 0.15122 -0.21271
-0.27743 0.15122 0.09838
-0.18017 0.15122 -0.01104
-0.14965 0.15122 0.25009
-0.24426 0.15122 -0.21544
0.03737 0.15122 0.10220
-0.24848 0.15122 0.13455
-0.02301 0.15122 0.10573
-0.25403 0.15122 0.10043
-0.29990 0.15122 0.15421
-0.19493 0.15122 -0.10572
-0.27640 0.15122 0.19563
-0.21157 0.15122 0.25919
-0.13200 0.15122 0.02214
0.10246 0.15122 0.25889
0.09320 0.15122 0.21408
-0.06827 0.15122 0.12379
-0.28295 0.15122 -0.27780
-0.26653 0.15122 -0.05725
-0.08038 0.15122 0.04332
-0.22062 0.15122 0.00379
-0.26869 0.15122 0.29610
-0.25099 0.15122 0.29334
0.15167 0.15122 0.23619
0.09965 0.15122 0.19722
-0.19613 0.15122 0.04335
-0.16750 0.15122 0.01420
-0.14546 0.15122 0.19882
0.23105 0.15122 0.24491
-0.02793 0.15122 0.00968
0.03790 0.15122 0.07103
-0.26465 0.15122 -0.04608
-0.25693 0.15122 0.20509
-0.05349 0.15122 0.15603
-0.30382 0.15122 -0.11880
-0.20437 0.15122 -0.02954
-0.16514 0.15122 0.20631
-0.13895 0.15122 0.23695
-0.08056 0.15122 0.22304
-0.21612 0.15122 0.16547
-0.25100 0.15122 0.27860
-0.31106 0.15122 0.23956
-0.17505 0.15122 0.14155
-0.28381 0.15122 0.14404
-0.20799 0.15122 0.05159
-0.31927 0.14814 -0.31107
-0.28264 -0.09937 -0.23154
-0.30924 -0.09937 -0.00720
-0.30964 -0.09937 0.02790
-0.28048 -0.09937 -0.21018
-0.28947 -0.09937 -0.18532
-0.30939 -0.09937 -0.04889
-0.27006 -0.09937 -0.18152
-0.30667 -0.09937 -0.11714
-0.27519 -0.09937 -0.20062
-0.30551 -0.09937 -0.02364
-0.30154 -0.09937 -0.18658
-0.31107 0.13874 -0.14124
-0.31107 0.13507 0.18563
-0.31107 0.14160 -0.26874
-0.31107 0.14885 -0.31613
-0.33700 0.01697 -0.31424
0.33700 0.11102 0.32246
0.33700 0.11287 0.31147
0.30120 -0.07995 -0.33700
0.03820 -0.07862 -0.33700
0.00526 -0.08363 -0.33700
0.22345 -0.08474 -0.33700
0.24731 -0.07982 -0.33700
0.21271 -0.08865 -0.33700
-0.11392 0.13556 0.33700
-0.26353 0.13442 0.33700
-0.29523 0.14785 0.33700
0.08088 0.14844 0.33700
0.21461 0.14824 0.33700
-0.06765 0.14096 0.33700
-0.14313 0.14865 -0.31107
0.19687 -0.09937 -0.32326
0.23878 -0.09937 -0.31777
-0.02999 -0.09937 -0.31236
0.13645 -0.09937 -0.32652
-0.17268 -0.09937 -0.31140
0.03266 -0.09937 -0.31841
-0.00991 -0.09937 -0.32727
-0.29648 -0.09937 -0.32571
0.18985 -0.09937 -0.33508
-0.23724 -0.09937 -0.31808
-0.20724 -0.09937 -0.32843
-0.33700 0.03655 -0.32890
-0.33700 0.02567 -0.32839
0.06338 0.14535 0.31107
0.08301 0.14494 0.31107
-0.33366 0.08490 0.31107
-0.31107 0.12673 0.33243
0.04246 -0.07345 0.33117
-0.23660 -0.07345 0.31540
0.02486 -0.07345 0.33253
-0.30802 -0.07345 0.33330
-0.25889 -0.07345 0.33266
0.24531 0.14603 0.31107
-0.18818 -0.13273 0.25923
-0.01497 -0.12403 0.25923
-0.19175 -0.11352 0.25923
-0.23579 -0.12859 0.25923
-0.10545 -0.11778 0.25923
-0.10034 -0.13314 0.25923
-0.21444 -0.10741 0.25923
-0.11789 -0.11829 0.25923
0.02771 -0.14418 0.25923
-0.25923 -0.11244 -0.10633
-0.25923 -0.13210 -0.11993
-0.25923 -0.10566 0.06663
-0.25923 -0.11938 -0.00673
-0.25923 -0.12709 -0.23038
-0.25923 -0.10426 -0.04260
-0.25923 -0.11001 0.08721
-0.25923 -0.12373 -0.07636
-0.25923 -0.13350 -0.25793
-0.31957 -0.09937 0.09388
-0.31701 -0.09937 0.21665
-0.32681 -0.09937 0.26615
-0.31295 -0.09937 0.09384
0.10799 0.14258 -0.01777
0.19289 0.14258 -0.06257
-0.05908 0.14258 -0.15324
0.13860 0.14258 0.01242
0.30009 0.14258 0.12658
0.13907 0.14258 -0.16256
0.19133 0.14258 0.15929
0.00717 0.14258 -0.17182
0.06540 0.14258 -0.20332
0.27760 0.14258 -0.10139
0.20887 0.14258 -0.27241
0.13882 0.14258 -0.27476
0.18583 0.14258 0.07935
0.22533 0.14258 -0.16112
0.08214 0.14258 -0.31067
0.19731 0.14258 -0.17089
0.17200 0.14258 0.14393
0.01588 0.14258 -0.07767
0.25951 0.14258 -0.06926
0.06206 0.14258 0.00379
0.27240 0.14258 -0.07175
0.15574 0.14258 -0.14299
0.26344 0.14258 0.00146
0.28383 0.14258 0.07009
0.10575 0.14258 -0.09887
0.16498 0.14258 -0.13564
0.05015 0.14258 0.04424
-0.14406 0.14258 -0.25093
0.21953 0.14258 -0.15922
-0.11779 0.14258 -0.16752
0.17918 0.14258 -0.18050
0.13345 0.14258 -0.15604
0.30609 0.14258 0.23437
-0.16980 0.14258 -0.30806
0.08432 0.14258 0.02780
0.27339 0.14258 0.03158
-0.13240 0.14258 -0.21227
-0.03036 0.14258 -0.26321
0.09490 0.14258 -0.22491
0.13206 0.14258 -0.21203
0.30244 0.14258 -0.01394
-0.05942 0.14258 -0.20871
0.22838 0.14258 0.13177
0.04276 0.14258 -0.19220
0.14198 0.14258 -0.19926
0.27502 0.14258 0.05353
0.27214 0.14258 -0.22725
-0.01286 0.14258 -0.02214
-0.24878 0.14258 -0.28038
-0.09186 0.14258 -0.18630
0.03228 0.14258 -0.04979
-0.13040 0.14258 -0.26775
0.23882 0.14258 0.19167
0.30799 0.14258 -0.12392
-0.08053 0.14258 -0.27816
-0.04817 0.14258 -0.30545
-0.15505 0.14258 -0.18174
-0.09063 0.14258 -0.14048
0.21299 0.14258 0.10493
0.06762 0.14258 -0.10140
-0.20476 0.14258 -0.21338
0.28845 0.14258 0.22628
0.11610 0.14258 0.11111
-0.09735 0.14258 -0.17433
-0.26586 0.14258 -0.31035
-0.21916 0.14258 -0.30107
0.15471 0.14258 -0.25675
0.27982 0.14258 -0.04564
0.14710 0.14258 0.09006
0.30596 0.14258 -0.22110
0.01567 0.14258 -0.04627
-0.07795 0.14258 -0.17507
0.03123 0.14258 0.00818
0.13182 0.14258 -0.24024
-0.14230 0.14258 -0.22641
0.18224 0.14258 0.05337
0.28979 0.14258 0.17832
0.10042 0.14258 -0.18530
0.16600 0.14258 -0.03579
0.23960 0.14258 -0.22632
-0.25238 0.14258 -0.30760
0.20148 0.14258 -0.30641
0.26481 0.14258 -0.10252
0.18349 0.14258 -0.13826
-0.00093 0.14258 -0.30489
0.23384 0.14258 -0.29937
0.29834 0.14258 0.16423
0.24084 0.14258 -0.06119
0.26121 0.14258 0.12759
0.29595 0.14258 0.13095
0.07028 0.14258 0.06293
0.15934 0.14258 0.08131
0.01945 0.14258 -0.24182
-0.00888 0.14258 -0.06512
0.14839 0.14258 0.03387
0.24234 0.14258 -0.11872
-0.22613 0.14258 -0.28266
-0.18792 0.14258 -0.19827
-0.22045 0.14258 -0.26528
-0.00145 0.14258 -0.12176
-0.15742 0.14258 -0.20040
0.28019 0.14258 -0.07869
0.04569 0.14258 -0.02360
0.18437 0.14258 0.14641
-0.09379 0.14258 -0.11894
0.13199 0.14258 -0.22916
0.08021 0.14258 -0.11081
0.27269 0.14258 0.17323
-0.01418 0.14258 -0.16279
0.20091 0.14258 -0.12219
0.22916 0.14258 -0.14633
0.30863 0.14258 -0.23048
-0.12018 0.14258 -0.14834
0.08357 0.14258 -0.29797
-0.06848 0.14258 -0.07217
0.03449 -0.09937 -0.13847
-0.01022 -0.09937 -0.12173
-0.24994 -0.09937 -0.08598
-0.09323 -0.09937 -0.14015
-0.16829 -0.09937 -0.06800
-0.21978 -0.09937 0.13798
-0.19124 -0.09937 -0.00109
-0.12157 -0.09937 -0.19804
0.04231 -0.09937 -0.22396
-0.16311 -0.09937 0.06567
-0.08493 -0.09937 -0.21437
0.00299 -0.09937 -0.18785
-0.25227 -0.09937 -0.24973
-0.25541 -0.09937 -0.05303
0.16467 -0.09937 -0.21712
-0.02065 -0.09937 -0.06682
-0.24138 -0.09937 0.05185
-0.12140 -0.09937 -0.15776
-0.19038 -0.09937 -0.02362
-0.12445 -0.09937 -0.25416
-0.02757 -0.09937 -0.23629
0.06671 -0.09937 -0.16225
0.11604 -0.09937 -0.18185
-0.07110 -0.09937 -0.07773
-0.18990 -0.09937 -0.22333
0.07857 -0.09937 -0.14836
0.01527 -0.09937 -0.15379
0.08924 -0.09937 -0.12014
-0.17642 -0.09937 0.12405
-0.04514 -0.09937 -0.16772
-0.18920 -0.09937 0.06070
-0.06138 -0.09937 -0.23778
0.12770 -0.09937 -0.24929
0.11399 -0.09937 -0.18815
0.02643 -0.09937 -0.13685
0.07721 -0.09937 -0.08870
-0.10603 -0.09937 -0.12967
-0.08030 -0.09937 -0.17247
-0.07385 -0.09937 -0.15754
-0.01698 -0.09937 -0.22930
-0.23202 -0.09937 0.19404
0.01765 -0.09937 -0.09434
-0.07124 -0.09937 -0.17187
-0.10303 -0.09937 -0.22204
-0.21983 -0.09937 0.10066
-0.02063 -0.09937 -0.21648
-0.07669 -0.09937 0.02348
-0.24446 -0.09937 0.11301
-0.14216 -0.09937 -0.04112
-0.15649 -0.09937 -0.09210
-0.21418 -0.09937 0.02873
-0.24861 -0.09937 -0.23918
-0.22327 -0.09937 -0.18076
-0.18271 -0.09937 -0.19977
0.11665 -0.09937 -0.11990
-0.24222 -0.09937 0.12902
-0.13644 -0.09937 -0.08664
-0.08576 -0.09937 -0.01434
-0.20423 -0.09937 -0.22446
-0.18114 -0.09937 -0.08953
-0.16442 -0.09937 0.07891
0.06193 -0.09937 -0.10145
-0.16722 -0.09937 -0.24081
0.07044 -0.09937 -0.13712
-0.18647 -0.09937 -0.17762
-0.14401 -0.09937 -0.10136
0.12903 -0.09937 -0.19780
0.18746 -0.09937 -0.21357
0.06730 -0.09937 -0.14226
-0.06385 -0.09937 -0.16848
0.05956 -0.09937 -0.14232
-0.10549 -0.09937 -0.18033
-0.08582 -0.09937 -0.14953
0.15245 -0.09937 -0.22098
0.21937 -0.09937 -0.23259
-0.23550 -0.09937 -0.00872
0.09192 -0.09937 -0.15872
-0.07262 -0.09937 0.01931
-0.17501 -0.09937 -0.10339
-0.23259 -0.09937 -0.07713
-0.19033 -0.09937 -0.10653
0.02810 -0.09937 -0.15000
0.18845 -0.09937 -0.24787
-0.07770 -0.09937 -0.13898
-0.20115 -0.09937 -0.01629
0.31107 -0.06424 -0.31652
-0.24255 0.13864 -0.31107
-0.13382 0.13440 -0.31107
-0.09704 0.13602 -0.31107
-0.18069 0.14050 -0.31107
-0.32542 -0.07345 0.31847
-0.03092 -0.07345 0.31514
-0.10136 -0.07345 0.31314
0.27527 -0.07345 0.33491
0.21545 -0.07345 0.32566
0.17609 -0.07345 0.32726
-0.31107 -0.08318 -0.21836
-0.31107 -0.08827 -0.10944
-0.31107 -0.09042 -0.05008
-0.31107 -0.09046 -0.08015
-0.31107 -0.08806 -0.25402
-0.32997 -0.07345 0.32522
-0.22200 0.12682 -0.31107
-0.16315 0.12787 -0.31107
0.16907 0.13444 -0.31107
-0.16618 -0.09937 0.31122
-0.21014 -0.09937 0.33071
0.07487 -0.09937 0.31592
-0.11166 -0.09937 0.32013
-0.33700 0.04387 0.33365
-0.33700 -0.04743 0.32797
-0.24947 -0.09473 0.31107
0.20485 -0.07684 0.31107
-0.12982 -0.08334 0.31107
-0.26863 -0.07711 0.31107
-0.07701 -0.08451 0.31107
-0.33700 0.01845 0.32194
-0.33700 0.04229 0.32235
-0.31298 0.12529 0.04924
-0.31799 0.12529 0.03743
-0.32641 0.12529 -0.25812
-0.31518 0.12529 -0.17210
-0.32258 0.12529 -0.01518
-0.31787 0.12529 0.10325
0.27276 0.12723 -0.31107
0.20853 0.13921 -0.31107
0.19951 0.13728 -0.31107
-0.01053 -0.07345 0.32577
-0.00019 -0.07345 0.32571
-0.23278 -0.07345 0.32701
-0.28108 -0.07345 0.32570
0.04010 0.12529 0.31189
-0.05297 0.12529 0.31992
0.28477 0.12529 0.33132
0.16036 0.12529 0.32475
-0.13117 0.12529 0.31589
0.05142 0.12529 0.31749
-0.00665 -0.14305 -0.25923
0.11762 -0.13876 -0.25923
0.10819 -0.13357 -0.25923
-0.12275 -0.14912 -0.25923
-0.02320 -0.14311 -0.25923
0.16674 -0.14652 -0.25923
0.12048 -0.14928 -0.25923
0.13169 -0.08775 0.31107
0.25062 -0.08239 0.31107
0.23051 -0.08011 0.31107
0.14439 -0.08162 0.31107
-0.11439 -0.09895 0.31107
-0.01848 0.13168 -0.33700
-0.19243 0.13772 -0.33700
-0.16953 0.13253 -0.33700
-0.20008 0.14553 -0.33700
-0.14821 0.12857 -0.33700
-0.22419 0.13857 -0.33700
-0.33700 -0.08095 -0.24347
-0.33700 -0.08531 -0.21569
-0.33700 -0.07655 -0.12548
-0.33700 -0.08208 0.09291
-0.33700 -0.07499 0.17475
-0.31107 0.15018 -0.19717
-0.31107 0.15104 -0.29405
0.01340 -0.07549 -0.31107
0.12642 -0.07806 -0.31107
0.26910 -0.08167 -0.31107
0.09548 -0.08315 -0.31107
0.19509 -0.09251 -0.31107
0.32434 0.15104 -0.31107
0.32481 0.12529 0.01357
0.33564 0.12529 0.06446
0.31801 0.12529 -0.26235
0.32353 0.12529 -0.07174
-0.32289 0.05583 -0.33700
-0.31823 0.10038 -0.33700
0.24417 -0.07345 0.16381
-0.24894 -0.07345 -0.28821
-0.06622 -0.07345 -0.13818
0.13815 -0.07345 -0.27280
0.22148 -0.07345 -0.17996
0.24941 -0.07345 0.24276
0.24771 -0.07345 -0.01873
0.04896 -0.07345 -0.29941
0.01881 -0.07345 0.00393
0.24528 -0.07345 -0.20718
0.09935 -0.07345 -0.10414
-0.00632 -0.07345 -0.23346
0.27119 -0.07345 0.23176
0.28743 -0.07345 0.03787
0.02810 -0.07345 -0.29082
0.26552 -0.07345 0.16089
-0.06105 -0.07345 -0.27917
0.04821 -0.07345 -0.23584
0.25460 -0.07345 0.06128
0.04294 -0.07345 -0.20588
0.30502 -0.07345 -0.02634
0.27895 -0.07345 -0.10204
-0.05754 -0.07345 -0.12522
0.09097 -0.07345 -0.06448
0.25761 -0.07345 0.24598
0.21446 -0.07345 0.11003
0.13746 -0.07345 -0.22440
0.26406 -0.07345 0.08322
0.05263 -0.07345 -0.16474
-0.18318 -0.07345 -0.20748
0.26492 -0.07345 -0.11253
-0.13603 -0.07345 -0.28423
0.16977 -0.07345 0.00879
0.16285 -0.07345 -0.08827
0.30024 -0.07345 0.27939
-0.03310 -0.07345 -0.11855
0.29742 -0.07345 -0.12923
-0.04409 -0.07345 -0.06649
0.26299 -0.07345 0.15014
0.16191 -0.07345 0.06338
0.17584 -0.07345 -0.15311
0.20671 -0.07345 -0.19334
-0.07243 -0.07345 -0.26740
0.30956 -0.07345 0.11469
0.14770 -0.07345 -0.24172
0.11620 -0.07345 -0.20521
0.29752 -0.07345 -0.29402
0.21391 -0.07345 0.15061
0.28723 -0.07345 0.04743
-0.23472 -0.07345 -0.24789
0.14221 -0.07345 -0.24372
-0.18457 -0.07345 -0.18757
0.25233 -0.07345 -0.26590
0.31069 -0.07345 0.26330
-0.01460 -0.07345 -0.05916
0.16032 -0.07345 -0.30088
0.20200 -0.07345 -0.17194
0.25455 -0.07345 -0.24410
0.23854 -0.07345 -0.05212
-0.06224 -0.07345 -0.30632
0.04074 -0.07345 -0.02434
0.26608 -0.07345 -0.29218
0.05737 -0.07345 0.00791
-0.12836 -0.07345 -0.15854
0.17327 -0.07345 -0.16707
0.01318 -0.07345 -0.03864
0.30614 -0.07345 0.30574
0.13070 -0.07345 -0.15792
-0.20241 -0.07345 -0.24773
0.30364 -0.07345 0.08735
0.17792 -0.07345 0.12599
0.20470 -0.07345 0.16182
0.26743 -0.07345 0.00653
-0.18966 -0.07345 -0.23796
0.06533 -0.07345 -0.15938
0.25622 -0.07345 0.03509
0.19057 -0.07345 -0.07728
0.23000 -0.07345 0.15267
-0.07373 -0.07345 -0.16073
-0.04220 -0.07345 -0.16424
-0.10410 -0.07345 -0.18237
0.18213 -0.07345 0.00189
0.28518 -0.07345 -0.10108
-0.08209 -0.07345 -0.18026
0.23163 -0.07345 0.18946
0.12966 -0.07345 -0.03357
0.28687 -0.07345 0.23628
0.30937 -0.07345 -0.15197
-0.19481 -0.07345 -0.22891
-0.22988 -0.07345 -0.28756
0.09743 -0.07345 0.01737
0.25922 -0.07345 -0.03602
-0.21498 -0.07345 -0.26143
0.20570 -0.07345 0.07617
0.01412 -0.07345 -0.29257
0.05671 -0.07345 -0.15668
-0.01071 -0.07345 -0.16686
0.26255 -0.07345 -0.06974
-0.10235 -0.07345 -0.13999
-0.03989 -0.07345 -0.30469
-0.02759 -0.07345 -0.02954
-0.03646 -0.07345 -0.16532
0.14413 -0.07345 -0.09717
-0.11437 -0.07345 -0.16561
-0.00359 -0.07345 -0.18854
0.27443 -0.07345 -0.03367
-0.00636 -0.07345 -0.26216
0.18289 -0.07345 0.13851
0.28342 -0.07345 0.14196
-0.19557 -0.07345 -0.27365
0.05715 -0.07345 0.03194
-0.08333 -0.07345 -0.25943
0.05467 -0.07345 -0.11234
0.24289 -0.07345 -0.08971
0.10204 -0.07345 -0.03864
0.09587 -0.07345 -0.14967
-0.04602 -0.07345 -0.29097
-0.18179 -0.07345 -0.19511
-0.17887 -0.07345 -0.30346
0.20081 -0.07345 0.01183
-0.10155 -0.07345 -0.21336
0.25153 -0.07345 0.07619
0.30710 -0.07345 -0.18012
-0.31107 0.13306 -0.31848
-0.31107 0.14576 -0.24582
0.32485 -0.09778 -0.33700
0.32007 -0.09937 -0.09836
0.31751 -0.09937 -0.20762
0.31706 -0.09937 0.01079
0.31125 -0.09937 0.20614
0.32615 -0.09937 -0.07993
-0.25923 -0.10372 -0.25089
-0.25923 -0.10175 0.22254
-0.25923 -0.10315 0.11001
-0.25923 -0.12596 -0.16692
-0.25923 -0.10851 0.10955
-0.25923 -0.12755 -0.10652
-0.25923 -0.14123 -0.24891
-0.25923 -0.11693 -0.21391
-0.25923 -0.11238 -0.04173
-0.33700 0.11355 -0.32174
-0.33700 0.12166 -0.32145
0.24623 -0.09937 -0.33504
-0.26970 -0.09937 -0.33587
0.05478 -0.09937 -0.33573
0.03448 -0.09937 -0.32557
0.09908 -0.09937 -0.33651
0.25923 -0.11313 0.15359
0.25923 -0.11808 0.07032
0.25923 -0.11717 -0.03800
0.25923 -0.10026 0.01816
0.25923 -0.13532 0.20502
0.25923 -0.11066 0.24852
0.25923 -0.12410 0.19778
0.25923 -0.10885 0.23034
0.25923 -0.12269 -0.02124
-0.33700 0.12512 0.31177
0.31989 -0.09937 0.31183
-0.02362 -0.07345 -0.31451
-0.19708 -0.07345 -0.31560
-0.01028 -0.07345 -0.31980
-0.02678 -0.07345 -0.32320
0.04445 -0.07345 -0.31519
0.16925 -0.08583 0.33700
-0.03791 -0.09632 0.33700
0.16695 -0.08051 0.33700
-0.05622 -0.09117 0.33700
-0.07810 -0.09073 0.33700
0.14035 -0.09457 0.33700
0.26295 -0.07345 0.31114
0.21929 -0.07345 0.32156
-0.06754 -0.07345 0.32072
0.27696 -0.07345 0.32538
-0.00206 -0.07345 0.31441
-0.31107 0.12624 0.15045
-0.31107 0.13058 -0.10935
-0.31107 0.13023 -0.25913
-0.31107 0.13329 -0.22163
0.30802 0.14663 -0.31107
0.14498 0.14623 -0.31107
-0.31107 0.04519 -0.32186
-0.31107 -0.00237 -0.31883
0.32699 -0.03342 0.31107
0.31670 0.02509 0.31107
0.31131 0.15122 -0.02956
0.31450 0.15122 0.14408
0.33137 0.15122 0.30723
0.31952 0.15122 0.15730
0.31570 0.15122 0.11512
-0.31107 -0.04058 0.32961
0.31107 -0.08642 -0.18679
0.31107 -0.07497 -0.30261
0.31107 -0.09674 -0.26025
0.31107 -0.08092 0.06747
-0.31656 0.00101 -0.31107
-0.33662 0.12466 -0.31107
0.23825 0.15122 0.06176
0.27765 0.15122 0.02510
0.03084 0.15122 -0.07956
0.16617 0.15122 -0.29620
0.28798 0.15122 -0.07274
0.02218 0.15122 -0.02229
0.14882 0.15122 0.01103
0.05587 0.15122 -0.29778
-0.16229 0.15122 -0.26608
-0.00081 0.15122 -0.11517
0.11711 0.15122 -0.13081
-0.02728 0.15122 -0.06053
0.01272 0.15122 -0.26118
-0.09926 0.15122 -0.15096
0.18762 0.15122 0.09117
0.12478 0.15122 -0.00329
0.08310 0.15122 -0.14697
0.08404 0.15122 -0.18119
0.23603 0.15122 -0.07691
0.09784 0.15122 0.02052
0.14588 0.15122 -0.05661
0.13172 0.15122 0.12615
0.13015 0.15122 -0.24687
0.07055 0.15122 -0.16658
0.10516 0.15122 -0.29682
0.01022 0.15122 -0.08597
-0.06506 0.15122 -0.14910
-0.18978 0.15122 -0.25858
0.18921 0.15122 0.17233
0.29637 0.15122 0.09025
0.20124 0.15122 -0.29894
0.20447 0.15122 0.12882
0.28364 0.15122 0.09445
0.23508 0.15122 -0.03780
-0.22934 0.15122 -0.25422
0.05012 0.15122 -0.24108
