0.02083 0.00165 0.06752
0.02411 0.01332 0.06632
-0.04622 -0.07433 0.32020
0.03228 0.07058 -0.34329
0.03010 0.07058 -0.30918
0.05517 -0.00199 0.35300
0.05488 -0.03714 0.35363
0.11992 0.07285 0.32091
0.02550 0.07433 -0.47608
0.08616 0.07433 -0.42472
0.10228 0.07433 -0.39971
0.09843 0.07433 -0.42036
-0.06293 0.01217 0.34072
-0.06039 -0.03791 0.34765
-0.06258 0.03786 0.34169
0.09151 0.07433 0.41795
0.04939 0.01978 0.29016
0.04832 -0.02053 0.28862
0.04569 -0.00930 0.28489
0.04412 0.07058 -0.31032
-0.05720 0.06683 0.44359
-0.08325 0.06683 0.42190
-0.04889 -0.07122 0.36791
-0.05613 0.00244 0.35761
-0.01864 0.02510 -0.36871
-0.02659 0.05959 -0.36580
-0.01692 0.03822 -0.36934
0.03510 0.05190 0.05981
0.02988 0.06551 0.06348
-0.00842 0.07058 -0.25024
-0.01412 0.07058 -0.29783
0.08454 0.06683 -0.44156
0.10233 0.06683 -0.41804
0.09555 0.06683 -0.41304
0.00075 -0.07433 0.27942
0.00090 -0.07433 0.32729
-0.08189 0.06751 0.45760
-0.01886 0.06683 -0.19464
0.01780 0.06683 -0.18004
0.09733 0.06683 -0.13653
0.08846 0.06683 -0.14309
0.10878 0.06683 -0.15387
0.08222 0.06683 -0.14658
0.04232 0.06683 -0.19795
-0.00204 0.06683 -0.19836
-0.08382 0.06683 -0.17362
-0.02509 0.06683 -0.14542
0.05084 0.06683 -0.19249
-0.05611 0.06683 -0.17424
0.09737 0.06683 -0.21447
0.07484 0.06683 -0.17947
0.10874 0.06683 -0.23365
0.04805 0.06683 -0.19996
0.04424 0.06683 -0.14688
-0.02816 0.06683 -0.17482
0.09560 0.06683 -0.14301
0.05856 0.06683 -0.22279
-0.02125 0.06683 -0.18949
0.10479 0.06683 -0.19551
0.06022 0.06683 -0.14022
0.11114 0.06683 -0.12501
0.02754 0.06683 -0.19994
0.08702 0.06683 -0.17915
-0.00210 0.06683 -0.15704
-0.10363 0.06683 -0.16147
0.04394 0.06683 -0.19317
-0.05162 0.06683 -0.17982
0.04620 0.06683 -0.16043
-0.06373 -0.04242 0.31919
-0.06250 -0.02052 0.31214
-0.06262 0.01132 0.31279
-0.06365 0.01636 -0.30095
-0.06337 -0.02024 -0.29779
-0.06435 0.05232 -0.30872
0.03201 -0.07433 -0.02207
-0.11153 0.06683 -0.33354
-0.08594 0.06683 -0.36277
0.03008 0.06683 -0.36085
-0.03460 0.06683 -0.37303
0.04576 0.06683 -0.37115
-0.05948 0.06683 -0.37291
-0.11979 0.06683 -0.35530
0.04345 0.06683 -0.37893
-0.04920 0.06683 -0.34360
-0.06079 0.06683 -0.34819
0.05542 0.06683 -0.37031
-0.07605 0.06683 -0.34249
-0.04274 0.06683 -0.34502
0.01995 0.07433 -0.17256
-0.00330 0.07433 -0.14315
-0.02397 0.07433 -0.15846
0.08452 0.07433 -0.12059
0.00749 0.07433 -0.15655
0.11990 0.07433 -0.22479
0.06031 0.07433 -0.12998
0.06752 0.07433 -0.16253
0.02663 0.07433 -0.17652
-0.08791 0.07433 -0.15773
0.02028 0.07433 -0.14535
0.03887 0.07433 -0.15242
-0.04820 0.07433 -0.14872
-0.03386 0.07433 -0.17755
0.10871 0.07433 -0.14516
0.06430 0.07433 -0.19904
0.08874 0.07433 -0.15751
-0.07768 0.07433 -0.15576
0.05398 0.07433 -0.13130
0.11244 0.07433 -0.23519
0.09352 0.07433 -0.15175
0.02809 0.07433 -0.19579
-0.05123 0.07433 -0.17001
-0.08168 0.07433 -0.16839
0.10095 0.07433 -0.21479
0.06374 0.07433 -0.12608
0.11568 0.07433 -0.16950
0.11922 0.07433 -0.18296
0.10471 0.07433 -0.14877
0.10602 0.07433 -0.13526
0.07751 0.07433 -0.17022
0.08325 0.07433 -0.13728
0.11826 0.07433 -0.21916
0.05954 0.00866 -0.32358
0.05783 0.01148 -0.32826
0.05965 -0.02627 -0.32328
-0.05082 -0.07433 0.00565
-0.05771 -0.01764 0.35499
-0.05905 0.00097 0.35133
0.00566 0.06683 0.46479
0.03385 0.06683 0.41817
0.02219 0.06683 0.45756
-0.03816 0.06683 0.43614
-0.00459 0.06683 0.40543
0.00573 0.06683 0.41526
0.00713 0.06683 0.42906
0.04085 0.06683 0.39759
-0.01227 0.06683 0.41678
-0.02668 0.06683 0.45249
0.01251 0.06683 0.40313
-0.03510 0.06683 0.40990
-0.07370 0.06683 0.40226
-0.06042 0.06683 0.42060
0.04422 0.06683 0.41654
-0.00310 0.06683 0.43135
0.05601 0.06683 0.42585
-0.05158 0.06683 0.38527
0.01463 0.06683 0.41354
0.07634 0.06683 0.38291
0.05009 0.06683 0.39086
-0.01776 0.06683 0.39893
0.00657 0.06683 0.40913
-0.00843 0.06683 0.40186
0.01080 -0.07433 0.29779
0.00732 -0.07433 0.32746
0.05903 0.04283 -0.29139
0.05895 0.04969 -0.29090
0.05919 -0.07253 -0.29228
-0.04214 -0.03970 0.05665
-0.03743 -0.05599 0.06059
-0.02537 0.07001 -0.47915
-0.00701 0.07058 0.01268
-0.00546 0.07058 0.05544
0.02699 0.06683 -0.29740
-0.03652 0.06683 -0.32329
0.01999 0.06683 -0.30592
0.05989 0.06683 -0.29543
0.10001 0.06683 -0.27809
0.10435 0.06683 -0.32919
0.08530 0.06683 -0.31294
0.01321 0.06683 -0.34476
-0.02267 0.06683 -0.34143
0.05088 0.06683 -0.27318
0.11924 0.06683 -0.30233
0.05575 0.06683 -0.29087
0.07621 0.06683 -0.36234
0.03362 0.06683 -0.29199
-0.04095 0.06683 -0.32943
0.09943 0.06683 -0.28539
0.11831 0.06683 -0.34026
0.00838 0.06683 -0.34841
0.11105 0.06683 -0.37670
0.01579 0.06683 -0.31785
0.06544 0.06683 -0.28982
-0.00637 0.06683 -0.32278
0.07037 0.06683 -0.29432
-0.02198 0.06683 -0.31592
0.03957 0.06683 -0.34779
0.02704 0.06683 -0.34420
0.05685 0.06683 -0.35112
0.06684 0.06683 -0.29984
0.06381 0.06683 -0.31019
0.08476 0.06683 -0.32563
0.06005 -0.01097 -0.29723
0.06131 -0.07048 -0.30441
0.06027 -0.03628 -0.29849
-0.03525 0.07058 0.05980
-0.03251 0.07058 -0.01222
0.03819 -0.07433 0.00318
0.04449 0.07058 -0.29692
-0.05541 0.01741 -0.34083
-0.05960 -0.06564 -0.33179
-0.06022 -0.07305 -0.33045
0.07407 0.07433 0.45853
-0.00830 0.06683 -0.47897
-0.01089 0.06683 -0.47452
-0.05888 0.03856 -0.01591
-0.05980 0.02975 -0.01392
-0.11992 0.06799 0.05887
0.11895 0.06815 0.38961
0.00293 0.07058 -0.27346
0.00833 0.07058 -0.25585
-0.06821 0.07433 -0.30197
0.08164 0.07433 -0.25670
-0.10046 0.07433 -0.28257
-0.09537 0.07433 -0.30024
-0.09000 0.07433 -0.29895
-0.04520 0.07433 -0.27510
0.06799 0.07433 -0.25949
-0.03711 0.07433 -0.28492
0.09106 0.07433 -0.24966
-0.03467 0.07433 -0.26719
0.00215 0.07433 -0.27718
0.01263 0.07433 -0.27472
-0.05623 0.07433 -0.29105
0.05025 0.07080 0.47450
0.06071 -0.01476 0.01645
0.06097 0.00345 0.01496
0.11992 0.07010 -0.09318
0.03771 0.06683 -0.23508
-0.09704 0.06683 -0.21730
-0.06146 0.06683 -0.21840
-0.08505 0.06683 -0.18019
-0.08735 0.06683 -0.20591
-0.09176 0.06683 -0.23762
-0.03762 0.06683 -0.23177
0.04484 0.06683 -0.23554
0.03462 0.06683 -0.24856
-0.02904 0.06683 -0.25811
-0.06532 0.06683 -0.20438
-0.04493 0.06683 -0.22517
-0.04973 0.06683 -0.19314
-0.07819 0.06683 -0.21601
0.00568 0.06683 -0.25142
-0.06269 0.06683 -0.26454
-0.05819 0.06683 -0.21161
-0.06719 0.06683 -0.23590
-0.01673 0.06683 -0.24597
0.02027 0.06683 -0.24649
-0.03189 0.06683 -0.24506
-0.08632 0.06683 -0.23898
0.01331 0.06683 -0.22249
-0.02729 0.06683 -0.22920
-0.10703 0.07433 0.28346
-0.01042 0.07433 0.26298
-0.00538 0.07433 0.27067
-0.06118 0.07433 0.28014
-0.02431 0.07433 0.29250
-0.04927 0.07433 0.25662
-0.05914 0.07433 0.25678
0.10584 0.07433 0.27436
-0.09722 0.07433 0.28326
-0.10922 0.07433 0.26008
-0.03156 0.07433 0.27141
-0.01882 0.07433 0.28887
0.03082 0.07433 0.27460
-0.03291 0.07433 0.25977
-0.06376 0.07433 0.29623
0.02703 0.07433 0.26207
-0.05740 0.07433 0.28604
0.03177 0.07433 -0.24743
0.02585 0.07433 -0.25446
-0.01527 0.07433 -0.21906
-0.00694 0.07433 -0.22287
-0.06406 0.07433 -0.23547
-0.04834 0.07433 -0.20143
-0.02773 0.07433 -0.22946
-0.00781 0.07433 -0.23641
-0.01218 0.07433 -0.24063
-0.11957 0.07433 -0.23723
-0.02516 0.07433 -0.25510
-0.00064 0.07433 -0.22044
-0.00183 0.07433 -0.23517
-0.06491 0.07433 -0.25488
-0.08782 0.07433 -0.22149
0.04910 0.07433 -0.23542
0.05272 0.07433 -0.22454
-0.04149 0.07433 -0.19689
-0.10021 0.07433 -0.23104
-0.08909 0.07433 -0.19058
0.02651 0.07433 -0.24559
-0.11672 0.07433 -0.20539
-0.02784 0.07433 -0.20826
-0.05622 0.07433 -0.24356
-0.09928 0.07433 -0.19314
-0.08551 0.07433 -0.23474
0.05946 0.06683 0.28330
0.01499 0.06683 0.31528
-0.01494 0.06683 0.30404
-0.05633 0.06683 0.31435
0.11504 0.06683 0.27667
0.10603 0.06683 0.31174
-0.00337 0.06683 0.29286
0.09477 0.06683 0.31921
0.01682 0.06683 0.30968
0.04887 0.06683 0.31277
0.01708 0.06683 0.30018
0.07331 0.06683 0.30719
-0.06316 0.00207 0.31591
-0.06212 0.06532 0.30993
0.11414 0.07089 0.41197
0.05190 0.04514 -0.27483
0.05184 -0.02713 -0.27472
0.06057 -0.06087 -0.31657
0.06075 -0.07111 -0.31449
0.02404 0.06683 0.15726
0.06168 0.06683 0.16840
-0.02136 0.06683 0.16774
0.05269 0.06683 0.18645
-0.07435 0.06683 0.17029
-0.11336 0.06683 0.23174
-0.08653 0.06683 0.18582
-0.07876 0.06683 0.16527
-0.07784 0.06683 0.18232
0.02030 0.06683 0.16540
0.01566 0.06683 0.14972
-0.00286 0.06683 0.19867
-0.03715 0.06683 0.21312
-0.10964 0.06683 0.12283
-0.11510 0.06683 0.14849
-0.00741 0.06683 0.19380
-0.07970 0.06683 0.14284
-0.10234 0.06683 0.17224
0.04430 0.06683 0.15620
-0.03770 0.06683 0.20254
0.06426 0.06683 0.16235
-0.05253 0.06683 0.20497
-0.05186 0.06683 0.19903
-0.00020 0.06683 0.18484
-0.06436 0.06683 0.13771
-0.04208 0.06683 0.13214
-0.03417 0.06683 0.20594
-0.04547 0.06683 0.15725
-0.09975 0.06683 0.13625
0.01855 0.06683 0.17366
-0.06504 0.06683 0.21121
0.03042 0.06683 0.18370
-0.10571 0.06683 0.15899
-0.01062 0.01733 -0.05291
-0.00391 -0.05480 -0.05351
-0.00952 -0.00132 -0.05301
-0.01315 0.07058 -0.26437
-0.01659 0.07058 -0.33006
-0.03601 0.07058 0.28753
-0.03779 0.07058 0.31565
0.05114 -0.01891 -0.34225
0.04711 -0.05535 -0.34799
-0.04797 0.00802 0.28456
-0.04710 -0.06150 0.28352
-0.04761 -0.04193 0.28414
-0.00308 0.07058 0.32190
-0.02683 -0.03497 0.06630
-0.02320 0.03357 0.06798
-0.02626 -0.02967 0.06656
0.04581 -0.00426 0.28506
0.11486 0.06683 0.40919
-0.05025 0.07433 -0.43914
-0.03740 0.07058 0.02317
-0.00220 -0.07433 0.37717
0.00874 -0.07433 0.37180
0.00191 -0.07433 0.36885
0.05634 0.06683 -0.44559
0.03348 0.06683 -0.47035
0.08640 0.06683 -0.43323
0.04209 0.02687 -0.26298
0.04746 -0.04333 -0.26940
0.04472 -0.04963 -0.26613
-0.06292 0.00786 -0.00291
-0.06193 -0.00717 -0.00856
0.01344 -0.07433 -0.36646
0.01385 -0.07433 -0.30661
0.11992 0.06935 -0.28925
0.03756 0.00324 -0.25936
0.03545 -0.02939 -0.25788
-0.00337 -0.02117 0.26388
-0.00327 -0.00156 0.26388
-0.01166 0.06733 0.26462
0.11358 0.06683 -0.39554
-0.04077 -0.07433 0.03325
-0.03837 0.07058 -0.26847
-0.08394 0.06683 -0.44851
-0.05992 0.06683 -0.44431
-0.09559 0.06683 -0.42524
-0.08763 0.06683 -0.41780
-0.06499 0.06683 -0.44216
0.04772 0.00472 -0.02967
0.04741 -0.02537 -0.03010
-0.04766 0.07009 0.47528
0.04214 -0.07433 0.33717
-0.02795 -0.07433 0.33266
-0.03064 -0.07433 0.33975
-0.07914 0.07433 -0.38801
-0.09627 0.07433 -0.38930
-0.02267 0.07433 -0.41246
0.04663 0.07433 -0.41015
-0.08047 0.07433 -0.40110
-0.03155 0.07433 -0.45287
0.04225 0.07433 -0.39209
0.00534 0.07433 -0.43458
0.01201 0.07433 -0.42910
0.03875 0.07433 -0.44423
-0.00373 0.07433 -0.47481
0.03207 0.07433 -0.40242
0.00313 0.07433 -0.44132
0.04222 0.07433 -0.39923
0.03467 0.07433 -0.38700
-0.01211 0.07433 -0.45880
0.01010 0.07433 -0.41685
0.02638 0.07433 -0.41065
-0.03804 0.07433 -0.39092
-0.09421 0.07433 -0.38103
-0.01840 0.07433 -0.44099
0.07499 0.07433 -0.38311
0.05896 0.07058 -0.30490
0.02231 0.07058 0.37022
0.02217 0.07058 0.34260
-0.10036 0.06683 -0.31630
0.09638 0.06683 -0.25039
0.03867 0.06683 -0.26125
-0.07483 0.06683 -0.30979
0.02142 0.06683 -0.27710
-0.00073 0.06683 -0.27221
-0.01103 0.06683 -0.28243
0.04925 0.06683 -0.25702
-0.01544 0.06683 -0.26681
0.03406 0.06683 -0.26625
-0.05838 0.06683 -0.27892
-0.10653 0.06683 -0.31697
-0.07050 0.06683 -0.29167
-0.02539 0.07058 0.30240
-0.02279 0.07058 0.33731
0.01623 -0.07433 -0.28589
0.01721 -0.07433 -0.34514
-0.05834 0.02767 0.35326
-0.05758 -0.00497 0.35534
-0.06320 -0.04159 -0.31874
-0.06228 -0.06141 -0.32401
0.04366 0.06317 -0.26485
0.04692 -0.00424 -0.26876
0.05798 -0.05404 -0.28794
0.05440 0.03543 -0.28022
0.05579 0.03182 -0.28322
-0.05648 -0.07433 -0.29524
-0.04048 0.07058 0.05060
-0.05952 0.07433 0.45995
-0.07765 0.07433 0.44818
-0.04892 0.07433 0.47246
-0.01278 0.07433 -0.46908
0.02672 0.07058 0.00022
0.02862 0.07058 -0.04337
0.01654 0.07058 -0.34345
0.01604 0.07058 -0.33299
0.05475 -0.07433 0.32667
0.05385 -0.07433 -0.33596
-0.06378 0.05432 -0.31543
-0.06327 0.06899 -0.31836
-0.06370 0.01706 -0.31588
-0.01003 -0.04700 0.26448
-0.00709 -0.07099 0.26422
0.04317 -0.04578 0.05318
0.04649 -0.00355 0.04920
0.04771 -0.05584 0.04774
-0.06144 -0.07433 -0.29640
-0.00947 0.05422 0.07119
-0.01655 -0.02311 0.06996
-0.04083 0.07058 0.33671
-0.04337 0.07058 0.37296
0.04054 0.06683 -0.45455
-0.06110 0.00768 0.02828
-0.06091 -0.01380 0.02881
-0.06271 0.05176 0.02389
0.06042 0.01346 -0.31826
0.06038 -0.02092 -0.31868
0.11212 0.06857 -0.41835
-0.04177 0.07058 0.32645
0.05673 0.00294 -0.01381
0.05471 -0.04873 -0.01933
0.05539 -0.00006 -0.01748
-0.01243 -0.02357 0.38812
-0.00972 -0.02949 0.38860
-0.05352 0.07058 0.03931
-0.05228 -0.02613 -0.34516
-0.04756 0.05029 -0.35081
0.05427 0.07058 0.03395
0.01386 0.07058 -0.28728
-0.04835 -0.03418 0.05122
-0.05115 0.04613 0.04725
-0.04968 -0.02292 0.04934
-0.03866 0.06086 -0.04127
-0.03454 0.02880 -0.04417
-0.02588 0.06683 0.46238
-0.11571 0.06683 0.07711
-0.07893 0.06683 -0.14569
0.02953 0.06683 -0.06873
0.01373 0.06683 -0.10023
-0.08105 0.06683 -0.15202
0.05349 0.06683 -0.07336
-0.05153 0.06683 0.00190
-0.11984 0.06683 -0.12783
-0.07991 0.06683 0.06597
-0.01977 0.06683 -0.06959
-0.09327 0.06683 0.02899
-0.03561 0.06683 -0.05373
-0.06792 0.06683 -0.13401
0.03755 0.06683 -0.08259
-0.09727 0.06683 0.01447
-0.07323 0.06683 -0.01320
-0.05593 0.06683 0.02741
-0.02318 0.06683 -0.09514
-0.09911 0.06683 0.00841
-0.06218 0.06683 -0.01190
0.00428 0.06683 -0.02823
-0.05793 0.06683 -0.14597
0.01920 0.06683 -0.11788
0.05040 0.06683 -0.06843
0.02735 0.06683 -0.10232
-0.07374 0.06683 0.03631
-0.08351 0.06683 -0.05560
-0.01108 0.06683 -0.02665
-0.01229 0.06683 -0.10966
0.00925 0.06683 -0.04995
0.05037 0.06683 -0.04623
-0.07256 0.06683 -0.09533
0.05712 0.06683 -0.08311
0.00671 0.06683 -0.03684
-0.00309 0.06683 -0.10149
-0.07816 0.06683 -0.00482
0.08366 0.06683 -0.07874
-0.07662 0.06683 -0.04977
-0.06425 0.06683 -0.03887
-0.10990 0.06683 -0.09727
-0.02593 0.06683 -0.08254
-0.06669 0.06683 -0.07648
0.05032 0.06683 -0.09220
-0.08963 0.06683 -0.01483
-0.06697 0.06683 -0.08661
-0.05502 0.06683 -0.05037
-0.00113 0.06683 -0.11372
-0.11450 0.06683 -0.11219
0.02641 0.06683 -0.08903
-0.03064 0.06683 -0.04560
-0.11660 0.06683 0.00831
-0.04852 0.06683 -0.11200
-0.06300 0.06683 -0.14426
-0.11277 0.06683 0.06827
-0.07939 0.06683 -0.08848
0.04881 0.06683 -0.05756
-0.09434 0.06683 -0.00401
-0.10067 0.06683 -0.13218
-0.01634 0.06683 -0.11305
-0.02199 0.06683 -0.12286
0.00859 0.06683 -0.06175
-0.05046 0.06683 -0.01139
0.08259 0.06683 -0.08901
-0.06496 0.06683 -0.02642
-0.09598 0.06683 -0.13811
-0.07486 0.06683 0.04259
0.01860 -0.07433 -0.01694
0.02276 -0.07433 0.01364
0.05890 -0.07364 0.34426
0.05956 0.00393 0.34049
0.01005 0.06683 -0.37712
0.04817 0.06683 -0.37582
0.01671 0.06683 -0.37685
-0.04870 0.06683 -0.37060
-0.11789 0.06683 -0.33100
-0.00446 0.06683 -0.37952
0.09851 0.06683 -0.37894
-0.03347 0.06683 -0.36049
0.03237 0.06683 -0.36923
-0.10011 0.06683 -0.33477
-0.03174 0.06683 -0.37892
-0.04367 0.06683 -0.36947
-0.03207 -0.05428 0.38131
-0.02664 -0.03037 0.38383
-0.02176 0.01244 0.38610
0.02738 0.05619 0.38257
0.02764 0.00563 0.38248
0.05553 0.07058 -0.28317
-0.03603 -0.07433 -0.02931
0.07560 0.06683 0.45563
-0.01950 0.07058 0.31184
-0.02462 0.07058 0.29654
0.03347 0.07058 0.00839
0.06107 0.05891 0.32396
0.06008 0.00641 0.31286
-0.04307 0.03112 -0.26157
-0.04404 0.06043 -0.26239
-0.04324 -0.01240 -0.26171
0.00787 -0.07433 0.02382
0.00795 -0.07433 0.03505
0.02369 0.07058 0.38356
-0.07252 0.07433 0.42288
0.00694 -0.03139 0.26450
0.00849 -0.02581 0.26477
0.00524 -0.01480 0.26420
0.02842 -0.05728 -0.04600
0.02203 -0.06689 -0.04896
-0.06091 0.03741 0.02880
-0.05868 0.02596 0.03490
0.03979 0.07058 -0.35452
0.03704 0.07058 -0.33447
-0.02201 0.07433 -0.27386
0.00165 0.07433 -0.26420
-0.06558 0.07433 -0.29093
-0.00789 0.07433 -0.26613
-0.02656 0.07433 -0.28483
-0.10709 0.07433 -0.30783
0.01989 0.07433 -0.27167
-0.05153 0.07433 -0.27039
-0.06270 0.07433 -0.27037
-0.07968 0.07433 -0.27814
0.07251 0.07433 -0.25150
-0.08014 0.07433 -0.29830
0.05599 -0.00459 -0.28366
0.05331 0.05143 -0.27788
0.05805 0.01496 -0.28809
-0.03017 0.07058 0.01819
-0.02942 0.07058 -0.01651
-0.06097 0.05848 -0.28883
-0.05749 -0.00428 -0.27931
-0.01616 -0.07433 0.03401
-0.00915 -0.07433 0.02527
0.06076 0.06621 0.33360
0.05919 0.04771 0.34261
-0.00300 0.07058 -0.35165
-0.00875 0.07058 -0.35266
0.04491 0.07433 0.46437
0.06143 0.00331 -0.30687
0.06045 -0.04561 -0.31788
0.06136 0.00862 -0.30770
-0.00969 0.06683 0.29804
0.10486 0.06683 0.27921
0.07803 0.06683 0.32316
0.11791 0.06683 0.28738
-0.04768 0.06683 0.30605
-0.02099 0.06683 0.30604
0.11469 0.06683 0.31803
0.06350 0.06683 0.29998
0.05743 0.06683 0.29491
0.11083 0.06683 0.28350
-0.03610 0.06683 0.31203
0.11139 0.06798 0.41971
0.00936 0.07021 0.38836
0.00634 0.03014 0.38863
-0.04141 0.00035 0.27811
-0.04021 -0.06985 0.27726
-0.03940 -0.02179 0.27669
0.06082 0.06823 0.01584
0.06100 -0.04049 0.01478
-0.05675 0.03683 -0.33794
-0.06151 -0.03427 -0.32769
0.01779 -0.07433 0.38464
0.01799 -0.07433 0.32727
-0.11992 0.07139 -0.21392
-0.03498 0.07433 0.45524
-0.00812 -0.07433 0.30766
-0.00535 -0.07433 0.30116
-0.00411 -0.07433 0.35047
0.03369 0.07433 -0.46505
-0.04643 -0.07433 -0.30445
0.07295 0.07433 0.16924
-0.11886 0.07433 0.11096
-0.04858 0.07433 0.13065
0.00213 0.07433 0.19724
0.05511 0.07433 0.15315
-0.02754 0.07433 0.20436
0.00854 0.07433 0.20114
-0.10964 0.07433 0.24028
0.03613 0.07433 0.16527
-0.09065 0.07433 0.15698
-0.10347 0.07433 0.19932
-0.08044 0.07433 0.21914
-0.06787 0.07433 0.14957
0.01134 0.07433 0.15382
-0.02415 0.07433 0.16815
0.01801 0.07433 0.17603
-0.07670 0.07433 0.19764
-0.01224 0.07433 0.18877
-0.11806 0.07433 0.19675
0.02372 0.07433 0.15881
-0.07235 0.07433 0.13154
-0.03291 0.07433 0.15420
0.00931 0.07433 0.18214
-0.08540 0.07433 0.18018
-0.09535 0.07433 0.12278
-0.10756 0.07433 0.20355
-0.11232 0.07433 0.18259
0.05795 0.07433 0.16607
-0.09037 0.07433 0.12385
-0.05533 0.07433 0.22033
-0.11015 0.07433 0.23041
-0.01070 -0.07433 -0.30417
-0.01770 -0.07433 -0.28813
0.08943 0.07433 0.43340
0.06279 0.07433 0.45796
0.01383 -0.05191 0.38753
0.02151 0.03133 0.38472
0.00311 -0.06267 -0.24597
0.01014 0.01530 -0.24660
0.00363 -0.01216 -0.24602
-0.02413 -0.04754 -0.24990
-0.02529 -0.05246 -0.25044
-0.03052 -0.07055 -0.25286
0.05475 0.00559 -0.28098
0.05210 -0.07308 -0.27528
0.01638 0.03424 0.26614
0.00978 0.00419 0.26499
0.00145 0.06892 0.26354
-0.01444 0.06683 -0.40457
-0.06573 0.06683 -0.40531
-0.00615 0.06683 -0.45116
0.02304 0.06683 -0.44550
0.06809 0.06683 -0.39651
0.03261 0.06683 -0.43316
0.00386 0.06683 -0.45638
-0.01513 0.06683 -0.42169
0.02585 0.06683 -0.38638
0.04026 0.06683 -0.42659
-0.05381 0.06683 -0.41696
0.00707 0.06683 -0.42769
0.06408 0.06683 -0.41816
-0.03134 0.06683 -0.41076
0.01950 0.06683 -0.41113
-0.02621 0.06683 -0.42536
-0.09840 0.06683 -0.38784
0.03770 0.06683 -0.40056
-0.02055 0.06683 -0.43283
0.02810 0.06683 -0.45512
0.01537 0.06683 -0.40758
-0.03036 0.06683 -0.43544
0.08993 0.06683 -0.39305
-0.00423 0.06683 -0.42846
0.06642 0.06683 -0.40256
0.10744 0.06683 0.40862
-0.05586 0.06556 0.35799
-0.04809 -0.04151 0.36905
-0.06299 -0.07433 0.32456
-0.09859 0.06683 -0.20405
0.04466 0.06683 -0.24413
-0.06480 0.06683 -0.25642
-0.04524 0.06683 -0.25652
0.04039 0.06683 -0.22243
-0.08490 0.06683 -0.22920
-0.11008 0.06683 -0.18285
-0.04852 0.06683 -0.26126
-0.03247 0.06683 -0.24991
-0.11368 0.06683 -0.19235
-0.11928 0.06683 -0.19876
-0.00385 0.06683 -0.23457
-0.01064 0.06683 -0.23393
-0.07114 0.06683 -0.18655
0.08087 0.06683 -0.24792
-0.04690 0.06683 -0.24385
-0.03228 0.06683 -0.23230
-0.06062 0.06683 -0.18991
-0.09339 0.06683 -0.22331
-0.04404 0.06683 -0.21888
-0.03094 0.06120 0.38184
-0.02715 0.01373 0.38359
0.02739 0.06683 0.47212
-0.11992 0.06975 -0.34624
-0.01846 -0.00191 0.38707
-0.01473 0.01277 0.38772
-0.01791 0.03053 0.38717
-0.05990 -0.07433 0.01071
-0.10468 0.07433 -0.24942
-0.05869 0.07433 -0.23169
-0.01310 0.07433 -0.21228
-0.07243 0.07433 -0.25998
-0.07727 0.07433 -0.22984
-0.04451 0.07433 -0.24059
-0.07874 0.07433 -0.18183
-0.09785 0.07433 -0.20411
0.03362 0.07433 -0.23162
-0.09869 0.07433 -0.25357
0.08126 0.07433 -0.23243
-0.10129 0.07433 -0.21412
0.00752 0.07433 -0.24390
-0.06222 0.07433 -0.21667
-0.06750 0.07433 -0.20843
-0.05957 0.07433 -0.18519
0.00745 0.07433 -0.22126
-0.10481 0.07433 -0.23429
-0.03287 0.07433 -0.21409
-0.11254 0.07433 -0.25828
-0.11116 0.07433 -0.24591
-0.05073 0.07433 -0.25469
0.02040 -0.03306 -0.36716
0.02263 -0.05779 -0.36613
-0.04086 0.07058 -0.30947
-0.02773 -0.01699 0.06588
-0.02041 0.01435 0.06928
-0.03019 -0.04359 0.06473
0.09935 0.07433 -0.36470
0.01357 0.07433 -0.34489
0.09429 0.07433 -0.29007
0.08882 0.07433 -0.29549
-0.00448 0.07433 -0.34322
0.07728 0.07433 -0.26968
0.11824 0.07433 -0.30513
0.07612 0.07433 -0.29594
0.06609 0.07433 -0.31985
0.07507 0.07433 -0.32401
-0.06009 0.07433 -0.33479
0.04357 0.07433 -0.32116
0.08880 0.07433 -0.34240
0.07797 0.07433 -0.35006
-0.06885 0.07433 -0.33391
0.09151 0.07433 -0.35060
0.03884 0.07433 -0.31709
0.08482 0.07433 -0.33804
0.08465 0.07433 -0.30249
0.06290 0.07433 -0.35070
0.05742 0.07433 -0.30953
0.04286 0.07433 -0.28993
0.07536 0.07433 -0.33427
0.10082 0.07433 -0.37241
0.07812 0.07433 -0.33890
0.04914 0.07433 -0.35369
0.09589 0.07433 -0.33655
0.04257 0.07433 -0.33357
-0.01162 0.07433 -0.31579
0.01128 0.07433 -0.29479
0.03564 0.07433 -0.35678
0.01025 0.07058 -0.02824
0.01289 0.07058 0.01890
0.03855 -0.00051 0.05739
0.04076 -0.01665 0.05583
-0.02484 0.04042 0.38466
-0.02426 0.04990 0.38494
0.09620 0.07433 -0.42889
0.07030 0.07433 -0.44047
0.09219 0.07433 -0.42324
0.10392 0.07433 -0.41036
0.11127 0.06683 -0.17751
0.04748 0.06683 -0.15043
0.01344 0.06683 -0.15722
0.07018 0.06683 -0.14568
0.08638 0.06683 -0.20109
0.10387 0.06683 -0.15229
0.11616 0.06683 -0.22474
-0.00038 0.06683 -0.18742
0.01506 0.06683 -0.20250
0.10620 0.06683 -0.11670
0.02288 0.06683 -0.16320
0.11403 0.06683 -0.13565
-0.03842 0.06683 -0.17310
0.04163 0.06683 -0.20331
0.07807 0.06683 -0.21564
0.04809 0.06683 -0.17332
-0.03936 0.06683 -0.15921
0.11304 0.06683 -0.21871
0.05320 0.06683 -0.14327
0.11721 0.06683 -0.20142
0.04164 0.06683 -0.17480
-0.04666 0.06683 -0.16931
-0.00518 0.06683 -0.14444
0.06427 0.06683 -0.16026
0.06532 0.06683 -0.18714
-0.09473 0.06683 -0.16108
-0.05054 0.07058 0.35226
-0.02785 -0.04869 -0.04789
-0.02273 -0.05716 -0.04977
0.03962 -0.05064 0.37409
0.03447 -0.06270 0.37770
-0.04932 0.07058 -0.33982
-0.02157 -0.07433 0.28924
-0.02613 -0.07433 0.30390
-0.00939 -0.07433 -0.31529
-0.00839 -0.07433 -0.33821
-0.11992 0.07385 -0.33416
0.04289 -0.01752 0.28210
0.03968 0.04427 0.27942
0.04730 0.01008 -0.34771
0.04541 0.02582 -0.35040
0.05318 0.06582 -0.33935
0.04528 0.07058 0.30445
0.02489 -0.02907 0.38348
0.03220 0.01249 -0.25560
-0.02537 -0.07433 -0.27771
-0.02361 -0.07433 -0.27082
-0.02977 -0.07433 0.06395
-0.03186 -0.07433 -0.01302
0.05083 -0.02063 -0.27344
0.05070 -0.05275 -0.27327
-0.03069 0.06683 0.47087
-0.10667 0.06683 0.39350
0.05959 0.07433 0.43561
0.01334 0.07051 -0.05183
0.00847 0.02346 -0.05268
0.01350 -0.00535 -0.05181
-0.00678 -0.07433 0.35830
-0.00428 -0.07433 0.27509
-0.04500 0.03588 -0.03644
-0.04976 -0.03114 -0.03074
-0.05311 -0.05173 -0.02673
0.05328 -0.04244 0.29568
0.05377 -0.06839 0.29638
0.11992 0.07119 0.28936
0.03922 -0.07433 -0.34233
0.01348 0.07433 -0.42060
-0.01456 0.07433 -0.38767
-0.07311 0.07433 -0.38515
0.01387 0.07433 -0.40877
0.01288 0.07433 -0.43491
-0.01644 0.07433 -0.41693
-0.04929 0.07433 -0.41354
-0.04246 0.07433 -0.40830
0.01856 0.07433 -0.45398
0.05874 0.07433 -0.38033
0.02614 0.07433 -0.43517
0.02936 0.07433 -0.38930
-0.03950 0.07433 -0.38225
-0.05760 0.07433 -0.38236
-0.03639 0.07433 -0.42460
-0.02267 0.07433 -0.40274
-0.01443 0.07433 -0.41053
0.02999 0.07433 -0.38111
0.09501 0.07433 -0.39410
0.11992 0.07104 -0.30859
0.03611 -0.03030 0.05911
0.03241 -0.06071 0.06170
0.04535 -0.05521 -0.26688
0.04502 0.00015 -0.26649
-0.00375 -0.06014 -0.05353
-0.01780 -0.06582 -0.05157
-0.03032 0.05647 -0.04699
-0.02161 -0.04247 -0.05018
-0.05242 0.00907 0.28990
-0.05049 0.04293 0.28758
-0.04074 -0.07433 -0.31727
-0.01809 -0.07433 -0.34829
-0.02594 -0.07433 -0.35924
-0.04042 0.05598 0.05809
-0.04487 0.04339 0.05437
0.00066 -0.02195 0.07169
0.00498 0.01015 0.07131
0.00217 0.01834 0.07156
-0.05299 0.01402 -0.02688
-0.05043 0.00425 -0.02993
-0.05454 0.05696 -0.02501
0.01001 0.06503 -0.24659
-0.00121 0.06021 -0.24558
-0.06420 -0.05520 0.32779
-0.06401 -0.01299 0.33000
-0.06375 -0.06492 0.33291
0.05928 0.03745 0.02466
0.05895 0.02147 0.02655
0.05892 -0.02993 0.02668
-0.03301 -0.01643 0.06343
-0.03057 -0.00632 0.06456
-0.04125 0.00331 -0.26005
-0.10591 0.07433 0.41931
-0.06348 0.03637 0.33594
-0.06359 0.04860 0.33466
0.00840 0.03118 -0.37014
0.01260 -0.02917 -0.36941
0.11992 0.06761 -0.37384
-0.07651 0.07433 0.14251
0.00980 0.07433 0.19561
-0.01043 0.07433 0.13512
-0.06385 0.07433 0.13821
-0.04910 0.07433 0.15153
-0.01195 0.07433 0.16245
0.02958 0.07433 0.16724
-0.11462 0.07433 0.16591
-0.05243 0.07433 0.14705
-0.02019 0.07433 0.15711
0.02788 0.07433 0.18374
0.07802 0.07433 0.17086
-0.04015 0.07433 0.13008
-0.04145 0.07433 0.21083
0.04680 0.07433 0.18410
-0.03981 0.07433 0.15091
0.01562 0.07433 0.19884
-0.05394 0.07433 0.18710
-0.09933 0.07433 0.21116
-0.08139 0.07433 0.17680
0.02272 0.07433 0.14357
-0.10735 0.07433 0.21871
0.02425 0.07433 0.17152
-0.06397 0.07433 0.18552
-0.08948 0.07433 0.16888
-0.11878 0.07433 0.22227
-0.09690 0.07433 0.14721
-0.02060 0.07433 0.13906
0.04550 -0.07433 -0.27442
-0.05266 0.07433 -0.47266
0.11992 0.07257 -0.14042
0.04190 0.07058 0.33132
-0.06394 -0.00341 0.01325
-0.06412 -0.03753 0.01131
-0.06404 -0.07131 0.01215
0.11992 0.06889 -0.08110
0.02698 -0.07433 -0.32221
0.11406 0.07390 -0.41223
0.11992 0.07067 -0.21011
0.03137 0.07058 0.37529
-0.03191 -0.07433 0.00935
-0.03246 -0.07433 0.05797
-0.05440 0.06987 -0.34263
-0.05324 -0.03726 -0.34402
-0.05202 0.01919 -0.34548
0.00975 -0.04682 -0.36990
0.00210 -0.04502 -0.37124
0.00968 -0.06219 -0.36992
0.06103 0.02482 0.00609
0.06112 0.04184 0.00704
0.00697 0.07058 -0.36464
0.01253 0.07058 -0.27024
0.01034 0.07058 -0.33154
-0.03789 -0.07382 -0.25725
-0.04495 -0.04411 -0.26315
0.06064 0.02042 0.00169
0.06040 0.03404 -0.00104
-0.06219 -0.05388 -0.00709
-0.06279 -0.02097 -0.00363
0.00772 0.07058 0.27867
0.01213 0.07058 0.27157
0.00752 -0.07433 -0.36386
0.07791 0.07433 0.34761
0.11433 0.07433 0.33689
0.10531 0.07433 0.36700
0.03724 0.07433 0.37701
0.11318 0.07433 0.34159
-0.03403 0.07433 0.36586
-0.06719 0.07433 0.37121
-0.07762 0.07433 0.37585
0.08766 0.07433 0.37943
0.06184 0.07433 0.36685
0.02690 0.07433 0.37617
0.01117 0.07433 0.36238
0.04606 -0.07433 0.36510
0.03942 -0.03415 0.27920
0.03567 -0.05486 0.27607
0.03253 0.00750 0.27344
0.02068 -0.04266 0.26786
0.02724 -0.03243 0.27090
0.05958 0.02319 -0.32347
0.05877 0.03121 -0.32568
0.11992 0.07150 0.18450
-0.04069 0.04862 -0.35729
-0.03223 -0.02216 -0.36324
-0.04252 0.06883 -0.35600
0.05468 0.06191 -0.33685
0.05699 -0.00212 -0.33054
-0.03730 0.07433 0.38207
-0.00257 0.07433 0.46787
0.02921 0.07433 0.44600
-0.07363 0.07433 0.39902
-0.02664 0.07433 0.42467
-0.03096 0.07433 0.40418
0.05779 0.07433 0.39536
-0.05653 0.07433 0.40976
-0.00195 0.07433 0.47534
-0.03533 0.07433 0.39023
-0.01971 0.07433 0.45031
0.00661 0.07433 0.39174
-0.04435 0.07433 0.40953
-0.00661 0.07433 0.39644
-0.00128 0.07433 0.44258
0.00908 0.07433 0.43545
0.08665 0.07433 0.39195
0.03798 0.07433 0.43068
0.03247 0.07433 0.44170
0.04216 0.07433 0.38803
0.02126 0.07433 0.43793
-0.02905 0.07433 0.43226
-0.02197 0.07433 0.38027
-0.03155 0.07433 0.38408
0.04936 0.07433 0.43134
0.11992 0.07309 0.00082
-0.00270 -0.07433 -0.26686
0.00022 -0.07433 -0.28666
-0.02660 0.07058 0.04534
-0.04916 0.07058 -0.32778
-0.06435 0.00583 -0.30875
-0.06419 0.02962 -0.30698
-0.06452 -0.00056 -0.31065
-0.01518 0.06683 0.24483
-0.01363 0.06683 0.23229
-0.00622 0.06683 0.20967
-0.02890 0.06683 0.24012
-0.04404 0.06683 0.22805
0.07228 0.06683 0.21717
0.05157 0.06683 0.25597
0.08342 0.06683 0.21516
0.10410 0.06683 0.19994
-0.10272 0.06683 0.23834
-0.02588 0.06683 0.23101
-0.03590 0.06683 0.24607
0.08892 0.06683 0.22308
0.06200 0.06683 0.19672
0.09020 0.06683 0.25988
-0.01346 0.06683 0.21395
-0.04429 0.06683 0.24879
0.11318 0.06683 0.19932
0.11731 0.06683 0.25844
0.07197 0.06683 0.24366
-0.01614 0.06683 0.22008
0.10354 0.06683 0.21582
0.00168 0.06683 0.21204
-0.03186 0.06683 0.22701
0.11992 0.07281 -0.06713
-0.08998 0.07433 0.33743
0.00173 0.07433 0.31989
-0.08573 0.07433 0.32687
-0.08258 0.07433 0.33123
-0.09636 0.07433 0.34577
-0.07377 0.07433 0.35028
-0.02592 0.07433 0.34735
-0.05225 0.07433 0.36234
0.06787 0.07433 0.33229
0.02526 0.07433 0.32201
-0.09725 0.07433 0.35833
-0.01871 0.07433 0.34793
0.08116 0.07433 0.26738
0.11689 0.07433 0.18917
0.00790 0.07433 0.22479
0.10557 0.07433 0.26259
0.09352 0.07433 0.19377
0.01422 0.07433 0.24573
-0.07955 0.07433 0.23095
0.02735 0.07433 0.21646
0.00325 0.07433 0.21166
-0.02944 0.07433 0.22596
0.02665 0.07433 0.25565
-0.06805 0.07433 0.23270
0.00291 0.07433 0.24193
0.04087 0.07433 0.25052
0.07302 0.07433 0.21480
0.03558 0.07433 0.24932
-0.02674 0.07433 0.21916
0.04071 0.07433 0.19943
0.01569 0.07433 0.23390
0.03200 0.07433 0.20476
-0.00131 0.07433 0.25133
-0.00374 0.07433 0.20828
0.11235 0.07433 0.25418
-0.01412 0.07433 0.20985
0.10806 0.07433 0.21757
0.07551 0.07433 0.25460
0.11577 0.06683 0.13949
0.08529 0.06683 -0.06148
0.06545 0.06683 -0.01254
0.04137 0.06683 0.09391
0.08625 0.06683 0.07043
0.03564 0.06683 -0.00190
0.01395 0.06683 0.12653
0.07005 0.06683 0.11032
0.09179 0.06683 0.12563
0.09817 0.06683 0.10243
-0.01451 0.06683 0.08684
0.01418 0.06683 0.11365
0.04987 0.06683 0.14625
-0.00561 0.06683 0.03667
0.10465 0.06683 -0.07525
0.08452 0.06683 0.02738
0.11597 0.06683 -0.03784
0.10409 0.06683 -0.05871
0.05254 0.06683 0.00545
0.05007 0.06683 0.12971
0.02879 0.06683 0.13858
-0.02837 0.06683 0.07967
0.04067 0.06683 -0.03216
-0.05209 0.06683 0.07759
0.09186 0.06683 0.11345
0.09098 0.06683 0.04591
0.02180 0.06683 0.03016
0.05016 0.06683 0.09649
0.07580 0.06683 0.12969
0.11079 0.06683 0.16034
0.08476 0.06683 0.10076
0.11045 0.06683 0.04512
-0.00564 0.06683 0.00679
0.05537 0.06683 -0.02435
0.07057 0.06683 -0.04721
0.08107 0.06683 0.00330
0.02757 0.06683 0.03554
-0.04284 0.06683 0.10197
0.05929 0.06683 0.10684
0.07313 0.06683 0.07171
0.09460 0.06683 -0.03028
0.09982 0.06683 0.04779
0.07607 0.06683 -0.01538
0.10196 0.06683 0.12391
0.09469 0.06683 0.04908
-0.01961 0.06683 0.02904
0.04506 0.06683 0.10249
0.11800 0.06683 0.16206
0.10863 0.06683 -0.08240
0.05970 0.06683 -0.04050
0.02021 0.06683 0.00349
0.06343 0.06683 0.14169
0.01070 0.06683 0.10426
0.08642 0.06683 -0.04873
0.09193 0.06683 0.14604
0.05703 0.06683 0.11527
-0.05938 0.06683 0.09638
0.00643 0.06683 0.08226
0.06381 0.06683 0.08346
-0.07737 0.06683 0.09600
-0.06780 0.06683 0.06347
0.09062 0.06683 -0.02014
0.06475 0.06683 0.00387
-0.05616 0.06683 0.08969
-0.03239 0.06683 0.10288
0.11358 0.06683 0.15083
0.11992 0.07119 -0.02661
0.10052 0.07433 0.43233
0.08986 0.07433 0.44376
-0.10210 0.06683 0.35182
-0.11876 0.06683 0.32223
-0.10257 0.06683 0.32343
-0.09158 0.06683 0.36596
-0.11325 0.06683 0.36103
0.04769 0.06683 0.33875
0.01783 0.06683 0.34404
-0.09817 0.06683 0.34807
-0.01032 0.06683 0.33385
-0.05429 0.06683 0.34618
0.03842 0.06683 0.33351
0.05530 0.06683 0.33737
-0.05459 0.06683 0.33656
0.04313 0.04113 -0.35259
0.03804 0.03097 -0.35685
0.04334 0.02977 -0.35241
0.03596 0.02981 0.37666
0.03390 0.01024 0.37811
0.02867 -0.02160 0.38178
-0.05786 -0.01576 -0.28031
0.02509 0.05395 0.26990
0.02290 0.06310 0.26889
0.03216 -0.06254 0.27318
-0.04263 0.07433 -0.45642
0.11535 0.07433 -0.26840
-0.07259 0.07433 -0.32980
0.03691 0.07433 -0.30650
-0.04720 0.07433 -0.31516
0.04950 0.07433 -0.34447
-0.03452 0.07433 -0.31247
0.01978 0.07433 -0.31576
0.05139 0.07433 -0.30551
0.05272 0.07433 -0.29867
0.08899 0.07433 -0.33197
0.09850 0.07433 -0.29746
-0.03874 0.07433 -0.33632
-0.00905 0.07433 -0.30549
0.09975 0.07433 -0.25305
-0.08041 0.07433 -0.32941
-0.06364 0.07433 -0.32477
-0.05170 0.07433 -0.33243
0.10604 0.07433 -0.29763
0.01379 0.07433 -0.29060
0.09380 0.07433 -0.26605
0.11684 0.07433 -0.29734
0.08744 0.07433 -0.28116
-0.00195 0.07433 -0.31504
0.06784 0.07433 -0.36573
-0.02258 0.07433 -0.30001
0.09638 0.07433 -0.32060
0.04816 0.07433 -0.31272
0.02259 0.03896 -0.25057
0.01488 0.05223 -0.24775
0.01313 -0.03869 -0.24711
-0.05211 0.06683 0.26484
-0.10366 0.06683 0.26448
-0.01581 0.06683 0.28404
-0.04905 0.06683 0.26899
-0.03319 0.06683 0.29362
-0.04384 0.06683 0.28514
-0.11503 0.06683 0.25235
0.01184 0.06683 0.28993
-0.11235 0.06683 0.28559
-0.10380 0.06683 0.27129
-0.11328 0.06683 0.29382
-0.07855 0.06683 0.30015
-0.02162 0.06683 0.26831
-0.05034 0.06683 0.25620
0.02723 0.06683 0.26935
-0.08555 0.06683 0.29028
0.01992 0.06683 0.46754
0.04509 -0.02566 0.36833
0.04786 -0.04562 0.36501
-0.00935 0.02517 -0.05303
-0.00744 0.05805 -0.05320
-0.00062 -0.00504 -0.05381
0.00625 0.07058 0.26988
0.00693 -0.00520 0.38858
0.01092 0.05314 0.38822
-0.04584 -0.04864 -0.35287
-0.04830 -0.03753 -0.34993
0.01647 0.07058 -0.26370
-0.05905 -0.07433 -0.31180
-0.00607 -0.07433 -0.05090
-0.00361 -0.07433 0.04629
0.01001 0.01737 0.07086
-0.00204 -0.07266 0.07194
-0.11992 0.06930 0.14742
-0.04874 -0.02582 -0.26678
-0.05078 -0.02087 -0.26967
0.11992 0.06858 -0.21910
0.00326 0.07058 0.07003
0.00100 0.07058 0.03596
-0.06176 0.07433 -0.46346
0.03541 -0.05824 -0.35904
-0.00258 0.06683 0.10884
0.08765 0.06683 0.08109
0.04273 0.06683 0.00579
0.02618 0.06683 0.10894
0.01850 0.06683 0.01479
0.11281 0.06683 0.10322
-0.03461 0.06683 0.05411
-0.03349 0.06683 0.04495
0.07975 0.06683 0.05179
0.00955 0.06683 0.09541
-0.05073 0.06683 0.10135
0.07493 0.06683 0.09923
-0.01819 0.06683 0.11282
0.04747 0.06683 0.07288
-0.08487 0.06683 0.09881
0.08383 0.06683 0.12008
0.09298 0.06683 0.08421
-0.07929 0.06683 0.07964
0.02467 0.06683 -0.01987
0.00351 0.06683 0.11852
0.11886 0.06683 0.02415
0.06417 0.06683 0.13689
-0.00505 0.06683 0.11598
0.07402 0.06683 -0.04294
0.05157 0.06683 0.08120
0.11650 0.06683 0.05438
0.00607 0.06683 0.04811
0.04353 0.06683 -0.02794
0.08130 0.06683 0.06713
0.06652 0.06683 0.12995
-0.03093 0.06683 0.08973
0.05507 0.06683 0.05654
0.04201 0.06683 0.05086
-0.09686 0.06683 0.09033
0.00031 0.06683 0.01210
0.09506 0.06683 0.03725
0.10820 0.06683 0.07216
0.05150 0.06683 0.04627
-0.06516 0.06683 0.08690
0.07803 0.06683 -0.06367
0.03747 0.06683 0.07627
0.11032 0.06683 0.05423
0.00990 0.06683 0.11643
-0.09172 0.06683 0.11196
0.01746 0.06683 0.05660
-0.09324 0.06683 0.09637
-0.00512 0.06683 0.09304
-0.03823 0.06683 0.04183
0.00984 0.06683 0.07113
-0.03291 0.06683 0.03791
-0.01455 0.06683 0.12996
0.11300 0.06683 0.01295
0.02160 0.06683 0.13243
-0.05422 -0.07433 -0.31257
-0.00638 -0.06213 -0.24571
-0.01257 -0.02369 -0.24679
0.00018 0.06690 -0.24571
-0.00118 -0.01728 -0.24559
0.00236 0.05635 -0.24590
-0.04899 -0.04444 -0.34911
-0.04469 0.01818 -0.35425
-0.03049 -0.07433 -0.33378
0.05314 -0.07215 -0.02197
0.04893 -0.05662 -0.02794
0.05083 0.01245 -0.02525
-0.02303 0.04589 0.26779
-0.02159 0.05808 0.26726
-0.07150 0.06683 0.44448
-0.09148 0.06683 0.42767
0.05966 -0.07433 -0.29726
-0.04970 -0.07433 0.34264
0.03536 0.00758 -0.35908
0.03230 0.05067 -0.36164
0.03421 0.03925 -0.36005
0.01188 0.06693 0.47968
-0.05884 0.00701 -0.33344
-0.06103 -0.02419 -0.32871
-0.04345 -0.07433 -0.28428
0.01240 0.06898 -0.47968
0.03743 -0.07433 0.31395
0.05675 -0.05976 -0.01375
0.05715 -0.05047 -0.01266
-0.04123 0.03556 -0.03947
-0.03906 -0.06516 -0.04099
0.05910 -0.04332 0.34314
-0.01101 0.02172 -0.24652
-0.01114 0.04056 -0.24654
-0.02869 0.07058 0.34458
-0.06450 0.02873 0.00701
-0.06431 0.00480 0.00920
-0.06439 -0.06193 0.00826
-0.01769 -0.07433 0.32527
-0.01531 -0.07433 0.31918
0.06729 0.06683 0.42747
0.02239 0.03880 0.26865
-0.03744 -0.04618 0.37802
-0.03860 0.00158 0.37706
-0.02548 0.00139 -0.36621
-0.02184 -0.04332 -0.36754
-0.03049 -0.04939 -0.36438
-0.02020 0.07058 0.01510
-0.02391 0.07058 0.02367
-0.01266 -0.07433 0.36533
0.11544 0.06683 0.38567
0.10522 0.06683 0.40298
-0.00982 0.07058 0.30737
-0.00728 0.07058 0.31570
0.01823 0.07058 0.04242
-0.06192 0.06992 0.47010
0.03508 -0.03870 0.27557
0.11992 0.06814 0.23562
-0.00686 0.07058 0.37627
-0.01661 0.07058 0.31698
-0.04465 0.06683 -0.29722
-0.11165 0.06683 -0.27254
-0.09522 0.06683 -0.28855
-0.10525 0.06683 -0.30339
0.01126 0.06683 -0.26129
-0.02688 0.06683 -0.27166
-0.08338 0.06683 -0.29011
0.06452 0.06683 -0.25110
-0.08329 0.06683 -0.31290
-0.05691 0.05119 0.29729
-0.05797 0.01643 0.29958
-0.00035 -0.04271 0.38923
0.01168 0.02663 0.38816
0.05465 -0.01181 -0.33694
0.03902 0.07433 0.46673
0.05214 0.07433 0.46038
0.09910 0.06683 0.40229
-0.06067 0.07433 0.46531
-0.08861 0.07433 0.42106
-0.06085 0.07433 -0.00900
-0.05986 0.07433 -0.08242
0.01451 0.07433 -0.08898
0.00677 0.07433 -0.06404
0.05786 0.07433 -0.06769
-0.00701 0.07433 -0.02584
-0.02766 0.07433 0.01510
-0.04999 0.07433 -0.02532
-0.01730 0.07433 -0.04367
0.04063 0.07433 -0.11697
-0.06433 0.07433 -0.09956
0.02198 0.07433 -0.06770
-0.10980 0.07433 0.05332
0.02555 0.07433 -0.12033
0.02355 0.07433 -0.12703
-0.05214 0.07433 -0.13548
-0.08579 0.07433 0.07499
-0.09225 0.07433 -0.04116
0.04064 0.07433 -0.09338
0.05578 0.07433 -0.08078
-0.04286 0.07433 -0.10356
-0.10734 0.07433 -0.13186
-0.05187 0.07433 -0.08150
-0.10857 0.07433 -0.03356
0.08478 0.07433 -0.11404
0.05272 0.07433 -0.06355
-0.07212 0.07433 -0.10367
-0.08371 0.07433 -0.09465
-0.04622 0.07433 -0.04157
-0.09833 0.07433 0.06222
0.04128 0.07433 -0.05652
0.05249 0.07433 -0.04861
0.03240 0.07433 -0.12120
-0.11849 0.07433 -0.08779
-0.04311 0.07433 -0.06966
-0.10492 0.07433 0.01663
-0.04745 0.07433 -0.11039
-0.01776 0.07433 -0.05395
-0.04507 0.07433 -0.00258
-0.06652 0.07433 -0.07455
-0.09377 0.07433 -0.13585
-0.09095 0.07433 -0.12289
-0.02287 0.07433 -0.08028
-0.02122 0.07433 -0.09498
0.00735 0.07433 -0.05390
-0.11536 0.07433 -0.05467
-0.01080 0.07433 -0.12993
-0.02085 0.07433 -0.00482
-0.04945 0.07433 -0.06252
0.01590 0.07433 -0.02740
-0.11250 0.07433 -0.13776
0.05551 0.07433 -0.08947
0.03661 0.07433 -0.08379
0.03898 0.07433 -0.04296
-0.06879 0.07433 -0.08805
-0.10519 0.07433 0.00652
-0.07354 0.07433 0.04688
-0.10829 0.07433 -0.01731
-0.11194 0.07433 -0.10715
-0.06447 0.07433 -0.00463
-0.08633 0.07433 -0.14971
-0.02783 0.07433 -0.00992
0.10382 0.07433 -0.10853
0.01783 -0.07433 -0.35981
0.01777 -0.07433 -0.25982
0.02913 -0.01336 0.38146
0.03595 0.04747 0.37666
0.02851 0.06521 0.38189
-0.05798 0.00774 0.29959
-0.05660 0.03931 0.29663
0.02469 0.07058 -0.04665
0.08204 0.07433 -0.37432
-0.05301 0.07433 -0.35178
-0.09894 0.07433 -0.36570
0.01907 0.07433 -0.37329
-0.04688 0.07433 -0.37872
-0.09411 0.07433 -0.35989
0.06480 0.07433 -0.37348
-0.08461 0.07433 -0.35517
0.01839 0.07433 -0.36683
-0.10035 0.07433 -0.33154
-0.01340 0.07433 -0.36726
-0.04651 -0.03017 0.28283
0.00929 0.00799 -0.36999
0.00405 0.06625 -0.37090
0.00271 0.07433 0.27109
-0.04185 0.07433 0.28941
-0.08686 0.07433 0.26853
-0.07102 0.07433 0.29838
0.07542 0.07433 0.27219
-0.11814 0.07433 0.25643
0.01888 0.07433 0.27831
-0.10129 0.07433 0.29589
0.08245 0.07433 0.27584
-0.05648 -0.02998 0.03966
-0.05308 -0.05104 0.04450
0.00604 -0.03173 -0.05311
0.00445 0.00929 -0.05338
0.00738 -0.07379 -0.05287
-0.00201 0.07058 0.02924
0.00437 0.07058 0.05471
-0.05034 -0.05203 0.04839
-0.05738 0.06683 -0.42347
0.02323 0.06683 -0.44012
-0.00351 0.06683 -0.44299
-0.07840 0.06683 -0.38213
0.03962 0.06683 -0.38849
-0.01244 0.06683 -0.46625
-0.05647 0.06683 -0.39518
-0.07806 0.06683 -0.39315
0.04792 0.06683 -0.42950
-0.02738 0.06683 -0.41553
-0.01638 0.06683 -0.44616
-0.00081 0.06683 -0.40103
0.01357 0.06683 -0.41651
0.02845 0.06683 -0.44962
-0.08749 0.06683 -0.40576
0.00928 0.06683 -0.40529
-0.01300 0.06683 -0.45568
-0.04656 0.06683 -0.43925
-0.06417 0.06683 -0.39182
-0.04791 0.06683 -0.42879
0.02620 0.06683 -0.46608
0.11519 0.06683 -0.25732
-0.05978 0.06683 -0.31067
0.07645 0.06683 -0.27887
-0.01717 0.06683 -0.29573
-0.09063 0.06683 -0.31870
0.11925 0.06683 -0.31893
0.11104 0.06683 -0.30541
0.07202 0.06683 -0.33867
0.02274 0.06683 -0.33644
-0.09373 0.06683 -0.32538
0.08992 0.06683 -0.30962
0.09099 0.06683 -0.25634
0.05508 0.06683 -0.36226
0.04063 0.06683 -0.33092
0.11400 0.06683 -0.31411
0.09773 0.06683 -0.29336
0.00631 0.06683 -0.30945
0.08081 0.06683 -0.35490
0.07187 0.06683 -0.26927
0.11061 0.06683 -0.33119
0.07554 0.06683 -0.28674
0.06363 0.06683 -0.32374
0.00827 0.06683 -0.33699
0.03529 0.06683 -0.32556
0.04217 0.06683 -0.33780
-0.05542 0.06683 -0.30699
0.11415 0.06683 -0.25231
0.08707 0.06683 -0.35507
0.04349 0.06683 -0.35300
0.05313 -0.06207 0.03995
0.05304 0.00723 0.04015
0.00560 0.05874 0.07125
-0.00170 -0.00018 0.07190
0.06053 -0.06926 0.31793
0.06116 0.01097 0.32495
-0.06034 -0.05030 -0.33020
-0.03803 -0.07433 0.29915
0.05692 -0.04886 0.30415
0.05786 0.00120 0.30673
0.05842 -0.01676 0.30825
-0.04658 -0.07433 -0.33237
0.01995 -0.06740 0.26752
0.01900 -0.00222 0.26708
0.03678 0.01719 0.37608
-0.02369 -0.07433 0.27469
-0.02288 -0.07433 0.28147
-0.02586 0.02416 -0.25070
-0.02617 0.03338 -0.25084
-0.02963 0.02775 -0.25245
0.01426 0.07058 0.06243
-0.00116 -0.01311 0.26369
-0.00811 0.04744 0.26431
-0.00435 0.01950 0.26397
-0.05880 -0.00698 -0.01608
-0.05955 0.04370 -0.01446
0.06118 0.02900 0.32517
0.06096 -0.06258 0.32273
0.06146 0.04251 0.32829
-0.10866 0.07433 -0.34811
0.00634 0.07433 -0.37940
-0.06973 0.07433 -0.35031
-0.07928 0.07433 -0.36695
0.00362 0.07433 -0.36459
0.04780 0.07433 -0.36667
-0.07711 0.07433 -0.33894
-0.08948 0.07433 -0.35679
0.04093 0.07433 -0.36780
-0.03123 0.07433 -0.34789
0.00284 0.07433 0.30009
0.07495 0.07433 0.31044
-0.01785 0.07433 0.29574
0.09083 0.07433 0.29457
0.02652 0.07433 0.30719
-0.03541 0.07433 0.31067
-0.04140 0.07433 0.30891
0.07832 0.07433 0.29419
-0.01298 0.07433 0.31544
0.06135 0.07433 0.29372
0.09246 0.07433 0.28875
0.00990 0.07433 0.31306
0.01956 0.07433 0.29143
-0.11878 0.07146 -0.39131
-0.05370 0.02949 0.36106
-0.05281 0.02009 0.36233
0.04936 -0.07433 0.01731
0.03147 -0.07433 -0.29242
0.03537 -0.07433 -0.30011
-0.00971 -0.07433 -0.03278
-0.00810 -0.07433 -0.04282
-0.02531 -0.07433 0.37066
0.02273 -0.02585 -0.25062
0.01860 -0.05488 -0.24911
0.02430 -0.03395 -0.25119
-0.03104 -0.07433 0.27568
0.03629 0.07058 0.04743
0.03130 0.07058 0.06028
-0.02042 0.07058 -0.34559
-0.02381 0.07058 -0.34940
-0.00640 0.07058 0.06983
-0.01934 0.07058 0.06015
0.01722 0.07433 0.46630
0.08740 0.07433 -0.21952
0.09792 0.07433 -0.15786
0.09143 0.07433 -0.17408
0.10271 0.07433 -0.18198
0.04786 0.07433 -0.21855
0.08495 0.07433 -0.16902
0.02454 0.07433 -0.18826
-0.00802 0.07433 -0.19220
0.01236 0.07433 -0.15871
0.06993 0.07433 -0.13752
0.06209 0.07433 -0.21374
0.05226 0.07433 -0.15827
-0.10559 0.07433 -0.16772
0.03713 0.07433 -0.21406
0.03189 0.07433 -0.19278
-0.02884 0.07433 -0.14706
0.10524 0.07433 -0.12504
0.05314 0.07433 -0.20755
-0.09869 0.07433 -0.16179
0.00727 0.07433 -0.19281
0.04742 0.07433 -0.13065
0.04882 0.07433 -0.14833
0.10945 0.07433 -0.21416
0.11298 0.07433 -0.22941
0.08893 0.07433 -0.14804
0.09362 0.07433 -0.11889
0.04105 0.07433 -0.13964
0.03039 0.07433 -0.15260
-0.03658 0.07058 -0.29976
-0.03583 0.07058 -0.30928
-0.06101 0.00972 0.34597
-0.06044 -0.07224 0.34751
-0.09687 0.07003 -0.44283
-0.09755 0.06683 -0.43510
-0.06249 -0.02786 -0.32281
0.01087 -0.07433 0.31559
0.07680 0.06683 -0.08806
-0.10536 0.06683 -0.08466
-0.10651 0.06683 -0.04962
-0.07189 0.06683 -0.05624
0.03314 0.06683 -0.04863
-0.11118 0.06683 0.05144
-0.00886 0.06683 -0.11488
-0.02001 0.06683 -0.03470
-0.11021 0.06683 -0.01076
-0.01984 0.06683 -0.06021
-0.05033 0.06683 -0.10066
-0.07754 0.06683 -0.10275
-0.10615 0.06683 -0.14497
-0.04624 0.06683 -0.14225
-0.08371 0.06683 -0.03311
-0.11422 0.06683 -0.15663
-0.01292 0.06683 -0.07135
-0.01513 0.06683 0.01123
-0.05684 0.06683 0.00879
0.01617 0.06683 -0.12658
0.00091 0.06683 -0.04251
-0.06414 0.06683 0.05379
-0.09046 0.06683 -0.11693
-0.02351 0.06683 -0.04860
-0.02411 0.06683 -0.04292
-0.01812 0.06683 -0.12752
-0.04149 0.06683 -0.01346
-0.10109 0.06683 -0.03106
-0.09800 0.06683 0.00221
0.01294 0.06683 -0.02357
-0.09543 0.06683 -0.14768
-0.09357 0.06683 -0.00913
-0.07655 0.06683 -0.03067
-0.11947 0.06683 0.10187
-0.10502 0.06683 -0.00274
-0.03095 0.06683 -0.06190
-0.03193 0.06683 -0.03600
-0.04338 0.06683 -0.03339
-0.11327 0.06683 0.09723
-0.09762 0.06683 -0.04075
-0.11741 0.06683 0.04387
0.09848 0.06683 -0.09715
0.00071 0.06683 -0.00926
-0.10509 0.06683 -0.06509
-0.02761 0.06683 -0.03127
-0.04024 0.06683 -0.10499
0.09833 0.06683 -0.11174
-0.01465 0.06683 -0.04705
0.08987 0.06683 -0.11323
-0.05273 0.06683 -0.13414
-0.07522 0.06683 0.02120
-0.10605 0.06683 -0.13089
0.04984 0.07058 -0.00008
0.00662 -0.00760 -0.37045
0.00147 0.00253 -0.37135
0.10285 0.07433 0.40846
0.09630 0.07433 0.40338
0.02393 0.07433 -0.11286
-0.00845 0.07433 -0.10973
-0.02534 0.07433 -0.12315
-0.02048 0.07433 -0.13634
0.00813 0.07433 -0.03258
-0.10808 0.07433 0.05812
0.06523 0.07433 -0.06541
-0.10757 0.07433 -0.00185
0.03885 0.07433 -0.07206
-0.08729 0.07433 0.01290
-0.01146 0.07433 -0.06767
-0.11354 0.07433 -0.02806
-0.03869 0.07433 0.00915
0.00426 0.07433 -0.08743
-0.05286 0.07433 -0.04613
-0.09827 0.07433 -0.04989
-0.03615 0.07433 -0.07278
-0.00199 0.07433 -0.04523
-0.05475 0.07433 0.00785
-0.11238 0.07433 0.07388
-0.08330 0.07433 -0.03009
-0.11054 0.07433 0.04644
-0.04641 0.07433 0.01605
-0.06661 0.07433 -0.08145
0.04323 0.07433 -0.08296
-0.10326 0.07433 -0.09435
-0.08685 0.07433 0.05961
-0.09440 0.07433 -0.10310
-0.00529 0.07433 -0.01364
-0.07915 0.07433 0.06649
-0.06684 0.07433 0.03834
-0.06208 0.07433 -0.11538
-0.05231 0.07433 -0.09181
0.03664 0.07433 -0.09072
-0.00248 0.07433 -0.03243
-0.07296 0.07433 -0.14647
-0.11706 0.07433 -0.09998
-0.11765 0.07433 -0.04423
-0.05643 0.07433 -0.04247
-0.06489 0.07433 -0.04011
-0.09403 0.07433 -0.06481
-0.09626 0.07433 0.07904
-0.10833 0.07433 -0.15907
-0.11718 0.07433 -0.07014
-0.06208 0.07433 -0.12266
0.01276 0.07433 -0.09349
0.00371 0.07433 -0.11795
-0.04931 0.07433 -0.01435
0.02386 0.06915 -0.36556
0.02561 0.02728 -0.36474
0.02552 0.01862 -0.36479
0.04839 0.07058 0.03003
0.00925 0.06034 -0.05255
0.01323 -0.03542 -0.05185
-0.10771 0.07433 -0.39446
-0.08353 0.07433 -0.43240
-0.05627 0.07433 -0.44797
-0.07347 0.07433 -0.42887
0.03304 -0.07433 -0.03730
0.05122 0.07058 -0.30877
-0.06310 -0.05109 0.31556
-0.06290 -0.07152 0.31442
0.03160 0.01321 -0.36197
0.11992 0.06989 0.25024
0.02904 -0.07433 0.37420
0.03322 -0.07433 0.32781
0.01478 -0.07433 0.34167
0.02081 -0.07433 0.31174
-0.05377 -0.07089 -0.27393
-0.05149 -0.03208 -0.27068
-0.11992 0.06861 0.34082
0.11992 0.06740 0.06411
-0.00797 0.05794 -0.24599
0.05686 0.06105 0.30399
0.05771 0.03388 0.30632
-0.04599 0.00713 -0.03525
-0.04620 -0.04689 -0.03500
-0.04987 -0.05129 -0.03061
-0.01588 -0.04010 -0.24737
-0.00978 -0.03574 -0.24630
-0.11603 0.06683 0.40054
-0.00776 -0.07433 -0.36488
-0.00533 -0.07433 -0.29274
-0.06636 0.06683 -0.42668
-0.11992 0.07320 -0.31205
0.05895 -0.04269 0.02653
0.06076 -0.04633 0.01616
0.00592 -0.02600 0.07122
0.00605 -0.03860 0.07121
0.01100 -0.02204 0.07077
-0.05383 -0.07433 -0.00798
-0.05229 0.03225 0.28974
-0.05110 0.02511 0.28832
0.03533 -0.07433 0.05247
-0.04761 -0.06796 0.05208
-0.04036 0.01423 0.05814
-0.00410 0.07058 -0.03578
-0.02322 0.00548 0.38542
-0.02269 0.02413 0.38566
-0.02606 -0.05880 0.38410
0.01602 0.06165 0.06928
0.02106 0.03744 0.06744
0.01390 -0.02685 0.07006
0.04556 0.03447 -0.35019
-0.02255 0.01822 -0.24916
0.05007 -0.07433 0.33586
0.03101 0.07433 -0.45442
0.00517 0.07058 -0.25962
0.00433 0.07058 -0.30561
0.03889 0.07058 0.28616
-0.05052 0.06683 -0.45833
-0.05892 0.06683 -0.46050
-0.08071 0.06683 -0.41929
-0.09703 0.06683 -0.41827
-0.04400 0.07433 0.07968
-0.04565 0.07433 0.07219
0.02190 0.07433 0.00535
0.10118 0.07433 -0.00212
0.11389 0.07433 0.11296
0.07759 0.07433 -0.05136
0.04241 0.07433 0.07037
0.09717 0.07433 0.10708
0.01955 0.07433 0.03664
0.03139 0.07433 0.01249
0.06012 0.07433 0.06117
0.04011 0.07433 0.13252
0.10211 0.07433 -0.07712
0.07202 0.07433 0.01565
-0.11133 0.07433 0.10437
0.11113 0.07433 -0.08864
0.10894 0.07433 0.01321
-0.06735 0.07433 0.08169
0.09717 0.07433 -0.07449
0.09138 0.07433 -0.03349
-0.02551 0.07433 0.08958
0.02738 0.07433 -0.01797
0.08052 0.07433 0.09220
0.07614 0.07433 -0.01516
