-0.01123 0.06184 0.37542
0.14791 0.06184 0.41998
0.07709 0.06184 0.41360
-0.03605 0.06184 0.27942
0.04535 0.06184 0.36407
0.10536 0.06184 0.41153
0.19292 0.08962 0.39502
-0.16248 -0.14434 0.16829
-0.16248 -0.13954 -0.03427
-0.16248 -0.15229 0.29061
-0.16248 -0.14950 0.26729
-0.16248 -0.13761 0.34267
-0.01121 0.14513 -0.21405
-0.10279 -0.12991 0.23886
-0.04377 -0.12991 -0.05904
-0.09645 -0.12991 0.26084
-0.04565 -0.12991 -0.28481
-0.04115 -0.12991 0.04876
-0.10050 -0.12991 0.16784
-0.08404 -0.12991 0.13178
-0.04784 -0.12991 -0.18679
-0.04500 -0.12991 -0.26531
-0.05392 -0.12991 0.26170
-0.05120 -0.12991 0.15775
-0.05367 -0.12991 -0.07937
-0.07205 -0.12991 0.25304
-0.05466 -0.12991 -0.21052
-0.05689 -0.12991 0.00948
-0.05427 -0.12991 0.05195
-0.05965 -0.12991 0.25416
-0.06163 -0.12991 -0.02479
-0.09841 -0.12991 0.10949
-0.06719 -0.12991 -0.13838
-0.13475 -0.12991 0.32432
-0.04218 -0.12991 -0.12086
-0.04607 -0.12991 -0.09768
-0.03468 -0.12991 -0.25401
-0.10191 -0.12991 0.05057
-0.04831 -0.12991 0.14174
-0.03022 -0.12991 -0.31768
-0.11072 -0.12991 0.10470
-0.04373 0.13784 -0.20155
-0.03203 0.10709 -0.13680
-0.10767 0.10880 -0.14023
-0.05655 0.11792 -0.15847
-0.12409 0.06184 0.21044
-0.04816 0.11609 -0.12544
-0.06948 0.14063 -0.17587
-0.14263 0.14500 -0.18462
-0.02652 0.12920 -0.15302
-0.16248 0.07533 -0.04811
-0.16248 0.07356 0.14934
-0.16248 0.08601 -0.18659
-0.16248 0.08488 0.04481
-0.16248 0.07436 -0.34143
-0.16248 0.07516 -0.27525
-0.16248 0.07436 0.05487
-0.16664 -0.15652 0.18829
-0.16314 -0.15652 -0.33765
0.16650 0.06507 0.27316
0.19053 0.11429 0.39502
0.15945 -0.13446 0.28156
-0.08130 0.10180 0.11118
-0.12952 0.15422 0.40606
-0.07167 0.15422 0.35210
-0.08999 0.15422 0.33286
-0.17058 0.15422 0.37906
-0.04068 0.15422 0.40629
-0.10949 0.15422 0.37581
-0.05724 0.15422 0.36535
-0.07617 0.15422 0.33617
-0.10705 0.15422 0.32448
-0.04676 0.15422 0.40666
-0.16131 0.12792 0.13651
-0.14973 0.12667 0.13401
-0.03683 0.14301 0.16670
-0.16248 0.12090 -0.17955
-0.16248 0.11946 -0.22678
-0.09508 0.14471 0.08574
0.03313 0.06985 0.42227
-0.05003 0.14022 0.25978
-0.15508 0.14022 0.40998
-0.04771 0.14022 0.36947
-0.06966 0.14022 0.36921
-0.03882 0.14022 0.24322
-0.05830 0.14022 0.27224
-0.01319 0.14022 0.32465
-0.06732 0.14022 0.28171
-0.07717 0.14022 0.35356
-0.11105 0.14022 0.33537
-0.02334 0.14022 0.27448
0.20730 -0.10553 0.28972
0.20730 -0.07971 0.26970
0.20730 -0.12099 0.30355
0.20730 -0.12545 0.36771
-0.16248 -0.01033 0.39755
-0.03922 -0.13483 0.19407
-0.03922 -0.13977 0.11901
-0.03922 -0.13449 -0.11386
-0.03922 -0.14515 0.03147
0.18998 -0.13412 0.32156
-0.17088 0.07771 -0.32761
-0.18589 0.01860 0.21673
0.04365 0.00431 0.39502
-0.08810 0.04757 0.39502
-0.06240 0.03221 0.39502
-0.15006 -0.04630 0.39502
-0.10526 0.05099 0.39502
0.06179 0.00281 0.39502
-0.11581 -0.04883 0.39502
-0.03846 0.03859 0.39502
0.06698 0.01770 0.39502
-0.12328 -0.04913 0.39502
0.05064 0.04632 0.39502
0.04794 0.03630 0.39502
-0.05086 0.02755 0.39502
0.10033 0.04805 0.39502
-0.12956 0.05746 0.39502
-0.11836 -0.07298 0.39502
-0.09121 0.05585 0.39502
0.07732 0.06053 0.39502
-0.06362 0.00417 0.39502
-0.16248 -0.05242 -0.41262
-0.09822 -0.15006 -0.41316
-0.17088 0.09173 0.11948
-0.17088 0.07371 0.28659
-0.17088 0.07722 -0.04784
-0.17088 0.07261 0.15203
-0.17088 0.08972 -0.05637
-0.17088 0.08514 0.13766
-0.17088 0.09226 0.10458
0.01002 -0.11194 0.39921
0.07771 -0.11316 0.39921
-0.05876 -0.00169 0.39921
0.13504 -0.11980 0.39921
-0.00676 -0.06443 0.39921
0.00400 -0.10608 0.39921
-0.05056 0.00347 0.39921
0.05532 -0.06488 0.39921
-0.11028 -0.09707 0.39921
-0.04069 -0.11292 0.39921
-0.04345 -0.09659 0.39921
-0.07471 -0.07931 0.39921
-0.04907 -0.11750 0.39921
-0.10701 -0.03874 0.39921
-0.03253 -0.08063 0.39921
0.01542 -0.04878 0.39921
-0.12435 -0.05767 0.39921
-0.07970 -0.10703 0.39921
-0.01465 -0.11223 0.39921
0.18489 -0.15504 0.38348
-0.17088 0.12693 -0.30397
-0.17088 0.12284 -0.17505
0.12607 -0.09462 0.41322
-0.06113 -0.01588 0.41322
-0.01586 -0.02051 0.41322
0.01544 -0.04466 0.41322
-0.03436 -0.00731 0.41322
-0.02648 0.12304 -0.41316
-0.17088 0.10111 0.28853
-0.17088 0.11250 0.33259
-0.17088 0.12150 0.34551
-0.17088 0.10046 0.25588
-0.17088 0.10030 0.15342
-0.17088 0.13408 0.35481
-0.06558 0.13368 0.17614
0.19198 -0.13294 0.39502
-0.04778 0.12483 0.15835
-0.03850 0.11766 0.14402
-0.05279 0.14022 -0.42185
-0.09643 0.14022 -0.37556
-0.16286 0.14022 -0.28978
-0.06239 0.14022 -0.40654
-0.12221 0.14022 -0.29833
-0.08795 0.14022 -0.38142
-0.16711 0.14022 -0.40985
-0.12723 0.14022 -0.35598
-0.17728 0.14022 -0.32003
-0.16386 0.14022 -0.27171
-0.09996 0.14022 -0.39461
0.18489 0.05219 0.35537
0.18489 -0.09230 0.39358
0.18489 -0.06526 0.30033
0.18489 -0.02715 0.37023
0.18489 0.03965 0.36179
0.18489 -0.01971 0.37603
0.18489 -0.12394 0.32307
0.18489 -0.05371 0.37696
0.18489 0.01529 0.37614
0.18489 -0.07541 0.33164
-0.13921 0.06379 -0.42717
-0.16248 -0.13227 0.03872
0.03587 -0.15384 0.39081
0.09993 -0.14200 0.39081
-0.10201 -0.15451 0.39081
-0.04332 -0.15652 -0.19162
-0.04366 -0.15652 -0.33871
-0.17928 0.10655 -0.06375
-0.17088 0.13716 0.22541
-0.07080 -0.13412 0.40063
0.18882 -0.13412 0.40459
0.19329 -0.03229 0.31047
0.19329 -0.05747 0.28003
0.19329 0.04059 0.27262
0.19329 -0.10649 0.30094
0.19329 0.00286 0.32268
0.19329 -0.05632 0.30794
0.19329 -0.02930 0.32358
0.19329 -0.12427 0.31690
0.19329 -0.08688 0.26258
0.19329 -0.10319 0.29286
0.19329 -0.07059 0.30945
-0.02235 0.11220 -0.07501
-0.01996 0.11220 0.00836
-0.03652 0.11220 -0.06933
-0.05652 0.11220 0.02257
-0.03039 0.11220 0.03669
-0.07529 0.11220 -0.07663
-0.06408 0.11220 -0.07141
-0.01256 0.11220 -0.07414
-0.17928 0.14050 0.21789
-0.05914 0.12865 0.13797
-0.09515 0.13316 0.14699
-0.13680 0.12510 0.13088
-0.15088 0.09942 0.10250
0.14656 -0.12359 0.39922
0.00357 -0.11272 0.39922
-0.05183 -0.04120 0.39922
0.14907 -0.11179 0.39922
-0.05000 -0.10352 0.39922
-0.05033 -0.08829 0.39922
-0.03720 -0.07790 0.39922
-0.06771 -0.01602 0.39922
-0.15363 -0.01462 0.39922
-0.07205 -0.12136 0.39922
-0.14783 0.01428 0.39922
-0.11137 -0.05167 0.39922
-0.11486 -0.06878 0.39922
-0.12233 0.01439 0.39922
-0.02842 -0.09642 0.39922
-0.08521 -0.01195 0.39922
0.14111 0.14837 0.24515
-0.02428 0.14850 0.17794
-0.17088 -0.15042 -0.12587
-0.17088 -0.14435 0.32542
-0.17088 -0.14770 0.15602
-0.17088 -0.14677 0.34385
-0.17088 -0.13767 0.31762
-0.17088 -0.13689 0.30085
0.00101 0.06184 0.32355
0.08253 0.06184 0.37031
0.18341 0.06184 0.41380
0.04768 0.06184 0.40712
-0.00234 0.06184 0.40356
-0.02157 0.06184 0.29821
0.00399 0.06184 0.37541
0.08316 0.06184 0.40806
-0.16631 0.02691 -0.41316
-0.16248 0.08000 0.20740
-0.16248 0.07914 -0.00726
-0.16248 0.07355 -0.13119
-0.16248 0.07650 -0.32032
-0.16248 0.07480 0.27237
-0.16248 0.07826 -0.23385
0.14760 -0.07940 0.39922
0.03436 0.07024 0.39873
-0.14820 0.07210 0.39922
-0.03181 0.10413 0.39922
-0.07159 0.11237 0.39922
-0.05067 0.11633 0.39922
-0.10357 0.12605 0.39922
0.03530 0.08799 0.39922
0.06650 0.07385 0.39922
-0.03331 0.09910 -0.11468
-0.07872 0.14782 0.41323
-0.15716 0.07024 0.06115
-0.17928 0.14512 -0.37358
-0.16426 0.14022 0.34864
-0.15346 0.14022 0.27784
-0.17558 0.14022 0.26620
-0.15310 0.14022 0.26680
-0.17175 0.14022 0.33357
-0.13293 0.14022 0.25615
-0.10763 0.14022 0.32038
-0.08926 0.14022 0.27588
-0.08321 0.14022 0.28331
-0.17486 0.14022 0.40201
-0.17928 0.10049 0.02234
0.20665 0.06631 0.37896
-0.07537 0.10634 0.12137
-0.01989 0.10675 0.12218
-0.08734 0.11343 0.13554
0.18350 0.07024 0.42616
-0.13445 -0.13412 0.40638
-0.09481 -0.12991 0.20002
-0.04924 -0.12991 -0.00344
-0.08989 -0.12991 0.10969
-0.08303 -0.12991 0.06387
-0.03583 -0.12991 -0.14036
-0.07484 -0.12991 -0.03890
-0.10865 -0.12991 0.18385
-0.11501 -0.12991 0.15910
-0.05980 -0.12991 0.27860
-0.03301 -0.12991 0.22008
-0.04350 -0.12991 0.10084
-0.14967 -0.12991 0.36441
-0.05059 -0.12991 -0.03594
-0.04125 -0.12991 0.25352
-0.04748 -0.12991 -0.12374
-0.06226 -0.12991 -0.06346
-0.04037 -0.12991 0.18471
-0.03539 -0.12991 0.19276
-0.03415 -0.12991 -0.17880
-0.08296 -0.12991 -0.03430
-0.04588 -0.12991 0.19285
-0.06783 -0.12991 0.22788
-0.02712 -0.12991 -0.39527
-0.03757 -0.12991 0.09882
-0.07143 -0.12991 -0.11545
-0.06569 -0.12991 0.03519
-0.05754 -0.12991 -0.19345
-0.17088 0.00726 0.21417
-0.18040 0.03396 0.28959
-0.17334 0.14022 0.22089
-0.03684 0.14022 0.23293
-0.04436 0.14022 0.22538
-0.11126 0.14022 0.21927
-0.12996 0.14022 0.28279
-0.14341 0.14022 0.35917
-0.09030 0.14022 0.23729
-0.13008 0.14022 0.29577
-0.14710 0.14022 0.22544
0.12419 -0.04911 0.41322
0.02857 -0.14431 0.39081
0.16727 -0.13765 0.39081
0.02988 -0.13412 0.39758
-0.10315 -0.14614 0.39081
0.13897 -0.13427 0.39081
-0.02051 -0.13478 0.39081
-0.17928 0.10234 -0.08922
-0.16610 0.07018 -0.27814
-0.16401 0.07018 0.15679
-0.00050 -0.13412 0.33380
0.01986 -0.13412 0.38606
-0.04895 -0.13412 0.29911
-0.02515 -0.13412 0.37986
0.02609 -0.13412 0.35497
0.07572 -0.13412 0.37084
0.09621 -0.13412 0.36580
0.05647 -0.13412 0.33401
-0.06191 -0.13412 0.31718
0.07038 -0.13412 0.36609
-0.07100 -0.13412 0.36666
0.06416 -0.13412 0.33761
0.00289 -0.13412 0.30687
0.08858 -0.13412 0.34139
-0.08741 0.15373 -0.06239
-0.10870 0.15373 0.03442
-0.12752 0.15373 0.09358
-0.08827 0.15373 -0.12616
-0.10567 0.15373 0.12285
-0.09958 0.15373 -0.04848
-0.07809 0.13290 -0.18843
-0.05267 0.00675 -0.40896
-0.09223 -0.03440 -0.40896
-0.06855 -0.06182 -0.40896
-0.10633 0.03538 -0.40896
-0.12967 0.05289 -0.40896
-0.09488 -0.02247 -0.40896
-0.14458 0.06043 -0.40896
-0.17088 0.00628 0.19542
-0.01121 0.14889 0.31519
0.19329 -0.10975 0.31052
0.19329 0.09833 0.26171
0.19329 -0.12432 0.35740
0.19329 -0.10978 0.35572
0.19329 -0.10265 0.37415
0.19329 -0.05160 0.27278
0.19329 -0.10356 0.27010
0.19329 0.09529 0.26768
0.19329 -0.11834 0.38328
-0.16248 -0.14310 -0.26537
-0.16248 -0.15582 -0.39276
-0.16248 -0.14951 0.12687
-0.16248 -0.15243 -0.39851
-0.16248 -0.14664 -0.00469
-0.16273 -0.15652 -0.12645
-0.16394 -0.15652 0.05427
0.10115 -0.01151 0.41322
0.16398 0.14022 0.32618
0.05319 0.14022 0.37586
0.18035 0.14022 0.33970
0.03779 0.14022 0.39174
0.18437 0.14022 0.28774
0.20423 0.14022 0.27550
0.12314 0.14022 0.32230
0.17777 0.14022 0.27429
0.15597 0.14022 0.40242
0.19129 0.14022 0.26622
0.03001 0.14022 0.38355
0.18568 -0.04112 0.39502
-0.03922 0.06196 -0.04893
-0.03922 0.06225 -0.09103
-0.17088 -0.10630 0.26356
-0.17088 -0.10350 0.15729
-0.17088 -0.09109 0.03279
-0.17088 -0.08330 0.09427
-0.17088 -0.09954 0.16944
-0.17088 -0.10647 0.25216
-0.17088 -0.07476 0.00076
-0.17088 -0.07981 0.00513
-0.17088 -0.09312 0.01461
-0.17088 -0.07471 -0.12695
-0.17088 -0.06360 -0.19625
-0.18589 -0.01955 0.12728
-0.12384 0.10034 0.10644
-0.05545 0.14022 -0.36019
-0.05900 0.14022 -0.23595
-0.04131 0.14022 -0.32142
-0.14136 0.14022 -0.24713
-0.01627 0.14022 -0.28762
-0.05073 0.14022 -0.24149
-0.05591 0.14022 -0.33865
-0.09804 0.14022 -0.30246
-0.10356 0.14022 -0.24581
-0.02514 0.14022 -0.29664
-0.17088 0.13294 0.17685
-0.15224 -0.13412 -0.40546
-0.14009 0.15373 -0.00394
-0.11192 0.15373 -0.10820
-0.15806 0.15373 -0.12101
-0.11311 0.15373 -0.13441
-0.11312 0.15373 -0.07740
-0.14941 0.15373 -0.09365
-0.16088 0.15373 -0.07834
-0.06408 -0.12991 0.32589
0.03590 -0.12991 0.27877
0.15135 -0.12991 0.26995
-0.11353 -0.12991 0.36105
0.05720 -0.12991 0.30135
-0.07754 -0.12991 0.33772
0.09773 -0.12991 0.26216
-0.03922 -0.13485 -0.32192
-0.03922 -0.13669 -0.30663
-0.03922 -0.14666 0.10430
-0.03922 -0.13850 0.09650
-0.04615 -0.13412 0.28052
0.18826 0.07808 0.39502
-0.18589 -0.03387 0.30436
-0.18589 -0.12474 -0.19555
-0.18589 -0.05594 0.09099
-0.18589 -0.12315 0.35321
-0.18589 -0.03738 0.07629
-0.18589 -0.09999 0.01629
-0.18589 -0.05110 0.29145
-0.18589 -0.02396 0.29893
-0.18589 -0.10282 0.00928
-0.18589 -0.12861 -0.28399
-0.18589 -0.12930 0.14730
-0.18589 -0.12364 -0.35100
-0.18589 -0.02000 0.27039
-0.18589 -0.08830 0.05112
-0.18589 -0.04649 0.07658
-0.18589 -0.09602 -0.22051
-0.18589 -0.05709 0.35213
-0.18589 -0.11010 0.28207
-0.18589 -0.10017 0.24556
-0.18589 -0.13110 0.07826
-0.18589 -0.04047 0.25720
-0.18589 -0.05572 0.29707
-0.18589 -0.03806 0.34522
-0.18589 -0.13187 0.00121
-0.18589 -0.11409 0.30738
-0.18589 -0.08685 0.39414
-0.18589 -0.05653 0.32351
-0.18589 -0.04590 0.22562
-0.18589 -0.05915 0.11993
-0.18589 -0.06407 0.16338
-0.18589 -0.08949 0.38647
-0.18589 -0.12289 -0.17832
-0.18589 -0.11738 -0.19187
-0.18589 -0.08899 0.06139
-0.18589 0.00394 0.37406
-0.18589 -0.10534 0.11607
-0.18589 -0.06012 0.19757
-0.18589 -0.04581 0.29917
-0.18589 -0.07720 0.16717
-0.18589 -0.08920 -0.00570
-0.18589 -0.09096 -0.01579
-0.18589 -0.11896 0.17622
-0.16564 0.14008 0.25948
0.14898 -0.13412 0.40850
0.05350 -0.13412 0.40247
-0.16584 -0.15652 0.39633
0.01141 0.14022 0.26716
0.01900 0.14022 0.30570
-0.00134 0.14022 0.27227
0.00002 0.14022 0.33107
0.02380 0.14022 0.32177
0.11183 0.14022 0.29476
0.06076 0.14022 0.28592
0.09243 0.14022 0.31649
0.10188 0.14022 0.29226
0.03495 0.14022 0.26393
0.08545 0.14022 0.30896
-0.00214 0.14022 0.34347
-0.09669 0.14309 -0.42717
0.17694 0.07285 0.39502
0.10808 0.11704 0.39502
0.12826 0.11316 0.39502
0.02094 0.09654 0.39502
0.18443 0.09257 0.39502
0.17648 -0.14980 0.34184
0.20229 -0.13412 0.31596
0.03126 -0.13412 0.28117
-0.17088 -0.05088 -0.05465
0.04560 -0.03200 0.41322
-0.17078 0.15358 0.11331
-0.17448 -0.10580 -0.42723
-0.17088 0.09671 0.11227
-0.09211 0.15422 -0.30001
-0.17356 0.15422 -0.39641
-0.12939 0.15422 -0.26769
-0.17608 0.15422 -0.34954
-0.15607 0.15422 -0.29878
-0.17068 0.15422 -0.35578
-0.15438 0.15422 -0.34424
-0.07775 0.15422 -0.22018
-0.13434 0.15422 -0.36051
-0.12835 0.15422 -0.27458
-0.12090 0.15422 -0.27871
-0.04323 0.13943 0.19521
-0.17088 -0.09866 0.40660
-0.16991 0.07024 -0.31618
-0.17800 0.07024 -0.38890
-0.16125 0.07024 -0.20086
-0.11333 0.07024 -0.42667
-0.11538 0.07024 -0.33741
-0.07598 0.07024 -0.38680
-0.06073 0.07024 -0.41451
-0.12935 0.07024 -0.27755
-0.16980 0.07024 -0.41026
-0.16451 0.07024 -0.24075
-0.15840 0.07024 -0.39744
-0.06816 0.10212 -0.12602
-0.14678 -0.12991 -0.38235
-0.15708 -0.12991 0.35344
-0.15531 -0.12991 -0.39948
-0.15243 -0.12991 -0.23824
-0.12507 -0.12991 -0.39707
-0.05600 -0.12991 -0.39929
-0.15744 -0.12991 -0.35211
-0.09583 -0.12991 -0.09743
-0.14067 -0.12991 0.13858
-0.13055 -0.12991 -0.27995
-0.08113 -0.12991 -0.26948
-0.16058 -0.12991 -0.38448
-0.15953 -0.12991 0.24085
-0.15258 -0.12991 0.28410
-0.15618 -0.12991 0.26647
-0.03877 -0.12991 -0.33359
-0.15460 -0.12991 -0.25271
-0.11892 -0.12991 0.06358
-0.14215 -0.12991 0.00118
-0.07024 -0.12991 -0.35051
-0.14441 -0.12991 -0.18775
-0.15077 -0.12991 -0.10368
-0.13944 -0.12991 -0.21366
-0.11680 -0.12991 -0.24282
-0.05764 -0.12991 -0.30584
-0.08586 -0.12991 -0.16218
-0.10530 -0.12991 -0.23516
-0.15132 -0.12991 0.22214
-0.09586 -0.12991 -0.30375
-0.09518 0.11598 -0.12512
-0.16299 0.08568 -0.41316
0.17709 -0.15652 0.29304
-0.00277 0.15422 0.40756
0.12016 0.15422 0.35738
0.07934 0.15422 0.35949
0.01640 0.15422 0.38682
0.06601 0.15422 0.39647
0.13150 0.15422 0.39522
0.02190 0.15422 0.36557
-0.00697 0.15422 0.29408
0.11731 0.15422 0.40407
0.04187 0.15422 0.29883
0.11809 0.15422 0.36832
0.00507 -0.14265 0.27316
-0.03189 -0.14679 0.27316
-0.05692 -0.08581 -0.42717
-0.05500 -0.05218 -0.42717
-0.03463 -0.09499 -0.42717
-0.10223 -0.08089 -0.42717
-0.04776 0.14022 0.32004
-0.08696 0.14022 0.32940
-0.04044 0.14022 0.25294
-0.04278 0.14022 0.31428
-0.01535 0.14022 0.37526
-0.02404 0.14022 0.34448
-0.16641 0.14022 0.40346
-0.10442 0.14022 0.33833
-0.05264 0.14022 0.33644
-0.02055 0.14022 0.35742
-0.16107 0.14022 0.39311
-0.17088 -0.07196 -0.00493
-0.17088 -0.06035 -0.28753
-0.17088 -0.08822 0.04951
-0.17088 -0.09146 0.06375
-0.17088 -0.07489 -0.02018
-0.17088 -0.05522 -0.25682
-0.17088 -0.06488 -0.22856
-0.17088 -0.08293 -0.03183
-0.06517 -0.13871 0.39921
0.16312 -0.13850 0.39921
0.00254 -0.13956 0.39921
0.06172 -0.15652 0.39383
-0.16578 0.13709 0.18502
0.04594 -0.12641 0.41322
0.03908 -0.07680 0.41322
-0.07393 -0.08694 0.41322
-0.14764 -0.04018 0.41322
0.00079 -0.12629 0.41322
-0.09399 -0.10008 0.41322
-0.03810 -0.06197 0.41322
-0.11190 -0.09549 0.41322
-0.03140 -0.13260 0.41322
0.05807 -0.09845 0.41322
0.18664 -0.13326 0.41322
-0.02357 -0.04319 0.41322
0.04626 -0.11056 0.41322
-0.07559 -0.05114 0.41322
0.05550 -0.12272 0.41322
-0.14003 -0.03738 0.41322
-0.07843 -0.10700 0.41322
0.00541 -0.14309 0.39081
-0.00519 -0.14565 0.39081
-0.17088 0.07675 -0.20548
-0.17088 0.07907 -0.07854
-0.17088 0.08267 0.04693
-0.17088 0.08071 0.25100
-0.17928 0.14959 0.31544
-0.17088 0.02707 0.35335
-0.01028 0.15005 0.24515
-0.04041 -0.15652 -0.03381
-0.04154 -0.15652 -0.25386
-0.17088 -0.04319 0.12077
-0.17088 -0.01907 0.33227
-0.17088 -0.06330 0.34033
-0.17088 0.02878 0.40914
-0.17088 0.00065 0.33649
-0.17088 -0.09546 0.39670
-0.17088 -0.07080 0.26030
-0.17088 -0.08206 0.20019
-0.17088 -0.03852 0.26597
-0.17088 -0.02317 0.38041
-0.17088 -0.06273 0.12577
-0.17088 -0.02073 0.19941
-0.17088 -0.02497 0.17977
-0.17088 -0.07021 0.21704
-0.17088 -0.05813 0.20934
-0.17088 -0.08632 0.33898
-0.17088 0.01243 0.31700
-0.17088 -0.02883 0.28771
-0.17088 -0.09312 0.26503
0.12026 0.06413 0.27316
-0.03922 0.06825 0.11748
-0.03922 0.06922 0.23205
-0.16248 -0.02758 0.04789
-0.16248 -0.05103 0.31625
-0.16248 0.00340 -0.03615
-0.16248 0.02422 -0.20609
-0.16248 -0.07548 0.17797
-0.16248 0.01109 0.34343
-0.16248 0.01205 -0.18846
-0.16248 0.00403 0.08548
-0.16248 0.00538 -0.05063
-0.16248 0.01019 -0.07510
-0.16248 0.01724 -0.00606
-0.16248 0.06123 0.02362
-0.16248 0.06116 0.00533
-0.16248 0.00830 0.28392
-0.16248 -0.03160 0.33715
-0.16248 -0.01715 0.17654
-0.16248 0.01706 0.03209
-0.16248 -0.08547 0.39443
-0.16248 0.05552 -0.25805
-0.16248 0.03647 0.25959
-0.16248 -0.07619 0.16654
-0.16248 0.04926 0.16016
-0.16248 0.04552 0.03184
-0.16248 0.06098 -0.12768
-0.16248 0.00722 -0.12954
-0.16248 0.01871 0.25400
-0.16248 0.03143 0.16193
-0.16248 0.03299 0.35558
-0.16248 0.01901 -0.17216
-0.16248 0.01553 0.04359
-0.16248 -0.02678 0.35911
-0.16248 0.02665 0.34067
-0.16248 0.05953 0.19319
-0.16248 -0.04619 0.38559
-0.16248 -0.02127 0.05568
-0.16248 0.00658 0.00751
-0.16248 0.00083 0.13168
-0.16248 -0.05764 0.33304
-0.16248 0.01850 0.12050
-0.16248 -0.05349 0.27779
-0.16248 -0.00923 0.30791
-0.16248 0.04565 0.34546
-0.16248 -0.01919 0.28937
-0.16248 0.00177 0.01283
-0.16248 0.00419 0.12098
-0.16248 -0.06484 0.28922
-0.16248 0.01818 0.17317
-0.16248 -0.07898 0.23281
-0.06462 0.06184 0.35128
-0.16478 0.14020 0.20519
-0.16394 -0.13412 0.22067
-0.16245 -0.15239 -0.40475
-0.16248 0.13444 -0.22361
-0.16248 0.10588 -0.13792
-0.13370 0.11220 0.03394
-0.11140 0.11220 -0.00753
-0.15028 0.11220 0.03168
-0.06008 0.11220 0.04530
-0.10721 0.11220 0.02710
-0.08865 0.11220 0.03958
-0.17367 0.11220 -0.04650
-0.10572 0.11220 0.01249
-0.16248 0.11041 -0.20230
-0.16248 0.07858 -0.41089
-0.16248 0.08827 -0.35757
-0.16248 0.09793 -0.40964
-0.16248 0.08115 -0.36627
-0.16248 0.09373 -0.31999
0.18820 -0.13412 0.29613
-0.12315 0.10258 0.11329
0.17812 0.15422 0.38852
0.06822 0.15422 0.29892
0.16626 0.15422 0.28221
0.12815 0.15422 0.31025
0.18977 0.15422 0.35587
0.15769 0.15422 0.24964
0.18294 0.15422 0.35454
0.19554 0.15422 0.24658
0.09331 0.15422 0.25642
0.13891 0.15422 0.32488
0.14563 0.15422 0.24970
0.20511 -0.13412 0.38671
0.07699 -0.01071 0.39922
-0.18264 -0.05008 -0.10777
-0.17324 -0.05008 -0.30670
-0.17036 0.06198 0.38082
-0.05349 0.09903 0.10032
-0.16248 -0.13105 0.01313
-0.13548 0.15373 0.06018
-0.13512 0.15373 0.07608
-0.11254 0.15373 0.12494
-0.15959 0.15373 0.10217
-0.12040 0.15373 -0.01644
-0.11082 0.15373 0.07874
-0.18589 0.02422 0.30930
-0.20730 0.06817 -0.35070
-0.17018 0.03375 0.39921
-0.15329 -0.04950 0.39921
-0.13414 -0.04412 0.39921
-0.13092 -0.01745 0.39921
-0.17229 0.13936 0.19477
-0.16878 0.09824 0.00793
0.13562 -0.03120 0.39922
0.07641 -0.04646 0.39922
-0.17928 0.10637 0.05689
-0.09272 0.14022 -0.25119
-0.08550 0.14022 -0.23385
-0.05236 0.14022 -0.32912
-0.03566 0.14022 -0.29323
-0.04110 0.14022 -0.24515
-0.09108 0.14022 -0.31475
-0.03174 0.14022 -0.33832
-0.05969 0.14022 -0.24868
-0.10047 0.14022 -0.22490
-0.04689 0.14022 -0.22348
-0.16523 -0.00951 -0.41316
-0.02458 0.15422 -0.26177
-0.01324 0.15422 -0.39962
-0.03982 0.15422 -0.26275
-0.01628 0.15422 -0.32678
-0.08417 0.15422 -0.40542
-0.10478 0.15422 -0.37433
-0.03356 0.15422 -0.38402
-0.07704 0.15422 -0.32755
-0.07549 0.15422 -0.35916
-0.07038 0.15422 -0.36538
0.19307 0.14041 0.38522
-0.01498 0.02660 0.41322
-0.04762 -0.15114 -0.06705
-0.04762 -0.14958 0.00785
-0.04762 -0.14689 0.08835
-0.04762 -0.15194 0.12854
0.17367 -0.06197 0.39922
0.20730 -0.11160 0.34640
0.20730 -0.12600 0.30852
0.20730 -0.12028 0.33503
0.20730 -0.12809 0.37817
0.00986 0.01359 0.39922
-0.11708 0.13600 0.18175
-0.17088 0.07336 0.38200
-0.17088 0.09529 0.16584
-0.17088 0.11824 0.38813
-0.17088 0.13629 0.39632
-0.17088 0.10934 0.34251
-0.17088 0.10150 0.39536
-0.17088 0.11396 0.21391
-0.17928 0.06894 0.17538
-0.11407 -0.13412 0.22260
-0.11874 -0.13412 0.07150
-0.07516 -0.13412 0.08301
-0.11662 -0.13412 -0.17927
-0.14258 -0.13412 -0.06193
-0.15184 -0.13412 0.19978
-0.13187 -0.13412 0.06865
-0.12079 -0.13412 0.24545
-0.16158 -0.13412 -0.05136
-0.07869 -0.13412 0.27603
-0.12749 -0.13412 0.34314
-0.15262 -0.13412 -0.15664
-0.13689 -0.13412 0.31750
-0.09965 -0.13412 0.15540
-0.09396 -0.13412 0.07316
-0.05156 -0.13412 0.24177
-0.14260 -0.13412 -0.11364
-0.10471 -0.13412 0.10979
-0.08878 -0.13412 0.13423
-0.14301 -0.13412 0.16054
-0.09778 -0.13412 0.02288
-0.14128 -0.13412 -0.03268
-0.15079 -0.13412 0.13347
-0.12593 -0.13412 0.23779
-0.10828 -0.13412 0.23857
-0.09390 -0.13412 0.29217
-0.15884 -0.13412 0.30164
-0.13142 -0.13412 -0.00191
-0.14385 -0.13412 0.09385
-0.15532 -0.13412 0.36055
-0.11436 -0.13412 0.17399
-0.06119 0.15304 0.41323
-0.16248 0.09579 0.03340
-0.16248 0.08980 0.07486
-0.11631 0.07024 0.25300
-0.10802 0.07024 0.38386
-0.13188 0.07024 0.25818
-0.09178 0.07024 0.30973
-0.14238 0.07024 0.28709
-0.15650 0.07024 0.40999
-0.09828 0.07024 0.37808
-0.14522 0.07024 0.37519
-0.12221 0.07024 0.37508
-0.10401 0.07024 0.36806
-0.16720 0.07024 0.13519
-0.09207 0.07024 0.35010
-0.10322 0.07024 0.28770
-0.17088 -0.07672 -0.27999
-0.17088 0.05078 -0.09376
-0.17088 -0.00155 -0.11991
-0.17088 0.04763 0.27458
-0.17088 0.05723 0.02970
-0.17088 0.05117 0.31825
-0.17088 0.00181 0.07339
-0.17088 0.05918 0.00401
-0.17088 0.02238 -0.18404
-0.17088 -0.02165 -0.08907
-0.17088 0.02825 -0.15511
-0.17088 0.05856 -0.07330
-0.17088 -0.09523 -0.35995
-0.17088 -0.12192 -0.38316
-0.17088 -0.00018 -0.21277
-0.17088 0.01649 -0.02032
-0.17088 -0.02469 -0.07512
-0.17088 0.05234 0.16420
-0.17088 0.01030 -0.16772
-0.17088 -0.05739 -0.17013
-0.17088 -0.00454 0.11300
-0.17088 0.00761 -0.20012
-0.17088 0.03318 0.20159
-0.17088 -0.07864 -0.20629
-0.17088 0.01037 0.10038
-0.17088 -0.01166 -0.39919
-0.17088 0.05082 -0.40755
-0.17088 0.05491 0.02447
-0.17088 0.03117 -0.22727
-0.17088 0.00994 0.15931
-0.17088 -0.02414 -0.27946
-0.17088 0.02545 -0.34461
-0.17088 -0.02697 -0.30722
-0.17088 -0.09207 -0.27754
-0.17088 0.02086 0.18858
-0.17088 0.04544 -0.14389
-0.17088 0.05181 -0.28187
-0.17088 0.04644 0.21091
-0.17088 0.03192 0.16290
-0.17088 0.02703 0.15025
-0.17088 0.04121 -0.01843
-0.17088 0.03916 0.17993
-0.17088 0.03573 -0.15835
-0.17088 0.00116 0.01045
-0.17088 0.01858 -0.17943
-0.17088 -0.08153 -0.33240
-0.17085 0.14022 -0.25544
-0.14440 0.14022 -0.33990
-0.07600 0.14022 -0.34995
-0.15467 0.14022 -0.26642
-0.07838 0.14022 -0.37421
-0.15072 0.14022 -0.36161
-0.06683 0.14022 -0.36719
-0.08657 0.14022 -0.36465
-0.15162 0.14022 -0.32399
-0.14487 0.14022 -0.33423
-0.05474 0.13687 -0.19823
-0.02521 -0.13411 -0.02243
-0.04762 -0.13554 -0.31957
-0.04762 -0.13993 0.09620
-0.04762 -0.14326 -0.13872
-0.04762 -0.15388 -0.39945
-0.04762 -0.13413 -0.10383
-0.06513 0.06184 -0.19721
-0.04810 0.06184 -0.38541
-0.05412 0.06184 -0.41844
-0.06507 0.06184 -0.01777
-0.05926 0.06184 0.13420
-0.10110 0.06184 0.00226
-0.05787 0.06184 -0.39147
-0.10015 0.06184 -0.19576
-0.07589 0.06184 0.18635
-0.11147 0.06184 -0.42381
-0.04044 0.06184 -0.13412
-0.12134 0.06184 -0.07544
-0.05536 0.06184 0.23126
-0.06562 0.06184 -0.06370
-0.06284 0.06184 -0.40289
-0.04773 0.06184 0.29060
-0.09715 0.06184 -0.28579
-0.03928 0.06184 -0.29557
-0.06587 0.06184 -0.41993
-0.07399 0.06184 0.16288
-0.05106 0.06184 0.34458
-0.07724 0.06184 0.00943
-0.05313 0.06184 0.21848
-0.07525 0.06184 -0.13895
-0.07892 0.06184 -0.08848
-0.05337 0.06184 -0.23971
-0.05241 0.06184 -0.18021
-0.13919 0.06184 -0.16674
-0.11872 0.06184 -0.17667
-0.11116 0.06184 -0.00002
-0.15351 0.06184 -0.23495
-0.08384 0.06184 -0.14070
-0.04394 0.06184 -0.37600
-0.05467 0.06184 -0.30498
-0.06248 0.06184 -0.26867
-0.09104 0.06184 -0.18956
-0.03959 0.06184 -0.27981
-0.07923 0.06184 -0.26778
-0.09112 0.06184 -0.08986
-0.09655 0.06184 -0.37349
-0.12087 0.06184 -0.16787
-0.04046 0.06184 0.32435
-0.02521 -0.11821 -0.41339
0.03520 -0.12991 0.32223
0.08252 -0.12991 0.32412
0.03077 -0.12991 0.38472
-0.07843 -0.12991 0.36761
-0.03699 -0.12991 0.35547
0.11163 -0.12991 0.30068
0.17731 -0.12991 0.39456
0.11532 -0.12991 0.38696
0.11019 -0.12991 0.33291
0.03323 -0.12991 0.33586
0.07384 -0.12991 0.32028
-0.01235 -0.12991 0.38018
0.07538 -0.12991 0.35183
-0.17088 -0.14853 -0.35597
-0.17088 -0.13640 0.00180
-0.17088 -0.13472 0.11654
-0.17088 -0.15260 -0.38102
-0.17088 -0.13550 0.10006
-0.17088 -0.14466 -0.37272
-0.17795 0.01032 0.13941
-0.18589 -0.06669 -0.09111
-0.18589 -0.02618 0.11077
-0.15290 0.13994 0.19963
-0.13426 0.14027 0.39580
-0.17088 0.07642 -0.33639
-0.17088 0.09126 -0.16887
0.16642 0.14742 0.41323
-0.16434 0.07018 0.32340
-0.16845 0.07018 0.39891
-0.13801 0.06198 0.39715
-0.03261 0.08094 -0.40896
0.03352 -0.02200 0.39922
-0.05660 0.10022 0.10598
-0.03174 -0.04988 -0.42601
0.11466 0.14811 0.41323
-0.04010 -0.13412 -0.06018
-0.04354 -0.13412 -0.37221
-0.16248 0.11330 0.19232
-0.09789 -0.07647 -0.41316
-0.10198 -0.07145 -0.41316
0.15596 -0.08020 0.39922
-0.12627 -0.13412 0.40144
-0.14766 -0.13412 0.40436
-0.10001 0.13543 0.18025
-0.08376 -0.13894 -0.40475
-0.17612 -0.05008 -0.35750
-0.17958 -0.05008 -0.33612
-0.01121 0.10712 -0.02146
-0.13953 -0.12293 -0.41316
-0.11404 -0.10641 -0.41316
-0.13060 -0.09046 -0.41316
0.11171 -0.05100 0.39922
0.09969 -0.00084 0.39922
0.11669 -0.03835 0.39922
0.15073 -0.04534 0.39922
0.02130 -0.01071 0.39922
0.08174 0.03165 0.39922
-0.10216 0.04340 0.39922
0.09627 -0.07247 0.39922
0.03918 0.05658 0.39922
0.05525 -0.00692 0.39922
-0.10416 0.03059 0.39922
0.13500 -0.05215 0.39922
0.16694 0.01115 0.39922
0.15679 -0.10099 0.39922
0.18435 0.05396 0.39922
0.11722 -0.06082 0.39922
0.05109 0.00558 0.39922
-0.00768 0.01026 0.39922
-0.12839 0.10508 -0.13279
0.15487 -0.05558 0.39922
0.03280 0.06275 0.42223
-0.15935 -0.08659 -0.41316
-0.14479 -0.10014 -0.41316
-0.09847 -0.10681 -0.41316
-0.05784 -0.11887 -0.41316
-0.18505 -0.01587 0.41322
-0.07268 0.12650 -0.14761
-0.12973 0.13356 -0.16173
-0.13970 0.13416 -0.16293
-0.13705 -0.10988 -0.40896
-0.14788 -0.02425 -0.40896
-0.05625 -0.11571 -0.40896
-0.07890 -0.12607 -0.40896
-0.13400 -0.12804 -0.40896
-0.05113 -0.09807 -0.40896
-0.15428 -0.09148 -0.40896
-0.08333 -0.05639 -0.40896
-0.14069 0.09824 0.09249
-0.04170 -0.13412 -0.42357
0.16057 -0.09990 0.41322
-0.18589 0.00501 0.17879
0.09882 -0.03677 0.41322
-0.16849 -0.13412 0.02111
-0.16448 -0.13412 -0.33210
-0.17088 0.13297 0.26364
-0.10027 0.15443 -0.09975
-0.11403 0.15326 -0.20798
0.18857 0.06957 0.39922
-0.13073 0.06841 0.41323
-0.18589 -0.09996 -0.38771
-0.18589 -0.07256 -0.31028
-0.18589 -0.06191 -0.32768
-0.18589 -0.11693 -0.38036
-0.18589 -0.09340 -0.38938
-0.18589 -0.08048 -0.37066
-0.18589 -0.05244 -0.20050
-0.18589 -0.08499 -0.38898
-0.18589 -0.08715 -0.30779
-0.03993 0.09909 0.39502
-0.10181 0.10683 0.39502
-0.15183 0.12459 0.39502
-0.08771 0.09932 0.39502
-0.02079 0.12026 0.39502
-0.09177 0.08968 0.39502
-0.13860 0.12109 0.39502
-0.18589 0.03187 0.25643
-0.14666 -0.05061 -0.40896
-0.11431 -0.03900 -0.40896
-0.10605 -0.08708 -0.40896
-0.14628 -0.00330 -0.40896
-0.13352 -0.07662 -0.40896
-0.05970 -0.08879 -0.40896
-0.16248 0.01664 0.39748
0.03863 0.01710 0.39922
-0.02696 0.13633 0.18269
-0.17595 -0.13412 -0.31217
-0.17217 -0.13412 -0.27811
-0.18045 -0.13412 -0.24202
-0.09234 0.13300 -0.41316
-0.12341 0.11724 -0.41316
-0.13467 0.08770 -0.41316
-0.09885 0.09848 -0.11017
-0.13925 0.02171 0.39921
-0.12626 -0.02732 0.39921
-0.09672 0.02719 0.39921
-0.17063 -0.04338 0.39921
-0.13850 0.07024 0.11581
-0.08935 0.07024 0.29006
-0.13560 0.11602 0.11128
-0.13785 0.14357 -0.18176
-0.08957 0.13969 -0.17400
-0.02462 0.14475 -0.42717
-0.17800 0.09822 -0.10587
0.09684 0.07024 0.39434
0.12209 0.07024 0.39020
0.08497 0.07024 0.40236
0.02459 0.07024 0.38938
0.18601 0.07024 0.33213
0.17722 0.07024 0.42542
0.20474 0.07024 0.31539
0.09479 0.07024 0.36985
-0.02158 0.07024 0.40645
0.17926 0.07024 0.41419
0.19017 0.07024 0.36588
0.19398 0.07024 0.34394
0.19329 -0.06124 0.41299
0.19329 -0.12332 0.37744
0.19329 -0.13388 0.31688
0.10482 -0.06296 0.41322
-0.11104 0.07024 0.23604
-0.04466 0.12125 -0.13711
-0.16661 0.12725 -0.14911
-0.14816 0.12727 -0.14916
0.01933 -0.01291 0.41322
-0.18309 0.06999 0.05422
-0.05320 0.13936 0.19479
-0.12846 0.12569 0.16006
-0.10145 0.12622 0.16112
-0.17928 0.14396 -0.18755
-0.04762 -0.15144 0.22410
-0.04762 -0.15554 -0.15067
-0.04762 -0.15280 -0.03730
-0.04762 -0.15534 -0.32457
-0.04762 -0.15008 0.14063
-0.16248 -0.13115 0.06850
-0.13914 -0.15652 0.39177
0.12547 -0.13412 0.27861
-0.00307 -0.13412 0.26591
0.15768 -0.13412 0.33635
0.14970 -0.13412 0.29043
0.14206 -0.13412 0.28538
0.12922 -0.13412 0.32988
0.07741 -0.13412 0.27063
0.00800 -0.13412 0.26414
0.14065 -0.13412 0.32915
-0.17088 -0.01229 0.16093
0.02022 0.02156 0.41323
-0.12347 0.06184 0.18392
-0.17247 0.06184 0.02558
-0.18659 0.06184 0.00902
-0.14098 0.06184 0.13246
-0.16248 -0.13648 0.31185
-0.16248 -0.14671 0.15698
-0.16248 -0.15015 0.34706
-0.16248 -0.14511 0.28770
-0.16248 -0.13708 0.25384
-0.12822 -0.13412 0.12763
-0.11839 -0.13412 0.08388
-0.05015 -0.13412 0.22908
-0.07711 -0.13412 0.04693
-0.08157 -0.13412 0.07382
-0.12993 -0.13412 0.10583
-0.15129 -0.13412 0.31162
-0.15666 -0.13412 -0.02541
-0.09287 -0.13412 0.00389
-0.15059 -0.13412 0.05228
-0.12188 -0.13412 -0.15529
-0.10489 -0.13412 -0.10940
-0.09872 -0.13412 0.09715
-0.07072 -0.13412 0.14499
-0.11995 -0.13412 0.29881
-0.13948 -0.13412 0.25544
-0.06951 -0.13412 0.28081
-0.15285 -0.13412 -0.30844
-0.16166 -0.13412 0.28807
-0.09730 -0.13412 -0.04640
-0.12259 -0.13412 0.11117
-0.08460 -0.13412 0.27046
-0.10537 -0.13412 -0.10390
-0.15712 -0.13412 0.14960
-0.14314 -0.13412 -0.26840
-0.11440 -0.13412 0.32012
-0.15407 -0.13412 -0.26859
-0.09017 -0.13412 0.26011
-0.11271 -0.13412 -0.14225
-0.11853 -0.13412 0.07808
-0.11471 -0.13412 0.20928
0.04032 -0.11252 0.39502
0.14614 -0.00304 0.39502
0.12141 0.02043 0.39502
0.02625 -0.06175 0.39502
0.13607 0.01461 0.39502
0.11562 -0.11193 0.39502
0.00757 -0.08090 0.39502
0.09738 -0.06263 0.39502
0.17793 0.02346 0.39502
0.15299 -0.07707 0.39502
0.17050 -0.08693 0.39502
0.01273 -0.09202 0.39502
0.18155 -0.12137 0.39502
0.13562 -0.10584 0.39502
-0.01917 -0.12646 0.39502
0.15450 0.01497 0.39502
0.08439 -0.07399 0.39502
-0.02119 -0.09454 0.39502
-0.04488 -0.08881 0.39502
-0.13111 0.15422 -0.29640
-0.14780 0.15422 -0.38640
-0.13661 0.15422 -0.26448
-0.17861 0.15422 -0.42513
-0.15929 0.15422 -0.24725
-0.10577 0.15422 -0.33023
-0.08161 0.15422 -0.27922
-0.15621 0.15422 -0.25916
-0.08858 0.15422 -0.30618
-0.05659 0.15422 -0.26448
0.16848 -0.15231 0.27316
-0.03279 0.10384 -0.13021
-0.12842 0.06184 0.13993
-0.04759 -0.15652 -0.31001
-0.04417 -0.15652 0.14052
-0.16248 0.10957 -0.37303
-0.16248 0.08137 -0.38022
-0.16248 0.09941 -0.21484
-0.16248 0.09643 -0.28711
-0.16248 0.12225 -0.40283
-0.16248 0.10980 -0.38437
-0.03922 0.06438 0.16453
-0.03922 0.06906 -0.14679
-0.01121 0.09869 -0.10237
0.20730 -0.09752 0.39655
0.20730 -0.05163 0.30100
0.20730 -0.09758 0.37018
-0.16248 0.13936 -0.33966
-0.15108 -0.00969 -0.41316
-0.14961 -0.11055 -0.41316
-0.09022 -0.02315 -0.41316
-0.14931 -0.08370 -0.41316
-0.15490 -0.01975 -0.41316
-0.02620 0.09820 0.01507
-0.14133 0.09820 0.07459
-0.09594 0.09820 0.08348
-0.04201 0.09820 0.02590
-0.11620 0.09820 0.06703
-0.03407 0.09820 -0.03492
-0.01973 0.09820 -0.06090
-0.07772 0.09820 0.01392
-0.05625 0.09820 0.01940
0.07404 -0.13405 0.25915
0.19329 0.04612 0.36793
0.19329 0.10341 0.34026
0.19329 0.13004 0.38026
0.19329 0.01549 0.37573
0.19329 0.12661 0.30735
0.19329 0.03954 0.38074
0.19329 -0.01628 0.39166
0.19329 0.11725 0.32929
0.19329 0.06239 0.37202
0.19329 0.13921 0.29315
-0.04988 0.15422 0.29823
-0.12707 0.15422 0.24307
-0.07569 0.15422 0.25288
-0.09542 0.15422 0.25733
-0.03929 0.15422 0.33630
-0.01579 0.15422 0.35943
-0.01958 0.15422 0.31211
-0.08588 0.15422 0.30322
-0.02271 0.15422 0.22757
-0.05758 0.15422 0.31420
-0.07132 0.15422 0.26310
0.16504 0.15422 0.40623
0.17255 0.15422 0.40651
0.12587 0.15422 0.36226
-0.00318 0.15422 0.33379
0.05352 0.15422 0.38733
0.00573 0.15422 0.40188
0.12215 0.15422 0.38785
0.02499 0.15422 0.32335
0.17051 0.15422 0.39034
-0.00432 0.15422 0.30659
0.03192 0.15422 0.38540
-0.04746 0.11701 -0.15665
-0.04463 0.11208 -0.14679
-0.01712 0.11783 -0.15829
-0.17088 -0.05219 0.01903
0.03213 -0.03726 0.39921
0.12930 -0.02666 0.39922
-0.02747 0.07838 -0.40896
-0.13633 0.11278 0.09740
-0.06853 0.15127 -0.19944
-0.16248 -0.09568 -0.29640
-0.16248 -0.05885 -0.10527
-0.16248 -0.11510 0.30902
-0.16248 -0.09858 -0.17637
-0.16248 0.02025 -0.32931
-0.16248 -0.10656 0.06184
-0.16248 -0.07539 -0.33297
-0.16248 -0.01054 -0.13636
-0.16248 -0.06681 -0.11010
-0.16248 -0.10267 0.10488
-0.16248 -0.11884 -0.30093
-0.16248 -0.11759 0.28864
-0.16248 0.03814 -0.37301
-0.16248 -0.02617 -0.10773
-0.16248 -0.05735 -0.35963
-0.16248 -0.08588 -0.31800
-0.16248 -0.04376 -0.29578
-0.16248 -0.00710 -0.25606
-0.16248 -0.11374 0.18470
-0.16248 -0.01501 -0.29949
-0.16248 -0.03650 -0.21318
-0.16248 -0.04808 -0.29907
-0.16248 -0.07598 -0.13152
-0.16248 -0.02886 -0.36785
-0.16248 -0.03405 -0.32733
-0.16248 -0.13381 -0.11481
-0.16248 -0.01277 -0.15851
-0.16248 0.03409 -0.32654
-0.16248 -0.05140 -0.05974
-0.16248 -0.10158 -0.12207
-0.16248 -0.03484 -0.08698
-0.16248 -0.04024 -0.12097
-0.16248 -0.11847 -0.14371
-0.16248 -0.05349 -0.22928
-0.16248 -0.09669 -0.36323
-0.16248 0.00733 -0.24551
-0.16248 -0.02597 -0.08003
-0.16248 -0.01357 -0.14650
-0.16248 -0.13343 -0.03222
-0.16248 -0.06266 -0.37911
-0.16248 -0.09355 -0.24874
-0.16248 0.03286 -0.39044
-0.16248 -0.11177 0.29335
-0.16248 -0.00395 -0.14091
0.11101 -0.12991 0.39078
0.11177 -0.12991 0.35178
-0.08509 -0.12991 0.39103
0.15505 -0.12991 0.30738
0.12797 -0.12991 0.33647
0.10997 -0.12991 0.32254
0.13644 -0.12991 0.30822
0.13540 -0.12991 0.29990
0.03728 -0.12991 0.36217
0.13712 -0.12991 0.28243
0.16797 -0.12991 0.27054
-0.01389 -0.12991 0.35843
-0.12685 0.14022 -0.40949
-0.14244 0.15093 -0.13740
-0.11168 0.15093 -0.08564
-0.13276 0.15093 -0.12033
-0.14939 0.15093 -0.09951
-0.09345 0.15093 -0.02547
-0.11620 0.15093 -0.09679
-0.17088 0.12389 -0.19595
-0.17088 0.11152 -0.15633
0.14165 0.06184 0.28804
0.06114 0.06184 0.30363
0.03046 0.06184 0.31089
0.16188 0.06184 0.38666
0.12774 0.06184 0.31627
0.04650 0.06184 0.32430
0.16318 0.06184 0.37674
0.12917 0.06184 0.35970
0.16819 0.06184 0.28799
0.05090 0.06184 0.32070
0.17747 0.06184 0.37263
-0.16248 -0.13266 0.23238
-0.02374 0.03144 0.39922
0.19295 0.06542 0.39922
-0.16559 -0.13412 0.14563
-0.16448 -0.13412 0.24089
-0.01497 -0.13412 0.39748
0.20064 -0.05008 0.33954
-0.17481 0.06184 -0.00044
-0.07797 0.10028 -0.40896
-0.09497 0.10772 -0.40896
-0.11693 0.13636 -0.40896
-0.16492 -0.13412 0.16475
-0.17056 -0.13412 0.36288
0.19329 -0.08581 0.32733
0.19329 -0.08494 0.31218
-0.16931 -0.15652 0.04059
-0.16558 -0.15652 -0.13794
-0.08760 0.14009 0.20168
-0.10962 0.11364 0.10257
-0.03233 0.13561 -0.19466
0.16944 -0.10999 0.39502
0.05668 -0.04728 0.39502
0.17544 0.01106 0.39502
0.08663 -0.03785 0.39502
0.14678 -0.10662 0.39502
0.13747 0.02473 0.39502
0.15869 -0.07481 0.39502
0.16348 -0.03466 0.39502
0.02695 -0.09019 0.39502
0.05393 -0.10249 0.39502
0.11015 -0.11984 0.39502
0.08679 -0.11418 0.39502
-0.05375 -0.09293 0.39502
0.03565 -0.13342 0.39502
0.16626 0.01677 0.39502
0.13371 -0.13006 0.39502
0.10198 -0.12029 0.39502
0.14676 -0.05983 0.39502
0.20730 -0.05380 0.39133
0.20730 -0.07395 0.30313
0.20730 -0.10319 0.35773
0.20730 -0.10756 0.40762
-0.16248 -0.04655 0.32592
-0.16248 -0.00161 -0.04811
-0.16248 0.00769 -0.02946
-0.16248 0.01545 0.36837
-0.16248 -0.01985 0.07939
-0.16248 0.01032 0.26525
-0.16248 -0.00400 0.38292
-0.16248 0.02326 0.08949
-0.16248 0.02182 0.20486
-0.16248 -0.05255 0.25536
-0.16248 0.02604 -0.04958
-0.16248 -0.05217 0.08318
-0.16248 0.04349 0.16076
-0.16248 -0.00395 0.09437
-0.16248 -0.07001 0.32800
-0.16248 0.00606 0.37984
-0.16248 0.01555 0.22583
-0.16248 -0.06367 0.25199
-0.16248 -0.03344 0.28861
-0.16248 0.01211 0.31828
-0.16248 0.03877 0.19398
-0.16248 -0.00046 0.16238
-0.16248 0.05646 -0.17724
-0.16248 -0.06588 0.13899
-0.16248 0.00384 0.06550
-0.16248 -0.05114 0.18305
-0.16248 -0.01500 0.05911
-0.16248 0.04670 0.10141
-0.16248 0.03360 0.23598
-0.16248 0.03790 -0.18021
-0.16248 -0.04684 0.21861
-0.16248 0.03042 -0.08577
-0.16248 -0.02514 0.30136
-0.16248 0.03303 0.06211
-0.16248 0.04785 0.32974
-0.16248 0.03180 0.29806
-0.16248 0.02836 0.04717
-0.16248 0.02839 -0.06988
-0.16248 -0.00589 0.11642
-0.16248 -0.09818 0.39254
-0.16248 -0.00912 0.10734
-0.16248 0.02704 0.09790
-0.11490 0.06184 0.32694
-0.07298 0.06184 0.36557
-0.11884 0.06184 0.31107
-0.08734 0.06184 0.39462
-0.14660 0.06184 0.28508
-0.13832 0.06184 0.38993
-0.17432 0.06184 0.32030
-0.17842 0.06184 0.16464
-0.12359 0.06184 0.38873
-0.11255 0.06184 0.26487
-0.10621 0.06184 0.32435
-0.16970 0.06184 0.35439
0.04718 -0.13412 0.26435
0.17807 -0.13412 0.27762
0.08081 -0.13412 0.28124
0.11945 -0.13412 0.28391
0.17246 -0.13412 0.29170
0.07752 -0.13412 0.31653
0.13465 -0.13412 0.35111
0.15317 -0.13412 0.35087
0.16704 -0.13412 0.30996
-0.16747 -0.13412 -0.41912
0.18707 -0.09787 0.25915
-0.03922 0.06283 0.30407
0.05208 0.14022 0.35616
0.02102 0.14022 0.31245
0.11718 0.14022 0.24748
0.11192 0.14022 0.30153
0.03623 0.14022 0.36775
0.04780 0.14022 0.26865
0.00215 0.14022 0.33689
0.14470 0.14022 0.25536
0.09539 0.14022 0.26990
0.02005 0.14022 0.28159
0.05918 -0.02582 0.39922
-0.17295 0.03396 0.31569
-0.14380 0.14786 -0.19040
0.02793 -0.14251 0.28156
0.01752 -0.14991 0.28156
-0.01121 0.15187 0.27770
0.18489 -0.14821 0.33518
0.11358 0.06184 0.34898
0.02594 0.06184 0.28858
0.05197 0.06184 0.27896
0.12990 0.06184 0.36991
0.06711 0.06184 0.28391
0.17020 0.06184 0.33458
0.07642 0.06184 0.34016
0.17669 0.06184 0.29260
0.08593 0.06184 0.34264
0.15053 0.06184 0.38996
0.02134 0.06184 0.29173
-0.18278 -0.04136 0.01001
0.18489 -0.13936 0.33586
-0.16556 -0.13412 -0.32482
-0.16662 -0.13412 -0.27794
-0.14048 0.07024 0.15628
-0.15135 0.07024 0.10389
-0.16948 0.07024 0.03529
-0.10436 0.07024 0.22170
-0.03922 -0.14148 -0.39588
-0.03922 -0.14185 -0.18152
-0.03922 -0.15460 0.17004
-0.03922 -0.15442 -0.40794
-0.03922 -0.15123 0.04500
-0.17020 0.14022 -0.31898
-0.01121 0.14041 -0.36967
0.09067 0.07024 0.42338
0.19722 0.06492 0.42723
-0.08845 0.09820 -0.06420
-0.10397 0.09820 -0.02660
-0.16283 0.09820 0.01188
-0.14531 0.09820 -0.08283
-0.16190 0.09820 0.02570
-0.16685 0.09820 0.02808
-0.03525 0.09820 -0.09572
-0.09184 0.09820 -0.09252
0.04484 0.14027 0.39795
-0.04024 -0.15652 0.21404
-0.17088 -0.11775 -0.23149
-0.17088 -0.12347 -0.08800
-0.17088 -0.07959 -0.24006
-0.17088 -0.09398 -0.11676
-0.17088 -0.11117 -0.33425
-0.17088 -0.10301 0.07024
-0.17088 -0.11441 -0.04173
-0.17088 -0.11230 -0.20320
-0.17088 -0.12316 -0.20498
-0.17088 -0.13114 -0.21320
-0.17088 -0.12764 0.04740
-0.17088 -0.10806 -0.18880
-0.17088 -0.11727 -0.12108
-0.17088 -0.05818 -0.39574
-0.17088 -0.08048 -0.17900
-0.17088 -0.13290 -0.38531
-0.17088 -0.13176 0.24878
-0.17088 -0.11354 -0.35321
-0.17088 -0.12491 0.23004
-0.17088 -0.10576 -0.13499
0.06012 0.06861 0.42564
-0.17088 -0.05024 -0.00266
0.20552 -0.10759 0.25915
-0.16379 0.13865 0.15798
-0.12882 0.13749 0.15566
-0.02147 0.14616 0.17300
0.13146 0.14022 0.38683
0.19005 0.14022 0.39284
0.15180 0.14022 0.34585
0.05043 0.14022 0.40022
0.08243 0.14022 0.36407
0.14999 0.14022 0.35237
0.15001 0.14022 0.35849
0.07195 0.14022 0.38003
0.20282 0.14022 0.40520
0.08234 0.14022 0.37917
0.13614 0.14022 0.38070
-0.13523 0.14703 0.17476
-0.11220 0.10358 0.39502
0.01928 0.11588 0.39502
-0.07784 0.13764 0.39502
-0.14761 0.08541 0.39502
-0.03611 0.11864 0.39502
-0.03382 0.13733 0.39502
-0.00582 0.11376 0.39502
0.19435 -0.12353 0.25915
-0.13018 -0.13412 0.39119
-0.16248 0.09342 0.39007
-0.16248 0.11430 0.26893
-0.16248 0.09915 0.10801
-0.16248 0.11094 0.36776
-0.16248 0.11386 0.32682
-0.16248 0.09660 0.21069
-0.17920 -0.00424 0.10573
-0.11136 -0.13136 -0.42717
-0.04665 -0.12921 -0.42717
-0.06110 -0.12856 -0.42717
-0.18589 -0.05253 -0.04711
-0.01155 0.07024 0.34702
0.00545 0.07024 0.33904
0.08956 0.07024 0.32619
-0.00979 0.07024 0.28207
0.06438 0.07024 0.27456
0.02311 0.07024 0.33140
0.09959 0.07024 0.31942
-0.00662 0.07024 0.29877
0.12359 0.07024 0.27317
-0.02272 0.07024 0.37024
0.00924 0.07024 0.36697
0.15664 0.05259 0.39922
-0.13808 0.05469 0.39922
0.07086 -0.02891 0.39922
0.18986 -0.10206 0.39922
0.09307 -0.05510 0.39922
0.13601 -0.08133 0.39922
-0.00870 0.05398 0.39922
-0.05287 0.03161 0.39922
0.02279 0.01722 0.39922
0.17850 0.03958 0.39922
0.05812 -0.03172 0.39922
0.09245 -0.03981 0.39922
-0.15454 0.05920 0.39922
-0.07621 0.04326 0.39922
0.13377 -0.10038 0.39922
-0.00982 -0.01622 0.39922
0.12439 -0.04166 0.39922
0.15795 0.02716 0.39922
-0.09843 0.07024 0.03572
-0.13889 0.07024 0.00187
-0.07557 0.07024 -0.25524
-0.04753 0.07024 -0.10736
-0.09580 0.07024 -0.11167
-0.08776 0.07024 0.18576
-0.14710 0.07024 -0.01853
-0.08017 0.07024 -0.19151
-0.12103 0.07024 0.11467
-0.08432 0.07024 -0.09874
-0.07587 0.07024 -0.03142
-0.08173 0.07024 0.21136
-0.13232 0.07024 -0.05014
-0.04023 0.07024 -0.27225
-0.09973 0.07024 0.15992
-0.15553 0.07024 0.04403
-0.08678 0.07024 -0.25191
-0.05477 0.07024 -0.31841
-0.17184 0.07024 -0.03947
-0.13238 0.07024 0.06879
-0.14806 0.07024 -0.12427
-0.11908 0.07024 -0.07394
-0.06316 0.07024 0.28219
-0.14189 0.07024 -0.15408
-0.07520 0.07024 0.12673
-0.06918 0.07024 -0.04036
-0.04538 0.07024 0.34556
-0.11413 0.07024 -0.11143
-0.06935 0.07024 -0.14760
-0.13468 0.07024 -0.23858
-0.17560 0.07024 -0.10861
-0.14350 0.07024 -0.11370
-0.18100 0.07024 -0.03237
-0.05928 0.07024 0.01517
-0.12563 0.07024 -0.13484
-0.11022 0.07024 0.04362
-0.08413 0.07024 -0.32142
-0.05549 0.07024 0.13153
-0.06231 0.07024 0.16768
-0.14213 0.07024 0.06197
-0.09818 0.07024 0.19999
-0.05800 0.07024 -0.28611
-0.12418 0.11769 0.14406
-0.10304 0.10581 0.12032
-0.15970 0.11714 0.14298
-0.01121 0.15177 0.20595
-0.17088 -0.11362 -0.42474
-0.16539 -0.13445 0.39921
-0.17928 0.06977 0.19610
0.16458 0.14027 0.39799
-0.02521 -0.02883 -0.41235
-0.01121 0.13099 -0.16555
-0.05197 0.09852 -0.11059
-0.17088 0.01489 0.27417
-0.16761 0.14018 0.35733
0.07571 0.15422 0.30209
0.16913 0.15422 0.33526
0.11613 0.15422 0.27530
0.12252 0.15422 0.28318
0.19681 0.15422 0.30127
0.17055 0.15422 0.36709
0.10614 0.15422 0.25903
0.15855 0.15422 0.29269
0.19118 0.15422 0.25695
0.12754 0.15422 0.25049
0.17648 -0.13557 0.36747
-0.16248 0.12599 0.20306
-0.12030 0.15081 0.18400
0.17700 -0.15652 0.32707
-0.16248 0.13085 0.38559
-0.16248 0.09889 0.33557
-0.16248 0.11117 0.38267
-0.16248 0.09505 0.16431
-0.16248 0.08159 0.35071
-0.16248 0.11596 0.37651
-0.16248 0.08680 0.26744
0.10607 -0.15652 0.27433
0.18836 0.05204 0.25915
-0.05484 0.15393 -0.21315
0.09722 -0.08794 0.39922
-0.07942 -0.03993 0.39922
0.12879 -0.12441 0.39922
-0.12141 0.00723 0.39922
-0.06521 -0.06467 0.39922
0.07526 -0.10148 0.39922
0.08776 -0.09161 0.39922
-0.04358 -0.08471 0.39922
-0.06057 -0.03449 0.39922
-0.16164 -0.08861 0.39922
-0.13027 -0.03884 0.39922
-0.13543 -0.07392 0.39922
0.05782 -0.09920 0.39922
-0.03961 -0.05560 0.39922
0.12119 0.06676 0.42723
-0.03239 -0.13412 -0.41847
-0.17765 0.13063 -0.18389
-0.16325 0.11310 -0.14882
-0.11205 0.12289 -0.16840
-0.17088 -0.06416 0.05330
-0.04762 -0.14764 -0.18039
-0.04762 -0.14967 -0.28132
-0.04762 -0.13612 -0.07118
-0.04762 -0.14483 -0.37463
-0.17928 0.13991 0.17108
-0.16248 0.01949 -0.24689
-0.16248 0.01217 -0.22299
-0.16248 0.00367 -0.23178
-0.16248 -0.08472 0.11716
-0.16248 -0.02246 -0.27642
-0.16248 0.03404 -0.40359
-0.16248 -0.11510 -0.23032
-0.16248 -0.12384 -0.04393
-0.16248 -0.05187 0.04783
-0.16248 -0.02698 -0.12153
-0.16248 -0.03147 -0.28195
-0.16248 -0.05151 -0.28875
-0.16248 -0.12951 -0.08765
-0.16248 -0.05592 -0.08176
-0.16248 -0.06774 -0.03787
-0.16248 -0.11525 -0.03714
-0.16248 -0.11504 -0.12062
-0.16248 -0.05075 -0.20383
-0.16248 -0.03963 -0.30685
-0.16248 -0.09559 0.20394
-0.16248 0.01448 -0.25873
-0.16248 -0.02330 -0.23249
-0.16248 -0.06949 -0.28083
-0.16248 -0.10760 -0.22848
-0.16248 -0.13055 0.25087
-0.16248 -0.10289 -0.32479
-0.16248 -0.11009 0.15169
-0.16248 -0.04268 -0.02423
-0.16248 -0.03639 -0.23428
-0.16248 -0.00055 -0.19810
-0.16248 0.01589 -0.39019
-0.16248 -0.10947 -0.29535
-0.16248 -0.02757 -0.06814
-0.16248 -0.03083 -0.14057
-0.16248 -0.00395 -0.25072
-0.16248 -0.03630 -0.18641
-0.16248 -0.10493 0.08266
-0.16248 -0.10032 -0.00936
-0.16248 -0.11329 0.20570
-0.16248 -0.04518 -0.19777
-0.16248 -0.10310 -0.08427
-0.16248 -0.02403 -0.34644
-0.16248 -0.10893 0.03038
-0.16248 -0.10583 -0.14711
-0.16248 -0.01724 -0.34949
-0.17928 0.10182 -0.03646
0.19716 -0.09595 0.41322
-0.04234 -0.15652 0.28064
0.13524 0.07024 0.34793
0.19300 0.07024 0.38572
-0.00913 0.07024 0.40129
0.19931 0.07024 0.36877
0.12495 0.07024 0.34459
0.04943 0.07024 0.38268
0.14931 0.07024 0.38473
0.20111 0.07024 0.33626
-0.16461 -0.13412 0.31742
-0.11397 0.13042 -0.41316
-0.06952 0.12459 -0.41316
-0.12633 0.13511 -0.41316
0.05210 -0.13412 0.39275
-0.17217 -0.01103 0.09236
-0.18589 -0.10064 -0.27598
-0.17088 -0.06994 0.06068
-0.08795 0.11079 -0.40896
-0.03414 0.10653 -0.40896
0.19329 -0.09226 0.32730
0.19329 -0.05521 0.36775
0.19329 -0.07045 0.37020
0.08946 -0.00728 0.39922
0.10380 0.06184 0.42467
-0.17928 0.11124 0.12348
-0.08345 0.07024 0.31783
-0.15605 0.07024 0.28774
-0.12121 0.07024 0.40165
-0.12488 0.07024 0.33709
-0.17707 0.07024 0.27024
-0.16746 0.07024 0.31016
-0.08384 0.07024 0.36521
-0.14961 0.07024 0.20660
-0.15033 0.07024 0.30837
-0.16132 0.07024 0.13662
-0.17685 0.07024 0.21426
-0.05241 0.07024 0.40299
-0.13348 0.07024 0.20359
-0.07311 0.02639 0.41322
0.07177 -0.05854 0.41322
-0.12966 -0.13993 0.39921
-0.11947 -0.15490 0.39921
-0.11138 -0.13937 0.39921
-0.10485 0.15274 0.19127
-0.09750 0.15422 0.37311
-0.12238 0.15422 0.32041
-0.10123 0.15422 0.37716
-0.06768 0.15422 0.34835
-0.14037 0.15422 0.30906
-0.15587 0.15422 0.38001
-0.13946 0.15422 0.36380
-0.11373 0.15422 0.34782
-0.09020 0.15422 0.31990
-0.16664 0.15422 0.33441
-0.03922 0.06807 -0.30594
-0.03922 0.06505 -0.40073
-0.16853 0.06198 0.13625
-0.16512 0.06198 -0.18860
-0.15009 -0.13981 0.39921
0.01176 -0.14653 0.39921
0.05678 -0.14852 0.39921
-0.16641 0.00892 0.39922
-0.15687 0.14022 -0.41203
-0.16878 -0.15652 -0.22871
0.02130 0.15143 0.24515
0.19329 -0.05297 0.39858
-0.17088 0.13876 -0.22804
-0.18589 -0.08204 -0.11303
-0.18589 -0.05459 0.40882
-0.18589 -0.05139 0.26709
-0.18589 -0.13035 -0.26792
-0.18589 -0.11037 -0.08260
-0.18589 -0.04786 0.05117
-0.18589 -0.08506 0.20851
-0.18589 -0.03946 0.31270
-0.18589 -0.12836 -0.12154
-0.18589 -0.07343 -0.10601
-0.18589 -0.06642 -0.00547
-0.18589 -0.13409 0.37150
-0.18589 -0.12741 0.06495
-0.18589 -0.10685 -0.17700
-0.18589 -0.06219 -0.01822
-0.18589 -0.02037 0.33288
-0.18589 -0.09772 0.31914
-0.18589 -0.08378 0.15428
-0.18589 0.02651 0.38785
-0.18589 -0.07613 -0.04745
-0.18589 -0.12483 -0.01778
-0.18589 -0.10840 -0.06148
-0.18589 -0.12848 0.23852
-0.18589 -0.13243 -0.00482
-0.18589 -0.12592 -0.32222
-0.18589 -0.09516 0.36271
-0.18589 -0.02542 0.28267
-0.18589 -0.06838 0.08881
-0.18589 -0.10213 -0.23828
-0.18589 -0.07530 -0.01977
-0.18589 -0.03506 0.17129
-0.18589 0.01545 0.34466
-0.18589 -0.11520 0.36745
