0.32166 0.14231 0.07481
0.28984 0.14231 0.08517
0.14877 0.14231 0.23672
0.21853 0.14231 0.09521
0.15641 0.14231 0.13561
0.13369 0.14231 0.12367
0.13930 0.14231 0.20315
0.29046 0.14231 0.20921
0.25451 0.14231 0.29485
0.03816 0.14231 0.11013
0.11044 0.14231 0.06595
0.19592 0.14231 0.19615
0.22283 0.14231 0.24494
0.30639 0.14231 0.15096
0.29476 0.14231 0.15291
0.31348 0.14231 0.19336
0.25708 0.14231 0.28682
-0.08456 0.14231 0.08174
0.28167 0.14231 0.20287
0.23381 0.14231 0.19386
0.11967 0.14231 0.15754
0.08348 0.14231 0.11171
-0.00324 0.14231 0.13162
0.07382 0.14231 0.08120
0.18389 0.14231 0.11853
0.14692 0.14231 0.19562
0.26793 0.14231 0.21007
0.07809 0.14231 0.14959
0.07787 0.14231 0.11739
0.16960 0.14231 0.16195
0.16962 0.14231 0.08226
0.15619 0.14231 0.19463
0.19771 0.14231 0.14339
-0.02014 0.14231 0.10905
0.10163 0.14231 0.15543
0.30472 0.14231 0.30828
0.15690 0.14231 0.09338
0.30979 0.14231 0.15777
0.29673 0.14231 0.28434
0.11753 0.14231 0.21505
0.03315 0.14231 0.08372
0.00755 0.14231 0.08633
0.15120 0.14231 0.10939
0.08764 0.14231 0.14208
0.05430 0.14231 0.16804
0.13330 0.14231 0.08552
0.30621 0.14231 0.13124
0.18707 0.14231 0.18684
0.04401 0.14231 0.09944
0.14441 0.14231 0.08211
-0.04839 0.14231 0.08089
0.19221 0.14231 0.12365
0.28254 0.14231 0.21221
0.32316 0.14231 0.30766
-0.32389 -0.13673 0.30711
-0.32389 -0.13459 0.22025
0.30391 -0.14231 0.13271
0.30671 -0.14231 0.09774
0.30359 -0.14231 0.25689
0.31242 -0.14231 0.14905
0.30615 -0.14231 0.14462
-0.31695 0.10094 0.35333
-0.31643 -0.04374 0.35333
-0.30751 0.11652 0.35333
0.32389 0.07726 0.34667
0.32389 0.03631 0.34370
-0.12759 -0.05298 -0.30867
-0.12759 -0.02973 -0.25358
-0.12759 -0.10595 -0.34126
-0.12759 -0.00381 -0.28620
-0.12759 -0.08631 -0.32297
-0.12759 0.00597 -0.21748
-0.12759 -0.01289 -0.22565
-0.12759 -0.01265 -0.28130
-0.12759 -0.05231 -0.28105
-0.12759 -0.01300 -0.25573
-0.12759 -0.06397 -0.30874
-0.12759 -0.03720 -0.34306
0.31993 -0.14231 0.25884
0.32299 -0.14231 0.27525
0.32317 -0.14231 0.18993
0.31012 -0.14231 0.27372
0.31663 -0.14231 0.24524
-0.31407 0.04287 -0.10308
-0.31407 0.11356 0.04851
-0.31407 0.00416 0.03223
-0.31407 0.05311 0.00792
-0.31407 0.00108 -0.00817
-0.31407 0.08611 -0.00843
-0.31407 0.03573 -0.09679
-0.31407 0.06899 -0.03444
-0.31407 0.04532 -0.00744
-0.31407 0.07921 0.01063
-0.31407 0.06733 0.00878
-0.31407 0.05316 -0.02723
-0.31407 0.04676 -0.03805
-0.31407 0.10334 0.05259
-0.31407 0.01567 -0.05877
-0.31407 0.06642 -0.00981
-0.31407 0.03049 -0.06039
-0.31407 0.09796 0.05583
-0.31407 0.05107 0.03904
-0.31407 0.11756 0.03757
-0.29935 0.13103 0.07489
-0.29935 0.12318 0.23960
-0.12759 -0.03081 -0.30674
-0.12759 -0.05285 -0.31691
-0.12759 -0.01366 -0.32323
-0.12759 -0.00252 -0.29821
-0.12759 -0.02960 -0.33697
-0.12759 -0.09808 -0.32982
-0.12759 0.00269 -0.25060
-0.12759 -0.02512 -0.30822
-0.12759 -0.08062 -0.32110
-0.12759 -0.02625 -0.26887
0.32389 0.13206 0.19900
-0.12759 0.00571 -0.34449
-0.32162 -0.13250 0.09686
-0.32316 -0.13250 0.21188
-0.32168 -0.13250 0.12233
-0.31484 -0.13250 0.33265
-0.31464 -0.01395 0.06870
-0.31131 0.08599 0.06870
-0.31929 0.07741 0.06870
-0.30198 0.10675 0.06870
-0.27459 -0.04360 -0.19630
-0.24586 -0.06134 -0.19630
-0.16334 -0.10482 -0.19630
-0.31689 -0.09357 -0.19630
-0.29822 -0.11055 -0.19630
-0.23160 -0.12073 -0.19630
-0.25017 -0.09898 -0.19630
-0.29432 -0.07838 -0.19630
-0.22376 -0.08137 -0.19630
-0.31171 -0.03052 -0.19630
-0.31374 -0.07725 -0.19630
-0.25026 -0.07175 -0.19630
-0.19985 -0.10330 -0.19630
-0.22584 -0.12195 -0.19630
-0.24721 -0.12899 -0.19630
-0.26639 -0.10480 -0.19630
-0.28156 -0.12789 -0.19630
-0.25633 -0.04482 -0.19630
0.30067 -0.03888 0.06870
0.30665 0.09473 0.06870
0.31256 0.07810 0.06870
0.30833 0.03261 0.06870
-0.29935 0.06472 0.06074
-0.29935 0.07317 0.05904
0.28954 0.00765 0.31265
-0.29506 0.00385 -0.19630
-0.26826 0.05505 -0.19630
-0.22429 0.03430 -0.19630
-0.30819 0.01940 -0.19630
-0.15653 0.02052 -0.19630
-0.26093 0.09256 -0.19630
-0.30972 0.04845 -0.19630
-0.23160 0.00965 -0.19630
-0.24368 0.02504 -0.19630
-0.17863 0.04046 -0.19630
-0.20248 0.01165 -0.19630
-0.26812 0.04066 -0.19630
-0.26360 -0.00045 -0.19630
-0.29971 0.08790 -0.19630
-0.27823 0.00091 -0.19630
0.29935 -0.02300 0.35317
0.29935 0.01254 0.35205
-0.29935 0.13053 0.32542
-0.29935 0.12574 0.26750
0.30429 -0.13250 0.20569
0.30400 -0.13250 0.15288
0.30474 -0.13250 0.23687
0.31238 -0.13250 0.27192
0.31981 -0.13250 0.30369
-0.32211 -0.12526 0.05889
-0.32389 -0.13623 0.05906
0.32389 0.12771 0.18975
0.32389 0.13142 0.30170
0.21086 0.13380 0.05889
0.14570 0.13602 0.05889
-0.09355 0.14068 0.05889
-0.32389 -0.13236 0.34401
-0.32389 -0.05500 0.34967
0.32389 0.12729 0.28763
0.32389 0.12334 0.23279
-0.30338 -0.14231 0.12251
-0.30662 -0.14231 0.11468
-0.22319 0.10311 -0.19630
-0.18654 0.11814 -0.19630
-0.15863 0.10393 -0.19630
-0.14704 0.12286 -0.19630
-0.27159 0.11947 -0.19630
-0.23564 0.12160 -0.19630
-0.25358 0.13101 -0.19630
-0.30476 0.12269 0.26451
-0.30576 0.12269 0.28438
-0.30383 0.12269 0.16093
-0.30126 0.12269 0.11567
0.32389 -0.13579 0.20532
0.32389 0.13804 0.35270
-0.32389 0.12864 0.33631
-0.13072 0.13250 0.22921
-0.08058 0.13250 0.12363
0.26497 0.13250 0.29680
-0.07010 0.13250 0.12535
-0.12871 0.13250 0.08355
-0.17128 0.13250 0.23623
-0.19509 0.13250 0.28304
-0.06618 0.13250 0.27657
-0.12775 0.13250 0.15391
-0.11800 0.13250 0.14769
-0.12608 0.13250 0.11905
-0.14591 0.13250 0.10033
0.22300 0.13250 0.27899
-0.08205 0.13250 0.10440
-0.11369 0.13250 0.09033
-0.07247 0.13250 0.10732
-0.10865 0.13250 0.15182
0.10452 0.13250 0.28799
0.18011 0.13250 0.28601
-0.14107 0.13250 0.28296
0.02255 0.13250 0.15583
-0.02651 0.13250 0.14088
-0.17810 0.13250 0.24088
-0.03053 0.13250 0.19521
0.10101 0.13250 0.20509
0.21656 0.13250 0.29564
0.02247 0.13250 0.20770
0.16884 0.13250 0.26989
-0.14040 0.13250 0.08136
-0.01191 0.13250 0.26675
-0.22225 0.13250 0.26561
-0.06722 0.13250 0.18706
-0.10705 0.13250 0.13725
0.23592 0.13250 0.29440
0.04547 0.13250 0.17949
-0.12696 0.13250 0.22173
-0.14196 0.13250 0.24943
0.00549 0.13250 0.27897
0.27292 0.13250 0.30489
0.10122 0.13250 0.22190
-0.04466 0.13250 0.17602
0.04163 0.13250 0.25201
-0.13162 0.13250 0.25395
-0.00955 0.13250 0.28436
-0.09273 0.13250 0.08042
-0.03138 0.13250 0.13398
-0.05294 0.13250 0.18375
-0.04852 0.13250 0.28136
-0.09910 0.13250 0.28482
0.04254 0.13250 0.30038
0.08552 0.13250 0.25330
-0.00501 0.13250 0.20082
-0.15886 0.13250 0.11756
-0.01060 0.13250 0.25741
-0.12857 0.13250 0.17557
0.09748 0.13250 0.28915
-0.18043 0.13250 0.19729
-0.08630 0.13250 0.27640
-0.16414 0.13250 0.15376
0.21234 0.13250 0.29040
-0.04887 0.13250 0.12501
-0.01294 0.13250 0.15103
0.11327 0.13250 0.22677
0.18845 0.13250 0.27698
-0.10134 0.13250 0.13382
-0.18045 0.13250 0.20629
0.00145 0.13250 0.23181
0.04002 0.13250 0.27358
-0.11320 0.13250 0.22458
-0.18597 0.13250 0.15723
-0.11504 0.13250 0.07205
-0.12271 0.13250 0.21585
-0.21163 0.13250 0.28723
-0.02708 0.13250 0.23719
-0.19507 0.13250 0.26881
0.11239 0.13250 0.20612
0.08349 0.13250 0.27266
0.04563 0.13250 0.27178
-0.11615 0.13250 0.29695
-0.13431 0.13250 0.19873
-0.09486 0.13250 0.22116
-0.00938 0.13250 0.21347
-0.13831 0.13250 0.30654
-0.16151 0.13250 0.23584
-0.01345 0.13250 0.18949
0.07409 0.13250 0.27284
-0.06318 0.13250 0.15136
0.07969 0.13250 0.23806
-0.02597 0.13250 0.15968
-0.31407 0.11880 -0.02182
-0.31407 0.06005 -0.10090
-0.31407 0.12408 0.01770
-0.31407 0.11900 -0.05523
-0.31407 0.12872 -0.09920
-0.31407 0.08638 -0.11275
-0.31407 0.07510 -0.10217
-0.31407 0.12400 -0.04239
-0.31407 0.12939 0.01291
-0.31407 0.09678 -0.04351
-0.31407 0.01879 -0.15457
-0.31407 0.12623 -0.06989
-0.31407 0.11513 0.00366
-0.31407 0.00775 -0.18379
-0.31407 0.03927 -0.17218
-0.31407 0.06191 -0.15692
-0.31407 0.10612 0.00313
-0.31407 0.03843 -0.15781
-0.31407 0.09083 -0.05846
-0.31407 0.06898 -0.09690
-0.31407 0.12267 -0.08848
0.32389 0.14094 0.09109
0.32389 0.13661 0.16526
-0.32389 0.12714 0.24501
-0.32389 0.12881 0.22706
0.32006 -0.14231 0.20063
0.30708 -0.14231 0.32592
0.31940 -0.14231 0.23590
0.31912 -0.14231 0.33306
0.31281 -0.14231 0.26776
0.13542 0.13770 0.05889
-0.00504 0.14083 0.05889
-0.29760 0.13250 0.12835
-0.29270 0.13250 0.29787
-0.27711 0.14106 0.05889
-0.32389 0.13520 0.04714
-0.32389 0.13624 -0.02748
-0.32389 0.14000 -0.11677
-0.31590 -0.02234 0.05889
-0.29925 0.10986 -0.35333
-0.19226 -0.04275 -0.35333
-0.20879 0.03069 -0.35333
-0.18905 0.13203 -0.35333
-0.18552 0.07326 -0.35333
-0.18232 0.02958 -0.35333
-0.14708 -0.00105 -0.35333
-0.13415 -0.12071 -0.35333
-0.15015 0.09660 -0.35333
-0.14914 0.02592 -0.35333
-0.15340 0.03614 -0.35333
-0.14969 0.08832 -0.35333
-0.18241 0.11531 -0.35333
-0.17569 -0.05113 -0.35333
-0.15316 -0.08078 -0.35333
-0.20671 0.01989 -0.35333
-0.15083 0.05872 -0.35333
-0.14495 0.12888 -0.35333
-0.15751 -0.04195 -0.35333
-0.19753 -0.01370 -0.35333
-0.16568 -0.03113 -0.35333
-0.15263 0.06578 -0.35333
-0.13452 0.02515 -0.35333
-0.24359 0.09452 -0.35333
-0.18004 0.01742 -0.35333
-0.12794 0.01195 -0.35333
-0.24757 0.03022 -0.35333
-0.20145 0.03578 -0.35333
-0.19019 0.07960 -0.35333
-0.14601 -0.10932 -0.35333
-0.21389 0.01036 -0.35333
-0.15737 -0.01956 -0.35333
-0.16819 0.02823 -0.35333
-0.24772 0.08104 -0.35333
-0.26981 0.11414 -0.35333
0.32389 0.12349 0.18140
0.32389 0.12720 0.32697
0.32389 0.13987 0.24882
0.32389 0.13859 0.22522
0.29935 0.08619 0.34939
-0.30948 -0.06230 0.05889
-0.30358 -0.13830 0.05889
-0.29935 0.03957 0.34577
-0.32389 0.12903 0.34644
-0.32389 0.02547 0.35007
0.32389 -0.13659 0.23704
0.32389 -0.13943 0.25392
-0.31425 -0.13250 0.08129
-0.30684 -0.13250 0.24313
-0.30291 -0.13250 0.23460
-0.31030 -0.13250 0.20433
-0.30723 -0.13250 0.22010
0.30261 -0.08739 0.06870
0.30476 0.07301 0.06870
0.30105 0.06807 0.06870
-0.32389 0.13905 0.19134
-0.32389 0.14170 0.08423
-0.31522 0.05115 0.34352
-0.30065 -0.11600 0.34352
-0.30294 -0.00254 0.34352
-0.25810 0.13250 0.27108
-0.21539 0.13250 0.22836
0.05620 0.13250 0.28127
-0.17862 0.13250 0.28914
-0.13046 0.13250 0.26186
-0.08172 0.13250 0.24183
-0.15340 0.13250 0.24849
-0.04333 0.13250 0.22311
-0.00908 0.13250 0.18477
-0.12553 0.13250 0.27396
-0.02903 0.13250 0.18631
0.08553 0.13250 0.23943
-0.17811 0.13250 0.22358
-0.10773 0.13250 0.09743
0.02855 0.13250 0.21286
-0.15415 0.13250 0.16436
0.16463 0.13250 0.30096
0.10647 0.13250 0.24606
0.13241 0.13250 0.29516
-0.05783 0.13250 0.27228
-0.15212 0.13250 0.26747
-0.03115 0.13250 0.17474
0.14551 0.13250 0.24739
-0.21821 0.13250 0.23420
0.16974 0.13250 0.24288
-0.03421 0.13250 0.27605
-0.15667 0.13250 0.22721
0.24390 0.13250 0.29081
-0.06881 0.13250 0.30004
0.01856 0.13250 0.16546
-0.21572 0.13250 0.24649
-0.12770 0.13250 0.19051
-0.18396 0.13250 0.21920
-0.01768 0.13250 0.16120
-0.18099 0.13250 0.16570
0.18247 0.13250 0.29361
-0.07969 0.13250 0.20695
-0.05459 0.13250 0.30321
0.05152 0.13250 0.20335
0.23154 0.13250 0.27943
0.03691 0.13250 0.16027
0.03336 0.13250 0.26666
-0.24750 0.13250 0.27075
0.06615 0.13250 0.25006
-0.18208 0.13250 0.27293
-0.15076 0.13250 0.12167
0.01476 0.13250 0.19557
-0.13748 0.13250 0.23902
-0.05276 0.13250 0.10595
-0.04851 0.13250 0.19180
-0.05244 0.13250 0.17730
0.04388 0.13250 0.16615
0.05766 0.13250 0.16941
-0.08999 0.13250 0.26826
-0.09730 0.13250 0.22714
-0.01909 0.13250 0.21146
-0.12347 0.13250 0.25725
-0.05538 0.13250 0.25378
-0.07970 0.13250 0.28725
0.00128 0.13250 0.14723
0.06952 0.13250 0.20518
-0.11184 0.13250 0.17191
-0.05450 0.13250 0.13065
-0.21067 0.13250 0.19846
-0.06859 0.13250 0.26499
-0.06881 0.13250 0.22207
-0.08662 0.13250 0.21362
-0.21042 0.13250 0.27532
-0.20920 0.13250 0.18832
0.12582 0.13250 0.21914
-0.15847 0.13250 0.17912
-0.09958 0.13250 0.17698
-0.19027 0.13250 0.16159
0.19294 0.13250 0.29530
-0.30756 0.13250 -0.17262
-0.29781 0.13250 -0.02751
-0.30054 0.13250 -0.00220
-0.24813 0.13250 -0.13038
-0.20241 0.13250 -0.19622
-0.26008 0.13250 -0.18996
-0.18947 0.13250 -0.13749
-0.18592 0.13250 -0.18190
-0.28532 0.13250 -0.15253
-0.31061 0.13250 -0.12776
-0.28420 0.13250 -0.02338
-0.30473 0.13250 -0.11267
-0.20706 0.13250 -0.18005
-0.22409 0.13250 -0.06694
-0.31122 0.13250 -0.07609
-0.30119 0.13250 -0.12496
-0.29906 0.13250 -0.04064
-0.27517 0.13250 -0.17760
-0.30114 0.13250 0.03332
-0.26946 0.13250 -0.05789
-0.28731 0.13250 -0.06159
-0.27104 0.13250 -0.09082
-0.20101 0.13250 -0.14829
-0.25519 0.13250 -0.09203
-0.30655 0.13250 0.00885
-0.27338 0.13250 -0.00000
-0.26684 0.13250 -0.13778
-0.29961 0.13250 -0.16130
-0.30019 0.13250 -0.09617
-0.27975 0.13250 -0.00652
0.30981 0.07730 0.05889
0.31614 0.09731 0.05889
0.31737 -0.03093 0.05889
0.31703 0.08788 0.05889
0.30462 0.08749 0.05889
0.29935 0.03737 0.06807
-0.29397 0.13741 0.05889
-0.17409 0.05309 0.31707
0.17904 0.11825 0.31707
0.04686 0.08799 0.31707
0.08180 0.09433 0.31707
0.00264 0.12234 0.31707
0.04358 0.07943 0.31707
0.09198 0.10463 0.31707
-0.08327 0.11545 0.31707
-0.22324 0.05783 0.31707
-0.25281 0.10794 0.31707
0.20485 0.12300 0.31707
-0.13337 0.06052 0.31707
-0.11691 0.05292 0.31707
-0.27225 0.09598 0.31707
-0.11043 0.04180 0.31707
-0.24794 0.04903 0.31707
-0.27447 0.01283 0.31707
-0.15583 0.06944 0.31707
0.03475 0.10899 0.31707
-0.03970 0.10969 0.31707
0.06965 0.08625 0.31707
-0.26277 0.07335 0.31707
-0.17725 0.02274 0.31707
-0.26162 0.06716 0.31707
0.09420 0.12781 0.31707
-0.22343 0.02559 0.31707
-0.03660 0.11641 0.31707
-0.28714 0.00543 0.31707
-0.08985 0.10843 0.31707
0.19956 0.13181 0.31707
0.00798 0.07305 0.31707
0.10869 0.10253 0.31707
-0.23870 0.11436 0.31707
-0.28806 0.09352 0.31707
0.04576 0.10139 0.31707
-0.02930 0.11038 0.31707
-0.18222 0.03513 0.31707
-0.02699 0.13025 0.31707
-0.28584 0.01159 0.31707
-0.11554 0.09629 0.31707
-0.15301 0.09471 0.31707
0.05356 0.07822 0.31707
-0.24206 0.04508 0.31707
0.32389 -0.10863 0.06195
0.29935 -0.13698 0.31397
0.29935 -0.13370 0.33608
-0.32389 -0.14121 0.13735
-0.32389 -0.13727 0.08413
-0.18220 -0.14231 -0.28571
-0.23366 -0.14231 -0.21709
-0.17392 -0.14231 -0.25673
-0.22528 -0.14231 -0.22325
-0.19616 -0.14231 -0.29620
-0.16704 -0.14231 -0.29142
-0.18589 -0.14231 -0.20100
-0.15674 -0.14231 -0.26802
-0.13867 -0.14231 -0.22892
-0.28265 -0.14231 -0.22203
-0.28549 -0.14231 -0.20282
-0.20844 -0.14231 -0.21225
-0.17915 -0.14231 -0.30576
-0.24565 -0.14231 -0.20348
-0.15657 -0.14231 -0.27938
-0.20399 -0.14231 -0.20645
-0.22812 -0.14231 -0.20233
-0.20088 -0.14231 -0.22959
-0.21848 -0.14231 -0.26671
-0.13121 -0.14231 -0.27356
-0.29935 -0.09813 0.06265
-0.29935 -0.10981 0.06027
-0.32389 -0.05159 0.06339
-0.32389 -0.03375 0.06057
-0.12759 -0.05920 -0.34751
-0.29935 -0.13955 0.16399
-0.18726 -0.07357 -0.19630
-0.23950 0.00062 -0.19630
-0.20545 -0.02597 -0.19630
-0.14771 -0.03486 -0.19630
-0.23049 -0.00918 -0.19630
-0.17374 -0.00429 -0.19630
-0.15678 -0.08470 -0.19630
-0.16201 -0.00631 -0.19630
-0.16883 -0.01847 -0.19630
-0.17134 -0.06987 -0.19630
-0.19621 -0.03009 -0.19630
-0.14256 -0.07535 -0.19630
-0.13813 0.00120 -0.19630
-0.13389 -0.06187 -0.19630
-0.21042 -0.05685 -0.19630
-0.12759 -0.11457 -0.31404
-0.12759 -0.12493 -0.32533
-0.12759 -0.12834 -0.28402
-0.32389 0.13582 0.02148
-0.32389 0.13844 -0.09232
-0.32389 0.13711 -0.10366
-0.32309 0.07077 0.05889
-0.30127 0.01890 0.06870
-0.31817 -0.12294 0.06870
-0.31194 -0.04496 0.06870
-0.06235 0.14231 0.34767
0.10547 0.14231 0.27065
-0.11943 0.14231 0.19134
0.01754 0.14231 0.23142
-0.19325 0.14231 0.15718
-0.02612 0.14231 0.22954
0.08864 0.14231 0.29730
-0.23521 0.14231 0.14993
-0.18177 0.14231 0.16767
-0.02216 0.14231 0.31969
0.15961 0.14231 0.28944
-0.24726 0.14231 0.20705
-0.22070 0.14231 0.23402
-0.28063 0.14231 0.14270
0.05436 0.14231 0.24012
-0.21311 0.14231 0.12306
-0.28955 0.14231 0.09098
0.05031 0.14231 0.34950
-0.10844 0.14231 0.19942
-0.26578 0.14231 0.26528
-0.09558 0.14231 0.34058
-0.19251 0.14231 0.24973
0.17975 0.14231 0.29674
0.17653 0.14231 0.31106
-0.26914 0.14231 0.23046
0.07616 0.14231 0.25533
-0.15817 0.14231 0.33919
-0.04311 0.14231 0.24640
0.04040 0.14231 0.22539
-0.24136 0.14231 0.23881
-0.08118 0.14231 0.19800
-0.12562 0.14231 0.23675
-0.13318 0.14231 0.18572
-0.13899 0.14231 0.19048
-0.06689 0.14231 0.30789
-0.30807 0.14231 0.22194
-0.32152 0.14231 0.20300
-0.07654 0.14231 0.23432
-0.26066 0.14231 0.23941
-0.00873 0.14231 0.24171
-0.00193 0.14231 0.30623
-0.20298 0.14231 0.23531
0.16692 0.14231 0.31770
-0.29960 0.14231 0.16630
-0.25507 0.14231 0.16906
-0.31372 0.14231 0.06886
-0.26676 0.14231 0.21355
0.18616 0.14231 0.33623
-0.27433 0.14231 0.09338
-0.07046 0.14231 0.32803
-0.24438 0.14231 0.27398
-0.21253 0.14231 0.35179
-0.28585 0.14231 0.17583
-0.09896 0.14231 0.23398
0.03567 0.14231 0.26316
-0.07475 0.14231 0.28709
-0.15831 0.14231 0.29251
-0.29081 0.14231 0.21603
-0.03308 0.14231 0.21252
-0.28857 0.14231 0.29828
-0.31888 0.14231 0.13731
-0.30517 0.14231 0.11490
-0.13767 0.14231 0.19789
0.16606 0.14231 0.29192
-0.31583 0.14231 0.29836
-0.29614 0.14231 0.20432
-0.10911 0.14231 0.30487
-0.05797 0.14231 0.19985
0.04677 0.14231 0.34026
0.10556 0.14231 0.34839
0.07298 0.14231 0.26570
-0.18757 0.14231 0.14230
-0.26874 0.14231 0.33441
-0.31256 0.14231 0.32946
0.06922 0.14231 0.29873
-0.15640 0.14231 0.31413
-0.27344 0.14231 0.09996
-0.28173 0.14231 0.27039
-0.04916 0.14231 0.28391
-0.24024 0.14231 0.29300
0.19050 0.14231 0.31121
-0.26491 0.14231 0.20112
0.13434 0.14231 0.26722
0.18377 0.14231 0.30344
-0.23543 0.14231 0.20631
-0.17116 0.14231 0.21103
-0.05247 0.14231 0.27050
-0.27648 0.14231 0.13400
0.24600 0.14231 0.33625
-0.25817 0.14231 0.28509
-0.15857 0.14231 0.15194
-0.05877 0.14231 0.27206
-0.22588 0.14231 0.22053
-0.24245 0.14231 0.16986
-0.31172 0.14231 0.07888
-0.20997 0.14231 0.27461
0.04998 0.14231 0.29284
0.04122 0.14231 0.26985
-0.14980 0.14231 0.13989
-0.19429 0.14231 0.27175
-0.01554 0.14231 0.34375
0.08463 0.14231 0.25211
0.20698 0.14231 0.33411
-0.17154 0.14231 0.23046
0.07617 0.14231 0.32821
-0.08988 0.14231 0.30815
-0.19724 0.14231 0.16858
0.15937 0.14231 0.29681
0.12136 0.14231 0.32245
0.01943 0.14231 0.27253
-0.01938 0.14231 0.20642
0.18777 0.14231 0.34725
-0.21057 0.14231 0.30879
-0.07774 0.14231 0.32394
-0.32222 0.14231 0.15764
-0.18731 0.14231 0.34136
-0.24898 0.14231 0.26150
-0.31615 0.14231 0.33714
-0.15264 0.14231 0.25794
-0.03216 0.14231 0.27416
-0.04177 0.14231 0.29970
-0.30662 0.13964 0.35333
0.01130 0.14121 0.35333
0.11646 0.14016 0.35333
-0.22246 0.14189 -0.35333
0.31166 -0.13250 0.07666
0.31841 -0.13250 0.16436
0.32027 -0.13250 0.25088
0.32223 -0.13250 0.07604
0.30491 -0.13250 0.13057
-0.07460 0.13958 0.35333
0.03211 0.14169 0.35333
-0.05787 0.14192 0.35333
-0.20290 0.14201 0.35333
-0.17333 -0.08169 -0.35333
-0.17535 -0.08736 -0.35333
-0.24253 -0.04138 -0.35333
-0.21334 -0.02542 -0.35333
-0.32122 0.07549 -0.35333
-0.31560 0.04378 -0.35333
-0.24540 -0.07175 -0.35333
-0.31467 0.09346 -0.35333
-0.31546 0.07949 -0.35333
-0.31215 0.01908 -0.35333
-0.21806 -0.05537 -0.35333
-0.17668 -0.14214 -0.35333
-0.25236 -0.12976 -0.35333
-0.26421 -0.05082 -0.35333
-0.16160 -0.13910 -0.35333
-0.20094 -0.12041 -0.35333
-0.29833 0.00375 -0.35333
-0.28664 -0.10140 -0.35333
-0.24335 -0.13428 -0.35333
-0.30118 -0.10495 -0.35333
-0.19340 -0.11875 -0.35333
-0.30816 -0.06849 -0.35333
-0.14877 -0.14027 -0.35333
-0.26623 -0.08986 -0.35333
-0.28762 0.06607 -0.35333
-0.25330 -0.13799 -0.35333
-0.32195 -0.11001 -0.35333
-0.12759 0.14170 -0.23184
-0.12759 0.14040 -0.13940
0.31872 0.06270 0.06870
0.32115 -0.04542 0.06870
0.31659 -0.02125 0.06870
-0.30345 0.12269 0.31266
-0.30742 0.12269 0.25129
-0.30157 0.12269 0.15106
-0.31562 0.12269 0.26202
-0.30044 0.12269 0.19609
0.30151 -0.10699 0.35333
0.30282 0.02639 0.35333
0.30872 0.11294 0.35333
-0.31946 -0.00491 0.02267
-0.31688 -0.00491 -0.09388
-0.32389 0.04525 -0.25183
-0.32389 -0.06629 -0.20879
-0.32389 0.04264 -0.27790
-0.32389 0.08365 -0.29088
-0.32389 -0.01627 -0.25300
-0.32389 -0.03333 -0.20380
-0.32389 -0.07240 -0.19829
-0.32389 0.03832 -0.28398
-0.32389 -0.02337 -0.23858
-0.32389 -0.05986 -0.24050
-0.32389 -0.02780 -0.22296
-0.32389 -0.01915 -0.21570
-0.32389 0.09422 -0.30708
-0.32065 -0.14231 0.15252
-0.31815 -0.14231 0.09913
0.24748 0.13250 0.34851
-0.00090 0.13250 0.32494
-0.14326 0.13250 0.32141
-0.04718 0.13250 0.31998
0.11995 0.13250 0.32462
0.23923 0.13250 0.34529
0.03675 0.13250 0.33465
0.10485 0.13250 0.33036
0.04160 0.13250 0.32757
0.19798 0.13250 0.33812
0.23223 0.13250 0.33040
0.10124 0.13250 0.31732
0.06268 0.13250 0.32362
0.30786 -0.12094 0.05889
0.30202 0.03826 0.05889
0.31172 -0.02463 0.05889
0.30557 -0.09209 0.05889
0.29945 -0.00882 0.05889
-0.32205 -0.14231 0.31846
-0.32045 -0.14231 0.26178
-0.32112 -0.14231 0.30787
-0.30494 -0.14231 0.24856
-0.31680 -0.14231 0.29110
-0.13743 0.13250 -0.11510
-0.13201 0.13250 0.01020
-0.13834 0.13250 -0.12914
-0.14449 0.13250 -0.08694
-0.22140 0.13250 0.04950
-0.12821 0.13250 0.00414
-0.22027 0.13250 -0.01904
-0.16866 0.13250 -0.07150
-0.25593 0.13250 0.02555
-0.15501 0.13250 -0.05507
-0.21348 0.13250 -0.04512
-0.14287 0.13250 0.02290
-0.22760 0.13250 -0.04090
-0.13715 0.13250 -0.04664
-0.24952 0.13250 0.00229
-0.14524 0.13250 -0.03362
-0.23033 0.13250 0.00416
-0.23799 0.13250 0.01929
-0.13620 0.13250 0.04508
-0.16281 0.13250 0.05503
-0.19638 0.13250 -0.03205
-0.18349 0.13250 -0.03039
-0.17766 0.13250 0.01663
-0.23495 0.13250 -0.00104
-0.19273 0.13250 0.00748
-0.15781 0.13250 -0.07887
-0.20118 0.13250 -0.00865
-0.29935 0.03433 0.35296
-0.29935 -0.12074 0.35224
-0.12759 0.03167 -0.34780
-0.12759 0.04586 -0.33646
-0.12759 0.03194 -0.33124
-0.12759 0.06991 -0.21975
-0.12759 0.05346 -0.33602
-0.12759 0.05094 -0.30889
-0.12759 0.05351 -0.26904
0.31255 0.06400 0.05889
0.31659 0.04878 0.05889
0.31883 0.03921 0.05889
0.32377 0.04792 0.05889
0.29935 0.12902 0.06680
0.29935 0.12445 0.21633
-0.29172 0.13250 0.33480
0.10133 0.13250 0.34675
-0.25641 0.13250 0.35101
-0.03173 0.13250 0.33647
0.07174 0.13250 0.34801
0.07998 0.13250 0.34207
-0.23480 0.13250 0.32776
-0.05533 0.13250 0.33269
-0.20620 0.13250 0.35156
-0.19367 0.13250 0.34482
-0.06524 0.13250 0.35291
0.18534 0.13250 0.35272
0.00404 0.13250 0.34129
-0.15933 0.13250 0.35170
-0.14854 0.13394 -0.35333
0.30405 -0.11592 0.06870
0.32331 0.00294 0.06870
0.32143 0.09200 0.06870
0.31721 -0.10237 0.06870
-0.29935 0.08006 0.06495
-0.32312 0.06622 0.34352
-0.31700 -0.08488 0.34352
-0.31818 -0.00071 0.34352
-0.13870 0.13250 -0.18098
-0.27546 0.13250 0.02319
-0.24423 0.13250 -0.02396
0.29821 0.13250 0.10613
0.29154 0.13250 0.27116
-0.32389 0.09276 -0.28423
-0.32389 0.03322 -0.07941
-0.32389 0.06165 -0.20687
-0.32389 0.04921 -0.11868
-0.32389 0.00145 -0.01414
-0.32389 0.03879 -0.21706
-0.32389 0.07648 -0.19981
-0.32389 -0.00418 -0.16269
-0.32389 0.03721 -0.12760
-0.32389 0.00317 -0.05357
-0.32389 0.06445 -0.23598
-0.32389 0.07524 -0.21043
-0.32389 0.06668 -0.15478
-0.32389 0.02913 -0.06228
-0.32389 0.06814 -0.16092
-0.32389 0.08108 -0.22121
-0.32389 0.01697 -0.01674
-0.32389 0.05943 -0.22032
-0.32389 0.01047 -0.18062
-0.32389 0.06694 -0.18799
-0.32389 -0.00358 0.00024
-0.32389 0.10207 -0.25991
-0.32389 0.05381 -0.19951
-0.32389 0.07282 -0.27604
-0.13211 0.14231 -0.21903
-0.15372 0.14231 -0.01436
-0.24005 0.14231 -0.20392
-0.14628 0.14231 -0.25358
-0.13778 0.14231 -0.09574
-0.24865 0.14231 -0.29931
-0.29162 0.14231 -0.30378
-0.14859 0.14231 -0.18099
-0.26292 0.14231 -0.34006
-0.17001 0.14231 -0.08911
-0.20913 0.14231 -0.22837
-0.23957 0.14231 -0.27201
-0.19964 0.14231 -0.30506
-0.15208 0.14231 -0.26898
-0.24457 0.14231 -0.33581
-0.22302 0.14231 -0.21659
-0.14260 0.14231 -0.31775
-0.14160 0.14231 -0.28031
-0.14575 0.14231 0.00578
-0.21290 0.14231 -0.24624
-0.17250 0.14231 -0.21311
-0.19401 0.14231 -0.25768
-0.26184 0.14231 -0.23281
-0.15695 0.14231 -0.05292
-0.14474 0.14231 -0.14094
-0.13347 0.14231 -0.01342
-0.24896 0.14231 -0.22998
-0.13398 0.14231 -0.17994
-0.20668 0.14231 -0.32375
-0.18434 0.14231 -0.16442
-0.13410 0.14231 -0.04933
-0.20215 0.14231 -0.12919
-0.15026 0.14231 -0.23664
-0.19300 0.14231 -0.17502
-0.25703 0.14231 -0.33430
-0.21345 0.14231 -0.16017
-0.19132 0.14231 -0.19095
-0.24029 0.14231 -0.30361
-0.18371 0.14231 -0.31058
-0.28624 0.14231 -0.28317
-0.18647 0.14231 -0.18701
-0.19098 0.14231 -0.16093
-0.14183 0.14231 -0.21335
-0.13271 0.14231 0.01196
-0.27860 0.14231 -0.29185
-0.14886 0.14231 -0.27576
-0.29650 0.14231 -0.33843
-0.12909 0.14231 0.04051
-0.24094 0.14231 -0.22211
-0.22487 0.13250 -0.10649
-0.18592 0.13250 -0.14591
-0.27457 0.13250 -0.04151
-0.30593 0.13250 -0.19172
-0.29848 0.13250 -0.04870
-0.28423 0.13250 -0.08324
-0.26522 0.13250 -0.17224
-0.26918 0.13250 -0.12559
-0.31092 0.13250 0.03501
-0.29610 0.13250 -0.03541
-0.26271 0.13250 -0.02463
-0.22104 0.13250 -0.15024
-0.27087 0.13250 -0.14237
-0.26156 0.13250 -0.12073
-0.25789 0.13250 -0.13158
-0.28988 0.13250 -0.10563
-0.19843 0.13250 -0.10752
-0.31095 0.13250 0.05267
-0.28696 0.13250 -0.14142
-0.19923 0.13250 -0.13603
-0.21283 0.13250 -0.08671
-0.28600 0.13250 0.01099
-0.30880 0.13250 -0.06603
-0.30159 0.13250 -0.14551
-0.27744 0.13250 -0.07612
-0.23058 0.13250 -0.06715
0.31202 -0.14231 0.13070
0.30376 -0.14231 0.27815
0.31109 -0.14231 0.17450
0.30118 -0.14231 0.10145
-0.30703 -0.00898 -0.19630
-0.13354 0.14231 0.08149
-0.07038 0.14231 0.17221
-0.14632 0.14231 0.11057
-0.05529 0.14231 0.17657
-0.12864 0.14231 0.10640
-0.06158 0.14231 0.12951
-0.04783 0.14231 0.13648
0.29893 0.14231 0.34022
-0.26236 0.14231 0.07240
0.23090 0.14231 0.29707
0.16283 0.14231 0.25157
-0.22926 0.14231 0.08889
-0.11826 0.14231 0.14852
-0.03719 0.14231 0.18622
-0.14298 0.14231 0.13013
0.00806 0.14231 0.15783
-0.19021 0.14231 0.10964
-0.11383 0.14231 0.07381
0.22384 0.14231 0.30253
-0.10829 0.14231 0.15082
-0.07343 0.14231 0.12903
-0.04992 0.14231 0.14950
-0.02197 0.14231 0.17845
0.09146 0.14231 0.23729
-0.09738 0.14231 0.12062
-0.05511 0.14231 0.10653
0.21203 0.14231 0.29442
-0.00083 0.14231 0.14219
-0.00676 0.14231 0.17330
-0.13288 0.14231 0.07092
-0.20899 0.14231 -0.15579
-0.13200 0.14231 -0.12782
-0.30594 0.14231 -0.32723
-0.15976 0.14231 -0.16079
-0.16990 0.14231 -0.26254
-0.18612 0.14231 -0.07707
-0.18590 0.14231 -0.11998
-0.18491 0.14231 -0.23994
-0.16489 0.14231 -0.09614
-0.16581 0.14231 -0.17655
-0.19904 0.14231 -0.22567
-0.25651 0.14231 -0.27528
-0.20601 0.14231 -0.21773
-0.18709 0.14231 -0.14124
-0.13882 0.14231 -0.13834
-0.17529 0.14231 -0.19996
-0.22141 0.14231 -0.19562
-0.16649 0.14231 -0.07893
-0.14338 0.14231 -0.19113
-0.21459 0.14231 -0.23476
-0.16762 0.14231 -0.12333
-0.17628 0.14231 -0.11285
-0.23606 0.14231 -0.33305
-0.23095 0.14231 -0.18046
-0.25433 0.14231 -0.24851
-0.14921 0.14231 -0.21003
-0.25907 0.14231 -0.24239
-0.17986 0.14231 -0.20452
-0.13580 0.14231 -0.02251
-0.21718 0.14231 -0.31901
-0.14933 0.14231 -0.16122
-0.16254 0.14231 -0.09064
-0.16843 0.14231 -0.10686
-0.23740 0.14231 -0.23492
-0.15102 0.14231 -0.29881
-0.21012 0.14231 -0.18981
-0.27256 0.14231 -0.26323
-0.13941 0.14231 -0.06930
-0.14794 0.14231 -0.10650
-0.13440 0.14231 -0.33285
-0.14697 0.14231 -0.06963
-0.15610 0.14231 -0.24618
-0.28388 0.14231 -0.29790
-0.15007 0.14231 -0.09507
-0.17426 0.14231 -0.26660
-0.16695 0.14231 -0.34224
-0.20615 0.14231 -0.14906
-0.30049 -0.01035 0.06870
-0.30294 -0.09206 0.06870
0.32389 -0.14129 0.15096
-0.28607 0.14231 0.20168
-0.06936 0.14231 0.21583
-0.05731 0.14231 0.25818
0.09304 0.14231 0.26982
0.03088 0.14231 0.25305
0.22931 0.14231 0.32939
-0.12429 0.14231 0.20054
0.16578 0.14231 0.32983
-0.19820 0.14231 0.32926
-0.12835 0.14231 0.28961
-0.18178 0.14231 0.30658
0.06941 0.14231 0.32751
-0.25072 0.14231 0.24992
-0.17145 0.14231 0.30380
0.12361 0.14231 0.27076
-0.00344 0.14231 0.27702
-0.30935 0.14231 0.14284
-0.22172 0.14231 0.16994
-0.23739 0.14231 0.19778
-0.21077 0.14231 0.13298
-0.11871 0.14231 0.26833
-0.24107 0.14231 0.34578
-0.19635 0.14231 0.25688
-0.29966 0.14231 0.07757
0.23834 0.14231 0.34402
-0.29776 0.14231 0.34147
-0.30090 0.14231 0.31906
-0.16578 0.14231 0.28823
-0.20562 0.14231 0.25322
-0.25901 0.14231 0.12685
-0.00099 0.14231 0.34788
-0.10312 0.14231 0.24841
-0.19960 0.14231 0.16025
-0.13500 0.14231 0.16276
-0.04014 0.14231 0.34779
-0.16677 0.14231 0.31750
0.23414 0.14231 0.33986
-0.06676 0.14231 0.28430
-0.12016 0.14231 0.29055
0.13724 0.14231 0.33139
-0.04358 0.14231 0.19416
-0.06481 0.14231 0.31519
-0.23109 0.14231 0.32648
-0.14233 0.14231 0.20187
-0.13632 0.14231 0.15115
-0.30096 0.14231 0.25942
-0.17882 0.14231 0.16071
-0.19249 0.14231 0.22914
-0.28227 0.14231 0.33157
-0.28983 0.14231 0.22519
-0.23464 0.14231 0.30728
-0.01639 0.14231 0.19942
0.04386 0.14231 0.33490
-0.16871 0.14231 0.32347
-0.19174 0.14231 0.23925
-0.02948 0.14231 0.21825
-0.20412 0.14231 0.32794
0.07274 0.14231 0.32003
-0.29985 0.14231 0.15889
0.10044 0.14231 0.26489
-0.05295 0.14231 0.26420
-0.01977 0.14231 0.22701
-0.15758 0.14231 0.19715
0.01871 0.14231 0.31380
-0.26297 0.14231 0.16911
0.12965 0.14231 0.32577
-0.19044 0.14231 0.21353
-0.27388 0.14231 0.17303
-0.22053 0.14231 0.12615
-0.13198 0.14231 0.21571
-0.25942 0.14231 0.19864
-0.23399 0.14231 0.15674
-0.18559 0.14231 0.28523
-0.27326 0.14231 0.24365
-0.25672 0.14231 0.23464
-0.31234 0.14231 0.26523
-0.19159 0.14231 0.28137
-0.29768 0.14231 0.11275
-0.29031 0.14231 0.16796
-0.28311 0.14231 0.16658
-0.22599 0.14231 0.15789
-0.15119 0.14231 0.20805
-0.30394 0.14231 0.09934
-0.04661 0.14231 0.21807
-0.00743 0.14231 0.23168
-0.00541 0.14231 0.32446
-0.01083 0.14231 0.24840
-0.09570 0.14231 0.24125
-0.31755 0.14231 0.19104
-0.24911 0.14231 0.14033
0.00279 0.14231 0.26036
-0.08610 0.14231 0.34992
-0.22678 0.14231 0.26492
0.00542 0.14231 0.29701
-0.19994 0.14231 0.14730
-0.08391 0.14231 0.32814
-0.04301 0.14231 0.28505
-0.23517 0.14231 0.13690
-0.30137 0.14231 0.30927
-0.16021 0.14231 0.25936
-0.01073 0.14231 0.21628
-0.14827 0.14231 0.17806
-0.09773 0.14231 0.31947
-0.28423 0.14231 0.28174
-0.16137 0.14231 0.18612
-0.12759 0.13188 -0.25699
-0.12759 0.11530 -0.32895
-0.12759 0.11831 -0.32126
-0.12759 0.10211 -0.31009
-0.12759 0.08250 -0.33674
-0.12759 0.09575 -0.29891
0.28954 0.12887 0.31513
-0.31232 -0.05169 0.34352
-0.31483 -0.03346 0.34352
-0.32229 -0.07140 0.34352
-0.32150 0.00708 0.34352
0.29575 0.13250 0.31414
0.29831 0.13250 0.12077
0.14749 0.13218 0.30726
0.13120 0.11869 0.30726
-0.14930 0.12870 0.30726
0.18112 0.05277 0.30726
0.09173 0.12929 0.30726
-0.06088 0.12224 0.30726
0.09440 0.04631 0.30726
0.17224 0.11932 0.30726
0.20392 0.10550 0.30726
0.11924 0.10656 0.30726
0.24936 0.07672 0.30726
-0.07709 0.12063 0.30726
0.10069 0.13108 0.30726
0.06725 0.06361 0.30726
0.26313 0.03275 0.30726
0.14783 0.09284 0.30726
0.02068 0.06493 0.30726
0.07174 0.11358 0.30726
0.21081 0.03743 0.30726
0.19422 0.08268 0.30726
-0.05495 0.09770 0.30726
0.16307 0.07687 0.30726
-0.10933 0.09779 0.30726
0.23860 0.02788 0.30726
0.00156 0.10178 0.30726
0.24548 0.06417 0.30726
0.13378 0.12667 0.30726
0.09913 0.10771 0.30726
-0.24347 0.13048 0.30726
0.03019 0.13158 0.30726
0.05446 0.07486 0.30726
-0.11015 0.10471 0.30726
0.25780 0.12766 0.30726
0.22831 0.04319 0.30726
0.25690 0.10356 0.30726
-0.10426 0.13087 0.30726
-0.07826 0.10806 0.30726
0.04653 0.05879 0.30726
0.06207 0.10183 0.30726
-0.06572 0.12664 0.30726
-0.05065 0.08960 0.30726
0.04032 0.10920 0.30726
0.22051 0.08950 0.30726
0.06889 0.10289 0.30726
0.27900 0.03458 0.30726
0.11059 0.11918 0.30726
0.09952 0.08530 0.30726
-0.13060 0.12783 0.30726
-0.31407 0.03535 -0.18753
-0.31407 0.12649 -0.13608
-0.31407 0.12149 -0.07826
-0.31407 0.10374 -0.14631
-0.31407 0.11318 -0.14775
-0.31407 0.03607 -0.14166
-0.31407 0.09518 -0.10854
-0.31407 0.06178 -0.13568
-0.31407 0.08398 -0.17927
-0.31407 0.02892 -0.13406
-0.31407 0.04699 -0.13184
-0.31407 0.09919 -0.08793
-0.31407 0.11974 -0.10896
-0.31407 0.07683 -0.07910
-0.31407 0.11208 -0.06515
-0.31407 0.01615 -0.17065
-0.31407 0.04338 -0.11254
-0.31407 0.09877 -0.19157
-0.31407 0.12216 0.03217
-0.31407 0.12481 -0.15574
-0.32389 0.05282 -0.34255
-0.32389 -0.13524 -0.27848
-0.32389 -0.02917 -0.31460
-0.32389 -0.10804 -0.33102
-0.32389 -0.11279 -0.28546
-0.32389 -0.02464 -0.26512
-0.32389 0.00045 -0.29214
-0.32389 -0.07029 -0.30018
-0.32389 -0.11968 -0.26951
-0.32389 -0.11414 -0.21728
-0.32389 -0.13410 -0.22503
-0.32389 -0.04502 -0.26817
-0.32389 -0.12200 -0.25941
-0.32389 -0.07350 -0.24644
-0.32389 -0.02056 -0.30586
-0.32389 -0.06806 -0.34919
-0.32389 -0.11540 -0.31564
-0.32389 -0.08214 -0.31781
-0.32389 -0.08207 -0.24659
-0.32389 -0.03043 -0.35324
-0.32389 -0.08342 -0.33664
-0.32389 0.03476 -0.34740
-0.32389 0.00701 -0.28459
-0.32389 -0.13484 -0.33486
-0.32389 0.01017 -0.32203
-0.32389 -0.09825 -0.29179
-0.12759 0.05524 -0.34274
-0.12759 0.06969 -0.23981
-0.12759 0.05826 -0.30377
-0.12759 0.06352 -0.28454
-0.12759 0.06730 -0.32808
-0.12759 0.03012 -0.29973
0.32389 -0.08270 0.34597
0.32389 0.00492 0.35087
0.32389 0.14150 0.32247
-0.27305 0.11258 0.31707
-0.27550 0.01963 0.31707
-0.24342 0.06646 0.31707
-0.08079 0.10004 0.31707
-0.18188 0.13131 0.31707
-0.24624 0.07161 0.31707
-0.13443 0.11036 0.31707
0.00688 0.09015 0.31707
-0.20476 0.02226 0.31707
0.15367 0.10438 0.31707
-0.06147 0.13073 0.31707
-0.11863 0.11512 0.31707
-0.09011 0.11714 0.31707
-0.26251 0.11457 0.31707
-0.23675 0.02436 0.31707
-0.02427 0.11584 0.31707
-0.01851 0.09171 0.31707
0.01897 0.10440 0.31707
-0.24867 0.10132 0.31707
-0.12992 0.09493 0.31707
-0.27763 0.03502 0.31707
-0.16695 0.10368 0.31707
-0.15549 0.03549 0.31707
-0.16068 0.05726 0.31707
-0.26423 0.05279 0.31707
0.09865 0.11050 0.31707
-0.17929 0.07098 0.31707
-0.19656 0.08616 0.31707
0.19100 0.12516 0.31707
-0.23110 0.01189 0.31707
0.03763 0.11704 0.31707
-0.11346 0.12351 0.31707
-0.21301 0.04023 0.31707
-0.04810 0.07056 0.31707
-0.09015 0.05280 0.31707
-0.15831 0.07844 0.31707
-0.13430 0.07414 0.31707
-0.24486 0.02791 0.31707
-0.20310 0.04468 0.31707
-0.06412 0.05919 0.31707
-0.06376 0.04912 0.31707
-0.03815 0.06173 0.31707
0.08004 0.08360 0.31707
-0.21111 0.13163 0.31707
-0.32389 0.13695 0.15046
-0.30677 0.14231 -0.13274
-0.22562 0.14231 -0.07987
-0.31369 0.14231 -0.03063
-0.31546 0.14231 -0.28580
-0.29882 0.14231 -0.07411
-0.31458 0.14231 -0.22836
-0.30030 0.14231 -0.19785
-0.24466 0.14231 -0.17994
-0.25122 0.14231 -0.08261
-0.28897 0.14231 -0.19723
-0.19796 0.14231 0.01200
-0.22961 0.14231 0.02932
-0.23570 0.14231 -0.11234
-0.24516 0.14231 -0.05497
-0.18960 0.14231 -0.00572
-0.30122 0.14231 -0.10234
-0.30907 0.14231 -0.25214
-0.27418 0.14231 -0.17264
-0.29919 0.14231 0.00749
-0.22928 0.14231 -0.11280
-0.19128 0.14231 -0.02878
-0.30248 0.14231 -0.15283
-0.30074 0.14231 -0.04476
-0.19748 0.14231 0.04430
-0.31652 0.14231 -0.10564
-0.16970 0.14231 0.05491
-0.28225 0.14231 0.01071
-0.27185 0.14231 -0.13779
-0.28741 0.14231 -0.21079
-0.21954 0.14231 0.01349
-0.31156 0.14231 -0.22089
-0.26925 0.14231 -0.04193
-0.23236 0.14231 -0.03956
-0.27131 0.14231 0.02284
-0.17481 0.14231 -0.02132
-0.26290 0.14231 -0.01104
-0.28479 0.14231 -0.21634
-0.26382 0.14231 0.04397
-0.31165 0.14231 0.03879
-0.19100 0.14231 -0.04172
-0.31961 0.14231 -0.15055
-0.29547 0.14231 -0.01304
-0.30951 0.14231 -0.26683
-0.29332 0.14231 -0.18749
-0.20536 0.14231 -0.02992
-0.25668 0.14231 -0.01376
-0.22912 0.14231 -0.14528
-0.31330 0.14231 -0.00738
-0.31926 0.14231 -0.13746
-0.23932 0.14231 -0.09423
-0.21973 0.14231 -0.00823
-0.19894 0.14231 -0.07849
-0.31166 0.14231 -0.07242
-0.01178 -0.00491 0.31102
-0.25207 -0.00491 0.30872
0.04638 -0.00491 0.30930
-0.15397 -0.00491 0.31230
0.29935 -0.13899 0.17118
-0.30265 0.09159 0.34352
-0.30675 0.10503 0.34352
-0.30535 -0.02789 0.34352
0.06224 0.05691 0.30726
-0.11943 0.10192 0.30726
-0.16665 0.12491 0.30726
0.01377 0.09734 0.30726
0.05892 0.13018 0.30726
-0.22974 0.12396 0.30726
0.19937 0.07479 0.30726
-0.10532 0.11963 0.30726
-0.00562 0.13005 0.30726
0.11335 0.10970 0.30726
0.22629 0.01545 0.30726
0.16025 0.05318 0.30726
0.17726 0.09323 0.30726
0.14241 0.08587 0.30726
-0.17944 0.11925 0.30726
-0.01550 0.08567 0.30726
-0.17544 0.13135 0.30726
-0.01472 0.09319 0.30726
0.13892 0.11601 0.30726
0.14205 0.04073 0.30726
0.05066 0.10690 0.30726
0.01748 0.07004 0.30726
0.07524 0.07474 0.30726
0.14242 0.06579 0.30726
0.14802 0.11902 0.30726
0.23984 0.08436 0.30726
0.25921 0.05918 0.30726
-0.11724 0.10796 0.30726
0.23828 0.06567 0.30726
0.05315 0.11596 0.30726
0.21988 0.07427 0.30726
-0.16018 0.10774 0.30726
0.14680 0.07904 0.30726
0.08799 0.09266 0.30726
-0.20209 0.11713 0.30726
0.02492 0.07041 0.30726
0.12279 0.11795 0.30726
-0.09283 0.10558 0.30726
0.03399 0.10925 0.30726
0.12516 0.10966 0.30726
0.28856 0.13992 0.35333
0.25036 0.13800 0.35333
0.24331 0.13870 0.35333
-0.29935 -0.08186 0.06715
-0.12759 -0.06040 -0.21573
-0.12759 -0.08015 -0.21521
-0.12759 -0.09440 -0.21352
-0.12759 -0.10038 -0.24168
-0.12759 -0.02786 -0.22063
-0.12759 -0.06788 -0.25143
-0.12759 -0.06972 -0.21345
-0.12759 -0.03514 -0.21945
-0.12759 0.00298 -0.20009
-0.12759 -0.10116 -0.23404
-0.12759 -0.09639 -0.19930
0.32106 0.12269 0.22645
0.31367 0.12269 0.30834
0.31507 0.12269 0.20565
-0.19887 0.13250 0.31957
0.09476 0.13250 0.33640
0.15055 0.13250 0.31934
0.23347 0.13250 0.32012
-0.00618 0.13250 0.32055
-0.11964 0.13250 0.32665
0.27587 0.13250 0.34849
0.22529 0.13250 0.33036
0.05444 0.13250 0.31717
0.16601 0.13250 0.32388
0.21385 0.13250 0.32686
0.18806 0.13250 0.34297
0.31228 -0.13234 0.05889
0.30191 0.01913 0.05889
0.30062 -0.05643 0.05889
0.30695 -0.05230 0.05889
-0.30305 -0.14231 0.15372
-0.32389 0.13431 0.07698
-0.28954 0.02748 0.30744
0.31325 0.12269 0.10645
0.30754 0.12269 0.23177
0.30219 0.12269 0.28791
0.31063 0.12269 0.18996
0.31456 0.12269 0.14322
-0.20421 -0.14103 -0.19630
-0.24514 -0.14122 -0.19630
-0.28467 -0.13650 -0.19630
-0.30170 0.12167 0.05889
-0.25021 0.14231 -0.02349
-0.19797 0.14231 -0.04361
-0.21041 0.14231 -0.06963
-0.21105 0.14231 -0.05606
-0.18263 0.14231 -0.04994
-0.32177 0.14231 -0.12732
-0.20069 0.14231 -0.08616
-0.27717 0.14231 0.03003
-0.30482 0.14231 0.03459
-0.26637 0.14231 -0.02676
-0.31416 0.14231 -0.12548
-0.21246 0.14231 -0.08019
-0.23961 0.14231 -0.10206
-0.24584 0.14231 -0.09371
-0.23032 0.14231 0.00815
-0.27985 0.14231 -0.21165
-0.24730 0.14231 -0.10342
-0.26956 0.14231 -0.20853
-0.27951 0.14231 -0.06017
-0.23034 0.14231 -0.06781
-0.16800 0.14231 -0.00457
-0.26658 0.14231 -0.15849
-0.31778 0.14231 -0.32528
-0.30683 0.14231 -0.31726
-0.25777 0.14231 -0.00565
-0.13739 0.14231 0.04085
-0.21482 0.14231 0.04384
-0.21266 0.14231 -0.08607
-0.25539 0.14231 -0.08722
-0.24647 0.14231 -0.00547
-0.30372 0.14231 -0.00654
-0.25021 0.14231 -0.13691
-0.30147 0.14231 -0.17995
-0.31700 0.14231 -0.24707
-0.31746 0.14231 -0.16622
-0.26209 0.14231 -0.03186
-0.27283 0.14231 -0.11350
-0.28483 0.14231 -0.09157
-0.24679 0.14231 -0.11894
-0.28791 0.14231 -0.26334
-0.26109 0.14231 -0.20825
-0.28227 0.14231 -0.25365
-0.28081 0.14231 -0.15166
-0.30485 0.14231 -0.28226
-0.24595 0.14231 0.01197
-0.26149 0.14231 -0.10577
0.10525 0.13824 0.35333
0.26738 0.13587 0.35333
-0.00247 0.13467 0.35333
0.27765 0.14035 0.35333
-0.32389 0.12757 0.09690
-0.32389 0.12385 0.12640
-0.12759 -0.04443 -0.34557
0.29935 0.12427 0.26245
0.29935 0.12322 0.23481
0.30542 0.12269 0.33139
0.31604 0.12269 0.29588
0.30988 0.12269 0.25393
0.31305 0.12269 0.32078
-0.12759 -0.13881 -0.26888
-0.12759 -0.12170 -0.23196
-0.12759 -0.13633 -0.30442
0.08613 0.13267 0.05889
0.12443 0.13650 0.05889
-0.09957 0.13635 0.05889
-0.31145 -0.12069 0.35333
-0.30038 -0.04331 0.35333
-0.30180 -0.09906 0.35333
-0.30622 -0.06013 0.35333
0.30304 0.01934 0.35333
0.30323 0.07627 0.35333
0.30301 0.08332 0.35333
-0.12759 -0.12641 -0.19687
-0.12759 -0.12610 -0.24449
-0.12759 -0.13533 -0.25586
-0.32279 0.13561 -0.35333
-0.28954 0.09440 0.30982
0.29935 0.09019 0.06093
0.29935 0.12220 0.06451
-0.18530 -0.08053 -0.19630
0.24678 0.00916 0.31707
0.25479 0.04633 0.31707
-0.08202 0.02371 0.31707
0.09045 0.00371 0.31707
0.02600 0.05219 0.31707
0.28460 0.04539 0.31707
0.02596 0.03435 0.31707
0.27562 0.10251 0.31707
-0.00432 0.02537 0.31707
0.10451 0.06317 0.31707
0.22917 0.07061 0.31707
-0.02793 -0.00357 0.31707
0.16709 0.02319 0.31707
0.15810 -0.00082 0.31707
0.01553 0.02330 0.31707
0.16734 0.09238 0.31707
0.25669 0.06838 0.31707
-0.25001 0.00252 0.31707
0.13918 0.09612 0.31707
0.12123 0.03254 0.31707
-0.12009 0.02398 0.31707
0.24131 0.00492 0.31707
0.27051 -0.00295 0.31707
0.14525 0.00654 0.31707
-0.04398 0.02565 0.31707
0.12336 0.08936 0.31707
0.14296 0.01478 0.31707
-0.06573 0.01005 0.31707
0.02287 0.00830 0.31707
0.18418 0.04794 0.31707
0.27891 0.05986 0.31707
0.25654 0.01027 0.31707
-0.10488 0.00625 0.31707
-0.16619 -0.00130 0.31707
0.15944 0.05297 0.31707
0.27436 0.11067 0.31707
-0.11392 0.00869 0.31707
0.07569 0.07234 0.31707
0.18013 0.00707 0.31707
0.15514 0.04782 0.31707
0.08391 0.04214 0.31707
0.22436 0.05742 0.31707
0.23600 0.07280 0.31707
0.28252 -0.00430 0.31707
0.13777 0.03707 0.31707
0.24311 0.07005 0.31707
-0.01431 0.00517 0.31707
-0.01948 0.04514 0.31707
0.28619 0.05742 0.31707
-0.32389 0.12446 0.08917
-0.32389 0.12284 0.23242
0.29935 -0.12498 0.06120
0.29935 -0.11991 0.06746
-0.30381 0.00881 0.05889
-0.31186 -0.00438 0.05889
-0.32389 0.12700 0.05974
-0.32389 0.06257 0.06743
-0.32389 -0.09058 0.34567
-0.32389 -0.06040 0.34592
-0.21566 0.13250 -0.07113
-0.15471 0.13250 -0.15897
0.25325 0.13250 0.20816
0.11549 0.13250 0.14012
0.06057 0.13250 0.14516
0.28397 0.13250 0.23475
0.27661 0.13250 0.16387
0.24648 0.13250 0.09380
0.29564 0.13250 0.14743
0.09470 0.13250 0.12330
0.23357 0.13250 0.07534
0.14944 0.13250 0.15787
0.02710 0.13250 0.07963
0.18131 0.13250 0.13345
0.09120 0.13250 0.16686
0.16123 0.13250 0.08112
0.11809 0.13250 0.18893
0.07710 0.13250 0.10349
0.06227 0.13250 0.11356
0.12151 0.13250 0.13431
0.27724 0.13250 0.29838
-0.03462 0.13250 0.06699
0.25588 0.13250 0.14542
0.10486 0.13250 0.09910
0.24259 0.13250 0.14197
0.01500 0.13250 0.11509
0.28962 0.13250 0.29985
0.15267 0.13250 0.09977
-0.11030 0.13250 0.06125
0.26643 0.13250 0.17433
0.02229 0.13250 0.09230
0.04678 0.13250 0.09140
0.17165 0.13250 0.12316
0.23236 0.13250 0.15000
0.25893 0.13250 0.08229
0.05555 0.13250 0.10668
0.22262 0.13250 0.11099
0.29198 0.13250 0.09061
0.27941 0.13250 0.26464
0.06815 0.13250 0.16111
0.23369 0.13250 0.11182
-0.08812 0.13250 0.06109
0.21717 0.13250 0.19244
0.09592 0.13250 0.09869
0.16055 0.13250 0.19202
0.05473 0.13250 0.11903
0.25394 0.13250 0.26320
0.08100 0.13250 0.12365
0.26908 0.13250 0.11987
0.13316 0.13250 0.12110
0.23169 0.13250 0.08250
0.17499 0.13250 0.07156
0.13821 0.13250 0.09437
0.28301 0.13250 0.25307
0.28492 0.13250 0.12383
0.24455 0.13250 0.07191
0.18804 0.13250 0.11007
0.05246 0.13250 0.07318
0.02903 0.13250 0.07305
-0.23742 -0.14231 -0.27917
-0.30087 -0.14231 -0.27161
-0.28719 -0.14231 -0.23189
-0.26907 -0.14231 -0.27109
-0.32209 -0.14231 -0.33598
-0.23493 -0.14231 -0.31184
-0.25838 -0.14231 -0.30931
-0.31148 -0.14231 -0.25236
-0.21937 -0.14231 -0.34577
-0.30828 -0.14231 -0.28291
-0.17382 -0.14231 -0.32150
-0.20585 -0.14231 -0.34478
-0.30602 -0.14231 -0.31177
-0.15363 -0.14231 -0.34798
-0.24422 -0.14231 -0.32973
-0.20376 -0.14231 -0.29511
-0.30738 -0.14231 -0.21558
-0.25767 -0.14231 -0.30031
-0.27297 -0.14231 -0.30006
-0.24490 -0.14231 -0.29608
-0.22599 -0.14231 -0.27772
0.29935 0.12934 0.33988
-0.12759 0.13497 -0.27767
-0.12759 0.12876 -0.21388
-0.12759 0.12945 -0.20403
-0.12759 0.11860 -0.29685
-0.12759 0.12286 -0.33591
-0.12759 0.09188 -0.33192
-0.30898 0.11702 0.05889
-0.31161 0.05175 0.05889
0.30142 -0.13250 0.11404
0.30208 -0.13250 0.12026
0.30773 -0.13250 0.27784
-0.23516 -0.00491 0.31623
0.11375 -0.00491 0.31646
0.09072 -0.00491 0.31129
-0.12759 0.03101 -0.28580
-0.12759 0.03438 -0.26156
-0.12759 0.01978 -0.23577
-0.12759 0.04868 -0.21855
-0.12759 0.01125 -0.26642
-0.32389 0.08120 -0.05103
-0.32389 0.06530 -0.01851
-0.32389 0.02018 -0.00704
-0.32389 0.13156 -0.15744
-0.32389 0.02243 0.02795
-0.32389 0.08886 -0.11122
-0.32389 0.11719 -0.05243
-0.32389 0.09269 -0.19382
-0.32389 0.07770 0.03814
-0.32389 0.10862 -0.11990
-0.32389 0.11308 -0.02912
-0.32389 0.04974 -0.03433
-0.32389 0.11934 -0.09924
-0.32389 0.10383 0.01522
-0.32389 0.07819 -0.10698
-0.32389 0.05702 0.01669
-0.32389 0.04647 0.01446
-0.32389 0.06324 -0.05699
-0.32389 0.13236 -0.13595
-0.32389 0.11010 -0.24968
-0.32389 0.08567 0.01286
-0.32389 0.10832 -0.03520
-0.32389 0.09261 -0.04735
-0.32389 0.10343 0.02277
-0.32389 0.08489 -0.06457
-0.32389 0.11100 -0.07259
-0.32389 0.06948 -0.05753
-0.32389 0.03779 0.03529
-0.32389 0.08446 -0.14471
-0.32389 0.03970 -0.01815
-0.32389 0.04085 0.00658
-0.32389 0.13957 -0.26674
-0.32389 0.01645 0.05433
-0.32389 0.11829 -0.08091
-0.32389 0.12822 -0.07345
-0.32389 0.02469 -0.01155
-0.32389 0.08657 -0.18661
-0.32389 0.12079 0.03183
-0.32389 0.00153 0.06425
-0.32389 0.09092 0.06076
-0.32389 0.04254 0.03100
-0.32389 0.06754 -0.08482
-0.32389 0.06632 0.04378
-0.32389 0.07662 0.01342
-0.32389 0.03295 0.02516
-0.32389 0.12270 -0.03295
-0.32389 0.10014 -0.16742
-0.32389 0.02713 0.04154
-0.32389 0.12589 -0.24485
-0.32389 0.10537 -0.17544
-0.32389 0.09448 0.00837
-0.32389 0.10930 -0.04985
-0.32389 0.12952 -0.22468
-0.32389 0.11273 -0.00873
-0.32389 0.11317 0.03544
-0.32389 0.09284 0.02396
-0.32389 0.13317 -0.09782
-0.32389 0.12442 0.02351
-0.32389 0.12188 -0.28998
-0.32389 0.04066 -0.01025
-0.32389 0.13569 -0.33371
-0.32389 0.10347 0.05351
-0.32389 0.12227 -0.26072
-0.32389 0.12674 -0.21864
-0.13376 0.02803 0.31707
0.19576 0.02918 0.31707
0.27249 0.11870 0.31707
-0.15447 0.00110 0.31707
0.08969 0.01135 0.31707
0.26222 0.04228 0.31707
0.20604 0.06260 0.31707
0.24583 0.10139 0.31707
0.10152 0.03375 0.31707
0.16480 0.01401 0.31707
0.16388 0.06685 0.31707
0.25594 0.03313 0.31707
0.05278 0.02947 0.31707
0.13717 0.06476 0.31707
0.12147 0.02025 0.31707
0.27669 0.06790 0.31707
0.05491 0.05632 0.31707
0.28558 0.03402 0.31707
0.06711 0.02330 0.31707
0.17238 0.06809 0.31707
-0.00534 0.03318 0.31707
0.23956 0.02432 0.31707
0.02869 0.01652 0.31707
0.09639 0.01794 0.31707
-0.07572 0.02820 0.31707
-0.16043 0.02274 0.31707
0.26022 0.10393 0.31707
0.04386 0.07322 0.31707
0.26280 0.06547 0.31707
-0.06241 0.01665 0.31707
0.11455 0.01218 0.31707
-0.00830 0.02092 0.31707
0.06038 0.02887 0.31707
-0.10279 0.03350 0.31707
0.04678 0.02062 0.31707
-0.16163 0.01224 0.31707
0.11272 0.01908 0.31707
-0.02937 0.00887 0.31707
0.03192 0.02855 0.31707
-0.04330 0.00339 0.31707
0.20272 0.00746 0.31707
0.15321 0.06213 0.31707
0.22159 0.07891 0.31707
-0.27773 -0.00365 0.31707
0.27486 0.08063 0.31707
-0.12166 0.03184 0.31707
0.21853 -0.00078 0.31707
-0.29935 0.10017 0.35292
-0.29935 0.00355 0.34988
-0.28954 0.11687 0.31519
0.30092 -0.12618 0.35333
0.31880 -0.12945 0.35333
0.32125 -0.10279 0.35333
0.31715 -0.05711 0.35333
-0.31802 -0.13250 0.19647
-0.32175 -0.13250 0.33640
-0.30709 -0.13250 0.26383
-0.32124 -0.13250 0.32718
-0.30424 -0.13250 0.33001
-0.32345 0.12269 0.12015
-0.31154 0.12269 0.12200
-0.31189 0.12269 0.15554
0.16140 0.13600 0.05889
-0.32389 0.00646 -0.09286
-0.32389 0.11770 -0.29412
-0.32389 0.13095 -0.33986
-0.32389 0.08028 -0.27788
-0.32389 0.02904 -0.08536
-0.32389 0.01900 -0.12298
-0.32389 0.06680 -0.19805
-0.32389 -0.00335 -0.13812
-0.32389 0.05159 -0.18287
-0.32389 0.04294 -0.18171
-0.32389 0.02582 -0.10775
-0.32389 0.09272 -0.26603
-0.32389 -0.00158 -0.19344
-0.32389 0.00660 -0.17465
-0.32389 0.02100 -0.09113
-0.32389 0.00665 -0.03678
-0.32389 0.11405 -0.31868
-0.32389 0.03664 -0.17265
-0.32389 0.04302 -0.14894
-0.32389 0.02840 -0.11654
-0.32389 0.06188 -0.19158
-0.32268 -0.11726 0.05889
-0.10441 -0.00491 0.31032
-0.03100 -0.00491 0.31186
-0.23010 -0.00491 0.30938
-0.24357 -0.00491 0.30842
-0.30254 -0.13250 0.25943
-0.30989 -0.13250 0.15146
-0.30994 -0.13250 0.11507
-0.31576 -0.13250 0.09497
0.29935 -0.13389 0.18874
0.29935 -0.13846 0.13917
-0.12759 0.13758 -0.00981
-0.12759 0.13266 0.03012
-0.28980 0.13250 0.13919
-0.21970 0.13250 0.18447
-0.27252 0.13250 0.24044
-0.25109 0.13250 0.14103
-0.19157 0.13250 0.13431
-0.17122 0.13250 0.06644
-0.18891 0.13250 0.12809
-0.21595 0.13250 0.19190
-0.23983 0.13250 0.17392
-0.27227 0.13250 0.16763
-0.29090 0.13250 0.19128
-0.26462 0.13250 0.22006
-0.25875 0.13250 0.17589
-0.19884 0.13250 0.10982
-0.28038 0.13250 0.22562
-0.23086 0.13250 0.06375
-0.22678 0.13250 0.20225
-0.22472 0.13250 0.12072
-0.18963 0.13250 0.08203
-0.14213 0.13250 0.06243
-0.28169 0.13250 0.08826
