0.06900 0.15739 0.21339
0.05879 0.15739 0.10613
-0.05652 0.15739 0.35125
0.06120 0.15739 0.02281
-0.00839 0.15739 0.26985
0.03288 0.15739 -0.14613
-0.01589 0.15739 0.16553
-0.02031 0.15739 0.32386
0.04352 0.15739 -0.01090
0.06379 0.15739 -0.04778
0.06935 0.15739 -0.09891
-0.08605 0.14495 0.45413
0.09688 -0.11383 0.38913
-0.09929 -0.06940 0.38497
-0.08605 0.13290 -0.39961
0.10870 -0.04972 -0.39788
0.10870 -0.02127 -0.39968
-0.08605 0.14662 -0.13848
-0.08605 0.15123 -0.24476
-0.08605 0.14236 -0.12849
-0.08605 0.15045 -0.23867
-0.08605 0.14621 -0.13134
-0.08605 0.13684 0.29474
-0.08605 0.14216 -0.26624
-0.08605 0.14296 0.00283
-0.08605 0.13683 -0.19456
-0.09725 -0.00229 -0.38497
-0.09667 0.00868 -0.38497
-0.00568 0.09851 -0.29751
-0.10211 0.09851 -0.15373
0.04285 0.09851 -0.37525
-0.04208 0.09851 0.02190
-0.07522 0.09851 -0.12604
-0.10336 0.09851 0.13276
-0.05377 0.09851 -0.29410
-0.05557 0.09851 0.07432
0.06535 0.09851 -0.29459
0.06388 0.09851 -0.24768
-0.08753 0.09851 0.21404
-0.01277 0.09851 -0.38488
-0.05972 0.09851 -0.26885
-0.10350 0.09851 0.10519
0.07724 0.09851 -0.27970
-0.10776 0.09851 0.12358
-0.10272 0.09851 0.17493
-0.04159 0.09851 -0.31872
-0.09446 0.09851 -0.21248
-0.02162 0.09851 -0.21693
-0.07998 0.09851 0.10402
0.00375 0.09851 -0.29141
-0.06440 0.09851 0.04035
-0.09789 0.09851 -0.28892
-0.07346 0.09851 -0.09846
-0.05671 0.09851 0.19016
-0.04204 0.09851 -0.31184
-0.06532 0.09851 0.05917
-0.01993 0.09851 -0.07733
-0.00446 0.09851 -0.01066
-0.04458 0.09851 -0.13748
-0.01870 0.09851 -0.35163
0.09089 0.09851 -0.34462
-0.01331 0.09851 -0.13657
0.02780 0.09851 -0.15991
0.03725 0.09851 -0.15485
-0.06279 0.09851 0.16070
-0.02011 0.09851 -0.11451
0.01778 0.09851 -0.37957
0.02748 0.09851 -0.26336
-0.06434 0.09851 -0.11671
-0.08019 0.09851 -0.35791
-0.05482 0.09851 -0.37890
-0.03838 0.09851 -0.28451
0.01059 0.09851 -0.31990
-0.10807 0.09851 0.16380
-0.07155 0.09851 0.14184
-0.09503 0.09851 -0.06325
-0.04534 0.09851 -0.30061
-0.01454 0.09851 -0.24977
0.01688 0.09851 -0.07596
-0.09607 0.09851 0.31919
-0.10489 0.09851 -0.18470
-0.07471 0.09851 0.17833
-0.09681 0.09851 0.25457
-0.08170 0.09851 -0.10058
-0.06510 0.09851 0.15272
-0.00351 0.09851 -0.35556
-0.02652 0.09851 -0.29404
-0.09166 0.09851 0.13496
-0.08203 0.09851 0.22331
-0.08779 0.09851 -0.16826
-0.08388 0.09851 0.24524
0.07504 0.09851 -0.26848
0.04478 0.09851 -0.23902
-0.07755 0.09851 0.08464
-0.09830 0.09851 -0.19677
-0.05333 0.09851 0.12878
-0.00830 0.09851 0.00612
0.02475 0.09851 -0.31896
-0.00512 0.09851 -0.00519
-0.02580 0.09851 0.06725
-0.06206 0.09851 -0.25274
0.02863 0.09851 -0.32106
-0.01217 0.09851 0.01976
-0.07503 0.09851 -0.01598
-0.08817 0.09851 0.01371
0.01034 0.09851 -0.29785
0.03701 0.09851 -0.35952
0.03464 0.09851 -0.19781
-0.06314 0.09851 -0.05103
0.03350 0.09851 -0.23791
0.00323 0.09851 -0.06069
0.01044 0.09851 -0.22834
-0.09395 0.09851 0.07648
-0.07604 0.09851 0.00456
-0.05624 0.09851 -0.08025
0.02961 0.09851 -0.36269
-0.08654 0.09851 0.30536
-0.04556 0.09851 0.08588
-0.07154 0.09851 0.24310
-0.08354 0.09851 0.22773
-0.08945 -0.15739 -0.40361
0.10080 0.12964 0.40762
0.10382 -0.06658 0.40762
0.10450 0.06718 0.40762
0.10428 -0.04171 0.40762
-0.10870 0.14798 0.32517
-0.10870 0.13870 -0.04968
-0.10870 0.13552 0.17156
-0.10870 0.14062 0.11531
-0.10870 0.13729 -0.18659
-0.10870 0.14377 0.03461
-0.10870 0.13934 0.22915
-0.10870 0.14007 -0.12917
-0.10870 0.13841 0.37272
-0.10870 0.14620 0.30240
0.00994 -0.07690 -0.39142
-0.04291 -0.07690 -0.40158
0.01941 -0.07690 0.08721
0.06707 -0.07690 0.28811
0.06254 -0.07690 0.28421
0.07560 -0.07690 0.32668
0.06567 -0.07690 0.25563
0.02694 -0.07690 0.12338
-0.08605 0.01449 0.40060
0.06222 0.13474 -0.27911
0.06300 0.13474 0.05954
-0.04981 0.13474 -0.24222
0.08570 0.13474 0.20459
0.04794 0.13474 -0.05885
0.01476 0.13474 0.04865
0.03050 0.13474 -0.20076
0.01458 0.13474 0.05531
0.00067 0.13474 -0.07878
0.00100 0.13474 -0.37110
-0.00701 0.13474 -0.22217
0.02636 0.13474 -0.06627
-0.01269 0.13474 -0.16779
0.03024 0.13474 0.07228
0.04026 0.13474 0.01037
0.00022 0.13474 -0.27576
0.03263 0.13474 -0.17523
-0.04293 0.13474 -0.35485
0.01718 0.13474 -0.17546
0.04866 0.13474 0.01482
0.07501 0.13474 0.30513
0.01595 0.13474 -0.14892
-0.03767 0.13474 -0.28471
0.06376 0.13474 -0.13834
0.06611 0.13474 -0.34762
-0.00343 0.13474 -0.13211
0.05128 0.13474 -0.19116
0.00532 0.13474 -0.07695
-0.03683 0.13474 -0.26867
0.07740 0.13474 0.21732
0.00101 0.13474 -0.28620
0.03762 0.13474 0.11830
0.04603 0.13474 -0.00413
-0.02179 0.13474 -0.31925
0.00153 0.13474 -0.22041
0.07360 0.13474 0.19333
-0.02188 0.13474 -0.15760
0.04146 0.13474 -0.17738
-0.00947 0.13474 -0.36660
0.04711 0.13474 0.00090
0.08375 0.13474 -0.23454
0.07852 0.13474 -0.06781
0.02269 0.13474 -0.03337
0.01807 0.13474 -0.29951
0.07409 0.13474 0.11221
0.07755 0.13474 -0.28336
-0.01207 0.13474 -0.27673
0.03858 0.13474 -0.12342
0.04725 0.13474 -0.12430
0.08154 0.13474 0.28125
-0.04805 0.13474 -0.25797
0.07000 0.13474 -0.12118
0.05050 0.13474 -0.16415
0.04340 0.13474 -0.25446
0.06993 0.13474 0.18480
0.04067 0.13474 -0.36760
0.06958 0.13474 -0.01477
-0.04009 0.13474 -0.25125
0.07672 0.13474 0.21184
0.05210 0.13474 0.05590
0.07848 0.13474 -0.14529
-0.00226 0.13474 -0.26581
-0.00835 0.13474 -0.15451
0.05839 0.13474 -0.03177
-0.03993 0.13474 -0.22765
-0.08153 0.13474 -0.37261
0.01428 0.13474 -0.28603
0.01289 0.13474 -0.10503
0.04964 0.13474 0.19201
0.03772 0.13474 -0.35107
0.00099 0.13474 -0.29773
0.04151 0.13474 -0.38179
-0.10523 0.05784 0.38497
-0.03751 0.12442 0.38497
-0.08564 0.11798 0.38497
0.00369 0.13011 0.38497
-0.02227 0.14961 -0.46197
-0.08605 0.14298 0.32289
-0.08605 0.13919 0.35559
-0.08605 0.15734 0.16677
-0.08605 0.14284 0.34614
-0.08605 0.15626 0.38746
-0.08605 0.14128 0.19272
-0.08605 0.14278 0.27639
-0.08605 0.13987 0.34255
-0.08605 0.15056 -0.03742
-0.08605 0.15678 -0.29095
-0.08605 0.14838 0.05580
0.04560 0.13149 0.38497
-0.03933 0.11300 0.38497
-0.07299 0.10521 0.38497
-0.01055 0.15739 0.42106
-0.02529 0.15739 0.43513
0.01661 0.15739 0.40814
-0.04810 0.15739 0.41150
-0.04366 0.15739 0.40842
0.04715 0.15739 0.41907
-0.10221 0.07014 -0.38497
0.08794 -0.13383 -0.39138
-0.10792 0.15739 0.26498
-0.09686 0.15739 -0.03150
-0.10245 0.15739 -0.18212
-0.09748 0.15739 -0.27492
-0.09266 0.15739 -0.37329
-0.09957 0.15739 -0.24893
-0.09829 0.15739 -0.04368
-0.09811 0.15739 0.00262
-0.10695 0.15739 0.18629
-0.10743 0.15739 0.05503
0.08605 0.14137 0.43325
0.01816 0.09851 0.10554
0.06943 0.09851 -0.14556
0.08733 0.09851 -0.19708
-0.02431 0.09851 0.18364
0.08178 0.09851 -0.17029
0.04777 0.09851 0.33198
0.05483 0.09851 0.02643
0.04386 0.09851 -0.10132
-0.00801 0.09851 0.26757
0.04033 0.09851 0.23508
0.03402 0.09851 -0.07292
0.05572 0.09851 -0.09212
0.09697 0.09851 -0.20511
0.02545 0.09851 0.27557
0.06890 0.09851 -0.09744
-0.01038 0.09851 0.25803
0.08369 0.09851 -0.05485
0.10622 0.09851 -0.36485
-0.00802 0.09851 0.19352
-0.00985 0.09851 0.16817
0.09544 0.09851 -0.21881
0.02325 0.09851 0.05050
-0.04157 0.09851 0.26573
0.07613 0.09851 -0.14909
0.03048 0.09851 0.05887
-0.02903 0.09851 0.17796
0.08519 0.09851 -0.07193
0.01406 0.09851 0.23725
0.07589 0.09851 0.01641
-0.05722 0.09851 0.34600
0.05609 0.09851 0.34943
0.08795 0.09851 -0.18960
0.06142 0.09851 -0.10617
0.09613 0.09851 -0.16036
0.02076 0.09851 0.11731
0.09459 0.09851 -0.26325
0.01706 0.09851 -0.01505
0.07676 0.09851 0.12329
0.06267 0.09851 0.36266
0.07737 0.09851 -0.01665
0.00978 0.09851 0.28488
0.07036 0.09851 0.27996
0.07089 0.09851 -0.11725
0.05332 0.09851 0.22851
0.06421 0.09851 0.20500
0.01994 0.09851 0.35129
0.08483 0.09851 -0.01852
0.07098 0.09851 -0.02660
0.07703 0.09851 0.08004
0.05312 0.09851 0.38251
-0.00007 0.09851 0.06075
-0.05690 0.09851 0.29663
0.02394 0.09851 0.29603
0.09390 0.09851 -0.24577
0.01678 0.09851 0.33607
-0.02100 0.09851 0.37128
-0.04748 0.09851 0.25030
0.05784 0.09851 0.13772
-0.00344 0.09851 0.23988
0.04255 0.09851 0.08373
0.04439 0.09851 0.32377
0.00101 0.09851 0.25958
-0.06605 0.09851 0.33384
0.04276 0.09851 0.06990
-0.03026 0.09851 0.25022
-0.02202 0.09851 0.19216
0.08014 0.09851 -0.07764
-0.03442 0.09851 0.34502
0.09151 0.09851 -0.07731
0.08902 0.09851 -0.24729
-0.04465 0.15739 -0.44571
-0.04878 0.15739 -0.41969
-0.03710 0.15739 -0.44640
0.01613 0.15739 -0.45800
-0.02072 0.15739 -0.44261
-0.06239 0.15739 -0.45182
0.01855 0.15332 -0.46197
0.09964 0.08489 0.14943
0.09964 -0.07142 0.36424
0.09964 0.07530 0.29472
0.09964 0.06089 0.31539
0.09964 0.06811 -0.07596
0.09964 0.01719 0.21257
0.09964 0.00850 0.27919
0.09964 0.03787 0.18178
0.09964 -0.04274 0.26145
0.09964 0.05902 -0.20865
0.09964 0.09067 -0.15102
0.09964 0.06154 0.04559
0.09964 0.08715 0.31937
0.09964 -0.01324 0.37006
0.09964 0.05885 0.28214
0.09964 0.03212 0.29614
0.09964 0.06470 0.12740
0.09964 0.06280 -0.15506
0.09964 0.05606 -0.14011
0.09964 0.07587 0.23621
0.09964 0.03677 0.30945
0.09964 0.08356 -0.09725
0.09964 0.08674 0.26332
0.09964 0.08441 0.16735
0.09964 0.06186 -0.07475
0.09964 -0.00750 0.26791
0.09964 -0.00568 0.21799
0.09964 0.04363 -0.10645
0.09964 0.02933 0.21064
0.09964 0.01968 0.25474
0.09964 0.08204 0.31789
0.09964 0.08358 0.23513
0.09964 0.00874 0.29437
0.09964 0.06211 -0.20164
0.09964 0.06006 -0.11244
0.09964 -0.04253 0.27843
0.09964 0.08047 0.22383
0.09964 -0.00005 0.12016
0.09964 0.07525 -0.02216
0.09964 0.02493 0.25233
0.09964 0.03535 -0.03441
0.09964 0.05803 -0.19973
0.09964 0.06106 0.13083
0.09964 0.04556 -0.12527
0.09964 -0.01157 0.15706
0.09964 0.01085 0.16006
0.09964 0.05290 0.20145
0.09964 0.00075 0.32183
0.09964 -0.04867 0.31289
0.09964 0.02393 -0.00364
0.09964 0.00298 0.27755
0.09964 -0.01152 0.31693
0.09964 0.03085 0.33065
0.09964 0.03862 0.14593
0.09964 0.06675 0.38037
0.09964 0.05923 0.14526
0.09964 0.07773 0.18628
0.09964 0.06430 -0.06054
0.09964 0.09739 -0.02564
0.09964 -0.02722 0.21587
0.09964 0.04421 0.02409
0.09964 -0.03142 0.29374
0.09964 0.09737 -0.19761
0.09964 -0.02977 0.27386
0.09964 -0.01878 0.33995
0.09964 0.02202 -0.04598
0.09964 0.09482 -0.08977
0.09964 0.06875 -0.16383
0.09964 0.04716 -0.06035
0.09964 0.09739 -0.22391
0.09964 0.09752 0.17172
0.09964 0.00339 0.35562
0.04802 -0.07690 0.38756
-0.02911 -0.07690 0.38796
0.10870 -0.06777 0.39399
0.10870 -0.08185 0.39260
0.10870 0.01176 0.40251
0.10666 0.08784 -0.38497
0.10799 -0.15585 0.39386
-0.06609 -0.07690 -0.22938
-0.02537 -0.07690 0.34774
0.00559 -0.07690 0.20130
0.03661 -0.07690 0.34178
-0.00604 -0.07690 0.29967
0.02809 -0.07690 0.21396
-0.08149 -0.07690 0.20817
-0.07271 -0.07690 -0.02109
-0.08126 -0.07690 0.01153
-0.01594 -0.07690 0.10006
-0.02338 -0.07690 0.14435
-0.01399 -0.07690 0.32342
-0.04009 -0.07690 0.09744
-0.00423 -0.07690 0.14182
0.03649 -0.07690 0.25301
-0.08899 -0.07690 0.14405
-0.04014 -0.07690 -0.05629
-0.00016 -0.07690 0.25006
-0.03513 -0.07690 -0.07210
0.04130 -0.07690 0.27520
-0.08620 -0.07690 0.04876
-0.05917 -0.07690 -0.01474
0.00566 -0.07690 0.08366
-0.02248 -0.07690 0.30948
-0.01306 -0.07690 0.03015
-0.01379 -0.07690 0.22903
-0.05022 -0.07690 0.12447
0.04537 -0.07690 0.26919
-0.01088 -0.07690 0.11682
0.01180 -0.07690 0.30315
-0.08276 -0.07690 -0.20857
-0.09470 -0.07690 -0.25957
-0.04227 -0.07690 0.19342
-0.07742 -0.07690 0.28850
0.08068 -0.07690 0.38438
-0.05522 -0.07690 0.12625
-0.00101 -0.07690 0.31518
0.01387 -0.07690 0.19887
0.01021 -0.07690 0.27365
-0.04209 -0.07690 0.24973
-0.08397 -0.07690 0.22105
-0.06831 -0.07690 -0.02709
-0.06646 -0.07690 -0.24226
0.02585 -0.07690 0.16237
-0.05195 -0.07690 0.09583
-0.05731 -0.07690 -0.08939
0.05923 -0.07690 0.28056
-0.06028 -0.07690 -0.17653
-0.07475 -0.07690 -0.22681
0.03696 -0.07690 0.36558
0.00278 -0.07690 0.04773
-0.08569 -0.07690 -0.15264
-0.03605 -0.07690 0.13233
0.02345 -0.07690 0.23752
-0.04751 -0.07690 0.12111
-0.04747 -0.07690 0.17674
-0.03885 -0.07690 -0.11939
-0.04234 -0.07690 -0.12655
0.04377 -0.07690 0.23735
0.00604 -0.07690 0.38331
-0.07643 -0.07690 -0.21225
-0.04527 -0.07690 -0.05132
-0.07810 -0.07690 0.32832
-0.02307 -0.07690 0.13490
-0.07095 -0.07690 -0.03900
-0.04935 -0.07690 0.14576
-0.01296 -0.07690 0.05762
-0.07653 -0.07690 0.09624
-0.02998 -0.07690 0.04834
-0.07323 -0.07690 -0.14875
-0.09925 0.15157 0.40762
0.04555 0.09851 -0.14892
0.00111 0.09851 0.02432
-0.06621 0.09851 0.29459
0.03829 0.09851 -0.11254
-0.05730 0.09851 0.24133
-0.08605 0.04253 0.40739
-0.08605 -0.02754 0.38982
-0.08605 0.05582 0.38784
-0.10405 0.13474 -0.06098
-0.10688 0.13474 -0.27418
-0.09966 0.13474 0.02792
-0.10291 0.13474 0.01183
0.03571 0.13479 -0.40786
-0.07197 0.13608 -0.41405
-0.07214 0.13852 -0.42575
0.00784 0.13525 -0.41005
-0.07315 0.13760 -0.42133
-0.09460 -0.08591 -0.38599
-0.00379 0.15739 0.41752
0.07069 0.15739 0.40873
-0.07733 0.15739 0.45344
-0.03398 0.15739 0.41233
-0.10004 0.13474 -0.14013
-0.10532 0.13474 -0.37929
-0.10484 0.13474 -0.12045
-0.00689 0.14354 -0.44983
0.08168 0.14606 -0.46197
0.07053 0.13792 -0.42291
0.07058 0.13666 -0.41681
-0.08772 0.07623 -0.40762
0.09964 -0.06931 -0.24625
0.09964 0.01088 -0.00403
0.09964 -0.06731 -0.29141
0.09964 -0.05751 0.17985
0.09964 0.05133 -0.33104
0.09964 0.00491 -0.08314
0.09964 -0.02714 -0.05893
0.09964 0.06358 -0.26272
0.09964 0.00231 -0.07691
0.09964 -0.00961 0.08805
0.09964 -0.07257 0.27881
0.09964 0.03605 -0.19750
0.09964 -0.01490 -0.02204
0.09964 0.03324 -0.11101
0.09964 -0.04022 0.00754
0.09964 0.00984 -0.11970
0.09964 0.07248 -0.31550
0.09964 -0.05474 -0.03400
0.09964 -0.05027 -0.12356
0.09964 0.03308 -0.36436
0.09964 -0.01828 0.03614
0.09964 -0.00663 0.06320
0.09964 -0.00057 -0.06118
0.09964 -0.00996 -0.24868
0.09964 -0.04741 -0.07410
0.09964 -0.05176 -0.18241
0.09964 0.00429 -0.00735
0.09964 0.03103 -0.30204
0.09964 -0.02167 0.13664
0.09964 -0.07145 -0.33347
0.09964 -0.05226 -0.23206
0.09964 -0.02360 -0.09262
0.09964 0.00453 -0.04217
0.09964 0.02336 -0.22001
0.09964 0.02826 -0.22769
0.09964 -0.06551 0.22957
0.09964 0.03564 -0.30619
0.09964 -0.02909 -0.24643
0.09964 -0.05816 -0.38377
0.09964 0.01902 -0.19829
0.09964 -0.05391 0.07855
0.09964 0.01026 -0.18451
0.09964 -0.00225 -0.22253
0.09964 -0.05338 0.01546
0.09964 0.02195 -0.15114
0.09964 -0.06788 0.26153
0.09964 -0.05397 -0.10251
0.09964 -0.02882 -0.20173
0.09964 0.01206 -0.06758
0.09964 -0.05198 -0.29576
0.09964 -0.00171 -0.18270
0.09964 -0.02533 -0.31591
0.09964 -0.06402 -0.31263
0.09964 -0.05105 -0.21702
0.09964 0.01516 -0.26388
0.09964 -0.05745 -0.34118
0.09964 0.05359 -0.30378
0.09964 -0.04560 -0.21014
0.09964 -0.06690 -0.28272
0.09964 -0.07496 -0.17723
0.09964 -0.06402 -0.19562
0.09964 -0.04109 0.11413
0.09964 -0.05688 -0.19638
0.09964 -0.05513 0.00311
0.09964 -0.03258 0.10144
0.09964 -0.03511 -0.13300
0.09964 0.01937 -0.27929
0.09964 0.00343 -0.01975
0.09964 0.06766 -0.26525
0.09964 0.06342 -0.28367
0.09964 -0.00506 0.00265
0.09964 -0.01867 -0.06626
0.09964 -0.02637 -0.08124
0.09964 -0.05393 0.13816
0.10870 0.01083 -0.40657
-0.08605 0.15312 -0.41897
-0.05401 -0.07690 -0.20542
-0.00276 -0.07690 0.00734
0.08001 -0.07690 0.33812
0.08068 -0.07690 0.33285
-0.01852 -0.07690 -0.06495
0.07848 -0.07690 0.31692
-0.10870 0.12835 0.33443
-0.10870 0.13323 0.32836
-0.10870 0.12605 0.22712
-0.10870 0.12933 0.24203
-0.10870 0.13165 0.27090
-0.10870 0.11923 0.05514
-0.10870 0.13089 0.12030
-0.10870 0.12830 -0.09693
-0.10870 0.12339 0.25832
-0.10870 0.13032 -0.13023
-0.10870 0.11426 0.32571
-0.10870 0.12032 0.27443
-0.10870 0.12177 0.33152
-0.10870 0.12505 -0.07758
-0.10870 0.13348 0.32067
-0.10870 0.12339 -0.00851
0.08892 -0.13330 -0.40762
0.06788 0.14357 -0.45002
-0.05627 0.14466 -0.45524
0.02058 0.14455 -0.45471
0.02887 0.13917 -0.42890
0.04836 0.14049 -0.43524
0.04278 0.14291 -0.44682
0.09539 0.02723 -0.40762
0.10675 0.15554 -0.40762
0.09188 0.04895 -0.40762
0.09258 0.14477 -0.40762
-0.08605 -0.03038 0.39463
-0.08605 -0.05932 0.39149
-0.08605 -0.06649 0.40004
0.10870 0.11761 -0.40360
0.10870 0.11325 -0.39210
0.09964 0.11101 -0.14851
0.09964 0.10509 -0.20281
0.09964 0.10485 -0.21868
0.09964 0.09966 -0.30685
0.09964 0.09884 -0.05896
0.09964 0.11528 -0.11177
0.09964 0.10148 -0.08873
0.09964 0.10901 -0.36935
0.09964 0.11795 -0.09703
0.09964 0.11910 -0.26705
0.09964 0.10403 -0.35147
0.09964 0.10204 -0.17855
0.09964 0.11214 -0.09954
0.09964 0.10033 0.24442
0.09964 0.10810 -0.30160
0.09964 0.11559 -0.06687
-0.10870 0.08783 -0.39345
-0.10870 0.08304 -0.39197
-0.02285 0.09851 -0.19983
0.02777 0.09851 -0.25105
-0.09012 0.09851 -0.38318
-0.04419 0.09851 -0.11824
-0.01707 0.09851 -0.15635
-0.10076 0.09851 0.34113
-0.01936 0.09851 0.01585
-0.07719 0.09851 -0.16714
0.06569 0.09851 -0.26554
-0.08397 0.09851 -0.14057
-0.05556 0.09851 -0.02186
-0.09139 0.09851 0.11009
-0.10623 0.09851 -0.14243
-0.03578 0.09851 -0.13657
-0.10136 0.09851 0.35649
-0.01347 0.09851 -0.33970
-0.09997 0.09851 0.15912
-0.05051 0.09851 0.11876
0.00930 0.09851 -0.09481
-0.08156 0.09851 -0.32620
0.07735 0.09851 -0.28759
-0.07726 0.09851 -0.29327
-0.04523 0.09851 -0.19287
0.05871 0.09851 -0.25947
-0.08414 0.09851 -0.26721
-0.02281 0.09851 -0.14980
-0.03324 0.09851 0.08877
-0.05311 0.09851 -0.03083
-0.06475 0.09851 -0.33759
-0.07969 0.09851 0.11988
0.01584 0.09851 -0.16478
0.02330 0.09851 -0.33492
-0.03346 0.09851 -0.15968
-0.01156 0.09851 -0.11652
0.01137 0.09851 -0.27114
-0.08374 0.09851 -0.30649
-0.05040 0.09851 -0.26054
-0.06140 0.09851 -0.14470
0.03583 0.09851 -0.33091
-0.09950 0.09851 0.19313
0.02920 0.09851 -0.12387
-0.04442 0.09851 0.00818
-0.06858 0.09851 0.18804
-0.07169 0.09851 -0.34951
-0.04647 0.09851 -0.17565
0.01989 0.09851 -0.24225
-0.07680 0.09851 -0.00015
-0.01816 0.09851 -0.31958
-0.05805 0.09851 -0.23797
-0.08482 0.09851 -0.22342
-0.10510 0.09851 0.20738
-0.10059 0.09851 0.01746
-0.09421 0.09851 0.06759
0.02302 0.09851 -0.25884
-0.10472 0.09851 0.30655
-0.07211 0.09851 0.05596
-0.04789 0.09851 -0.02077
-0.07413 0.09851 0.21811
-0.09426 0.09851 -0.25754
-0.09293 0.09851 -0.16503
-0.07122 0.09851 -0.26737
-0.01917 0.09851 -0.28032
-0.02032 0.09851 -0.24188
-0.10029 0.09851 -0.14962
-0.00702 0.09851 -0.36147
-0.01129 0.09851 -0.00810
-0.05758 0.09851 -0.22905
-0.08911 0.09851 0.13847
-0.10045 0.09851 -0.01032
-0.04211 0.09851 -0.07103
-0.08638 0.09851 -0.03304
-0.10177 0.09851 0.34902
-0.01805 0.09851 -0.21076
-0.04858 0.09851 -0.17139
-0.09013 0.09851 0.09216
-0.01399 0.09851 -0.19975
-0.09551 0.09851 0.11752
-0.10364 0.09851 0.11967
-0.10396 0.09851 0.27331
-0.06295 0.09851 0.05084
-0.09845 0.09851 0.08278
-0.02555 0.09851 -0.33064
-0.10306 0.09851 -0.28564
-0.05722 0.09851 0.05992
-0.10803 0.13474 -0.10063
-0.10593 0.13474 0.14502
-0.10800 0.13474 -0.30803
-0.10544 0.13474 -0.08661
-0.08605 0.02382 0.39283
-0.08605 0.08964 0.39360
-0.10817 0.11273 0.40762
-0.09957 -0.04731 0.40762
-0.10453 -0.05241 0.40762
-0.09781 -0.06571 0.40762
0.08605 0.00892 0.38812
-0.08605 -0.11278 0.39374
0.09434 -0.12611 0.40762
0.10068 -0.08441 0.40762
0.09421 0.03050 0.40762
0.09795 -0.10169 0.40762
-0.08597 0.12800 -0.40762
-0.07149 0.07657 -0.40762
-0.06868 0.00368 -0.40762
-0.07940 0.04009 -0.40762
-0.07860 -0.01241 -0.40762
-0.05027 -0.00810 -0.40762
-0.07351 0.05806 -0.40762
-0.06915 0.12870 -0.40762
0.01118 0.11524 -0.40762
-0.00178 0.07275 -0.40762
0.01574 0.06235 -0.40762
-0.07985 -0.01896 -0.40762
-0.07184 0.00685 -0.40762
-0.00434 0.12864 -0.40762
-0.06767 -0.02716 -0.40762
-0.04272 0.10465 -0.40762
0.06335 0.10989 -0.40762
-0.04841 0.07678 -0.40762
0.01491 0.06665 -0.40762
-0.03396 0.08503 -0.40762
-0.05605 0.03723 -0.40762
-0.09283 -0.05991 0.38497
0.08605 0.14727 0.03460
0.08605 0.15552 0.26187
0.08605 0.15467 -0.37345
0.08605 0.15512 0.18266
0.08605 0.15701 -0.28017
0.08605 0.15420 0.23195
0.08605 0.14151 -0.20340
0.08605 0.13732 -0.37062
0.08605 0.14677 -0.05427
0.08605 0.14472 -0.40049
-0.09981 0.10378 0.38497
-0.09964 0.12037 0.05731
-0.09964 0.12877 -0.19325
-0.09964 0.11681 -0.15591
-0.09964 0.13110 -0.32822
-0.09964 0.11008 -0.21435
-0.09964 0.12100 -0.29903
-0.09964 0.13289 -0.04178
-0.09964 0.12730 -0.10386
-0.09964 0.11202 -0.15322
-0.09964 0.12908 -0.28673
-0.09964 0.12910 0.26507
-0.09964 0.10894 -0.17894
-0.09964 0.13143 -0.00708
-0.09964 0.12035 -0.14898
-0.07710 0.13312 -0.38497
0.08508 0.11537 -0.38497
0.05227 0.12189 -0.38497
0.08623 -0.03537 -0.40762
-0.05397 -0.07690 0.39825
-0.01273 -0.07690 0.39583
-0.10848 0.15739 0.33218
-0.10716 0.15739 -0.09233
-0.10286 0.15739 -0.34250
-0.09384 0.15739 -0.26086
-0.10497 0.15739 -0.16431
-0.10172 0.15739 -0.35696
-0.10525 0.15739 -0.08723
-0.10800 0.15739 0.20281
-0.10346 0.15739 0.17304
-0.03750 0.06922 -0.40762
0.02510 0.08259 -0.40762
-0.08474 -0.02569 -0.40762
-0.06540 0.03859 -0.40762
-0.07002 0.02499 -0.40762
-0.07113 0.12404 -0.40762
0.00188 0.06607 -0.40762
-0.02031 0.09434 -0.40762
-0.07701 -0.06014 -0.40762
0.01856 0.05440 -0.40762
-0.00186 0.08485 -0.40762
-0.06370 0.02060 -0.40762
-0.01544 0.11423 -0.40762
-0.06281 -0.02681 -0.40762
-0.02207 0.06862 -0.40762
0.03034 0.08601 -0.40762
-0.00813 0.09282 -0.40762
-0.04354 0.02738 -0.40762
-0.04721 0.03250 -0.40762
-0.06238 0.01323 -0.40762
-0.01504 0.01151 -0.40762
0.10809 0.13474 0.12551
0.10445 0.13474 -0.03513
0.10686 0.13474 -0.17336
-0.02279 0.11118 0.38497
-0.00262 0.11091 0.38497
-0.01938 0.09855 0.38497
-0.03935 0.10588 0.38497
-0.03453 -0.07690 -0.29258
0.08185 -0.07690 0.01335
-0.05522 -0.07690 -0.29986
0.08722 -0.07690 -0.36086
0.07756 -0.07690 0.03050
0.08439 -0.07690 -0.03150
-0.02607 -0.07690 -0.18084
0.03375 -0.07690 -0.20507
0.04985 -0.07690 0.05692
-0.03292 -0.07690 -0.33852
0.03934 -0.07690 -0.24429
0.06984 -0.07690 -0.36068
0.03781 -0.07690 -0.15942
0.06829 -0.07690 0.01273
0.09482 -0.07690 0.31543
-0.02468 -0.07690 -0.35013
0.06072 -0.07690 -0.07058
0.06038 -0.07690 -0.32343
0.09362 -0.07690 -0.19520
0.04621 -0.07690 0.14567
-0.01818 -0.07690 -0.29178
-0.03455 -0.07690 -0.24251
0.08996 -0.07690 0.04612
0.08815 -0.07690 0.25632
-0.05868 -0.07690 -0.28643
0.07662 -0.07690 -0.27788
-0.03763 -0.07690 -0.27109
-0.08142 -0.07690 -0.37751
0.03837 -0.07690 -0.01668
0.09209 -0.07690 0.18509
0.03184 -0.07690 -0.35012
0.06232 -0.07690 -0.20293
-0.06538 -0.07690 -0.29882
-0.00556 -0.07690 -0.29057
0.04456 -0.07690 0.05693
0.05851 -0.07690 -0.00239
0.09156 -0.07690 0.34684
-0.06205 -0.07690 -0.33514
-0.04992 -0.07690 -0.22839
0.03255 -0.07690 -0.11622
0.05653 -0.07690 -0.35291
0.00071 -0.07690 -0.17711
-0.02445 -0.07690 -0.14417
0.03264 -0.07690 0.03119
0.05200 -0.07690 -0.05651
0.05512 -0.07690 -0.16185
0.08805 -0.07690 0.14242
0.06053 -0.07690 0.20818
0.07725 -0.07690 -0.24766
0.03866 -0.07690 -0.10548
0.00097 -0.07690 -0.29805
0.03917 -0.07690 0.09978
0.07298 -0.07690 -0.13933
0.04164 -0.07690 -0.18586
0.09545 -0.07690 -0.24880
0.00765 -0.07690 -0.32456
0.02292 -0.07690 -0.01491
0.00544 -0.07690 -0.12709
-0.02036 -0.07690 -0.20433
-0.01074 -0.07690 -0.20096
-0.01831 -0.07690 -0.26017
0.06413 -0.07690 -0.09144
-0.06247 -0.07690 -0.24644
0.07830 -0.07690 0.20275
0.02899 -0.07690 -0.23273
0.04873 -0.07690 0.04957
-0.04205 -0.07690 -0.28250
0.05228 -0.07690 0.19907
0.08972 -0.07690 -0.30453
0.07446 -0.07690 0.05811
0.06441 -0.07690 0.09085
0.08558 -0.07690 -0.23152
-0.03995 -0.07690 -0.29090
0.05138 -0.07690 -0.18523
0.06209 -0.07690 -0.16888
0.04875 -0.07690 -0.34862
-0.00315 -0.07690 -0.14085
0.00852 -0.07690 -0.15274
-0.07018 -0.07690 -0.32033
-0.00538 -0.07690 -0.04291
0.09137 -0.07690 -0.33772
0.04296 -0.07690 0.07652
-0.06550 0.14065 0.43598
-0.06496 0.14164 0.44075
0.02290 0.14389 0.45151
-0.06352 0.13946 0.43026
-0.07699 0.13903 0.42819
-0.05745 0.13664 0.41672
0.09964 0.09218 0.14255
0.09964 -0.01335 0.22668
0.09964 0.09347 -0.11693
0.09964 0.01994 0.34037
0.09964 0.05449 0.21710
0.09964 0.05739 0.17142
0.09964 0.03091 0.25501
0.09964 0.00943 0.24637
0.09964 0.07908 -0.20758
0.09964 0.08871 -0.18267
0.09964 0.04284 0.10773
0.09964 0.08753 -0.09560
0.09964 0.09391 0.12305
0.09964 0.08666 -0.22562
0.09964 -0.00494 0.17409
0.09964 0.08907 -0.33289
0.09964 -0.00467 0.26199
0.09964 0.09633 -0.31676
0.09964 0.09198 -0.05156
0.09964 0.04252 0.09895
0.09964 0.02977 -0.04368
0.09964 0.01849 0.12288
0.09964 -0.05934 0.34014
0.09964 0.07107 0.16721
0.09964 0.04579 -0.02263
0.09964 0.09274 -0.21162
0.09964 0.09678 -0.07352
0.09964 0.00598 0.25446
0.09964 0.04346 -0.07671
0.09964 0.06290 0.27055
0.09964 0.08359 0.29427
0.09964 -0.01164 0.12583
0.09964 -0.00003 0.37083
0.09964 0.07588 0.35627
0.09964 0.02316 0.01735
0.09964 0.09151 -0.26334
0.09964 -0.01446 0.35865
0.09964 0.09528 -0.32591
0.09964 0.09689 0.26486
0.09964 0.07466 -0.18121
0.09964 -0.00143 0.22887
0.09964 -0.00811 0.25631
0.09964 0.02265 0.23551
0.09964 0.08528 -0.24589
0.09964 0.08156 0.32513
0.09964 0.05337 0.11679
0.09964 0.06685 0.18927
0.09964 0.09073 0.13657
0.09964 -0.03003 0.38256
0.09964 0.00631 0.26427
0.09964 0.03123 0.27550
0.09964 0.00015 0.17877
0.09964 0.08368 -0.28117
0.09964 0.05516 -0.04840
0.09964 -0.01997 0.38192
0.09964 0.04774 0.05012
0.09964 -0.04470 0.32964
0.09964 0.02873 0.16496
0.09964 0.07003 0.03440
0.09964 0.04367 -0.01612
0.09964 0.06357 0.10117
0.09964 0.06629 -0.22041
0.09964 0.04810 -0.16010
0.09964 -0.06559 0.36930
0.09964 -0.03050 0.26949
0.09964 0.08703 -0.06958
0.09964 0.08457 -0.03087
0.10280 0.03770 -0.38497
0.10870 0.15095 0.37118
0.10870 0.15413 0.02846
0.10870 0.15067 0.08760
0.10870 0.14759 0.25873
0.10870 0.14899 0.15838
0.10870 0.15353 0.16320
0.10870 0.14723 0.18417
0.10870 0.15465 0.32102
0.10870 0.15128 0.17222
0.10870 0.15604 0.02382
0.10870 0.15560 -0.17736
0.09753 -0.11246 -0.38898
0.10352 -0.13314 0.39130
0.02742 0.15716 -0.46197
0.00165 -0.07690 -0.39695
-0.02754 -0.07690 -0.40376
-0.10351 -0.12183 0.39003
-0.02415 -0.06171 -0.40762
-0.01876 0.00220 -0.40762
0.07181 -0.00034 -0.40762
0.02473 -0.07663 -0.40762
-0.01343 -0.01792 -0.40762
0.07368 0.06580 -0.40762
0.04657 0.03140 -0.40762
0.01288 -0.05457 -0.40762
0.00054 -0.00071 -0.40762
0.05617 -0.05242 -0.40762
0.02532 0.01437 -0.40762
0.08329 0.06566 -0.40762
0.08320 0.09799 -0.40762
-0.05168 -0.05495 -0.40762
0.08493 -0.01627 -0.40762
0.05061 -0.05102 -0.40762
0.00880 -0.04622 -0.40762
0.06708 -0.07437 -0.40762
0.04995 0.02841 -0.40762
0.10814 0.09834 -0.40762
0.10602 0.08354 -0.40762
0.10232 -0.12524 -0.40762
-0.08605 -0.11095 -0.40228
0.04387 -0.04011 0.39856
-0.02979 -0.02330 0.39856
0.02041 -0.05025 0.39856
-0.03783 -0.06787 0.39856
-0.03479 -0.05351 0.39856
0.04791 -0.07104 0.39856
-0.04022 -0.01625 0.39856
-0.04969 0.04920 0.39856
-0.08398 0.06137 0.39856
0.03050 -0.07665 0.39856
-0.04500 -0.00552 0.39856
-0.02780 0.04198 0.39856
0.02644 -0.01703 0.39856
0.02998 -0.03762 0.39856
-0.04547 -0.02474 0.39856
0.05840 -0.06680 0.39856
-0.06347 0.04411 0.39856
-0.04318 -0.05274 0.39856
-0.07693 0.06333 0.39856
-0.10868 0.10292 -0.38497
-0.10211 -0.13945 -0.40762
-0.03785 -0.07690 -0.17715
0.02910 -0.07690 -0.37200
0.01722 -0.07690 -0.03190
0.02343 -0.07690 -0.06216
0.01736 -0.07690 -0.01251
0.05890 -0.07690 0.16867
0.00097 -0.07690 -0.10677
-0.05971 -0.07690 -0.37868
0.09281 -0.07690 0.20358
-0.07749 -0.07690 -0.30780
0.07076 -0.07690 0.08117
0.03873 -0.07690 0.08586
0.06825 -0.07690 -0.18287
0.01377 -0.07690 0.04453
0.02067 -0.07690 0.03230
-0.01213 -0.07690 -0.26050
0.05851 -0.07690 -0.28591
-0.05153 -0.07690 -0.34195
0.03713 -0.07690 -0.27505
0.08069 -0.07690 -0.01693
-0.02808 -0.07690 -0.26705
0.08225 -0.07690 0.24315
0.08312 -0.07690 -0.25445
0.07018 -0.07690 0.24283
0.04627 -0.07690 0.06592
-0.02300 -0.07690 -0.19701
-0.02155 -0.07690 -0.12392
0.06793 -0.07690 0.09655
0.08076 -0.07690 -0.36710
0.09652 -0.07690 0.32289
0.03589 -0.07690 -0.34721
0.01997 -0.07690 -0.08665
0.00190 -0.07690 -0.35755
0.05064 -0.07690 -0.30564
0.01944 -0.07690 -0.26932
-0.01907 -0.07690 -0.18109
0.00171 -0.07690 -0.21982
0.08116 -0.07690 -0.18549
0.00294 -0.07690 -0.25916
0.07862 -0.07690 -0.28198
0.06019 -0.07690 -0.38219
0.09712 -0.07690 -0.03462
0.05818 -0.07690 0.18556
0.05102 -0.07690 -0.31866
0.07593 -0.07690 0.04843
-0.04633 -0.07690 -0.29270
0.07026 -0.07690 0.10476
0.05982 -0.07690 -0.04309
0.01331 -0.07690 -0.20705
0.00992 -0.07690 0.01694
0.04367 -0.07690 -0.25263
0.02789 -0.07690 -0.38044
0.01584 -0.07690 -0.21512
0.09599 -0.07690 0.13851
-0.02725 -0.07690 -0.11493
0.09214 -0.07690 -0.13905
-0.00719 -0.07690 -0.18557
0.04037 -0.07690 0.06813
0.04091 -0.07690 -0.23351
0.07960 -0.07690 -0.22397
-0.01753 -0.07690 -0.35227
-0.00111 -0.07690 -0.00561
0.02881 -0.07690 -0.29430
0.04988 -0.07690 0.08004
0.01516 -0.07690 0.04982
-0.02919 -0.07690 -0.13407
-0.01786 -0.07690 -0.17027
0.04139 -0.07690 -0.35187
0.02818 -0.07690 -0.01895
0.04813 -0.07690 -0.29477
-0.02833 -0.07690 -0.34228
0.08696 -0.07690 -0.08131
-0.03562 -0.07690 -0.23132
0.02566 -0.07690 0.07024
-0.03027 -0.07690 -0.18375
0.10116 0.09851 0.14397
0.09411 0.09851 0.23806
0.09929 0.09851 0.16241
0.10546 0.09851 -0.21990
0.10065 0.09851 -0.06441
-0.10870 0.15710 0.36078
-0.10870 0.14752 -0.04126
-0.10870 0.14771 -0.19379
-0.10870 0.14222 -0.15648
-0.10870 0.15441 -0.16045
-0.10870 0.13795 -0.33057
-0.10870 0.14887 -0.22587
-0.10870 0.15071 -0.31133
-0.10870 0.14684 -0.11188
-0.10870 0.15275 -0.13178
-0.10471 0.05476 -0.38497
0.08728 0.13474 -0.11867
0.08922 0.13474 -0.16626
0.08732 0.13474 0.14665
0.09256 0.13474 0.08198
0.09790 0.13474 0.36089
-0.08605 0.00744 0.39251
-0.08605 0.10250 0.39102
-0.10051 0.03635 -0.38497
-0.10185 -0.14778 0.39295
-0.10870 -0.09371 0.39560
0.09687 0.13474 0.17321
0.09434 0.13474 -0.34543
0.09848 0.13474 -0.05542
0.09344 0.13474 -0.08926
0.09907 0.13474 -0.16888
0.09837 0.13474 -0.19245
0.08605 0.07555 0.39733
0.08605 -0.07381 0.39455
-0.09964 0.05145 0.33998
-0.09964 -0.07098 -0.06017
-0.09964 0.02030 0.22925
-0.09964 0.03248 0.37838
-0.09964 0.00406 0.13999
-0.09964 -0.07418 0.32842
-0.09964 -0.02684 -0.10630
-0.09964 0.03884 0.38147
-0.09964 -0.06256 0.15338
-0.09964 0.04791 0.16470
-0.09964 0.06979 0.37812
-0.09964 -0.04219 -0.07841
-0.09964 -0.06327 0.04459
-0.09964 -0.01116 0.08930
-0.09964 -0.04804 0.37582
-0.09964 -0.05601 0.08252
-0.09964 0.00458 0.28257
-0.09964 -0.01681 0.22517
-0.09964 0.01651 0.27672
-0.09964 -0.06438 0.05903
-0.09964 -0.06856 0.31807
-0.09964 -0.03294 -0.12223
-0.09964 -0.04645 -0.14192
-0.09964 -0.05701 -0.17658
-0.09964 -0.07192 -0.22195
-0.09964 -0.02770 0.25812
-0.09964 -0.02970 0.33802
-0.09964 -0.05228 0.25279
-0.09964 -0.03124 0.15799
-0.09964 0.02698 0.37210
-0.09964 0.00382 0.16367
-0.09964 -0.05445 0.36179
-0.09964 -0.03465 0.25738
-0.09964 0.06016 0.27441
-0.09964 0.08451 0.33677
-0.09964 -0.06473 -0.32245
-0.09964 -0.06673 0.23174
-0.09964 0.02936 0.17270
-0.09964 0.00888 0.24473
-0.09964 -0.06149 0.29017
-0.09964 -0.04789 0.35398
-0.09964 -0.00049 0.07726
-0.09964 -0.05732 -0.22285
-0.09964 -0.03834 0.05706
-0.09964 -0.07289 -0.12780
-0.09964 -0.02316 0.17349
-0.09964 -0.06729 0.15420
-0.09964 -0.06991 0.05002
-0.09964 -0.07464 -0.31875
-0.09964 -0.03900 0.02446
-0.09964 -0.03867 0.29846
-0.09964 0.00440 0.03166
-0.09964 -0.06609 0.24878
-0.09964 -0.04231 0.05908
-0.09964 -0.07000 -0.30460
-0.09964 0.00936 0.30787
-0.09964 0.08427 0.36210
-0.09964 -0.05620 0.02277
-0.09964 -0.06808 -0.26180
-0.09964 -0.07648 -0.22902
-0.09964 0.02898 0.16652
-0.09964 -0.06449 0.12498
-0.09964 0.01506 0.07074
-0.09964 -0.04623 -0.21270
-0.09964 0.03420 0.17339
-0.09964 -0.06163 0.11928
-0.09964 0.06254 0.28037
-0.09964 0.00862 0.15591
-0.09964 -0.02673 0.14403
-0.09964 0.05966 0.21973
-0.09964 -0.04609 0.21240
-0.09964 -0.04023 -0.17680
-0.09964 -0.01531 0.37060
0.08605 0.15574 -0.45874
-0.10870 0.05292 -0.40553
-0.10870 -0.06832 -0.40444
-0.10870 -0.11589 -0.40177
-0.10870 -0.06774 -0.39962
0.10870 -0.15496 0.40016
-0.09964 0.12728 0.03533
-0.09964 0.12164 0.06803
-0.09964 0.11396 -0.06102
-0.09964 0.12554 0.15829
-0.09964 0.12961 0.07425
-0.09964 0.11818 -0.36118
-0.09964 0.11942 -0.05177
-0.09964 0.11478 -0.21762
-0.09964 0.12786 -0.06048
-0.09964 0.11892 -0.06228
-0.09964 0.13178 0.14500
-0.09964 0.11728 -0.24312
-0.09964 0.11803 0.00382
-0.09964 0.11700 -0.22981
-0.09964 0.10028 -0.36866
0.08605 -0.03074 -0.39504
0.08605 -0.05237 -0.40344
-0.02511 -0.05129 -0.40762
-0.06515 -0.05359 -0.40762
0.02263 -0.02836 -0.40762
0.08196 -0.00685 -0.40762
-0.01885 -0.01067 -0.40762
-0.01766 -0.06349 -0.40762
0.06262 -0.00146 -0.40762
0.02652 -0.02571 -0.40762
0.00391 -0.01104 -0.40762
0.03851 0.02763 -0.40762
0.05843 0.07005 -0.40762
0.04359 -0.06966 -0.40762
0.08146 0.02256 -0.40762
-0.01028 -0.05126 -0.40762
0.08411 0.07619 -0.40762
0.08303 -0.04052 -0.40762
-0.04949 -0.03314 -0.40762
0.05397 0.05377 -0.40762
-0.10446 -0.08803 0.38622
-0.10870 0.10101 0.38969
-0.10870 0.05845 0.39489
-0.10430 -0.08934 -0.38637
0.01344 0.09851 0.36981
0.02969 0.09851 0.11135
0.08798 0.09851 -0.26042
-0.05071 0.09851 0.32562
0.05990 0.09851 0.18983
0.04716 0.09851 0.12997
-0.01320 0.09851 0.16477
0.05186 0.09851 0.05097
0.05239 0.09851 -0.05601
0.08702 0.09851 0.27373
0.08696 0.09851 -0.21467
0.06105 0.09851 0.15316
0.00894 0.09851 0.08318
-0.05326 0.09851 0.36340
0.04183 0.09851 0.37454
0.01522 0.09851 0.13803
0.08160 0.09851 0.25283
0.02377 0.09851 -0.04877
-0.02944 0.09851 0.26902
0.08072 0.09851 -0.02934
0.04204 0.09851 0.04800
0.10528 0.09851 -0.33693
-0.01446 0.09851 0.23201
0.01635 0.09851 0.24470
0.02317 0.09851 0.01747
0.05729 0.09851 0.36392
0.01520 0.09851 0.35684
0.08181 0.09851 -0.16015
-0.00562 0.09851 0.08350
0.07586 0.09851 0.09939
-0.00001 0.09851 0.36549
0.07436 0.09851 -0.03120
0.01076 0.09851 0.10674
0.02030 0.09851 0.02139
-0.00791 0.09851 0.29255
0.03055 0.09851 0.19617
0.06747 0.09851 -0.18826
0.05443 0.09851 -0.01421
0.09338 0.09851 -0.02450
0.05727 0.09851 0.16851
0.02519 0.09851 0.23978
0.05647 0.09851 -0.11488
0.08893 0.09851 -0.13540
0.08517 0.09851 0.29384
0.07199 0.09851 -0.21347
-0.00000 0.09851 0.30765
0.08048 0.09851 -0.13325
0.08055 0.09851 -0.09269
-0.03867 0.09851 0.25598
0.03007 0.09851 0.24177
0.04396 0.09851 0.27619
-0.05833 0.09851 0.31707
0.07698 0.09851 -0.14071
-0.03462 0.09851 0.32364
0.09512 0.09851 0.03713
0.02511 0.09851 0.15507
0.04650 0.09851 0.11665
0.02767 0.09851 0.30321
0.02999 0.09851 0.03768
-0.04873 0.09851 0.33028
0.04040 0.09851 0.12919
0.07853 0.09851 0.23112
0.07855 0.09851 0.32675
0.02416 0.09851 0.20863
-0.06903 0.09851 0.28094
-0.01804 0.09851 0.09313
0.04373 0.09851 -0.13562
-0.07297 0.09851 0.29669
-0.04305 0.09851 0.19460
0.08605 0.15143 -0.27370
0.08605 0.14971 -0.00715
0.08605 0.15254 -0.19717
0.08605 0.14661 -0.14881
0.08605 0.15346 -0.12695
0.08605 0.13698 -0.38843
0.08605 0.14940 -0.16915
0.08605 0.15069 -0.31647
0.08605 0.13883 -0.32835
0.08605 0.14438 -0.33178
0.09644 0.12082 0.38497
-0.10870 0.02475 0.39304
0.01866 0.14647 0.46197
0.01379 0.13952 0.43057
0.06621 0.14411 0.45259
0.00388 0.13939 0.42995
0.04275 0.13505 0.40912
0.01338 0.14057 0.43560
-0.10870 -0.14713 -0.39798
0.10600 -0.11777 -0.40762
0.09929 -0.07332 -0.40762
0.08605 0.13848 0.39592
-0.09086 0.07165 -0.38497
-0.08605 -0.04244 -0.39873
-0.08605 0.05557 -0.39937
-0.08605 -0.02712 -0.39880
0.09621 0.09851 0.29602
0.08794 0.09851 0.36235
0.09982 0.09851 0.13271
0.09834 0.09851 0.19254
0.10475 0.09851 -0.05823
0.08605 -0.09966 -0.38883
-0.10137 0.01168 0.38497
0.09636 0.11750 -0.38497
-0.02858 0.15739 -0.44027
-0.00584 0.15739 -0.44629
-0.05550 0.15739 -0.42964
-0.07326 0.15739 -0.45722
0.00646 0.15739 -0.45401
-0.10075 -0.01122 0.38497
-0.01745 -0.07690 -0.40662
-0.01083 -0.07690 -0.40602
-0.08605 0.14477 -0.44252
-0.08807 -0.00796 0.40762
-0.09242 0.05040 0.40762
-0.08605 -0.10311 -0.39819
0.09364 -0.05482 0.38497
0.09659 -0.06246 0.38497
0.08605 0.03391 -0.39822
0.08605 0.10747 -0.40548
-0.10701 -0.12847 -0.39078
-0.07585 -0.07690 -0.39389
-0.06959 -0.07690 -0.39776
-0.08605 0.15318 0.43844
-0.08699 0.15739 0.23795
-0.09381 0.15739 0.37744
-0.09231 0.15739 -0.10461
-0.08682 0.15739 0.04885
-0.09631 0.15739 0.02015
-0.08640 0.15739 -0.05200
-0.09676 0.15739 0.12349
-0.10068 0.15739 0.34717
-0.09520 0.15739 0.36775
0.03787 0.15739 0.42427
-0.03019 0.15739 0.45904
-0.01335 0.15739 0.43946
0.08172 0.15739 0.45575
0.09495 0.11421 0.38497
-0.09793 0.12930 0.40762
-0.08743 -0.05771 0.40762
-0.08605 -0.09767 -0.39525
0.08605 -0.10494 0.40088
-0.08714 0.14850 -0.40762
-0.09976 0.13318 -0.40762
-0.09009 0.09676 -0.40762
-0.10562 0.13967 -0.40762
0.09964 0.12086 -0.02450
0.09964 0.12419 0.26854
0.09964 0.10924 0.23646
0.09964 0.12091 0.36964
0.09964 0.10523 0.36639
0.09964 0.11251 0.25062
0.09964 0.13197 0.26072
0.09964 0.13429 -0.06704
0.09964 0.10804 0.32363
0.09964 0.12493 -0.03425
0.09964 0.12243 -0.04301
0.09964 0.11430 0.09110
0.09964 0.12370 0.23153
0.09964 0.11256 0.14382
0.09964 0.12317 0.01455
0.09964 0.13110 -0.28360
-0.10870 0.12852 -0.27610
-0.10870 0.09925 0.34935
-0.10870 0.10208 -0.26059
-0.10870 0.10894 0.13645
-0.10870 0.12631 -0.32532
-0.10870 0.11578 0.01120
-0.10870 0.10071 0.19318
-0.10870 0.10059 -0.35809
-0.10870 0.10752 -0.17589
-0.10870 0.09938 0.07284
-0.10870 0.10364 -0.21519
-0.10870 0.11276 0.03623
-0.10870 0.11074 -0.23172
-0.10870 0.12337 -0.20987
-0.10870 0.12559 -0.25429
-0.10870 0.12850 -0.36192
0.05914 0.15739 -0.44170
0.05080 0.15739 -0.42147
0.07937 0.15739 -0.44367
-0.00420 0.15739 -0.41539
-0.08525 0.15739 0.18047
-0.00791 0.15739 -0.29700
-0.06260 0.15739 0.13867
0.01329 0.15739 -0.35584
-0.06000 0.15739 -0.04612
0.00432 0.15739 -0.10526
-0.06595 0.15739 -0.11797
-0.03483 0.15739 -0.06465
-0.06589 0.15739 -0.23234
-0.07912 0.15739 0.14896
-0.04317 0.15739 -0.33935
-0.02114 0.15739 -0.13293
-0.02064 0.15739 -0.36166
-0.05278 0.15739 -0.35712
-0.08596 0.15739 0.38046
-0.07778 0.15739 -0.14252
-0.06230 0.15739 0.06045
0.00056 0.15739 -0.27201
-0.01745 0.15739 -0.39643
-0.05853 0.15739 -0.12728
0.07369 0.15739 -0.39753
0.02217 0.15739 -0.11817
0.02526 0.15739 -0.14946
0.04601 0.15739 -0.28927
-0.02553 0.15739 0.09218
-0.05019 0.15739 0.05085
0.00793 0.15739 -0.06635
-0.00527 0.15739 -0.33120
-0.07028 0.15739 -0.39274
-0.00120 0.15739 -0.22460
-0.01681 0.15739 -0.26195
0.03065 0.15739 -0.14991
0.01573 0.15739 -0.14627
-0.06228 0.15739 0.17856
0.02792 0.15739 -0.20666
-0.07125 0.15739 0.26089
-0.07243 0.15739 -0.36876
-0.04472 0.15739 -0.24346
0.04569 0.15739 -0.26923
-0.00124 0.15739 -0.30402
-0.01631 0.15739 -0.00151
-0.01670 0.15739 -0.18345
-0.02134 0.15739 -0.06084
0.02507 0.15739 -0.33124
-0.03605 0.15739 -0.13090
-0.00542 0.15739 -0.31615
-0.02100 0.15739 -0.28852
-0.07650 0.15739 -0.36733
-0.02397 0.15739 0.10944
0.02059 0.15739 -0.28279
-0.01939 0.15739 -0.24339
-0.07413 0.15739 -0.33823
-0.02505 0.15739 -0.11538
0.04209 0.15739 -0.25802
-0.06066 0.15739 -0.40150
-0.01811 0.15739 -0.17438
-0.08103 0.15739 0.19472
-0.02433 0.15739 -0.34549
-0.06348 0.15739 0.17144
-0.02863 0.15739 -0.33458
-0.04436 0.15739 -0.24809
-0.04802 0.15739 -0.19842
-0.03419 0.15739 -0.37976
-0.06449 0.15739 0.25287
-0.05343 0.15739 0.03074
-0.04622 0.15739 -0.00785
-0.07263 0.15739 0.20979
0.02525 0.15739 -0.34693
0.00965 0.15739 -0.24519
-0.03623 0.15739 -0.08211
-0.07338 0.15739 -0.30401
-0.02451 0.15739 -0.00740
-0.04793 0.15739 -0.14046
-0.05818 0.15739 -0.10474
0.03847 0.15739 -0.39760
-0.08605 -0.01825 -0.39265
-0.08605 0.04712 -0.40469
-0.09964 0.11510 0.32249
-0.09964 0.10406 -0.02212
-0.09964 0.11737 0.34295
-0.09964 0.12236 0.17698
-0.09964 0.09940 -0.30427
-0.09964 0.12218 0.32414
-0.09964 0.10932 0.27323
-0.09964 0.10588 0.18498
-0.09964 0.10525 0.03153
-0.09964 0.10656 0.03720
-0.09964 0.11606 0.35009
-0.09964 0.09967 -0.05547
-0.09964 0.11564 0.04047
-0.09964 0.09987 0.20414
-0.09964 0.11036 0.33108
-0.09964 0.09941 0.26932
0.08605 -0.09106 -0.39670
-0.03132 -0.07690 0.34329
0.02956 -0.07690 0.35632
-0.07885 -0.07690 0.25157
0.00660 -0.07690 0.10008
0.00963 -0.07690 0.15907
-0.04379 -0.07690 0.28665
-0.03804 -0.07690 -0.09288
0.05151 -0.07690 0.38422
-0.02390 -0.07690 0.37710
-0.02086 -0.07690 0.06068
-0.08500 -0.07690 0.25390
0.01426 -0.07690 0.33018
0.02130 -0.07690 0.15752
0.01644 -0.07690 0.35073
-0.09207 -0.07690 0.03436
-0.05245 -0.07690 -0.04082
-0.06321 -0.07690 0.34463
0.06559 -0.07690 0.34435
-0.01478 -0.07690 0.12670
0.01913 -0.07690 0.25208
-0.00417 -0.07690 0.19653
0.02158 -0.07690 0.20428
-0.04164 -0.07690 0.33023
-0.04224 -0.07690 -0.08252
0.04804 -0.07690 0.33990
-0.07833 -0.07690 0.03476
-0.07694 -0.07690 0.33488
0.06855 -0.07690 0.37530
0.06994 -0.07690 0.38173
-0.08126 -0.07690 -0.14285
-0.06258 -0.07690 -0.02882
-0.00519 -0.07690 0.20803
-0.03309 -0.07690 0.16144
0.03335 -0.07690 0.37267
-0.03251 -0.07690 0.19472
-0.02981 -0.07690 0.24883
-0.03385 -0.07690 0.09659
-0.08430 -0.07690 -0.03802
-0.06200 -0.07690 0.23099
-0.03762 -0.07690 0.34573
-0.05156 -0.07690 0.03298
-0.06070 -0.07690 -0.16439
-0.08404 -0.07690 0.04227
0.02592 -0.07690 0.24913
-0.06225 -0.07690 0.15544
-0.06850 -0.07690 -0.07377
0.06535 -0.07690 0.32082
-0.04208 -0.07690 0.21424
0.04367 -0.07690 0.34065
-0.07327 -0.07690 -0.27145
0.00358 -0.07690 0.11019
-0.08852 -0.07690 -0.11735
-0.05764 -0.07690 -0.18535
0.01049 -0.07690 0.22389
-0.09139 -0.07690 -0.03134
-0.08706 -0.07690 0.20268
-0.01111 -0.07690 0.18150
0.00976 -0.07690 0.20277
-0.04657 -0.07690 -0.07737
0.02992 -0.07690 0.18468
-0.05633 -0.07690 -0.15203
-0.06478 -0.07690 0.06261
-0.01326 -0.07690 0.12259
-0.06596 -0.07690 -0.01527
-0.01657 -0.07690 -0.03825
-0.03926 -0.07690 0.35451
-0.08253 -0.07690 0.26616
-0.03765 -0.07690 0.16649
0.00317 -0.07690 0.06845
0.04840 -0.07690 0.25675
-0.03168 -0.07690 0.08157
-0.08605 0.13894 -0.18521
-0.08605 0.15282 -0.30487
-0.08605 0.13900 -0.17999
-0.08605 0.14785 -0.21279
-0.08605 0.13633 0.16659
-0.08605 0.14270 -0.15291
-0.08605 0.14045 -0.07004
-0.08800 -0.07580 0.38497
-0.09148 0.01878 0.38497
-0.04985 -0.02340 0.39856
0.05014 -0.03662 0.39856
0.00762 -0.02452 0.39856
0.06779 -0.05984 0.39856
-0.02867 -0.00671 0.39856
0.01615 0.00586 0.39856
-0.06001 0.08723 0.39856
-0.08069 -0.05114 0.39856
-0.07001 0.07264 0.39856
-0.08182 -0.06093 0.39856
-0.01622 -0.06450 0.39856
-0.07292 0.03172 0.39856
0.00064 0.00584 0.39856
0.04068 -0.03200 0.39856
0.01494 -0.01708 0.39856
-0.03720 0.04648 0.39856
-0.06511 0.05748 0.39856
-0.08470 0.03567 0.39856
-0.05211 0.02646 0.39856
0.09834 -0.11278 0.40762
0.09696 -0.10830 0.40762
0.08901 -0.04814 0.40762
0.08815 -0.09151 0.40762
0.09136 0.08940 0.38497
-0.02695 0.13474 0.26075
-0.02458 0.13474 0.07522
-0.06910 0.13474 -0.25569
-0.08202 0.13474 -0.22301
0.02866 0.13474 0.29979
0.02106 0.13474 0.27959
-0.02510 0.13474 0.15475
-0.03323 0.13474 -0.02953
-0.08004 0.13474 -0.03983
0.00488 0.13474 0.05487
-0.03036 0.13474 0.14328
-0.07535 0.13474 0.38235
-0.08072 0.13474 -0.27189
-0.07384 0.13474 0.09115
-0.00428 0.13474 0.20624
-0.04020 0.13474 0.14319
0.01117 0.13474 0.35222
-0.03159 0.13474 0.27530
0.05607 0.13474 0.27960
-0.03157 0.13474 0.04992
-0.02443 0.13474 0.37977
-0.07892 0.13474 0.32440
-0.07968 0.13474 -0.28628
-0.05157 0.13474 0.37983
-0.04689 0.13474 0.08782
-0.02373 0.13474 0.17827
-0.07012 0.13474 0.16459
-0.04027 0.13474 0.33481
-0.07084 0.13474 0.13298
-0.03764 0.13474 0.23127
-0.01399 0.13474 0.21200
-0.00711 0.13474 0.33580
0.00024 0.13474 0.16120
-0.06491 0.13474 0.15737
0.03571 0.13474 0.18314
-0.00175 0.13474 0.17835
-0.06606 0.13474 -0.24948
-0.07860 0.13474 0.15863
-0.08504 0.13474 0.02528
0.00629 0.13474 0.19645
-0.00991 0.13474 0.22501
0.03352 0.13474 0.22967
-0.01330 0.13474 0.28138
-0.07309 0.13474 0.06442
-0.05419 0.13474 0.34644
-0.07357 0.13474 0.26127
-0.01490 0.13474 0.34317
-0.01000 0.13474 -0.03448
0.03824 0.13474 0.28120
0.01354 0.13474 0.14918
-0.01110 0.13474 0.05779
-0.03414 0.13474 0.20784
-0.06442 0.13474 -0.06374
-0.03490 0.13474 -0.07898
-0.07222 0.13474 0.14336
-0.08528 0.13474 -0.05807
-0.02801 0.13474 0.23074
0.00876 0.13474 0.30140
0.02826 0.13474 0.22395
-0.07034 0.13474 0.28802
-0.03446 0.13474 0.26205
-0.03598 0.13474 -0.03441
0.00434 0.13474 0.15435
-0.02182 0.13474 0.35106
-0.07769 0.13474 0.33479
-0.07941 0.13474 -0.32431
0.04740 0.13474 0.31377
-0.06026 0.13474 -0.24705
0.03909 0.13474 0.23678
-0.02142 0.13474 0.11066
-0.07585 0.13474 0.25391
0.02022 0.08335 0.39856
-0.01969 0.11760 0.39856
0.03058 0.07052 0.39856
0.05364 -0.02198 0.39856
0.00493 0.04798 0.39856
0.03258 0.02074 0.39856
0.06893 -0.03904 0.39856
-0.03588 0.09539 0.39856
0.02493 0.02004 0.39856
-0.00432 0.12399 0.39856
-0.01853 0.05917 0.39856
0.05233 0.07433 0.39856
0.04523 0.08549 0.39856
0.01056 0.08458 0.39856
-0.00313 0.07726 0.39856
0.04521 0.01535 0.39856
0.08278 -0.05831 0.39856
0.01694 0.01145 0.39856
0.07306 0.09355 0.39856
-0.02160 0.07027 0.39856
0.09045 -0.09676 -0.38721
-0.08605 0.12948 0.38904
-0.09905 0.04976 0.40762
0.04046 0.10844 -0.38497
0.00283 0.13390 -0.38497
0.00401 0.12149 -0.38497
0.09055 -0.04484 -0.38497
0.09952 0.00954 -0.38497
-0.08956 -0.11780 0.40762
-0.10284 -0.00120 0.40762
-0.10853 -0.02870 0.40762
-0.09786 -0.11083 0.40762
0.09964 0.05994 -0.34492
0.09964 -0.01135 -0.10837
0.09964 -0.06463 0.27526
0.09964 -0.01165 -0.26085
0.09964 -0.01677 -0.29084
0.09964 -0.04100 -0.29593
0.09964 -0.06740 -0.25821
0.09964 -0.01936 0.01755
0.09964 -0.02161 -0.07578
0.09964 0.01755 -0.04484
0.09964 -0.05294 0.15312
0.09964 -0.06155 -0.06096
0.09964 -0.02323 -0.25194
0.09964 -0.00918 -0.06030
0.09964 -0.00678 -0.23916
0.09964 0.01614 -0.29329
0.09964 -0.03996 0.13598
0.09964 -0.06249 -0.10131
0.09964 -0.07592 -0.02357
0.09964 0.05090 -0.21101
0.09964 -0.02441 0.10682
0.09964 -0.04742 -0.02121
0.09964 -0.01434 -0.25119
0.09964 -0.04675 -0.32894
0.09964 -0.06084 -0.28286
0.09964 -0.02814 -0.25218
0.09964 -0.06003 0.03044
0.09964 -0.00759 -0.32154
0.09964 -0.04878 -0.24803
0.09964 0.05231 -0.28637
0.09964 0.02645 -0.10161
0.09964 -0.06939 0.30800
0.09964 0.00479 -0.36095
0.09964 -0.06000 0.29644
0.09964 -0.01697 0.09062
0.09964 -0.02462 -0.35098
0.09964 -0.03060 0.05688
0.09964 -0.07409 0.03237
0.09964 -0.02664 -0.15455
0.09964 -0.04100 -0.28353
0.09964 -0.02197 -0.05504
0.09964 -0.06281 -0.35296
0.09964 -0.05300 0.05760
0.09964 0.04931 -0.31267
0.09964 -0.05633 0.22927
0.09964 -0.05787 0.24462
0.09964 -0.05505 -0.03839
0.09964 0.09575 -0.38439
0.09964 -0.04948 0.24199
0.09964 -0.03788 -0.10898
0.09964 -0.02274 -0.34637
0.09964 -0.01800 -0.30577
0.09964 -0.04621 0.03204
0.09964 0.03325 -0.18955
0.09964 -0.01209 -0.18977
0.09964 -0.04268 0.21574
0.09964 -0.00706 0.02846
0.09964 0.00332 -0.35347
0.09964 -0.01978 -0.12236
0.09964 -0.07255 -0.17348
0.09964 -0.00112 -0.04216
0.09964 0.04564 -0.32715
0.09964 0.03852 -0.28375
0.09964 -0.00140 -0.03090
0.09964 -0.03928 -0.10110
0.09964 -0.03872 0.04659
0.09964 0.09092 -0.35282
0.09964 -0.07426 0.17654
0.09964 -0.04101 -0.31122
0.09964 -0.04406 -0.14735
0.09964 0.00440 -0.11303
0.09964 -0.02127 -0.21768
-0.10870 0.12727 -0.16166
-0.10870 0.12158 0.23297
-0.10870 0.13407 -0.12715
-0.10870 0.11912 0.03377
-0.10870 0.11200 0.16572
-0.10870 0.11928 0.31504
-0.10870 0.13327 -0.14803
-0.10870 0.13304 0.16651
-0.10870 0.11301 0.12295
-0.10870 0.13452 -0.23904
-0.10870 0.13348 -0.24666
-0.10870 0.12638 0.30520
-0.10870 0.13118 0.29383
-0.10870 0.10113 0.36905
-0.10870 0.13208 0.33703
-0.10870 -0.07994 -0.38553
0.09750 0.15739 -0.33475
0.09037 0.15739 -0.20663
0.09462 0.15739 0.03141
0.10556 0.15739 -0.32657
0.09238 0.15739 -0.32524
0.09319 0.15739 -0.38217
0.10481 0.15739 -0.30757
0.09314 0.15739 -0.19775
0.09218 0.15739 -0.22531
0.09964 0.09961 0.04369
0.09964 0.10559 -0.16564
0.09964 0.10024 -0.27813
0.09964 0.11276 0.04241
0.09964 0.10924 -0.15977
0.09964 0.10762 0.03369
0.09964 0.10592 -0.00038
0.09964 0.12807 -0.37308
0.09964 0.11064 -0.04805
0.09964 0.10121 0.21496
0.09964 0.10232 0.08546
0.09964 0.11127 -0.08576
0.09964 0.10793 -0.01767
0.09964 0.09879 -0.29877
-0.10870 -0.07762 0.40591
-0.10870 -0.14350 0.39789
0.09335 -0.07860 -0.40762
0.09565 -0.02505 -0.40762
0.09488 -0.09162 -0.40762
0.08911 0.10321 -0.40762
0.08605 0.14356 0.18228
0.08605 0.14402 0.16769
0.08605 0.13928 0.23070
0.08605 0.14230 0.24780
0.08605 0.14582 0.31883
0.08605 0.14718 0.06698
0.08605 0.14513 0.19442
0.08605 0.14614 0.16041
0.08605 0.13640 -0.00970
-0.03137 0.13474 -0.32242
0.07776 0.13474 -0.33449
-0.02078 0.13474 -0.20317
0.07779 0.13474 0.17271
0.06534 0.13474 -0.21804
0.02582 0.13474 -0.30047
0.07406 0.13474 -0.22659
-0.04250 0.13474 -0.21135
0.03468 0.13474 -0.31324
