-0.02464 -0.03126 0.23938
-0.13532 -0.03126 0.24118
0.03863 -0.03126 0.23338
-0.14719 0.09965 -0.22773
-0.16446 0.08623 -0.22773
-0.16222 0.04198 -0.22773
-0.17081 -0.02187 -0.40634
0.17238 0.09906 0.40634
0.15360 -0.02900 -0.43334
0.15360 -0.06882 -0.43724
0.15360 0.08535 -0.41100
-0.16157 -0.02196 -0.41343
-0.05732 -0.12949 0.43659
0.17873 0.06512 0.31168
-0.10204 0.12949 -0.04551
-0.09432 0.12949 -0.19071
-0.17200 0.12949 -0.30590
-0.02850 0.12949 -0.27254
-0.16124 0.12949 -0.14993
0.06690 0.12949 -0.30801
0.03289 0.12949 -0.20934
-0.06908 0.12949 -0.15101
0.00705 0.12949 -0.14901
-0.02468 0.12949 -0.04295
-0.04476 0.12949 -0.23061
0.07435 0.12949 -0.44157
-0.01612 0.12949 -0.29891
0.05920 0.12949 -0.21971
-0.10105 0.12949 -0.22538
-0.17628 0.12949 -0.21211
-0.06059 0.12949 -0.14881
-0.13766 0.12949 -0.37548
-0.13645 0.12949 -0.13488
0.02224 0.12949 -0.23150
-0.05465 0.12949 0.06890
0.07496 0.12949 -0.32778
0.05313 0.12949 -0.15042
0.08514 0.12949 -0.29768
-0.15747 0.12949 0.31085
-0.03772 0.12949 -0.16844
0.12136 0.12949 -0.32626
-0.09848 0.12949 0.01417
-0.07755 0.12949 -0.23933
-0.10160 0.12949 0.02053
-0.13016 0.12949 -0.17483
-0.17350 0.12949 0.27280
0.16494 0.12949 -0.43802
-0.09145 0.12949 -0.00848
-0.05260 0.12949 -0.14023
-0.08700 0.12949 -0.37964
-0.08062 0.12949 -0.22581
-0.09091 0.12949 -0.10706
-0.11028 0.12949 0.25453
0.02597 0.12949 -0.38617
-0.11575 0.12949 0.19374
-0.07006 0.12949 0.09997
-0.08799 0.12949 0.11032
-0.16670 0.12949 -0.21613
0.03853 0.12949 -0.15830
0.10384 0.12949 -0.33785
0.01201 0.12949 -0.27171
-0.16898 0.12949 0.08405
0.08656 0.12949 -0.33541
-0.17203 0.12949 0.04265
-0.13422 0.12949 -0.06302
-0.11870 0.12949 -0.21344
-0.14717 0.12949 -0.39499
-0.09853 0.12949 -0.10141
-0.02477 0.12949 -0.07406
-0.12177 0.12949 -0.42421
-0.10017 0.12949 0.05084
-0.03495 0.12949 -0.29321
-0.15561 0.12949 0.20646
-0.00627 0.12949 -0.07246
0.08714 0.12949 -0.30299
-0.15125 0.12949 0.28483
0.09637 0.12949 -0.36902
-0.01515 0.12949 -0.19482
-0.08274 0.12949 0.03566
0.07625 0.12949 -0.23112
0.04631 0.12949 -0.23494
-0.03719 0.12949 -0.41785
-0.06207 0.12949 -0.01468
-0.17558 0.12949 -0.17940
-0.11644 0.12949 -0.23411
-0.09801 0.12949 -0.40403
-0.10668 0.12949 -0.27541
-0.16736 0.12949 -0.08495
-0.16405 0.12949 -0.40920
-0.05896 0.12949 0.10840
-0.03998 0.12949 0.07263
0.05366 0.12949 -0.31127
-0.17261 0.12949 0.28011
-0.08338 0.12949 -0.33435
0.11257 0.12949 -0.33448
-0.06395 0.12949 0.04242
-0.08618 0.12949 0.20681
-0.07155 0.12949 0.13331
-0.02307 0.12949 0.01407
-0.12312 0.12949 -0.28468
0.00251 0.12949 -0.20730
-0.15458 0.12949 -0.44255
-0.16248 0.12949 -0.02381
-0.05235 0.12949 -0.20896
-0.05768 0.12949 -0.43181
-0.11908 0.12949 -0.01169
-0.05111 0.12949 -0.40105
-0.10577 0.12949 -0.37215
-0.03629 0.12949 -0.26908
-0.16810 0.12949 -0.24761
-0.10606 0.12949 -0.30710
0.03595 0.12949 -0.32062
-0.16792 0.12949 -0.18198
-0.17819 0.12949 -0.21863
-0.02869 0.12949 -0.10608
-0.16524 0.12949 -0.16928
-0.17853 0.12949 -0.29058
0.01747 0.12949 -0.41866
-0.05797 0.12949 -0.10739
-0.08550 0.12949 0.05689
-0.17207 0.12949 0.21577
-0.13919 0.12949 -0.06716
-0.02869 0.12949 -0.23003
-0.15307 0.12949 0.19095
-0.08432 0.12949 -0.38804
-0.05699 0.12949 -0.23343
-0.13427 0.12949 -0.28858
-0.12155 0.12949 -0.38348
-0.14975 0.12949 0.22757
-0.05660 0.12949 -0.31893
-0.05160 0.12949 -0.16588
-0.16497 0.12949 -0.15443
0.02540 0.12949 -0.15270
-0.10640 0.12949 -0.33913
-0.13650 0.12949 -0.05735
-0.15987 0.12949 0.04592
-0.12926 0.12949 0.32156
-0.12708 0.12949 -0.03386
-0.12853 0.12949 0.08476
-0.11086 0.12949 -0.24891
-0.04266 0.12949 -0.06592
-0.06239 0.12949 -0.18722
-0.01027 0.12949 -0.30509
-0.13329 0.12949 0.23393
-0.03456 0.12949 0.07404
-0.08331 0.12949 0.12728
-0.10691 0.12949 0.01027
0.12167 0.12949 -0.37032
0.00737 0.12949 -0.12097
-0.03482 0.12949 -0.05659
-0.04481 0.12949 -0.20035
0.03928 0.12949 -0.26641
-0.13982 0.12949 0.25287
-0.02893 0.12949 0.02365
-0.16902 0.12949 0.05554
-0.13384 0.12949 0.08865
-0.16553 0.12949 -0.34208
-0.16670 0.12949 -0.19873
-0.03819 0.12949 -0.28426
-0.01496 0.12949 0.02966
-0.13842 0.12949 -0.04287
-0.01883 0.12949 0.00767
-0.07925 0.12949 -0.14098
0.06906 0.12949 -0.43865
-0.05373 0.12949 -0.20228
-0.16540 0.12949 0.07556
-0.09626 0.12949 0.17432
0.00820 0.12949 -0.18737
-0.05320 0.12949 -0.29127
-0.04173 0.12949 -0.40335
0.03576 0.12949 -0.12146
0.13245 0.12949 -0.43722
-0.16896 0.12949 0.41283
0.15109 0.12949 -0.39776
-0.07007 0.12949 -0.23024
-0.13199 0.12949 0.01595
0.12157 0.12949 -0.40342
-0.16187 0.12949 -0.43163
0.08768 0.12949 -0.25645
0.05163 0.12949 -0.29228
0.01788 0.12949 -0.05702
-0.07927 0.12949 0.04150
-0.15595 0.12949 -0.09471
0.17861 -0.02770 -0.34854
-0.16748 -0.12549 0.43005
-0.15518 -0.02663 0.42017
-0.18003 0.01781 -0.31572
-0.18311 -0.03068 -0.28876
-0.11970 -0.12437 0.43938
-0.12294 -0.11582 0.43938
0.02315 -0.11225 0.43938
-0.18200 0.02364 0.39955
0.13842 0.11746 -0.30566
0.13842 0.11554 -0.29282
0.13842 0.11809 -0.21244
-0.11077 0.03305 0.22773
-0.05909 0.03706 0.22773
-0.02310 0.05165 0.22773
-0.08377 0.10143 0.22773
-0.05306 0.09065 0.22773
-0.17381 -0.02828 0.22773
-0.01280 0.10014 0.22773
-0.14676 0.03040 0.22773
-0.00355 0.06623 0.22773
-0.05187 0.06810 0.22773
-0.03887 0.06741 0.22773
-0.12233 0.07380 0.22773
-0.13366 0.02462 0.22773
-0.14254 0.04342 0.22773
-0.03907 0.05358 0.22773
-0.08792 0.08252 0.22773
-0.10866 0.08609 0.22773
-0.12883 0.07285 0.22773
-0.12408 0.03665 0.22773
-0.13747 0.01761 0.22773
-0.17861 0.05030 -0.22946
0.09052 -0.03126 0.38881
-0.15515 -0.03126 0.39132
0.11921 -0.03126 0.39620
0.00346 -0.03126 0.37895
0.05475 -0.03126 0.37355
-0.09185 -0.03126 0.31391
0.02584 -0.03126 0.37853
-0.16021 -0.03126 0.30687
0.12637 -0.03126 0.40560
-0.15484 -0.03126 0.24505
0.03149 -0.03126 0.40068
-0.02111 -0.03126 0.38630
-0.02200 -0.03126 0.36803
0.01617 -0.03126 0.33846
0.05786 -0.03126 0.38321
-0.17786 -0.03126 0.28811
-0.12960 -0.03126 0.32310
0.00162 -0.03126 0.38762
-0.05278 -0.03126 0.36917
-0.14035 -0.03126 0.39875
0.05738 -0.03126 0.40383
-0.12455 -0.03126 0.36667
-0.12915 -0.03126 0.26099
-0.04467 -0.03126 0.33080
-0.03557 -0.03126 0.37125
0.01947 -0.03126 0.37543
-0.15493 -0.03126 0.39894
-0.05934 -0.03126 0.30922
-0.14313 -0.03126 0.36851
-0.13519 -0.03126 0.37666
-0.08353 -0.03126 0.36865
-0.07497 -0.03126 0.28551
0.03116 -0.12949 -0.43392
-0.02940 -0.12949 -0.43201
0.18397 -0.00734 0.38793
0.18397 -0.01429 0.39048
0.18397 -0.00344 0.31423
0.18397 0.01506 0.25781
0.01249 0.10871 0.40663
0.08292 0.10851 0.40665
-0.08907 0.10688 0.40681
-0.18139 -0.02954 -0.31318
-0.18397 0.08861 0.29362
-0.18397 0.08997 0.31311
-0.18397 0.09978 0.34619
-0.18397 0.00676 -0.27726
-0.18397 -0.01614 -0.36300
-0.18397 -0.02520 -0.38432
-0.18397 -0.02432 -0.40158
0.12019 0.09377 0.42659
0.13633 0.09377 0.42820
0.10584 0.09377 0.42445
0.04077 0.09377 0.42572
0.07997 0.09377 0.42751
0.17861 0.12219 -0.16163
0.17861 0.11496 0.13713
0.18397 0.03220 -0.25578
0.18397 0.05004 -0.25060
0.18397 0.02514 -0.23930
0.18397 0.04136 -0.27134
0.16124 -0.03148 0.42065
0.16987 -0.12057 0.42956
0.18192 0.06299 -0.32001
-0.07005 -0.03126 0.24599
0.13260 -0.03126 0.30367
0.12782 -0.03126 0.25056
0.02672 -0.03126 0.23133
0.10707 -0.03126 0.31158
0.15743 -0.03126 0.30755
0.10011 -0.03126 0.23789
-0.02846 -0.03126 0.27484
0.16289 -0.03126 0.27841
0.12736 -0.03126 0.36824
0.13090 -0.03126 0.35882
0.10624 -0.03126 0.32254
0.08001 -0.03126 0.29228
0.07280 -0.03126 0.34133
0.11382 -0.03126 0.28720
0.11629 -0.03126 0.33668
0.14107 -0.03126 0.27812
0.06675 -0.03126 0.28311
-0.01052 -0.03126 0.23520
0.08838 -0.03126 0.31770
-0.01276 -0.03126 0.24188
0.04642 -0.03126 0.30448
-0.05102 -0.03126 0.28750
0.05185 -0.03126 0.23937
0.00309 -0.03126 0.25948
0.09179 -0.03126 0.32638
-0.16387 0.11163 -0.43965
0.04281 0.11163 -0.44199
-0.17861 -0.03008 0.31787
0.01031 0.10105 -0.40740
0.08767 0.10024 -0.40748
0.13797 0.10756 -0.40675
-0.13011 -0.11311 0.42881
-0.01581 -0.11561 0.42906
-0.18397 0.08090 -0.38461
-0.18397 0.09717 -0.36379
-0.18397 0.10192 -0.40235
-0.18397 0.02985 0.39118
-0.18397 0.04474 0.39783
-0.18397 0.02827 0.30831
-0.18397 0.02994 0.38059
0.16133 0.08801 -0.43938
0.15512 0.07791 -0.43938
0.07747 -0.11163 0.43435
-0.04900 -0.11163 0.43706
-0.14732 0.12273 -0.44653
0.06193 0.12458 -0.44653
-0.01905 0.12896 -0.44653
-0.01340 0.12825 -0.44653
-0.15280 0.12414 -0.44653
0.17960 -0.02834 0.30306
-0.03240 0.11163 -0.26394
0.04814 0.11163 -0.31515
0.04034 0.11163 -0.23335
0.13438 0.11163 -0.29230
0.06299 0.11163 -0.27554
0.09476 0.11163 -0.29769
0.11022 0.11163 -0.30217
0.02588 0.11163 -0.28345
0.03943 0.11163 -0.26880
-0.07169 0.11163 -0.25830
0.05848 0.11163 -0.30311
0.09435 0.11163 -0.22849
0.12850 0.11163 -0.35597
0.03777 0.11163 -0.25951
0.11043 0.11163 -0.36724
0.04140 0.11163 -0.28925
0.12915 0.11163 -0.22988
0.12242 0.11163 -0.27487
-0.10529 0.11163 -0.24006
0.05208 0.11163 -0.26232
0.00360 0.11163 -0.25038
0.05456 0.11163 -0.26860
-0.00115 0.11163 -0.24683
0.12796 0.11163 -0.27579
0.11336 0.11163 -0.29416
-0.15361 0.01488 0.41704
-0.15361 -0.04092 0.42166
0.18182 0.07020 -0.29758
-0.16647 -0.02211 0.40634
0.15474 0.11163 -0.12517
0.17550 0.11163 -0.20836
0.17325 0.11163 0.02914
0.16892 0.11163 -0.07234
0.17344 0.11163 -0.03415
0.17336 0.11163 -0.00734
0.15998 0.11163 -0.16469
0.16426 0.11163 0.02931
0.16880 0.11163 0.03746
0.17147 -0.11532 -0.43019
0.17147 0.05985 -0.42239
0.17147 0.04637 -0.43250
0.17147 0.07637 -0.43212
0.13842 0.11559 0.02076
0.13842 0.11848 -0.00667
0.13842 0.11750 0.04247
-0.17147 0.06536 0.41765
-0.17147 -0.01852 0.42710
-0.17147 0.04638 0.43190
-0.17147 0.07898 0.43013
-0.17861 0.07642 0.22919
0.12283 -0.11163 -0.43617
-0.03835 -0.12949 -0.43936
0.03835 -0.12949 -0.43684
-0.06079 0.11434 -0.44653
0.03819 0.11964 -0.44653
0.11824 0.11841 -0.44653
0.14367 0.12396 -0.44653
0.16213 0.10562 0.22773
0.12425 0.09293 0.22773
-0.02371 0.03508 0.22773
-0.07506 0.12949 -0.39026
0.06461 0.12949 -0.29268
-0.15509 0.12949 -0.23678
0.11680 0.12949 -0.30484
-0.02245 0.12949 -0.05764
0.11508 0.12949 -0.35657
-0.16252 0.12949 -0.22381
-0.09760 0.12949 0.15113
-0.14534 0.12949 -0.16830
-0.08140 0.12949 0.09047
0.08676 0.12949 -0.42487
-0.00142 0.12949 -0.28155
0.09216 0.12949 -0.41670
-0.14570 0.12949 0.06488
-0.15844 0.12949 -0.28343
-0.09698 0.12949 -0.06738
0.06437 0.12949 -0.32460
-0.11239 0.12949 -0.19729
-0.06717 0.12949 0.05188
-0.07022 0.12949 0.02356
0.08062 0.12949 -0.36602
0.15232 0.12949 -0.41710
-0.10759 0.12949 -0.13143
-0.11612 0.12949 0.12826
-0.09170 0.12949 -0.15442
-0.07275 0.12949 -0.30321
-0.10439 0.12949 -0.38237
-0.00417 0.12949 -0.14764
-0.10217 0.12949 -0.12239
-0.00949 0.12949 0.02194
-0.02453 0.12949 -0.43628
-0.14372 0.12949 -0.34190
-0.14739 0.12949 0.01425
-0.00994 0.12949 -0.29450
-0.12571 0.12949 0.03487
-0.04081 0.12949 0.08581
-0.12193 0.12949 0.16832
-0.12128 0.12949 0.03066
-0.15127 0.12949 -0.16263
-0.02055 0.12949 -0.41163
0.03511 0.12949 -0.10802
-0.09621 0.12949 -0.26711
-0.15146 0.12949 -0.29717
0.04079 0.12949 -0.25327
-0.17508 0.12949 0.14454
-0.14190 0.12949 0.07358
-0.14468 0.12949 0.04324
-0.09200 0.12949 -0.21854
-0.09758 0.12949 0.23195
0.15990 0.12949 -0.40108
0.08744 0.12949 -0.23716
0.08116 0.12949 -0.30401
-0.07741 0.12949 -0.32700
-0.15805 0.12949 -0.34828
-0.17689 0.12949 -0.07963
0.04707 0.12949 -0.26536
0.01661 0.12949 -0.33160
0.05475 0.12949 -0.19359
-0.11114 0.12949 0.24551
-0.08042 0.12949 0.17848
0.07818 0.12949 -0.40541
-0.05046 0.12949 0.08316
0.04062 0.12949 -0.40118
-0.03139 0.12949 0.05576
-0.10782 0.12949 -0.04543
0.06531 0.12949 -0.39624
-0.17613 0.12949 0.43313
0.05607 0.12949 -0.34604
-0.13321 0.12949 -0.05063
-0.10902 0.12949 -0.41770
-0.13133 0.12949 -0.08523
0.03049 0.12949 -0.25632
-0.17474 0.12949 -0.35092
0.06836 0.12949 -0.27177
-0.14183 0.12949 0.05794
0.04850 0.12949 -0.34073
0.16802 0.12949 -0.42048
-0.02447 0.12949 -0.28133
-0.17024 0.12949 -0.06999
-0.05212 0.12949 0.03900
-0.15509 0.12949 -0.31936
0.03747 0.12949 -0.43173
-0.06694 0.12949 0.12915
-0.13982 0.12949 0.12955
-0.11052 0.12949 -0.34539
-0.08180 0.12949 0.11385
-0.12400 0.12949 -0.22978
-0.12410 0.12949 -0.18062
-0.13494 0.12949 -0.12195
-0.14111 0.12949 -0.15192
-0.03101 0.12949 -0.31086
-0.11661 0.12949 -0.12997
-0.01210 0.12949 -0.13241
-0.06344 0.12949 0.07465
-0.00555 0.12949 -0.40893
0.02864 0.12949 -0.43525
-0.11591 0.12949 -0.02313
-0.17473 0.12949 0.06054
0.06513 0.12949 -0.21971
0.02712 0.12949 -0.07375
-0.09557 0.12949 -0.00235
-0.09894 0.12949 0.02764
0.05567 0.12949 -0.33949
-0.03809 0.12949 0.00847
-0.16256 0.12949 -0.09539
0.09403 0.12949 -0.37887
-0.15682 0.12949 0.09828
-0.10756 0.12949 -0.29621
0.05236 0.12949 -0.43744
0.04671 0.12949 -0.12937
0.02595 0.12949 -0.41998
0.03012 0.12949 -0.19855
-0.16808 0.12949 -0.39659
-0.02372 0.12949 -0.40682
-0.15576 0.12949 -0.24561
-0.00111 0.12949 -0.44516
-0.16793 0.12949 -0.04870
-0.13195 0.12949 0.22012
-0.15381 0.12949 0.16545
0.01916 0.12949 -0.07655
-0.09064 0.12949 0.05156
-0.01458 0.12949 -0.16091
-0.00499 0.12949 0.00797
-0.01498 0.12949 -0.12744
-0.08566 0.12949 -0.30045
-0.10608 0.12949 0.14756
-0.06348 0.12949 -0.35945
0.07898 0.12949 -0.29003
-0.02236 0.12949 -0.06624
-0.13370 0.12949 -0.24907
-0.04781 0.12949 -0.00797
-0.02490 0.12949 -0.37109
0.08418 0.12949 -0.35857
-0.14205 0.12949 0.22082
-0.17487 0.12949 0.16997
-0.09957 0.12949 -0.08937
-0.03163 0.12949 -0.20627
0.06635 0.12949 -0.18861
-0.09612 0.12949 0.19503
-0.11934 0.12949 -0.35221
-0.16838 0.12949 0.23794
-0.04463 0.12949 -0.02776
0.06079 0.12949 -0.28075
-0.01255 0.12949 0.01427
-0.16742 0.12949 0.26934
-0.11505 0.12949 -0.32899
-0.16684 0.12949 -0.19041
-0.03705 0.12949 -0.34462
0.01018 0.12949 -0.28610
-0.11636 0.12949 -0.38814
0.05786 0.12949 -0.18467
0.15008 0.12949 -0.40858
-0.09308 0.12949 -0.16163
-0.17147 -0.12698 -0.43371
0.17861 -0.02848 0.24322
0.15991 -0.10269 -0.42777
0.15390 -0.01635 -0.41914
0.07064 0.11878 0.08092
0.00973 0.11878 -0.05128
-0.01870 0.11878 -0.29587
-0.03067 0.11878 -0.30807
0.07392 0.11878 -0.09401
-0.05055 0.11878 -0.35927
0.12311 0.11878 0.06984
0.13781 0.11878 0.23484
0.13376 0.11878 0.28360
0.09876 0.11878 -0.28970
0.05424 0.11878 0.15430
0.08200 0.11878 -0.04717
0.04524 0.11878 -0.24565
0.06299 0.11878 -0.30602
0.07356 0.11878 -0.07929
0.03675 0.11878 -0.33552
0.08736 0.11878 -0.03602
-0.00223 0.11878 -0.26528
0.12208 0.11878 -0.36995
0.10337 0.11878 -0.22753
0.04070 0.11878 -0.26022
0.08448 0.11878 0.22953
-0.01835 0.11878 -0.32234
0.04845 0.11878 -0.37575
0.09663 0.11878 0.23278
-0.09309 0.11878 -0.28941
0.09055 0.11878 -0.13502
0.01604 0.11878 -0.33824
0.03573 0.11878 -0.35070
0.11701 0.11878 -0.11846
0.06491 0.11878 -0.26609
0.00165 0.11878 -0.01696
-0.08662 0.11878 -0.38857
0.06560 0.11878 -0.10841
0.12148 0.11878 0.31964
-0.01014 0.11878 -0.17458
0.09085 0.11878 0.14173
-0.02582 0.11878 -0.10825
-0.07880 0.11878 -0.25896
-0.06592 0.11878 -0.22541
-0.01516 0.11878 -0.10015
0.00737 0.11878 -0.07305
0.09952 0.11878 -0.07506
0.12848 0.11878 0.25184
-0.00905 0.11878 -0.38050
0.02985 0.11878 -0.34397
0.06516 0.11878 -0.20424
0.05861 0.11878 -0.11716
0.12512 0.11878 -0.30556
-0.02653 0.11878 -0.19894
-0.08710 0.11878 -0.37221
0.12339 0.11878 -0.10445
0.02819 0.11878 0.00067
0.01167 0.11878 -0.29774
-0.04597 0.11878 -0.19242
0.10954 0.11878 0.31572
-0.03047 0.11878 -0.18534
0.12194 0.11878 -0.32477
0.06232 0.11878 -0.27947
-0.02968 0.11878 -0.32994
0.10698 0.11878 -0.00704
0.10954 0.11878 -0.28897
0.13131 0.11878 -0.40442
-0.08254 0.11878 -0.34721
0.05559 0.11878 -0.00468
-0.05828 0.11878 -0.37290
0.04351 0.11878 -0.31838
-0.05408 0.11878 -0.19030
0.03115 0.11878 -0.27551
0.02196 0.11878 -0.34239
-0.12403 0.11878 -0.39850
0.10804 0.11878 0.28309
-0.11164 0.11878 -0.36283
0.10683 0.11878 0.04917
0.12640 0.11878 0.01944
0.13746 0.11878 0.12568
0.05478 0.11878 -0.40005
-0.00462 0.11878 -0.09720
0.09508 0.11878 0.21546
-0.01292 0.11878 -0.22474
0.02932 0.11878 -0.01668
0.05385 0.11878 0.10377
0.05113 0.11878 -0.29474
0.13595 0.11878 -0.24240
0.06144 0.11878 -0.09656
0.01770 0.11878 -0.37064
0.01346 0.11878 -0.18551
0.03284 0.11878 0.06986
0.08571 0.11878 0.11631
0.06203 0.11878 0.01667
0.10554 0.11878 0.23126
0.13673 0.11878 0.33054
0.07102 0.11878 0.11642
-0.03279 0.11878 -0.19301
-0.10859 0.11878 -0.37587
-0.06552 0.11878 -0.34928
0.05861 0.11878 -0.05969
-0.07340 0.11878 -0.40141
-0.06342 0.11878 -0.21810
0.07481 0.11878 -0.31554
0.07558 0.11878 -0.19090
0.04421 0.11878 0.11405
0.08544 0.11878 0.13606
0.07421 0.11878 0.04389
-0.02842 0.11878 -0.38416
-0.06614 0.11878 -0.30813
0.13603 0.11878 0.37350
0.06404 0.11878 -0.39171
0.10239 0.11878 0.19576
-0.03019 0.11878 -0.39350
-0.00962 0.11878 -0.09142
0.04639 0.11878 -0.07700
0.06111 0.11878 -0.19681
0.08281 0.11878 0.03919
0.07864 0.11878 -0.11091
0.10207 0.11878 0.09003
0.12157 0.11878 -0.18306
0.16367 -0.02167 -0.41715
-0.17861 0.11631 0.42979
-0.02715 0.03147 -0.22773
0.12835 0.10554 -0.22773
0.15391 -0.01431 -0.22773
0.09257 0.05232 -0.22773
-0.00981 -0.02768 -0.22773
-0.04864 0.00822 -0.22773
0.07825 0.03064 -0.22773
0.09418 -0.00176 -0.22773
0.12965 0.09896 -0.22773
0.13322 0.05750 -0.22773
0.16679 -0.00586 -0.22773
0.11791 -0.02103 -0.22773
-0.00815 0.04483 -0.22773
0.03903 0.03786 -0.22773
-0.09188 -0.02717 -0.22773
0.06377 0.02221 -0.22773
0.10782 0.08729 -0.22773
0.06864 0.01418 -0.22773
-0.02874 0.00798 -0.22773
0.09663 -0.01050 -0.22773
-0.08661 0.00558 -0.22773
-0.11627 -0.01886 -0.22773
0.04337 -0.02514 -0.22773
-0.05444 0.00533 -0.22773
0.02406 -0.02131 -0.22773
0.06880 0.04619 -0.22773
-0.10797 -0.01321 -0.22773
0.17885 -0.02785 0.33299
0.17138 0.09553 -0.40795
0.17097 0.00075 -0.41743
-0.16839 0.06760 0.40634
0.01113 -0.12624 0.43938
0.10756 -0.11676 0.43938
-0.06147 -0.12498 0.43938
0.07772 0.09436 0.40634
-0.14364 0.01375 0.40634
-0.08283 0.02910 0.40634
-0.09505 0.02028 0.40634
-0.13346 0.11002 0.40634
-0.13757 0.04845 0.40634
-0.11237 0.02557 0.40634
-0.09925 0.10549 0.40634
-0.02721 0.07070 0.40634
-0.05220 0.05113 0.40634
-0.05010 0.07092 0.40634
0.02217 0.06990 0.40634
-0.12588 0.09484 0.40634
-0.09453 0.07367 0.40634
-0.13294 0.04129 0.40634
-0.10593 0.07477 0.40634
-0.03715 0.10375 0.40634
-0.05608 0.09432 0.40634
-0.07207 0.05546 0.40634
-0.00645 0.07195 0.40634
-0.17861 0.10890 0.26176
0.14443 0.11163 0.28136
0.15021 0.11163 0.40109
0.16598 0.11163 0.40284
-0.17807 0.08332 -0.40634
-0.17147 -0.11828 0.43676
-0.16181 -0.01971 -0.43938
-0.15415 -0.06055 -0.43938
0.17861 0.00955 0.23048
-0.14889 -0.11163 0.43308
-0.11941 -0.11163 0.43472
-0.17889 0.06501 0.24343
0.18397 0.04302 0.29789
0.18397 0.03662 0.25332
0.18397 0.04108 0.28474
-0.18098 0.02432 -0.31391
-0.18379 0.10460 -0.38879
-0.07204 0.11487 -0.44653
0.01879 0.11261 -0.44653
0.04926 0.12248 -0.44653
-0.18097 0.06362 -0.31705
-0.04678 0.03157 -0.40634
0.00689 0.07998 -0.40634
-0.07159 0.10820 -0.40634
-0.09488 0.11017 -0.40634
-0.11765 0.04873 -0.40634
-0.00327 0.06504 -0.40634
-0.11267 0.05899 -0.40634
-0.13750 0.02336 -0.40634
-0.14688 0.00019 -0.40634
-0.08663 0.05712 -0.40634
-0.10575 0.10498 -0.40634
-0.03076 0.10016 -0.40634
-0.08619 0.09087 -0.40634
-0.09993 0.02293 -0.40634
-0.11429 0.03857 -0.40634
-0.02758 0.08393 -0.40634
-0.15020 0.01530 -0.40634
-0.10682 0.06383 -0.40634
-0.04548 0.04868 -0.40634
-0.18182 0.01661 0.29065
-0.17861 0.03527 0.40571
-0.17147 0.04555 -0.43870
-0.18100 0.01716 0.33533
-0.14462 0.11163 -0.24378
-0.17779 0.11163 -0.39169
-0.17360 0.11163 -0.23312
-0.17595 0.11163 -0.36515
0.18285 0.01592 -0.28577
0.17547 0.05321 -0.40634
-0.18397 0.01183 0.27865
-0.18397 0.00467 0.27355
-0.18397 -0.00766 0.25834
-0.18397 -0.00257 0.29805
-0.09690 0.09377 0.42296
0.05481 0.09377 0.43478
-0.10371 0.09377 0.41910
-0.08809 0.09377 0.41982
-0.03388 0.09377 0.42395
-0.07251 -0.11163 -0.43141
-0.00406 -0.11163 -0.42966
0.02685 0.05245 0.22773
-0.00536 0.03920 0.22773
-0.18397 0.02378 -0.37420
-0.18397 0.03113 -0.32790
-0.18397 0.02506 -0.28143
-0.18397 0.03681 -0.23151
-0.15708 -0.07753 -0.42526
-0.16686 -0.10199 -0.42770
-0.08945 0.09529 0.40797
0.04495 0.09804 0.40770
0.18397 0.04324 0.30923
0.18397 0.05469 0.23747
0.18397 0.03476 0.31419
-0.00597 -0.03126 -0.38680
0.13052 -0.03126 -0.40610
-0.07359 -0.03126 -0.39795
0.08390 -0.03126 -0.29189
0.00916 -0.03126 -0.33364
0.05991 -0.03126 -0.36945
0.02195 -0.03126 -0.36429
0.05319 -0.03126 -0.36544
0.11852 -0.03126 -0.33571
0.04161 -0.03126 -0.31179
0.17811 -0.03126 -0.28281
0.13286 -0.03126 -0.25788
0.03747 -0.03126 -0.30724
0.12412 -0.03126 -0.29214
0.06872 -0.03126 -0.33632
0.17187 -0.03126 -0.29206
0.01622 -0.03126 -0.37765
-0.06154 -0.03126 -0.39832
-0.13880 -0.03126 -0.39344
0.06377 -0.03126 -0.39354
-0.02773 -0.03126 -0.38549
0.15446 -0.03126 -0.26952
-0.02482 -0.03126 -0.34934
0.17359 -0.03126 -0.39478
-0.03784 -0.03126 -0.35608
-0.08533 -0.03126 -0.38315
-0.01033 -0.03126 -0.36403
0.14271 -0.03126 -0.27675
0.11847 -0.03126 -0.37746
0.06130 -0.03126 -0.32797
0.13518 -0.03126 -0.39406
0.03076 -0.03126 -0.40455
0.16152 -0.03126 -0.27004
0.18020 0.10700 -0.27765
-0.18397 -0.01198 -0.37494
-0.18397 0.01122 -0.36489
-0.18397 -0.02233 -0.37405
-0.18397 -0.00947 -0.38557
0.17147 0.00211 0.41845
0.17147 0.06252 0.41745
0.17147 0.01623 0.43054
0.17147 -0.04841 0.42409
0.17147 0.10775 0.41191
-0.00926 0.11538 0.40634
0.18247 0.01618 0.30292
-0.17861 0.07022 -0.36877
-0.15948 0.05860 0.41164
0.07052 0.06054 0.22773
0.00590 0.04130 0.22773
-0.00008 0.03743 0.22773
0.12276 -0.01931 0.22773
0.15493 0.07828 0.22773
0.15351 -0.01479 0.22773
0.14301 0.01615 0.22773
-0.06840 -0.00242 0.22773
-0.05194 -0.01147 0.22773
0.12404 0.00528 0.22773
0.14928 0.01504 0.22773
0.16188 -0.02855 0.22773
-0.10104 -0.02943 0.22773
0.17331 -0.02579 0.22773
0.14434 0.02592 0.22773
0.16041 0.01609 0.22773
0.10811 0.05134 0.22773
0.07896 0.06982 0.22773
0.12136 0.08131 0.22773
0.15353 -0.00024 0.22773
0.07606 0.00428 0.22773
0.09707 -0.02797 0.22773
0.05293 0.01496 0.22773
-0.02931 -0.01854 0.22773
0.13827 0.01233 0.22773
0.04725 -0.01316 0.22773
-0.15626 0.04240 0.41326
0.16801 0.11163 -0.32820
0.17488 0.11163 -0.32062
0.16242 0.11163 -0.37394
0.14937 0.11163 -0.39559
-0.17861 -0.02969 0.23315
-0.15361 0.08027 -0.42395
-0.15361 0.08711 -0.43654
0.14123 0.09791 -0.40634
0.14693 0.10142 -0.40634
0.15501 0.10788 -0.40634
-0.17861 0.12026 0.09725
-0.17861 0.04247 0.22927
0.17861 0.11222 -0.26142
0.18066 0.07097 -0.34287
-0.16806 -0.07044 0.43938
-0.17088 0.08406 0.43938
0.17861 0.11005 -0.24017
-0.07394 0.10369 0.40713
-0.04437 0.10085 0.40742
-0.00880 0.09744 0.43938
-0.06111 0.09525 0.43938
-0.04212 0.10355 0.43938
0.14604 0.08795 0.40634
0.15707 0.10882 0.40634
0.15865 0.09578 0.40634
-0.16585 -0.00009 0.40634
-0.15361 -0.03247 0.42510
0.17147 -0.12206 -0.43275
0.06515 0.10758 0.43938
-0.01011 0.10904 0.43938
-0.01953 0.10897 0.43938
-0.16137 0.07952 0.40634
-0.15755 0.06653 0.40634
-0.14500 0.11163 -0.30931
-0.16394 0.11163 -0.37423
-0.15891 0.11163 -0.36240
0.13842 0.11339 -0.17609
0.17861 0.12329 -0.14248
0.15360 0.09217 0.42909
0.15360 0.08206 0.42940
0.15360 0.07902 0.41732
0.15655 -0.02686 0.40634
0.15105 -0.02427 0.40634
0.13942 0.11163 -0.24869
0.17586 0.11163 -0.23080
0.13905 0.11163 -0.32071
0.17003 0.11163 -0.23283
-0.02412 -0.11163 0.43533
-0.08709 -0.11163 0.43757
-0.18133 -0.02950 0.37981
0.15117 0.11163 -0.30307
0.15214 0.11163 -0.24995
0.14427 0.11163 -0.31022
0.15721 0.11163 -0.30867
-0.17147 0.10358 -0.41783
-0.17147 -0.04188 -0.42913
-0.17147 -0.05264 -0.43200
-0.17147 -0.08555 -0.42908
0.16248 0.11163 0.33847
0.16316 0.11163 0.34643
0.17131 0.11163 0.32569
0.17633 0.11163 0.26953
-0.17861 0.11056 -0.32230
-0.17861 0.12259 0.11102
-0.18181 0.10593 -0.27110
-0.18397 -0.02608 0.35001
-0.18397 -0.02613 0.26871
-0.18397 -0.00164 0.39424
-0.15361 -0.10365 -0.43800
-0.16743 0.11163 0.38307
-0.17072 0.11163 0.39660
-0.17765 0.11163 0.24962
-0.16431 0.11163 0.33658
-0.17147 0.09761 -0.42884
-0.17147 -0.10708 -0.43081
-0.16787 -0.04738 -0.43938
0.17834 0.11163 0.28857
-0.18397 0.02557 -0.39774
-0.18397 0.05664 -0.28468
-0.18397 0.05442 -0.30969
-0.15846 -0.12553 0.43938
-0.02656 -0.12126 0.43938
0.17996 0.07144 0.24563
-0.13697 0.11163 -0.44204
-0.17954 0.06457 -0.26073
-0.18201 0.01649 -0.30322
-0.15387 0.11163 0.31354
-0.14778 0.11163 0.28638
-0.16306 0.11163 0.39520
0.06949 0.09377 -0.43869
0.15336 0.09377 -0.41452
0.13332 0.09377 -0.42215
0.13127 0.09377 -0.43811
0.09601 0.09377 -0.41762
0.02405 0.09377 -0.43506
-0.18397 -0.02975 -0.39576
-0.18397 -0.01405 -0.31297
-0.18397 -0.01757 -0.27877
0.18016 0.00557 -0.23130
-0.00003 0.11285 -0.40634
0.13132 -0.12142 0.42965
0.15461 -0.11960 0.42946
0.13850 -0.11292 0.42879
-0.18397 0.04669 0.31239
-0.18397 0.05403 0.34621
-0.18397 0.06140 0.24232
-0.18397 0.05666 0.29013
0.16498 -0.08803 -0.43938
0.16518 -0.12029 -0.43938
-0.17861 0.09350 -0.40387
-0.13842 0.11347 -0.38037
-0.11372 0.09377 -0.42795
-0.06642 0.09377 -0.42556
0.00719 0.09377 -0.41442
-0.02062 0.09377 -0.41232
-0.07639 0.09377 -0.41030
0.13607 0.12538 0.44653
0.14957 0.11920 0.44653
-0.01321 0.12718 0.44653
0.05897 0.11775 0.44653
0.18397 -0.01652 0.29841
0.18397 -0.01744 0.32739
0.18397 0.00580 0.23878
0.07275 0.10441 0.40706
0.12685 0.10124 0.40738
-0.09667 0.09447 0.40806
-0.13842 0.11806 0.32244
-0.13842 0.11557 0.36139
-0.13842 0.11575 0.22631
-0.17861 -0.03031 -0.34614
0.01551 -0.03018 0.22773
0.14246 -0.01307 0.22773
0.16768 0.07369 0.22773
0.08051 -0.01160 0.22773
-0.02018 -0.01537 0.22773
0.17536 0.03818 0.22773
0.15066 0.00936 0.22773
0.16873 0.03598 0.22773
0.17499 -0.01595 0.22773
0.02212 0.01665 0.22773
0.07523 0.03300 0.22773
-0.00414 0.01806 0.22773
0.16116 0.06394 0.22773
0.10032 -0.01988 0.22773
0.17389 0.05507 0.22773
0.13024 0.07174 0.22773
-0.13524 -0.02735 0.22773
0.00139 -0.02656 0.22773
0.08348 0.06340 0.22773
0.04109 -0.01183 0.22773
0.11271 0.07429 0.22773
0.04569 -0.02528 0.22773
0.03029 -0.02586 0.22773
0.17616 0.10028 0.22773
0.17861 0.11445 -0.36174
0.17861 0.11860 -0.38969
0.17861 0.11406 -0.44408
0.18351 0.02263 0.34773
0.17861 0.07055 -0.33705
0.18397 0.04304 -0.33127
0.18397 0.02634 -0.38494
0.18397 0.04157 -0.35478
-0.03766 0.11581 -0.40634
-0.12200 0.00052 0.22773
-0.11107 0.11043 0.22773
-0.11993 0.02917 0.22773
-0.12034 0.10561 0.22773
-0.02792 0.08992 0.22773
-0.08806 0.09417 0.22773
0.08544 0.10534 0.22773
-0.00641 0.09703 0.22773
-0.10485 0.02691 0.22773
0.01430 0.08598 0.22773
0.01706 0.06094 0.22773
0.00560 0.11075 0.22773
0.04905 0.07192 0.22773
0.00496 0.09009 0.22773
0.07192 0.10901 0.22773
-0.07284 0.04557 0.22773
-0.14675 -0.00036 0.22773
-0.12477 0.08525 0.22773
0.04785 0.08387 0.22773
0.02258 0.11052 0.22773
0.13842 0.11459 0.03729
0.13842 0.11313 0.04921
0.05782 0.11163 -0.25351
-0.04674 0.11163 -0.24851
-0.05303 0.11163 -0.27532
0.08218 0.11163 -0.29297
0.08641 0.11163 -0.31294
0.13585 0.11163 -0.35237
0.12554 0.11163 -0.31762
-0.01203 0.11163 -0.26315
-0.04410 0.11163 -0.27169
0.01964 0.11163 -0.29065
0.01254 0.11163 -0.26132
0.10952 0.11163 -0.28440
0.10140 0.11163 -0.23126
0.02425 0.11163 -0.30078
0.00890 0.11163 -0.31147
0.08347 0.11163 -0.25271
0.00878 0.11163 -0.29308
0.02902 0.11163 -0.27364
0.11528 0.11163 -0.36035
0.09692 0.11163 -0.34143
0.17861 0.11444 -0.43394
-0.02105 0.11878 0.31938
-0.09921 0.11878 0.03755
-0.13783 0.11878 0.17475
-0.00384 0.11878 0.09894
-0.08342 0.11878 -0.11497
-0.07475 0.11878 -0.17011
-0.12020 0.11878 0.33027
-0.13543 0.11878 -0.38667
-0.11170 0.11878 -0.03329
-0.08135 0.11878 -0.20786
-0.09318 0.11878 -0.06282
-0.11794 0.11878 -0.27153
-0.10405 0.11878 0.05198
0.02522 0.11878 0.25898
0.01895 0.11878 0.07479
-0.05925 0.11878 0.13444
0.06890 0.11878 0.22096
-0.09491 0.11878 0.19170
-0.10342 0.11878 -0.23216
-0.04042 0.11878 0.13206
-0.09380 0.11878 0.20977
-0.09139 0.11878 0.34428
0.07462 0.11878 0.22692
-0.11219 0.11878 0.13540
-0.12283 0.11878 0.31497
-0.03255 0.11878 0.39126
-0.10220 0.11878 -0.27551
-0.11390 0.11878 0.32028
-0.08288 0.11878 -0.14352
0.06035 0.11878 0.35314
-0.12807 0.11878 0.12219
-0.10133 0.11878 -0.11947
0.03964 0.11878 0.15063
0.06241 0.11878 0.25830
-0.05158 0.11878 0.19277
0.05251 0.11878 0.30018
-0.09197 0.11878 -0.18081
-0.06415 0.11878 0.30290
-0.06454 0.11878 -0.18565
-0.05635 0.11878 0.08448
0.02839 0.11878 0.23411
-0.09209 0.11878 -0.00229
-0.00535 0.11878 0.37158
0.02979 0.11878 0.26763
-0.12880 0.11878 0.24979
-0.07340 0.11878 0.37218
-0.11455 0.11878 -0.06243
0.04256 0.11878 0.14296
-0.00024 0.11878 0.17499
-0.13408 0.11878 0.03021
0.11098 0.11878 0.37453
-0.03955 0.11878 0.04187
-0.10298 0.11878 0.06425
-0.04152 0.11878 -0.04036
-0.09598 0.11878 0.15947
0.07784 0.11878 0.29140
-0.08482 0.11878 -0.19986
0.03339 0.11878 0.20792
-0.04824 0.11878 0.15941
-0.09768 0.11878 -0.28265
0.08089 0.11878 0.29603
-0.13234 0.11878 -0.04141
0.07443 0.11878 0.37618
-0.07883 0.11878 0.14953
-0.09706 0.11878 0.24593
-0.01733 0.11878 0.13176
0.04486 0.11878 0.17568
-0.00048 0.11878 0.29698
-0.06736 0.11878 0.40499
-0.08536 0.11878 0.16748
-0.13823 0.11878 0.00909
0.10729 0.11878 0.38555
-0.10987 0.11878 -0.13987
0.06609 0.11878 0.37288
-0.07398 0.11878 0.12950
-0.09680 0.11878 0.40549
-0.07173 0.11878 0.20710
-0.13176 0.11878 0.24010
-0.07500 0.11878 -0.00915
-0.11310 0.11878 -0.24604
-0.02914 0.11878 0.03491
-0.12957 0.11878 0.38116
0.04425 0.11878 0.31918
-0.05408 0.11878 0.36333
-0.02737 0.11878 0.38265
-0.08945 0.11878 0.24008
-0.12794 0.11878 0.03631
-0.12662 0.11878 0.28654
-0.07182 0.11878 0.35034
-0.11195 0.11878 -0.00463
0.03376 0.11878 0.13905
-0.10529 0.11878 0.13048
-0.10814 0.11878 0.39044
-0.09570 0.11878 -0.16580
0.08299 0.11878 0.35687
-0.10961 0.11878 -0.30750
-0.09279 0.11878 0.31871
-0.03294 0.11878 0.36782
0.06523 0.11878 0.28270
-0.09600 0.11878 0.22366
-0.04001 0.11878 -0.10780
0.01180 0.11878 0.35801
-0.12906 0.11878 -0.36469
-0.07840 0.11878 -0.13254
-0.10949 0.11878 -0.07506
-0.09982 0.11878 -0.20055
0.04555 0.11878 0.19595
0.05971 0.11878 0.17878
-0.06211 0.11878 -0.03620
-0.07597 0.11878 0.08707
-0.13479 0.11878 0.00366
-0.10813 0.11878 0.32281
-0.06441 0.11878 0.02093
-0.01381 0.11878 0.28628
-0.13780 0.11878 0.01846
-0.02125 0.11878 0.33083
0.01982 0.11878 0.10811
-0.06358 0.11878 -0.12487
-0.13735 0.11878 0.07657
-0.17864 0.07232 0.34783
-0.18265 0.06175 0.40277
0.02767 0.11163 0.28167
-0.08429 0.11163 0.26210
-0.04223 0.11163 0.30317
0.00110 0.11163 0.31311
-0.06891 0.11163 0.29879
0.02766 0.11163 0.23191
0.02127 0.11163 0.23320
0.04637 0.11163 0.24413
-0.00500 0.11163 0.29063
0.12190 0.11163 0.23667
-0.12046 0.11163 0.24442
-0.05146 0.11163 0.23269
0.01234 0.11163 0.28880
-0.12360 0.11163 0.30633
-0.11572 0.11163 0.32212
-0.05714 0.11163 0.31994
-0.03915 0.11163 0.25679
-0.01694 0.11163 0.25890
-0.07495 0.11163 0.25550
-0.11830 0.11163 0.29767
0.00889 0.11163 0.27883
0.07269 0.11163 0.24898
-0.08278 0.11163 0.25638
-0.13140 0.11163 0.36343
-0.12477 0.11163 0.25139
-0.18158 0.01677 0.25653
-0.18397 -0.01873 0.32334
-0.18397 -0.02432 0.28010
-0.18397 -0.03040 0.37372
-0.18397 -0.00470 0.36654
0.18108 0.10641 0.34308
0.02049 0.12949 0.09762
0.08658 0.12949 0.01578
0.08313 0.12949 -0.15841
-0.14559 0.12949 0.37423
0.09799 0.12949 0.14616
0.11990 0.12949 0.35082
0.12013 0.12949 0.35685
-0.01637 0.12949 0.08096
-0.01466 0.12949 0.20874
-0.10932 0.12949 0.42540
0.17104 0.12949 0.20570
0.02437 0.12949 -0.01933
0.04857 0.12949 0.16484
0.06504 0.12949 -0.01705
0.14553 0.12949 0.02973
0.17463 0.12949 -0.22168
0.10536 0.12949 0.09050
0.15913 0.12949 -0.14362
0.09591 0.12949 0.28402
0.08105 0.12949 0.26031
-0.08789 0.12949 0.40375
-0.01448 0.12949 0.09922
0.05760 0.12949 0.31724
-0.03814 0.12949 0.38919
0.12780 0.12949 0.14347
0.03011 0.12949 0.38848
0.09989 0.12949 0.08535
0.13134 0.12949 0.38407
0.12275 0.12949 -0.14595
-0.06431 0.12949 0.42543
0.17722 0.12949 0.10740
0.01247 0.12949 0.16424
0.00451 0.12949 0.28846
-0.02922 0.12949 0.39104
0.13329 0.12949 -0.02343
0.16272 0.12949 0.27143
-0.11944 0.12949 0.33738
0.11878 0.12949 -0.24566
0.04817 0.12949 0.11459
-0.16074 0.12949 0.41615
0.13468 0.12949 -0.27730
-0.10838 0.12949 0.44460
0.17097 0.12949 -0.12484
0.09586 0.12949 0.24454
-0.04898 0.12949 0.23893
-0.11329 0.12949 0.29907
0.03781 0.12949 -0.06970
-0.00715 0.12949 0.03268
0.15970 0.12949 -0.04000
0.07802 0.12949 0.13423
0.17636 0.12949 -0.15253
0.00452 0.12949 0.02790
0.09938 0.12949 0.25623
0.07392 0.12949 -0.17126
0.11670 0.12949 -0.10921
0.07808 0.12949 0.03110
0.13981 0.12949 -0.30440
0.01575 0.12949 0.08478
-0.01382 0.12949 0.21756
-0.09809 0.12949 0.34445
-0.08541 0.12949 0.43796
0.16122 0.12949 0.36956
0.09666 0.12949 -0.18921
-0.01343 0.12949 0.05338
0.06323 0.12949 0.15554
0.07670 0.12949 0.37918
0.04100 0.12949 -0.06077
0.13601 0.12949 0.42485
0.08420 0.12949 0.42395
-0.02493 0.12949 0.11296
0.14507 0.12949 0.32382
0.04101 0.12949 0.27382
-0.08998 0.12949 0.23086
-0.02845 0.12949 0.34720
-0.07055 0.12949 0.38261
-0.09868 0.12949 0.43102
-0.00321 0.12949 0.04588
0.01744 0.12949 0.06045
-0.05808 0.12949 0.17582
0.13638 0.12949 0.34066
0.16676 0.12949 0.36542
-0.00656 0.12949 0.07253
-0.04794 0.12949 0.28312
0.15750 0.12949 0.16925
0.03544 0.12949 0.34652
0.09313 0.12949 0.08720
0.14591 0.12949 0.39565
0.04440 0.12949 0.12007
0.14438 0.12949 0.09903
0.14987 0.12949 -0.14312
0.17604 0.12949 -0.02716
0.17395 0.12949 -0.11371
-0.05962 0.12949 0.27344
0.13863 0.12949 0.40778
0.12514 0.12949 0.02838
0.10271 0.12949 0.40046
0.11106 0.12949 0.27687
0.09851 0.12949 0.12577
0.08581 0.12949 -0.17834
0.10220 0.12949 0.43610
0.08832 0.12949 0.04137
0.17256 0.12949 -0.31176
0.15596 0.12949 0.43107
0.17325 0.12949 0.18491
0.16668 0.12949 0.03093
0.02836 0.12949 0.04927
-0.09214 0.12949 0.41403
0.03367 0.12949 0.10273
-0.08482 0.12949 0.26250
0.00339 0.12949 0.42920
0.17556 0.12949 -0.08442
0.09841 0.12949 0.02309
0.06396 0.12949 0.11058
0.12966 0.12949 0.01861
0.16106 0.12949 0.20470
0.11654 0.12949 0.04570
0.11369 0.12949 -0.16663
0.00398 0.12949 0.12570
0.15511 0.12949 0.40496
0.08367 0.12949 -0.07647
0.02415 0.12949 0.19616
0.08621 0.12949 -0.02930
0.09637 0.12949 0.11532
0.02270 0.12949 0.07543
0.00917 0.12949 0.18788
-0.09321 0.12949 0.28745
0.13170 0.12949 0.10419
-0.07642 0.12949 0.37657
-0.06684 0.12949 0.19828
0.16983 0.12949 -0.07670
0.02060 0.12949 0.31453
0.14292 0.12949 0.31767
0.02577 0.12949 -0.00980
0.04868 0.12949 0.15890
-0.11134 0.12949 0.43329
-0.15948 0.12949 0.40734
-0.07871 0.12949 0.23559
-0.06643 0.12949 0.27773
0.12287 0.12949 -0.20087
0.15064 0.12949 -0.30496
0.17838 0.12949 0.17511
-0.03880 0.12949 0.41978
0.10914 0.12949 0.07958
0.04404 0.12949 0.03063
0.15788 0.12949 -0.31195
0.12800 0.12949 -0.05931
0.09343 0.12949 -0.06542
0.11604 0.12949 -0.25807
0.06535 0.12949 0.33389
0.10975 0.12949 0.43756
0.14854 0.12949 0.41646
0.11334 0.12949 -0.11854
0.17184 0.12949 -0.05512
-0.10009 0.12949 0.38924
0.00993 0.12949 0.38844
0.14600 0.12949 -0.01032
0.05291 0.12949 0.28649
-0.00301 0.12949 0.21174
-0.17861 0.06970 0.25759
-0.00437 0.11325 0.44653
-0.06349 0.11616 0.44653
0.13171 0.11374 0.44653
-0.03278 0.11878 -0.02063
0.01148 0.11878 0.11939
-0.04164 0.11878 0.25446
-0.13837 0.11878 -0.14233
-0.04589 0.11878 -0.04970
-0.08296 0.11878 -0.22180
0.07463 0.11878 0.27750
-0.09876 0.11878 0.05638
-0.02819 0.11878 0.04494
-0.10914 0.11878 0.15073
-0.00819 0.11878 0.29166
-0.06681 0.11878 0.12324
-0.11878 0.11878 0.09191
-0.07292 0.11878 -0.08627
-0.08488 0.11878 0.27611
0.04673 0.11878 0.38934
-0.03098 0.11878 0.02720
-0.09300 0.11878 -0.12872
-0.01531 0.11878 0.30076
0.06378 0.11878 0.19242
-0.01655 0.11878 0.14064
-0.13347 0.11878 -0.30804
0.11642 0.11878 0.39107
-0.01784 0.11878 0.04373
0.02576 0.11878 0.32454
-0.12378 0.11878 0.36913
-0.12154 0.11878 0.24744
-0.04491 0.11878 0.20038
0.00412 0.11878 0.06865
-0.10828 0.11878 -0.22296
-0.13622 0.11878 -0.26504
0.08403 0.11878 0.32691
-0.08343 0.11878 0.00051
-0.12485 0.11878 -0.32251
0.04424 0.11878 0.22423
-0.11563 0.11878 -0.22669
-0.10510 0.11878 0.40042
-0.01135 0.11878 0.00570
-0.05406 0.11878 -0.15145
-0.05951 0.11878 0.18201
-0.05164 0.11878 0.09466
-0.01660 0.11878 0.15600
-0.09310 0.11878 0.36922
-0.13123 0.11878 -0.16284
-0.03229 0.11878 0.19987
-0.05059 0.11878 0.29608
-0.05737 0.11878 0.26893
0.00154 0.11878 0.04140
-0.07690 0.11878 0.27720
-0.07021 0.11878 0.22896
0.00611 0.11878 0.39028
-0.10025 0.11878 -0.23921
-0.05630 0.11878 -0.05403
0.04995 0.11878 0.40417
0.05693 0.11878 0.37033
-0.10579 0.11878 0.11738
-0.11600 0.11878 -0.32258
0.08671 0.11878 0.40221
-0.10085 0.11878 0.27008
0.04223 0.11878 0.16140
-0.04620 0.11878 0.35925
-0.00707 0.11878 0.25691
-0.04248 0.11878 -0.08207
0.02869 0.11878 0.33938
-0.12771 0.11878 -0.17600
-0.00816 0.11878 0.14119
-0.09611 0.11878 0.02414
-0.13447 0.11878 -0.03402
0.11172 0.11878 0.33175
-0.04412 0.11878 0.26939
-0.12418 0.11878 0.33729
-0.08132 0.11878 0.24704
0.02182 0.11878 0.11691
-0.02395 0.11878 -0.01804
-0.12971 0.11878 -0.30228
0.00155 0.11878 0.15659
-0.08715 0.11878 0.19801
-0.04081 0.11878 0.10450
-0.12389 0.11878 -0.31585
0.02141 0.11878 0.09759
-0.11475 0.11878 0.24289
-0.06709 0.11878 0.31805
-0.03444 0.11878 -0.04857
0.05343 0.11878 0.27526
0.01399 0.11878 0.32169
-0.09814 0.11878 -0.14244
0.06400 0.11878 0.30830
0.05148 0.11878 0.23023
0.06151 0.11878 0.20691
-0.10978 0.11878 -0.04700
-0.07315 0.11878 -0.14966
-0.10357 0.11878 -0.07924
-0.09492 0.11878 -0.18763
-0.12933 0.11878 0.19767
-0.01955 0.11878 0.22698
-0.05546 0.11878 0.05269
-0.12666 0.11878 0.05565
0.03541 0.11878 0.34519
-0.00321 0.11878 0.38995
-0.13205 0.11878 0.27692
-0.09844 0.11878 0.07269
0.03890 0.11878 0.39459
-0.08472 0.11878 0.07024
0.01267 0.11878 0.06190
-0.13709 0.11878 0.29643
0.17861 0.06638 -0.30257
-0.13842 0.11655 -0.04480
-0.13842 0.11613 0.34070
-0.13842 0.11346 0.30058
0.18397 0.08256 0.36442
0.18397 0.08848 0.32011
0.18397 0.08988 0.34968
-0.16164 -0.00389 -0.41789
-0.15877 0.07473 -0.41003
-0.18157 0.00696 0.23130
0.02440 -0.11195 -0.42870
-0.04669 -0.12011 -0.42951
-0.10095 -0.11429 -0.42893
-0.11605 0.09880 0.43938
-0.12812 0.09652 0.43938
-0.03328 0.10095 0.43938
0.17861 0.02883 0.40386
-0.18397 0.08367 -0.36030
-0.18397 0.07529 -0.37203
-0.18397 0.08468 -0.36975
-0.16879 -0.11536 -0.42904
-0.16717 -0.03488 -0.42099
0.17861 0.06953 0.33912
0.15483 0.08346 0.43938
0.17043 -0.09348 0.43938
-0.17861 -0.02265 -0.40384
-0.06356 0.11163 0.36261
-0.05954 0.11163 0.37781
0.04096 0.11163 0.33315
0.09065 0.11163 0.37295
0.10597 0.11163 0.29493
0.02989 0.11163 0.31757
0.05983 0.11163 0.33610
0.05803 0.11163 0.28913
0.06994 0.11163 0.34868
-0.02802 0.11163 0.37146
0.13486 0.11163 0.34837
0.08132 0.11163 0.32355
0.06400 0.11163 0.29494
0.07289 0.11163 0.39233
-0.04470 0.11163 0.34928
0.13562 0.11163 0.24817
0.03388 0.11163 0.39879
0.06386 0.11163 0.36721
0.01602 0.11163 0.32558
0.00533 0.11163 0.40606
0.03925 0.11163 0.39286
-0.03225 0.11163 0.38470
0.13175 0.11163 0.40614
-0.03925 0.11163 0.38078
0.15360 -0.04000 0.43758
0.15360 0.05584 0.43916
-0.18397 -0.00624 -0.28794
-0.18397 -0.01739 -0.26406
-0.18397 -0.01655 -0.33447
-0.18397 -0.00937 -0.27006
0.18397 0.04150 0.33681
0.18397 0.05696 0.29300
0.18397 0.05603 0.32742
0.18397 0.10446 -0.35522
0.18397 0.09224 -0.27110
0.18397 0.08510 -0.28257
-0.16215 -0.02210 0.41505
0.17301 0.05588 0.40634
0.15727 0.05191 -0.41231
-0.18181 0.10593 -0.31604
0.18353 0.01510 -0.40277
0.16492 -0.05733 0.43938
0.15787 -0.10513 0.43938
-0.15979 0.05706 -0.40634
0.16815 0.09510 0.40799
0.15643 -0.05916 0.42342
-0.18380 -0.03114 0.36472
-0.18102 0.06359 0.28932
-0.15809 0.09944 0.22773
-0.14565 0.09683 0.22773
-0.15121 0.07395 0.22773
0.18397 -0.01876 -0.39804
0.18397 -0.03111 -0.26316
0.18397 -0.00296 -0.35917
0.18397 -0.03005 -0.24064
0.18397 -0.00531 -0.35164
0.16587 0.09436 -0.43938
0.02094 -0.12949 0.43328
-0.12163 -0.12949 0.43063
0.17861 0.12248 0.10226
0.17861 0.12331 0.03974
0.17861 0.12787 -0.34059
0.17861 0.12609 -0.18871
0.17861 0.12335 0.21267
0.17861 0.12876 -0.34981
0.17861 0.12597 -0.10292
0.17861 0.12866 -0.24311
0.17861 0.07213 0.34625
-0.15551 -0.11816 0.42932
0.02545 -0.11621 0.42912
-0.04186 -0.11868 0.42937
0.15911 0.11163 0.23607
0.15446 0.11163 0.26988
0.17477 0.11163 0.24274
0.15466 0.11163 0.30654
0.13859 0.11163 0.14641
0.14333 0.11163 0.08547
0.14937 0.11163 0.15940
0.14125 0.11163 -0.19235
0.14758 0.11163 -0.09360
0.16113 0.11163 0.05899
0.17033 0.11163 0.14903
0.15365 0.11163 0.16298
0.14772 0.10726 -0.22773
0.17732 0.02670 -0.22773
-0.15724 0.11163 -0.21949
-0.16421 0.11163 -0.11280
-0.14358 0.11163 -0.16967
-0.14222 0.11163 0.06053
-0.14841 0.11163 -0.06864
-0.15964 0.11163 -0.04811
-0.16541 0.11163 -0.19834
-0.15222 0.11163 -0.14484
-0.15535 0.11163 -0.18857
-0.15925 0.11163 -0.16102
0.17861 0.02200 0.32139
0.07073 0.11163 -0.44364
-0.17264 0.11163 0.04860
-0.16356 0.11163 -0.00471
-0.15519 0.11163 0.13559
-0.16886 0.11163 0.08754
-0.16982 0.11163 0.02245
-0.17860 0.11163 0.01507
-0.17440 0.11163 -0.14091
-0.17430 0.11163 -0.11759
-0.15164 0.11163 0.21764
-0.10851 0.11163 -0.36253
-0.03540 0.11163 -0.35842
0.02057 0.11163 -0.39150
-0.11319 0.11163 -0.36895
-0.11913 0.11163 -0.37832
-0.08057 0.11163 -0.37261
-0.11470 0.11163 -0.33269
-0.12752 0.11163 -0.38388
-0.03143 0.11163 -0.31171
-0.04300 0.11163 -0.39797
-0.00628 0.11163 -0.38295
-0.13031 0.11163 -0.31618
-0.09656 0.11163 -0.25837
-0.08109 0.11163 -0.36161
-0.03886 0.11163 -0.30153
-0.00990 0.11163 -0.40455
-0.00575 0.11163 -0.34676
0.01709 0.11163 -0.36836
-0.13706 0.11163 -0.28091
-0.10171 0.11163 -0.38795
-0.01234 0.11163 -0.32833
0.02477 0.11163 -0.35909
-0.03981 0.11163 -0.31402
-0.11837 0.11163 -0.40035
-0.07231 0.11163 -0.38532
-0.17861 0.01941 0.26454
-0.16473 0.06888 0.43938
-0.15667 0.06878 0.43938
0.13842 0.11330 -0.05332
0.13842 0.11762 0.35300
-0.06934 -0.12949 0.43290
0.17005 -0.12949 0.43628
-0.07792 0.11163 0.26482
-0.07983 0.11163 0.22846
-0.12045 0.11163 0.27485
0.07470 0.11163 0.23786
-0.12851 0.11163 0.26002
-0.12367 0.11163 0.23790
-0.04194 0.11163 0.31481
0.01202 0.11163 0.22813
-0.12449 0.11163 0.28911
0.05412 0.11163 0.23647
-0.05836 0.11163 0.27646
0.01780 0.11163 0.30382
-0.09577 0.11163 0.32039
-0.06861 0.11163 0.33389
-0.10631 0.11163 0.25024
-0.11056 0.11163 0.35052
-0.11449 0.11163 0.38504
0.11639 0.11163 0.24156
-0.04361 0.11163 0.30866
-0.07910 0.11163 0.35859
0.02386 0.11163 0.27263
-0.11101 0.11163 0.30862
-0.12262 0.11163 0.38409
0.02652 0.11163 0.25041
-0.07753 0.11163 0.27986
-0.11391 0.11163 0.28900
0.17861 0.02137 -0.25027
0.18360 0.01543 -0.24151
0.06393 -0.02691 0.40634
-0.13842 0.11197 0.23129
-0.05341 0.11768 -0.40634
0.04783 0.05143 -0.22773
0.04897 0.06922 -0.22773
0.10481 0.02667 -0.22773
0.12638 0.08068 -0.22773
0.12713 -0.00327 -0.22773
-0.01958 0.03486 -0.22773
-0.00261 0.01298 -0.22773
-0.03486 -0.02339 -0.22773
0.16759 0.00076 -0.22773
0.06532 -0.01400 -0.22773
0.09461 0.03722 -0.22773
-0.02254 -0.00888 -0.22773
0.06775 0.07844 -0.22773
0.03862 0.05112 -0.22773
0.16080 0.00925 -0.22773
0.11589 -0.02942 -0.22773
0.00482 0.00100 -0.22773
0.01879 0.01534 -0.22773
-0.10626 -0.02715 -0.22773
0.10742 0.04041 -0.22773
0.11933 0.03518 -0.22773
0.06788 -0.00655 -0.22773
0.13516 0.07054 -0.22773
-0.01246 0.02521 -0.22773
-0.17861 0.12904 -0.02917
-0.17861 0.12528 0.17039
-0.17861 0.12100 -0.08825
-0.17861 0.11910 -0.24036
-0.17861 0.12934 -0.16938
-0.17861 0.12123 -0.26216
-0.17861 0.11932 -0.35788
-0.17861 0.12922 0.35435
-0.15001 0.10248 0.22773
-0.17203 0.08706 0.22773
-0.15129 0.09505 0.22773
-0.17631 0.11163 -0.29597
-0.16990 0.11163 -0.34834
-0.15269 0.11163 -0.26155
-0.17506 0.11163 -0.26023
-0.18397 0.03417 0.26822
-0.18397 0.04937 0.26893
-0.18397 0.05181 0.23814
0.18112 0.02423 0.37439
0.01585 0.11163 0.44021
0.17861 0.11547 -0.24226
0.17861 0.11910 -0.23372
0.17861 0.11955 -0.26168
0.17861 0.12491 -0.35792
-0.10129 -0.03126 -0.31048
-0.07167 -0.03126 -0.34169
-0.11051 -0.03126 -0.23759
-0.02849 -0.03126 -0.28535
0.01392 -0.03126 -0.26300
-0.15914 -0.03126 -0.36741
0.03489 -0.03126 -0.24837
-0.08662 -0.03126 -0.29402
-0.00854 -0.03126 -0.31416
0.00452 -0.03126 -0.27154
-0.07959 -0.03126 -0.30793
-0.08429 -0.03126 -0.25536
0.00767 -0.03126 -0.24426
-0.17144 -0.03126 -0.39100
-0.17349 -0.03126 -0.30715
-0.06013 -0.03126 -0.24490
-0.00591 -0.03126 -0.23747
-0.16531 -0.03126 -0.31648
0.03384 -0.03126 -0.28592
-0.07099 -0.03126 -0.32692
0.17194 -0.03126 -0.22865
0.08376 -0.03126 -0.27093
0.01243 -0.03126 -0.28579
0.10258 -0.03126 -0.24750
-0.00170 -0.03126 -0.27550
-0.14994 -0.03126 -0.24049
-0.01715 -0.03126 -0.29226
-0.17313 -0.03126 -0.24347
-0.03185 -0.03126 -0.23990
-0.04095 -0.03126 -0.30272
-0.11816 -0.03126 -0.34634
0.01940 -0.03126 -0.25345
-0.10758 -0.03126 -0.25883
-0.18236 0.06984 0.32045
0.17861 0.02022 -0.30023
0.18397 -0.01446 -0.27154
0.18397 -0.00237 -0.33794
0.18397 0.00290 -0.27796
0.18397 0.00741 -0.30680
-0.18397 -0.01513 0.26731
-0.18397 0.00294 0.26506
-0.18397 0.01035 0.25936
-0.18397 -0.00831 0.23710
-0.18397 0.00570 0.34753
-0.18349 0.06194 -0.28745
-0.17116 0.03882 -0.43938
-0.16742 -0.02630 -0.43938
-0.16185 0.03491 -0.43938
-0.06722 -0.03126 0.32174
-0.09817 -0.03126 0.37189
-0.09765 -0.03126 0.28419
-0.08084 -0.03126 0.35409
-0.14023 -0.03126 0.26894
-0.13385 -0.03126 0.30745
-0.15785 -0.03126 0.27054
-0.11570 -0.03126 0.35356
0.11487 -0.03126 0.40489
0.01668 -0.03126 0.36844
-0.16876 -0.03126 0.40057
0.02873 -0.03126 0.33623
-0.16295 -0.03126 0.31358
-0.17552 -0.03126 0.27468
-0.16367 -0.03126 0.24266
-0.16177 -0.03126 0.28952
-0.01654 -0.03126 0.34416
-0.07368 -0.03126 0.34872
-0.15816 -0.03126 0.28058
-0.07407 -0.03126 0.31326
-0.06148 -0.03126 0.40577
-0.04633 -0.03126 0.36669
-0.10718 -0.03126 0.40114
-0.10871 -0.03126 0.37709
-0.14889 -0.03126 0.36032
-0.17569 -0.03126 0.36839
-0.07769 -0.03126 0.37392
0.08501 -0.03126 0.38798
-0.06697 -0.03126 0.39456
-0.00422 -0.03126 0.34518
-0.04773 -0.03126 0.35964
-0.10952 -0.03126 0.36423
-0.02581 -0.03126 0.35094
-0.18074 0.10664 0.39894
-0.15361 -0.01627 -0.43506
0.16686 0.11163 -0.15519
0.17518 0.11163 0.04109
0.15815 0.11163 -0.04446
0.15931 0.11163 -0.05403
0.17558 0.11163 0.16276
0.14597 0.11163 -0.20688
0.14886 0.11163 -0.13359
0.14508 0.11163 -0.16918
0.17861 0.11572 -0.07577
0.17861 0.11625 -0.16268
0.17861 0.12116 -0.29026
0.17147 0.10546 -0.41900
0.17147 -0.06921 -0.43210
0.17147 -0.01596 -0.43346
0.17147 0.02492 -0.42183
0.17147 -0.00986 -0.43392
-0.17668 0.11163 0.11508
-0.17663 0.11163 -0.10329
-0.15600 0.11163 0.08735
-0.15627 0.11163 0.05168
-0.16755 0.11163 0.11015
-0.17120 0.11163 -0.09891
-0.15145 0.11163 0.10950
-0.17203 0.11163 -0.03794
-0.16818 0.11163 0.14701
-0.17622 0.11163 -0.01998
0.18397 0.08931 -0.39550
0.18397 0.09172 -0.35951
0.18397 0.07745 -0.32316
0.17147 -0.06556 0.43931
0.09510 -0.11163 -0.43924
-0.10081 -0.11163 -0.43797
-0.18167 0.02386 0.23167
-0.16366 -0.05426 -0.43938
0.13842 0.11400 0.38373
0.02508 -0.11982 -0.42949
0.04640 -0.12363 -0.42987
0.14292 -0.11235 -0.42874
0.17861 0.00542 0.40491
0.11046 0.10488 -0.40702
-0.11120 0.09482 -0.40802
0.15360 -0.10136 -0.42836
0.17861 0.06783 0.25508
-0.14342 -0.11163 -0.43524
-0.14220 0.11163 0.31024
-0.13927 0.11163 0.23806
-0.15472 0.11163 0.34080
-0.06012 0.11163 0.44638
-0.16891 0.11163 0.44454
-0.17861 0.11803 0.36547
0.17610 0.11163 0.42049
-0.18397 0.07357 0.30402
-0.18397 0.08832 0.39817
-0.18397 0.07082 0.35995
-0.18397 0.07046 0.26075
-0.17861 -0.03125 0.33273
-0.15361 0.09250 0.42069
-0.15361 0.03630 0.43514
-0.15361 0.03299 0.42823
-0.17879 0.06507 0.28310
-0.18397 0.05529 -0.35721
-0.18397 0.03472 -0.39449
-0.17861 -0.03117 -0.39178
0.13842 0.11170 -0.37228
-0.17147 -0.03783 0.43515
0.17147 -0.08854 0.43428
0.15360 0.06654 0.42028
0.15360 0.07381 0.41482
-0.17874 0.02581 0.33000
0.16689 -0.11021 0.42852
0.16527 -0.04317 0.42182
0.17861 0.12352 -0.19931
0.17861 0.12215 -0.12591
-0.04696 0.04267 -0.22773
-0.03458 0.09850 -0.22773
-0.04164 0.08615 -0.22773
-0.08542 0.09583 -0.22773
0.08538 0.10526 -0.22773
-0.12900 0.09646 -0.22773
-0.10388 0.02752 -0.22773
-0.05501 0.09368 -0.22773
-0.13581 0.07634 -0.22773
-0.05985 0.10013 -0.22773
