-0.02428 -0.00798 -0.42416
-0.05317 -0.06428 -0.42416
-0.08974 -0.01999 -0.42416
-0.04030 0.03157 -0.42416
-0.00608 -0.03795 -0.42416
0.01098 -0.04336 -0.42416
0.01630 -0.08092 -0.42416
-0.05188 0.02918 -0.42416
0.00035 -0.08660 -0.42416
-0.10651 0.11169 -0.42416
-0.08676 0.04409 -0.42416
0.02105 -0.02227 -0.42416
-0.07072 -0.04569 -0.42416
0.04038 -0.08622 -0.42416
-0.13573 -0.18313 0.43054
-0.13573 -0.03662 -0.31046
-0.13573 0.05804 -0.41811
-0.13573 -0.07253 -0.19468
-0.13573 -0.00587 -0.38839
-0.13573 0.10864 -0.36383
-0.13573 0.10780 -0.40019
-0.13573 0.04486 -0.38157
-0.13573 -0.07099 -0.24156
-0.13573 -0.01793 -0.34236
-0.13573 -0.05522 -0.18384
-0.13573 0.02359 -0.29135
-0.13573 0.02390 -0.30552
-0.13573 -0.00744 -0.17468
-0.13573 0.09102 -0.32907
-0.13573 -0.04477 -0.00495
-0.13573 -0.06304 0.11206
-0.13573 0.00655 -0.15879
-0.13573 -0.00131 -0.34719
-0.13573 -0.04442 -0.23073
-0.13573 -0.02638 -0.13807
-0.13573 0.00082 -0.17273
-0.13573 -0.04880 -0.22604
-0.13573 -0.01298 -0.23522
-0.13573 0.04449 -0.27042
-0.13573 -0.02814 -0.09737
-0.13573 -0.01335 -0.16666
-0.13573 -0.07743 -0.32086
-0.13573 -0.01982 -0.20599
-0.13573 0.01375 -0.13091
-0.13573 -0.02239 -0.17852
-0.13573 0.05238 -0.25357
-0.13573 0.03261 -0.34421
-0.13573 -0.06704 -0.34990
-0.13573 0.03907 -0.31140
-0.13573 -0.08492 0.07879
-0.13573 0.11145 -0.41111
-0.13573 0.03929 -0.35257
-0.13573 -0.05907 -0.13622
-0.13573 0.09048 -0.37421
-0.13573 -0.06855 -0.35891
-0.13573 -0.07309 -0.35447
-0.13573 -0.02050 -0.02214
-0.13573 0.03220 -0.30470
-0.13573 -0.02802 -0.05634
-0.13573 0.11104 -0.36937
-0.13573 -0.01768 -0.26073
-0.13573 0.06757 -0.35467
0.00256 -0.10769 0.44421
0.10747 -0.11018 0.44421
-0.02000 0.12472 0.19738
0.08366 0.12501 0.19741
0.10595 0.10223 0.19742
-0.13573 0.03086 -0.11095
-0.13573 0.10373 -0.32974
-0.13573 0.07461 -0.23799
-0.13573 0.07134 -0.24580
-0.13573 0.09780 -0.27613
-0.13573 -0.03871 0.06242
-0.01960 -0.11167 -0.43069
-0.01854 -0.11172 -0.44299
-0.12677 -0.11128 0.07611
-0.12907 -0.11148 -0.22274
0.12465 -0.14461 0.41953
-0.11703 -0.07493 -0.41953
0.13573 -0.15739 0.42263
0.01839 0.07938 -0.41953
0.09289 -0.03904 -0.41953
-0.02383 0.12155 -0.41953
0.09397 0.02580 -0.41953
0.06644 0.08724 -0.41953
0.10967 0.02577 -0.41953
-0.00311 0.05016 -0.41953
0.05998 0.01112 -0.41953
-0.06086 0.08097 -0.41953
0.04759 0.02643 -0.41953
0.10372 0.03228 -0.41953
-0.03715 0.08920 -0.41953
-0.00951 0.11688 -0.41953
0.08944 0.06060 -0.41953
0.10219 0.09252 -0.41953
0.11014 -0.00594 -0.41953
0.00620 0.03924 -0.41953
0.11992 -0.18509 0.43605
0.12952 0.06141 0.31926
-0.00736 -0.08778 -0.42033
0.05650 -0.08779 -0.42659
-0.13573 -0.00093 -0.06640
-0.13573 -0.01652 -0.20177
-0.13573 -0.07612 -0.15965
-0.13573 -0.04992 -0.23524
-0.13573 -0.03377 -0.32177
-0.13573 -0.01364 -0.11487
-0.13573 0.02286 -0.35617
-0.13573 -0.07673 -0.13321
-0.13573 -0.02007 -0.30869
-0.13573 -0.04112 0.03388
-0.13573 0.04817 -0.22559
-0.13573 -0.03915 -0.35019
-0.13573 -0.08211 0.00742
-0.13573 0.08645 -0.37913
-0.13573 -0.02017 -0.24675
-0.13573 -0.02335 -0.41337
-0.13573 -0.01431 -0.13681
-0.13573 -0.08617 -0.37962
-0.13573 0.00835 -0.33985
-0.13573 0.00616 -0.12797
-0.13573 0.06766 -0.30079
-0.13573 -0.05207 0.05313
-0.13573 -0.03688 -0.07004
-0.13573 -0.01848 -0.12125
-0.13573 -0.03528 -0.18995
-0.13573 -0.08253 -0.28917
-0.13573 0.10021 -0.36207
-0.13573 -0.00659 -0.27308
-0.13573 -0.07724 -0.17547
-0.13573 -0.03045 -0.17568
-0.13573 0.01929 -0.20991
-0.13573 -0.06549 -0.19196
-0.13573 -0.08063 -0.30498
-0.13573 -0.06809 -0.02813
-0.13573 0.01671 -0.25638
-0.13573 -0.04078 -0.07854
-0.13573 -0.03650 -0.23317
-0.13573 -0.01622 -0.17670
-0.13573 -0.02822 -0.11730
-0.13573 0.03324 -0.41906
-0.13573 0.00460 -0.22543
-0.13573 -0.02916 -0.31174
-0.13573 0.00441 -0.21322
-0.13573 -0.08115 0.42023
-0.13573 -0.05026 0.43081
0.12312 0.12705 0.41953
-0.12109 0.03856 -0.41953
-0.07198 0.14152 -0.42416
-0.07090 0.15004 -0.42416
-0.03950 0.13065 -0.42416
-0.12653 0.03084 -0.44421
-0.13173 0.14334 -0.44421
-0.13500 -0.08703 0.02669
-0.13543 -0.08698 0.05957
-0.13180 -0.08743 -0.21094
-0.12356 0.03909 -0.44421
-0.12650 0.07944 -0.44421
0.11105 0.07228 0.28005
0.12710 -0.08637 0.42908
-0.11352 0.16041 -0.29010
-0.11339 0.16041 0.36568
-0.11490 0.16041 -0.14328
-0.11340 0.16041 0.26668
-0.12586 0.16041 0.11535
-0.12035 0.16041 0.18329
-0.11775 0.16041 -0.18474
-0.00727 0.15037 -0.42416
-0.09884 0.15763 -0.42416
-0.01063 0.15924 -0.42416
0.11105 0.06902 0.33564
0.13573 0.17955 0.14842
0.13573 0.17692 -0.39978
0.13573 0.18207 0.11387
0.13573 0.18451 0.30294
0.13573 0.17710 -0.41480
0.13573 0.16510 -0.29311
0.13573 0.17958 0.10546
-0.11105 -0.10512 0.42012
-0.11105 0.09062 -0.03546
-0.11105 0.08733 0.05873
-0.11105 0.04036 0.19991
-0.11105 0.02866 0.05722
-0.11105 0.13404 0.12207
-0.11105 0.17594 0.01225
-0.11105 0.15762 -0.07773
-0.11105 0.04754 0.27196
-0.11105 0.08849 -0.00307
-0.11105 -0.07660 0.36469
-0.11105 -0.06612 0.36309
-0.11105 0.07625 0.22007
-0.11105 0.07764 -0.01133
-0.11105 0.17243 0.00601
-0.11105 0.13211 -0.04168
-0.11105 0.04948 0.04648
-0.11105 0.08557 0.24968
-0.11105 0.06819 0.25699
-0.11105 0.16983 0.10677
-0.11105 0.09205 0.12008
-0.11105 0.13533 0.06103
-0.11105 0.12340 0.15746
-0.11105 0.00929 0.13069
-0.11105 -0.01891 0.41499
-0.11105 0.11177 0.20759
-0.11105 0.10394 -0.08473
-0.11105 0.09896 0.19107
-0.11105 0.09756 0.09314
-0.11105 0.01862 0.15485
-0.11105 0.06603 -0.02763
-0.11105 0.05388 0.13316
-0.11105 0.02099 0.33298
-0.11105 0.14843 -0.25267
-0.11105 0.07332 0.06627
-0.11105 0.01807 0.11016
-0.11105 0.15276 -0.08715
-0.11105 -0.04480 0.39537
-0.11105 0.03184 0.10472
-0.11105 -0.00172 0.30029
-0.11105 0.17006 -0.04623
-0.11105 0.08389 0.10693
-0.11105 0.12347 0.19897
-0.11105 0.05753 0.39369
-0.11105 0.07700 0.07779
-0.11105 -0.04348 0.29030
-0.11105 0.17223 -0.30992
-0.11105 0.09803 0.24628
-0.11105 0.10778 0.01547
-0.11105 -0.01927 0.36476
-0.11105 0.15403 0.00205
-0.11105 0.05389 0.34410
-0.11105 0.17144 -0.24895
-0.11105 0.12186 -0.09219
-0.11105 0.05126 -0.00392
-0.11105 0.12279 0.31714
-0.11105 0.13421 -0.05425
-0.11105 0.03489 0.20697
-0.11105 0.03596 0.17621
-0.11105 0.04875 0.37807
-0.11105 0.16574 -0.15668
-0.11105 0.02458 0.35194
-0.11105 0.11685 -0.04845
-0.11105 -0.02658 0.25603
-0.11105 0.16134 -0.29707
-0.11105 0.15761 0.13799
-0.11105 0.10251 -0.12862
-0.11105 0.17364 0.14582
-0.11105 0.14596 0.20658
-0.11105 0.15573 0.39751
-0.11105 0.03479 0.39565
-0.11105 0.14769 0.38844
-0.11105 -0.01345 0.35323
-0.11105 0.15582 0.29384
-0.11105 -0.09396 0.41101
-0.11105 0.14023 0.18814
-0.11105 0.07617 0.37123
-0.11105 0.10196 0.40304
-0.13194 0.17859 -0.44421
0.11105 0.14794 0.31568
0.11105 0.14995 0.30608
-0.13573 -0.02800 0.03515
-0.13573 -0.02570 0.04298
-0.13573 0.14787 -0.40128
-0.13573 -0.01202 0.00512
-0.13573 0.14426 -0.41583
-0.13573 0.03771 -0.15353
0.11459 0.16041 0.21769
0.11552 0.16041 0.20980
0.13573 0.10397 -0.43656
0.13573 0.13150 -0.42523
0.13573 0.15376 -0.43707
0.11105 0.16194 0.32256
-0.11458 0.07999 0.44421
-0.11506 0.06447 0.44421
0.11105 0.06515 0.32116
0.00333 0.12947 -0.18639
-0.01963 0.12947 -0.30442
0.09014 0.12947 -0.30198
0.05672 0.12947 0.02375
0.02840 0.12947 -0.08088
0.10600 0.12947 -0.06039
0.06490 0.12947 -0.21294
-0.01616 0.12947 -0.20692
0.06613 0.12947 -0.04617
0.04603 0.12947 -0.27458
0.05924 0.12947 -0.14469
0.04938 0.12947 -0.15027
-0.01094 0.12947 -0.41728
0.08025 0.12947 -0.23031
0.09835 0.12947 0.12502
-0.08656 0.12947 -0.36660
0.09266 0.12947 -0.15897
0.08749 0.12947 -0.21383
0.01179 0.12947 -0.33500
-0.04366 0.12947 -0.27938
0.07638 0.12947 -0.34105
0.06655 0.12947 0.03615
0.05147 0.12947 -0.32262
0.10397 0.12947 -0.29854
0.06670 0.12947 -0.12918
0.04410 0.12947 0.00222
-0.05111 0.12947 -0.37640
0.10958 0.12947 -0.38549
0.04361 0.12947 -0.13201
0.04646 0.12947 -0.00329
0.03290 0.12947 -0.24123
0.10611 0.12947 0.11257
0.05679 0.12947 -0.18667
-0.03273 0.12947 -0.37817
0.04661 0.12947 -0.37435
-0.00602 0.12947 -0.36925
0.06900 0.12947 -0.24574
0.04733 0.12947 -0.32966
-0.04196 0.12947 -0.29403
-0.05991 0.12947 -0.36145
0.07639 0.12947 -0.08094
0.08992 0.12947 -0.26991
-0.03268 0.12947 -0.35175
-0.07481 0.12947 -0.41847
0.08155 0.12947 0.02337
0.08295 0.12947 -0.21924
0.09882 0.12947 -0.41145
0.06110 0.12947 -0.34726
0.11421 -0.16708 0.44421
-0.13573 0.13089 0.44017
-0.13573 0.14289 0.42520
0.11105 0.08443 0.39140
-0.11105 -0.11006 -0.40637
-0.06725 -0.07052 0.19737
0.11105 0.14166 -0.13106
0.11105 0.14142 -0.25665
0.11105 0.14313 -0.20067
0.11105 0.13062 -0.11304
0.11105 0.13417 -0.23453
0.11105 0.14641 -0.16092
0.11105 0.14330 -0.15415
-0.05501 0.16162 -0.44421
0.07035 0.16802 -0.44421
-0.11105 -0.17050 0.44238
0.09754 0.16041 -0.13993
-0.02585 0.16041 0.27036
0.06461 0.16041 -0.11765
0.03917 0.16041 0.12507
-0.07013 0.16041 0.32372
-0.01693 0.16041 0.13539
0.02281 0.16041 0.24355
0.07588 0.16041 -0.12053
-0.04264 0.16041 0.18149
0.05577 0.16041 0.01722
-0.00021 0.16041 0.20966
0.09179 0.16041 0.20606
-0.05876 0.16041 0.26098
0.03150 0.16041 -0.06217
0.08813 0.16041 -0.06410
0.09313 0.16041 0.10728
-0.02734 0.16041 0.14392
0.06731 0.16041 -0.06843
0.00267 0.16041 0.13875
0.04183 0.16041 0.09856
0.03749 0.16041 -0.10205
-0.02249 0.16041 0.15803
-0.00224 0.16041 0.17862
0.06534 0.16041 0.22767
0.07886 0.16041 -0.11514
0.08322 0.16041 0.09376
0.09610 0.16041 0.09341
0.06848 0.16041 0.19745
0.10133 0.16041 0.01160
0.06803 0.16041 0.00222
0.03045 0.16041 -0.11094
0.04010 0.16041 -0.11343
0.02406 0.16041 -0.05060
0.00366 0.16041 0.21418
0.07178 0.16041 0.17659
0.10956 0.16041 -0.08150
0.07517 0.16041 0.07698
0.09453 0.16041 0.02574
0.11090 0.16041 0.16523
-0.09260 0.16041 0.39681
0.11004 0.16041 -0.25915
0.10171 0.16041 0.16384
0.06476 0.16041 0.02246
-0.05693 0.16041 0.29528
0.06683 0.16041 0.12542
-0.01038 0.16041 0.11180
-0.00293 0.10119 0.19739
-0.02355 0.11348 0.19738
0.09530 0.06161 0.19741
0.07427 0.05616 0.19741
-0.11497 0.12738 0.19735
-0.11105 -0.09581 -0.35937
-0.11105 -0.10754 -0.32557
-0.11105 -0.09911 -0.15944
-0.11105 -0.10054 -0.26461
-0.11105 -0.09695 -0.25261
0.12927 -0.08404 0.44421
0.12085 -0.08570 0.44421
-0.11105 -0.05932 -0.41493
-0.11105 0.03952 -0.40735
-0.11105 0.15898 -0.39718
-0.11105 0.07351 -0.40732
-0.11105 -0.03986 -0.40593
-0.11105 0.12375 -0.41541
-0.11105 0.07071 -0.39817
-0.11105 0.02837 -0.40342
-0.11105 -0.11114 0.10047
-0.11105 -0.01223 0.15175
-0.11105 -0.05071 0.25356
-0.11105 -0.05744 0.16438
-0.11105 0.05655 -0.07597
-0.11105 -0.03186 0.16306
-0.11105 0.08026 -0.10859
-0.11105 -0.08269 0.34170
-0.11105 0.02763 0.03944
-0.11105 -0.08139 0.20969
-0.11105 -0.07286 0.17100
-0.11105 -0.00673 0.09818
-0.11105 0.10243 -0.18169
-0.11105 0.03985 -0.00998
-0.11105 -0.05624 0.26998
-0.11105 -0.02930 0.11023
-0.11105 -0.05764 0.17050
-0.11105 -0.06434 0.15615
-0.11697 -0.18301 0.44421
-0.12440 0.09221 0.41946
-0.12347 0.10519 0.41946
-0.10569 0.18509 -0.35774
0.02848 0.18509 0.11373
0.02011 0.18509 0.09298
0.13573 0.16171 -0.43910
0.11105 0.03877 0.26397
0.11105 0.04856 0.24892
-0.13088 -0.08727 -0.11297
0.02045 -0.05743 0.41950
0.01316 -0.06904 0.41950
0.00475 -0.05830 0.41949
0.05173 -0.03523 0.41951
-0.00939 -0.06510 0.41949
0.08466 0.00276 0.41952
0.09644 0.02160 0.41952
-0.05868 -0.06663 0.41948
-0.03947 -0.04955 0.41948
0.09465 -0.02404 0.41952
-0.13573 -0.02470 0.36671
-0.13573 -0.05659 0.38166
-0.13573 -0.02241 0.38613
-0.13573 -0.04850 0.24477
-0.13573 0.07870 0.41620
-0.13573 -0.04826 0.34222
-0.13573 -0.06130 0.33338
-0.13573 -0.01827 0.36195
-0.13573 0.06231 0.34348
-0.13573 -0.07583 0.31771
-0.13573 -0.05972 0.31081
-0.13573 -0.06997 0.32542
-0.13573 0.01549 0.39249
-0.13573 0.01260 0.30928
-0.13573 -0.08599 0.36837
-0.13573 -0.08533 0.40105
-0.13573 0.00716 0.38384
-0.13573 0.03653 0.39426
-0.13573 -0.07093 0.36765
-0.13573 -0.05607 0.41254
0.12943 0.18160 -0.44421
0.01736 0.15783 0.41950
0.02393 0.15370 0.41950
0.10694 0.12045 0.41952
-0.00753 0.13570 0.41949
0.01617 0.13856 0.41950
0.11105 0.00373 0.27015
-0.11929 -0.06528 0.44421
-0.13564 0.09133 0.44421
-0.12226 0.00934 0.44421
-0.03136 -0.11169 -0.43627
0.12956 0.06376 0.31273
-0.12795 -0.04983 -0.41953
-0.12297 -0.11130 0.25337
-0.13060 -0.11122 0.24555
-0.12159 -0.14710 -0.44421
0.13573 -0.16642 0.43851
-0.13156 0.16041 -0.39625
-0.13315 0.16041 -0.35002
-0.12938 0.16041 -0.41417
-0.12171 0.16041 -0.21890
-0.11718 0.16041 -0.32301
-0.13170 0.16041 -0.36508
0.08489 0.16041 0.35653
0.09224 0.16041 0.34505
0.09937 0.16041 0.23317
0.05534 0.16041 0.33636
0.07043 0.16041 0.35746
0.08293 0.16041 0.29844
0.00939 0.16041 0.30762
-0.05999 0.16041 0.38334
-0.07802 0.16041 0.40419
-0.01846 0.16041 0.35254
0.07750 0.16041 0.41164
0.07004 0.16041 0.38876
0.04502 0.16041 0.34651
-0.03469 0.16041 0.37335
0.00890 0.16041 0.35651
0.07932 0.16041 0.35476
-0.11105 0.10630 -0.35546
-0.11105 -0.02068 -0.28547
-0.11105 -0.08298 -0.41079
-0.11105 -0.08733 -0.19736
-0.11105 -0.02785 -0.33433
-0.11105 -0.03774 0.09489
-0.11105 -0.07394 -0.30600
-0.11105 -0.08330 -0.40051
-0.11105 -0.02717 -0.09753
-0.11105 -0.02446 -0.37069
-0.11105 -0.02034 -0.20469
-0.11105 -0.05752 0.01700
-0.11105 0.10452 -0.22820
-0.11105 -0.07177 -0.06593
-0.11105 -0.06137 -0.33271
-0.11105 -0.06714 -0.03305
-0.11105 0.00928 -0.17581
-0.11105 0.01747 -0.35740
-0.11105 -0.07402 -0.27813
-0.11105 0.10540 -0.27126
-0.11105 0.00132 -0.13110
-0.11105 0.04096 -0.10909
-0.11105 -0.06779 0.04655
-0.11105 -0.07314 -0.24505
-0.11105 0.02595 -0.05647
-0.11105 -0.08314 -0.35631
-0.11105 -0.07906 -0.30343
-0.11105 -0.06515 -0.07883
-0.11105 -0.04072 -0.26745
-0.11105 -0.02289 -0.24313
-0.11105 -0.04530 0.01651
-0.11105 0.05047 -0.09271
-0.11105 0.06848 -0.30212
-0.11105 0.05648 -0.13923
-0.11105 0.06036 -0.10937
-0.11105 0.09332 -0.33111
-0.11105 0.04797 -0.20026
-0.11105 -0.07172 -0.00297
-0.11105 0.08074 -0.14519
-0.11105 0.10591 -0.20731
-0.11105 0.02061 -0.32100
-0.11105 0.01966 -0.37865
-0.11105 -0.03467 -0.19686
-0.11105 0.07249 -0.24348
-0.11105 0.07859 -0.16397
-0.11105 -0.07624 -0.09897
-0.11105 -0.05441 -0.21992
-0.11105 -0.01561 -0.36083
-0.11105 0.13562 -0.28698
-0.11105 0.00162 -0.22918
-0.11105 -0.06609 -0.09633
-0.11105 0.00726 -0.02107
-0.11105 0.05195 -0.08720
-0.11105 -0.01024 -0.21041
-0.11105 0.01304 -0.23341
-0.11105 0.02928 -0.17138
-0.11105 -0.05121 -0.23251
-0.11105 -0.04345 -0.15343
-0.13573 -0.13617 -0.42407
0.11743 -0.15832 -0.41953
-0.11105 0.08612 0.42169
-0.11105 -0.01317 0.42856
-0.13573 -0.11067 0.35374
-0.13573 -0.10902 0.22119
-0.13573 -0.08996 -0.05385
-0.13573 -0.10167 0.02578
-0.13573 -0.08819 -0.29918
-0.13573 -0.08827 -0.17704
-0.13573 -0.09123 0.05637
-0.13573 -0.09117 -0.23979
-0.06548 0.18509 0.43322
0.05869 0.18509 0.43909
0.11105 0.05691 0.30141
-0.13573 -0.14194 -0.43813
0.11362 -0.13507 -0.44421
-0.05733 0.16041 0.21152
0.04231 0.16041 -0.16938
-0.11105 -0.10258 0.31349
0.11577 0.07375 0.33456
-0.12261 -0.11154 -0.30420
-0.11593 -0.11153 -0.29343
-0.11708 -0.11154 -0.30797
-0.08469 -0.08637 0.44220
-0.05624 -0.08637 0.43999
0.03607 0.18509 -0.42148
0.11842 0.15313 -0.44421
0.11343 -0.03742 -0.44421
-0.05993 0.17660 -0.30264
0.10645 0.17660 0.23552
-0.04036 0.17660 -0.36845
-0.00583 0.17660 -0.41402
-0.01602 0.17660 -0.28353
0.03633 0.17660 -0.36812
0.05007 0.17660 0.04694
-0.02960 0.17660 -0.12964
0.04283 0.17660 -0.29293
0.05411 0.17660 0.16180
-0.05002 0.17660 -0.27167
0.03560 0.17660 0.09108
-0.00854 0.17660 -0.27084
0.07064 0.17660 -0.18657
0.06414 0.17660 -0.41408
0.09452 0.17660 0.14029
-0.03451 0.17660 -0.41121
0.05651 0.17660 0.19443
0.08920 0.17660 0.12167
-0.07592 0.17660 -0.34209
0.01145 0.17660 -0.36268
0.03196 0.17660 0.11941
0.06477 0.17660 -0.05343
0.09069 0.17660 -0.05979
0.09906 0.17660 -0.17462
-0.01517 0.17660 -0.25787
-0.10295 0.17660 -0.39185
0.04402 0.17660 0.08058
0.10227 0.17660 0.00339
0.10733 0.17660 -0.36506
0.08192 0.17660 -0.32652
0.07306 0.17660 -0.37154
0.01118 0.17660 -0.16135
0.04631 0.17660 -0.13644
0.01769 0.17660 -0.09127
0.06670 0.17660 -0.03841
0.09187 0.17660 0.06127
0.00079 0.17660 -0.29981
0.02408 0.17660 -0.26822
0.04485 0.17660 -0.02611
0.07367 0.17660 -0.27719
0.07870 0.17660 0.26308
0.04875 0.17660 -0.10630
0.07913 0.17660 -0.13833
0.09879 0.17660 -0.15321
0.09423 0.17660 0.14800
-0.00202 0.17660 -0.03268
-0.06640 0.17660 -0.25185
0.08436 0.17660 0.00592
0.09012 0.17660 -0.23432
-0.05042 0.17660 -0.30192
0.10333 0.17660 -0.06290
0.07149 0.17660 -0.04058
0.05052 0.17660 -0.06215
-0.04405 0.17660 -0.37259
0.09906 0.17660 0.01009
-0.02869 0.17660 -0.15758
-0.07045 0.17660 -0.29884
0.07423 0.17660 -0.28288
-0.00922 0.17660 -0.13968
0.02123 0.17660 -0.19554
0.07483 0.17660 0.17091
0.00903 0.17660 -0.05565
0.04287 0.17660 -0.39092
0.07416 0.17660 0.02752
-0.11105 -0.04224 -0.42491
-0.11105 0.11090 -0.43133
-0.13573 -0.09763 -0.37870
-0.13573 -0.09554 -0.39493
0.11105 -0.03126 0.23752
0.11105 0.00247 0.23869
0.11105 -0.03425 0.23230
0.11105 -0.03175 0.21342
-0.13202 -0.08759 -0.30782
-0.13206 -0.08761 -0.32146
-0.11105 -0.10906 0.41603
-0.12913 -0.08766 -0.34668
-0.13540 -0.08683 0.14788
-0.11971 -0.12494 0.44421
-0.13108 -0.09300 -0.44421
0.13573 -0.04727 0.43871
0.13573 0.05938 0.43972
0.13573 0.09039 0.44138
0.11105 0.18161 -0.03912
0.11105 0.18266 0.25344
0.11105 0.18109 0.19529
-0.13573 0.02472 -0.42148
-0.10997 0.17641 0.44421
-0.09822 0.16902 0.44421
-0.11105 0.12001 -0.43422
0.12339 -0.00028 0.27919
-0.10695 -0.10519 -0.41953
-0.13311 0.16041 0.29541
-0.12308 0.16041 0.31275
0.11235 0.12879 0.27762
-0.11105 -0.09845 0.17182
-0.11105 -0.09514 0.15910
-0.11105 -0.10237 0.06994
-0.11105 -0.09374 -0.20961
-0.11105 -0.00567 -0.43691
-0.11105 0.01554 -0.43254
0.12884 -0.17708 -0.41953
-0.11859 0.09836 -0.41953
-0.13305 0.05168 0.44421
-0.13298 -0.01046 0.44421
-0.12932 0.16041 0.43567
0.12338 0.09595 0.44421
0.11907 0.01115 0.44421
-0.13110 0.16041 0.30223
-0.12172 0.16041 0.36607
-0.00141 0.16041 0.38861
0.02553 0.16041 0.37908
0.06669 0.16041 0.36897
-0.09315 0.16041 0.41016
0.03615 0.16041 0.30766
0.00198 0.16041 0.33375
0.08358 0.16041 0.38366
-0.00514 0.16041 0.38399
-0.06697 0.16041 0.38195
0.08257 0.16041 0.23700
0.05917 0.16041 0.27608
0.07523 0.16041 0.39488
-0.05924 0.16041 0.37293
0.07307 0.16041 0.34017
0.04317 0.16041 0.33368
-0.02582 0.16041 0.40163
-0.11105 -0.08605 0.19459
-0.11105 0.13824 -0.25422
-0.11105 -0.00567 0.12501
-0.11105 0.10143 -0.16945
-0.11105 -0.06516 0.25508
-0.11105 -0.09392 0.32923
-0.11105 0.08845 -0.14320
-0.11105 -0.04531 0.21796
-0.11105 0.05524 -0.03433
-0.11105 0.04901 -0.03914
-0.11105 -0.06655 0.19658
-0.11105 -0.03019 0.12039
-0.11105 0.05098 -0.02646
-0.11105 0.01812 0.06919
-0.11105 0.05390 -0.05177
-0.11105 -0.09134 0.32165
-0.11105 0.14919 -0.10573
-0.11105 0.09192 -0.06739
-0.11105 -0.06676 0.32041
-0.11105 -0.04060 0.27314
-0.11105 0.10830 0.26061
-0.11105 0.06078 0.11812
-0.11105 0.03179 0.07593
-0.11105 0.13394 0.04561
-0.11105 0.12104 0.35608
-0.11105 0.16701 -0.18420
-0.11105 0.14061 0.06915
-0.11105 0.06994 0.20902
-0.11105 0.06847 0.29748
-0.11105 0.17361 -0.00783
-0.11105 0.14962 -0.09421
-0.11105 0.06011 0.21996
-0.11105 0.17210 -0.02214
-0.11105 -0.06780 0.33500
-0.11105 0.15463 0.21992
-0.11105 0.12435 0.23395
-0.11105 0.07160 -0.05869
-0.11105 -0.02605 0.38516
-0.11105 0.12563 -0.14350
-0.11105 0.09871 0.22474
-0.11105 0.13069 -0.08683
-0.11105 0.17431 -0.21641
-0.11105 0.13052 -0.02577
-0.11105 0.05889 0.23313
-0.11105 0.16731 -0.13004
-0.11105 0.01680 0.39800
-0.11105 0.02154 0.34526
-0.11105 -0.05769 0.34003
-0.11105 0.11161 0.31281
-0.11105 0.16525 0.37432
-0.11105 0.16839 0.32557
-0.11105 0.13861 -0.18007
-0.11105 0.11944 0.36674
-0.11105 -0.07723 0.34004
-0.11105 0.00246 0.36234
-0.11105 -0.00160 0.18108
-0.11105 0.02911 0.29864
-0.11105 0.15488 -0.25006
-0.11105 0.15996 -0.20444
-0.11105 -0.08950 0.40027
-0.11105 -0.01494 0.23668
-0.11105 0.11276 0.05171
-0.11105 0.14417 0.41601
-0.11105 0.07693 0.06114
-0.11105 0.16736 0.10020
-0.11105 0.06162 0.11081
-0.11105 0.08493 0.28576
-0.11105 0.16166 -0.22535
-0.11105 0.17437 0.11508
-0.11105 0.16591 0.18756
-0.11105 0.15026 0.03193
-0.11105 -0.03015 0.34648
-0.11105 0.11777 -0.02603
-0.11105 0.09011 0.29074
-0.11105 0.15135 -0.19461
-0.11105 0.01502 0.23406
-0.11105 0.04787 0.03510
-0.11105 0.03535 0.06336
-0.11105 0.01150 0.16028
-0.11105 0.00163 0.13556
-0.11105 0.11431 0.40404
-0.11105 0.17508 0.09144
-0.11105 0.17658 -0.22505
-0.11105 0.08251 0.40401
-0.11105 0.14595 0.11242
-0.11105 -0.00262 0.41781
-0.11105 -0.02819 0.22089
-0.11105 0.14328 -0.08366
-0.11105 0.01458 0.21729
0.11992 0.18509 0.32065
0.11682 0.18509 0.39020
0.11678 0.18509 -0.04802
0.11542 0.18509 0.35600
0.11110 0.18509 0.32159
0.12540 0.18509 0.08058
0.11190 0.18509 -0.38114
0.13303 -0.12140 -0.41953
0.11105 0.16347 0.30677
0.11105 0.17294 0.40738
-0.12154 0.12947 0.01831
-0.11510 0.12947 -0.29594
-0.11704 0.12947 -0.25118
-0.01475 0.18509 -0.18336
0.05340 0.18509 0.19661
0.03389 0.18509 -0.36357
0.10648 0.18509 -0.23793
0.03908 0.18509 -0.35778
0.07882 0.18509 0.28046
0.10282 0.18509 -0.17551
0.05491 0.18509 -0.06084
0.03673 0.18509 -0.23661
-0.04974 0.18509 -0.39928
0.02794 0.18509 -0.02863
0.08696 0.18509 0.32398
0.10705 0.18509 0.28185
0.07255 0.18509 0.00853
0.10804 0.18509 -0.15757
0.03079 0.18509 -0.18443
0.01599 0.18509 -0.08165
-0.02095 0.18509 -0.30011
0.10336 0.18509 -0.04838
-0.01964 0.18509 -0.12055
0.10209 0.18509 -0.21615
-0.06787 0.18509 -0.35901
0.03047 0.18509 0.05916
0.08848 0.18509 0.13874
0.05318 0.18509 -0.12641
0.01088 0.18509 -0.31395
-0.02509 0.18509 -0.18224
-0.08320 0.18509 -0.40897
0.04069 0.18509 -0.30568
0.09728 0.18509 0.09024
-0.06111 0.18509 -0.26536
0.07895 0.18509 0.19217
0.02476 0.18509 -0.34938
0.05737 0.18509 0.12859
0.01989 0.18509 -0.29550
0.00408 0.18509 -0.20308
-0.02662 0.18509 -0.37386
0.10658 0.18509 0.14863
-0.00562 0.18509 -0.07717
0.09676 0.18509 -0.06802
0.10745 0.18509 0.09992
0.04729 0.18509 -0.35603
0.01856 0.18509 -0.31254
0.10965 0.18509 -0.01275
0.10662 0.18509 -0.08408
-0.02185 0.18509 -0.27377
-0.00615 0.18509 -0.12259
0.02412 0.18509 -0.10704
0.03861 0.18509 0.05086
0.02265 0.18509 -0.19467
-0.04636 0.18509 -0.25440
-0.08708 0.18509 -0.36993
0.09095 0.18509 0.08504
0.08648 0.18509 -0.25595
0.08377 0.18509 -0.19297
0.07787 0.18509 0.21829
-0.02801 0.18509 -0.23383
-0.04522 0.18509 -0.39267
0.04881 0.18509 0.00056
-0.06006 0.18509 -0.30288
0.08526 0.18509 0.00747
0.03118 0.18509 -0.23747
0.08073 0.18509 0.12286
0.01851 0.18509 0.06685
-0.01010 0.18509 -0.24559
0.11105 0.14824 -0.41528
0.11105 0.15251 -0.34263
0.11105 0.13406 -0.16686
0.11105 0.13089 0.06514
0.11105 0.13202 -0.06662
0.11105 0.13620 -0.39471
0.12339 0.00381 0.31061
0.06215 0.18509 -0.22819
0.10999 0.18509 0.27330
0.09856 0.18509 0.15585
0.11062 0.18509 -0.00613
-0.00534 0.18509 -0.24112
0.09630 0.18509 0.26740
-0.02421 0.18509 -0.15697
0.02275 0.18509 0.00735
-0.00189 0.18509 -0.16499
0.05138 0.18509 -0.37767
0.01173 0.18509 -0.03467
-0.01555 0.18509 -0.12424
-0.07987 0.18509 -0.35545
0.07113 0.18509 0.12712
0.03853 0.18509 -0.12278
0.09356 0.18509 0.05733
0.07111 0.18509 -0.41683
0.10913 0.18509 -0.41372
0.02503 0.18509 -0.41348
0.05846 0.18509 0.08096
0.04902 0.18509 -0.29430
0.07003 0.18509 0.09119
-0.01528 0.18509 -0.08479
0.01014 0.18509 -0.02374
-0.01165 0.18509 -0.06666
0.10888 0.18509 -0.17556
0.10921 0.18509 -0.25960
-0.06553 0.18509 -0.31052
0.00045 0.18509 -0.28256
0.06818 0.18509 -0.35313
-0.01428 0.18509 -0.13514
0.07009 0.18509 -0.11631
0.05267 0.18509 -0.28399
0.01073 0.18509 -0.20821
0.10449 0.18509 -0.41743
0.08133 0.18509 0.04939
0.09596 0.18509 -0.41672
-0.02233 0.18509 -0.16602
0.02603 0.18509 0.04911
0.04593 0.18509 -0.31297
0.07824 0.18509 0.09972
0.09540 0.18509 -0.33681
0.10774 0.18509 0.24348
0.10334 0.18509 0.32910
-0.05502 0.18509 -0.34341
0.07585 0.18509 -0.37810
-0.02232 0.18509 -0.10668
0.01901 0.18509 -0.30723
0.01373 0.18509 0.02729
-0.01489 0.18509 -0.25249
0.08317 0.18509 -0.15116
0.09904 0.18509 0.11929
0.00198 0.18509 -0.33661
0.01526 0.18509 -0.41049
0.01806 0.18509 -0.17045
-0.00233 0.18509 -0.23239
0.06688 0.18509 -0.09740
0.05671 0.18509 -0.32263
0.07234 0.18509 0.01392
-0.13573 0.16165 -0.44144
0.13573 -0.17658 -0.43840
-0.11537 0.12947 -0.31499
-0.11745 0.12947 -0.18614
-0.12454 0.12947 -0.25722
0.11105 0.18442 -0.23541
0.11105 0.18237 0.34016
0.11105 0.18257 0.41317
-0.11105 -0.18367 -0.43916
-0.13573 0.14829 -0.44309
-0.13573 0.10348 -0.43348
0.11105 0.01556 0.26998
0.11105 -0.03210 0.25192
-0.05511 -0.08778 -0.42291
0.06294 0.17960 0.44421
0.07551 0.16631 0.44421
-0.12980 -0.11110 0.39421
-0.12570 0.04707 -0.17104
-0.12570 -0.04240 0.09962
-0.12570 0.00544 0.10542
-0.12570 0.09969 -0.18849
-0.12570 0.11945 -0.37229
-0.12570 0.04749 0.16053
-0.12570 0.06739 0.12387
-0.12570 0.01007 0.06758
-0.12570 0.03221 0.05929
-0.12570 0.12933 -0.01640
-0.12570 0.08790 -0.01500
-0.12570 0.00196 0.14928
-0.12570 -0.03551 0.17644
-0.12570 0.09248 -0.09811
-0.12570 0.08772 0.06213
-0.12570 0.09033 -0.06227
-0.12570 -0.06401 0.18845
-0.12570 0.11796 -0.18804
-0.12570 0.12082 -0.39319
-0.12570 -0.04429 0.14289
-0.12570 -0.03217 0.13333
-0.12570 -0.00017 0.05395
-0.12570 0.07814 0.01456
-0.12570 0.04459 -0.03431
-0.12570 -0.05972 0.17759
-0.12570 0.09603 -0.25394
-0.12570 0.10836 -0.31226
-0.12570 0.05205 -0.08437
-0.12570 0.09850 -0.16858
-0.12570 0.10269 -0.22976
-0.12570 0.12521 0.18384
-0.12570 0.06296 0.08339
-0.12570 0.01523 -0.05144
-0.12570 0.09420 -0.23531
-0.12570 0.09937 -0.30327
-0.12570 0.09133 -0.28155
-0.12570 0.05980 0.03952
-0.12570 0.00844 -0.03938
-0.12570 0.05378 0.09386
-0.12570 0.01430 0.07096
-0.12570 0.10788 0.01120
-0.12570 0.10911 -0.19315
-0.12570 0.06712 -0.15156
-0.12570 0.04593 -0.07789
-0.12570 0.06376 -0.02596
-0.12570 0.06063 -0.03351
0.00036 -0.08637 0.44236
0.11105 -0.04097 0.42586
0.03815 -0.08782 -0.44129
-0.00970 -0.08782 -0.44270
-0.00319 -0.09387 0.41949
-0.05460 -0.10421 0.41948
-0.11105 0.04619 -0.42020
-0.12205 -0.11129 0.09515
-0.11985 -0.11134 0.05335
-0.07185 0.17660 -0.26058
-0.07100 0.17660 -0.21991
-0.02278 0.17660 -0.08474
-0.01246 0.17660 -0.01320
-0.10703 0.17660 -0.33553
-0.09446 0.17660 -0.30575
-0.12105 -0.10733 0.41946
-0.13573 0.17232 -0.12144
-0.13573 0.16907 -0.15858
-0.13573 0.16330 0.00634
-0.13573 0.18288 -0.37285
-0.13573 0.16932 -0.23251
-0.13573 0.17457 -0.17236
-0.11480 0.18509 -0.38343
-0.11364 0.18509 -0.40703
-0.11160 0.18509 0.30309
-0.12178 0.18509 -0.14427
-0.11454 0.18509 0.03874
-0.11227 0.18509 0.04748
-0.12532 0.18509 -0.36811
0.11105 -0.09802 0.30677
0.11105 -0.05418 0.30723
0.11105 -0.07003 0.36426
0.11105 -0.06553 0.27889
0.11105 -0.08841 0.29129
0.11105 -0.01927 0.40437
0.11105 -0.08217 0.35541
0.11105 -0.07238 0.37149
0.11105 -0.03761 0.34909
0.11105 -0.04220 0.34213
-0.11334 -0.10805 0.37611
-0.12183 0.16041 -0.35133
-0.12891 0.16041 -0.37149
-0.13410 0.16041 -0.05298
-0.12775 0.16041 -0.40280
-0.11650 0.16041 -0.34463
-0.13573 0.18139 0.38910
-0.13573 0.17390 0.40932
-0.13573 -0.00892 -0.43382
-0.13573 0.04939 -0.42902
-0.11105 -0.09378 0.42663
-0.13573 -0.10249 0.00988
-0.13573 -0.09616 -0.14128
-0.13573 -0.08917 -0.18735
-0.13573 -0.08882 0.17705
-0.13573 -0.08768 -0.12926
0.13035 -0.17155 -0.44421
-0.12779 -0.08677 0.18409
-0.12798 -0.08704 0.02158
0.09125 0.12405 0.41952
-0.04055 0.15685 0.41948
0.03013 0.12277 0.41950
0.08082 0.11527 0.41952
0.07271 0.12090 0.41951
0.11281 0.16877 -0.44421
-0.13573 -0.12301 0.43162
0.11699 0.16041 -0.43929
0.11105 0.07186 -0.43522
0.11105 0.12386 0.21446
0.11105 0.12278 0.20643
-0.13069 -0.11114 0.36242
-0.13468 -0.11117 0.25640
0.13573 0.17370 -0.42999
0.08696 0.16041 0.43717
0.09666 0.16041 0.42835
0.11923 0.18509 -0.44053
-0.01528 -0.11105 0.43839
-0.06488 -0.11105 0.44065
-0.13533 0.18509 0.43950
0.09084 0.02665 -0.42416
0.01972 0.12616 -0.42416
0.05103 0.00752 -0.42416
0.05383 -0.03013 -0.42416
-0.03033 0.06278 -0.42416
0.11022 0.04347 -0.42416
0.06941 0.03150 -0.42416
0.09455 0.09559 -0.42416
-0.00235 0.09944 -0.42416
0.09919 -0.02220 -0.42416
0.05322 0.05704 -0.42416
0.00324 0.07099 -0.42416
0.06673 0.11501 -0.42416
-0.03542 0.08548 -0.42416
0.00798 0.10505 -0.42416
0.03173 -0.00862 -0.42416
-0.08431 0.11509 -0.42416
-0.11222 -0.11147 0.08694
-0.11466 -0.11147 -0.09329
-0.11105 -0.15911 0.43497
0.11105 0.02133 0.33157
-0.01791 0.12947 0.08623
-0.05205 0.12947 -0.02867
-0.04905 0.12947 -0.15232
-0.02576 0.12947 0.14679
-0.06068 0.12947 0.08207
0.04472 0.12947 0.02780
-0.10406 0.12947 -0.24700
0.06064 0.12947 0.14064
0.02336 0.12947 0.15917
-0.04913 0.12947 0.12233
-0.08294 0.12947 -0.11217
-0.10270 0.12947 -0.07311
-0.09533 0.12947 -0.17433
0.03302 0.12947 0.06498
-0.09285 0.12947 0.09204
-0.05260 0.12947 -0.18464
0.01565 0.12947 -0.00193
-0.08858 0.12947 0.14594
-0.03626 0.12947 0.07734
-0.11572 0.12947 -0.04527
0.01884 0.12947 0.09147
-0.11743 0.12947 0.17324
0.00255 0.12947 0.10395
-0.11103 0.12947 -0.17208
-0.08050 0.12947 -0.02854
0.02282 0.12947 -0.00162
-0.05153 0.12947 -0.11882
0.06860 0.12947 0.12526
-0.05821 0.12947 -0.26145
-0.04111 0.12947 -0.20877
-0.07935 0.12947 0.06583
-0.03284 0.12947 0.10298
-0.10174 0.12947 -0.31722
-0.11613 0.12947 0.11048
-0.06064 0.12947 -0.16851
-0.11638 0.12947 -0.14677
-0.02793 0.12947 -0.01426
-0.08738 0.12947 0.07442
-0.00516 0.12947 0.12294
-0.06482 0.12947 -0.13384
-0.08601 0.12947 0.11465
-0.01700 0.12947 0.11292
-0.05572 0.12947 0.00518
-0.09638 0.12947 -0.32715
-0.06336 0.12947 -0.18365
-0.04981 0.12947 -0.17411
0.03204 0.12947 0.14971
-0.12123 0.12947 0.15168
-0.05733 0.12947 -0.16310
-0.00044 0.12947 0.17089
-0.09924 0.12947 -0.21820
0.06950 -0.08778 -0.42040
0.13573 0.16180 -0.24953
0.13573 0.16989 0.36677
0.13573 0.16236 0.12336
0.13573 0.16910 0.24125
0.13573 0.16291 0.18201
0.13573 0.16664 0.17571
-0.05411 0.17660 -0.09703
-0.04930 0.17660 0.25345
-0.08455 0.17660 0.16453
-0.08820 0.17660 -0.25454
-0.10104 0.17660 0.12988
0.02914 0.17660 0.38731
-0.03713 0.17660 0.39183
-0.00969 0.17660 0.39232
-0.10271 0.17660 -0.15072
-0.10138 0.17660 0.40958
-0.03221 0.17660 0.35443
-0.07642 0.17660 0.04797
-0.10519 0.17660 -0.19315
0.01456 0.17660 0.17998
-0.04971 0.17660 -0.00817
0.03042 0.17660 0.25030
0.00117 0.17660 0.23441
-0.02432 0.17660 0.36790
-0.08884 0.17660 0.16748
-0.04696 0.17660 -0.11600
-0.01266 0.17660 0.13596
-0.05818 0.17660 -0.06071
-0.00833 0.17660 0.15612
-0.01293 0.17660 0.23402
-0.09961 0.17660 -0.08795
0.03028 0.17660 0.29656
-0.06152 0.17660 0.18117
-0.01396 0.17660 0.03366
0.00209 0.17660 0.22366
0.06803 0.17660 0.32667
-0.05279 0.17660 0.34344
-0.10297 0.17660 0.02010
-0.07449 0.17660 0.28116
-0.03878 0.17660 -0.00175
-0.00345 0.17660 0.22892
-0.02034 0.17660 0.29603
0.03675 0.17660 0.31227
-0.02962 0.17660 0.18690
-0.08273 0.17660 -0.06094
-0.07586 0.17660 0.06733
-0.08877 0.17660 -0.01977
-0.01042 0.17660 0.27493
-0.06091 0.17660 0.15878
-0.07066 0.17660 -0.05191
-0.05243 0.17660 0.21245
-0.03113 0.17660 0.26516
-0.03830 0.17660 0.37817
-0.09597 0.17660 -0.27243
-0.10408 0.17660 -0.28946
-0.10344 0.17660 0.11996
-0.07498 0.17660 0.38267
-0.04319 0.17660 -0.07701
-0.07616 0.17660 0.20310
0.03226 0.17660 0.34831
-0.10415 0.17660 0.24693
-0.01458 0.17660 0.09804
0.01060 0.17660 0.09614
-0.04322 0.17660 0.15396
0.11105 0.00983 -0.44336
0.11105 -0.01954 -0.43906
0.02320 -0.09051 0.44421
-0.09741 -0.10598 0.44421
-0.12712 -0.18509 0.42930
0.06542 0.18379 -0.41953
-0.01001 -0.11105 0.42097
-0.05829 -0.11105 0.42405
-0.11808 0.11090 0.44421
0.03749 -0.11138 0.24225
0.07466 -0.11129 0.29124
0.03459 -0.11122 0.32844
0.04121 -0.11137 0.24917
-0.00451 -0.11137 0.24534
0.09501 -0.11111 0.38615
-0.04948 -0.11138 0.24424
0.01134 -0.11131 0.28225
0.02803 -0.11138 0.24233
0.05484 -0.11128 0.29745
0.07063 -0.11117 0.35601
0.00734 -0.11132 0.27641
0.10675 -0.11133 0.26777
0.02285 -0.11142 0.21776
0.07706 -0.11138 0.24085
0.10338 -0.11118 0.35216
0.08012 -0.11136 0.25104
0.11604 0.06032 -0.44421
0.11467 -0.05030 -0.44421
0.11198 0.16041 0.33461
0.11277 0.16041 0.20342
0.11105 0.00453 0.34833
-0.00048 0.11698 0.41949
0.03708 0.11212 0.41950
0.06269 0.09599 0.41951
0.00109 0.10181 0.41949
0.11105 -0.06129 0.22080
0.11105 -0.06607 0.21348
0.11105 0.01140 0.19955
0.11105 0.00159 0.20822
-0.00397 0.17897 0.44421
0.07676 0.18193 0.44421
-0.11960 0.16041 0.43664
0.11930 -0.05736 0.41952
-0.13364 -0.16954 0.44421
-0.12873 -0.15104 -0.44421
0.04211 0.17238 0.44421
-0.05905 0.16450 0.44421
-0.12370 -0.15336 0.44421
-0.13573 0.16569 0.32680
-0.13420 -0.09946 0.44421
0.00158 -0.00173 -0.42416
-0.09987 0.08859 -0.42416
0.07445 -0.05580 -0.42416
0.06011 -0.07360 -0.42416
-0.10427 -0.00567 -0.42416
-0.01998 0.01860 -0.42416
-0.07672 -0.05647 -0.42416
-0.09278 -0.02710 -0.42416
0.00549 -0.05249 -0.42416
0.01693 -0.02755 -0.42416
-0.03431 -0.04939 -0.42416
0.06746 -0.06731 -0.42416
-0.09650 0.05906 -0.42416
-0.05059 0.01716 -0.42416
0.03807 -0.05213 -0.42416
-0.11105 -0.05025 -0.33410
-0.11105 0.03319 -0.32022
-0.11105 -0.04607 -0.19634
-0.11105 0.12114 -0.23241
-0.11105 -0.05754 -0.36061
-0.11105 -0.02581 -0.03558
-0.11105 0.04166 -0.16682
-0.11105 0.09351 -0.26411
-0.11105 0.04064 -0.35296
-0.11105 0.08579 -0.29117
-0.11105 -0.05508 -0.04461
-0.11105 -0.04849 0.09583
-0.11105 -0.05109 -0.24381
-0.11105 -0.06828 -0.02260
-0.11105 -0.02205 -0.13344
-0.11105 -0.03328 -0.32172
-0.11105 -0.06857 0.08658
-0.11105 0.02475 -0.21776
-0.11105 -0.00144 -0.03211
-0.11105 -0.03052 -0.05753
-0.11105 0.11047 -0.25707
-0.11105 0.07606 -0.35112
-0.11105 0.01098 -0.35110
-0.11105 0.01252 -0.29245
-0.11105 0.08498 -0.24747
-0.11105 -0.08774 -0.11197
-0.11105 -0.01061 -0.33580
-0.11105 0.09046 -0.21990
-0.11105 -0.03702 -0.03939
-0.11105 0.05684 -0.21445
-0.11105 -0.06484 0.11132
-0.11105 0.08338 -0.36470
-0.11105 -0.08317 -0.13870
-0.11105 0.05237 -0.26525
-0.11105 -0.04368 0.09226
-0.11105 -0.04302 -0.29746
-0.11105 0.12800 -0.27223
-0.11105 -0.07037 -0.31030
-0.11105 0.03984 -0.19124
-0.11105 0.07629 -0.19679
-0.11105 0.03334 -0.29644
-0.11105 0.01549 -0.24859
-0.11105 0.12063 -0.33266
-0.11105 -0.03925 -0.14768
-0.11105 -0.03762 -0.23209
-0.11105 -0.05577 -0.00834
-0.11105 -0.02075 0.00720
-0.11105 -0.05637 -0.00241
-0.11105 0.03884 -0.30024
-0.11105 0.11810 -0.35734
-0.11105 0.00770 -0.07433
-0.11105 0.03270 -0.11379
-0.11105 -0.03334 -0.25798
-0.11105 0.03427 -0.09066
-0.11105 -0.07697 -0.40989
0.12449 0.00655 0.41953
0.12223 -0.01334 0.41953
-0.12009 -0.11111 0.38637
-0.11105 0.02693 -0.41778
-0.11105 0.00957 -0.39460
-0.11105 0.14963 -0.39144
-0.11105 0.15073 -0.37965
-0.11105 0.06411 -0.39801
-0.11105 0.11344 -0.37989
-0.11105 0.17285 -0.35850
-0.11557 0.06429 -0.41953
-0.11105 -0.14696 0.42829
0.07641 0.13981 -0.42416
-0.05197 0.15434 -0.42416
0.06533 0.13806 -0.42416
-0.12554 0.16041 0.09909
-0.11721 0.16041 0.18787
-0.11167 0.16041 0.34996
-0.11459 0.16041 -0.20976
-0.13494 0.16041 0.20324
-0.12477 0.16041 0.08914
-0.11217 0.16041 -0.27257
0.11786 0.11285 -0.41953
0.12133 0.12193 -0.41953
-0.06159 0.18509 -0.42210
0.11105 0.08433 0.43847
0.11105 0.03997 0.44094
0.11105 0.15804 0.15439
0.11105 0.15876 0.02557
0.11105 0.15792 0.14559
0.11105 0.13751 0.09508
0.11105 0.15323 0.13534
0.11105 0.16032 0.00609
0.11105 0.15165 -0.10098
-0.11105 -0.12250 0.42418
-0.13573 0.15298 0.42029
-0.13573 0.10965 0.43491
-0.11105 0.17954 0.40923
-0.11105 0.18137 0.09034
-0.11105 0.17871 0.05272
-0.00880 0.17680 -0.42416
-0.09372 0.18334 -0.42416
-0.13573 0.17884 -0.03170
-0.13573 0.18264 0.17424
-0.13573 0.16809 0.22516
-0.13573 0.16282 0.19612
-0.13573 0.18405 -0.14788
-0.13573 0.17891 -0.02264
-0.13573 0.18482 0.22586
0.11922 0.13545 0.33845
-0.11766 0.18080 -0.42416
-0.03455 0.17125 -0.42416
-0.06703 0.16498 -0.42416
0.13573 0.14348 0.43323
0.13573 -0.00404 0.41969
-0.11105 -0.13410 -0.42964
0.11105 0.12876 0.21769
0.11105 0.11830 0.21310
-0.05521 0.18509 -0.43898
-0.09785 0.18509 -0.44232
0.00462 0.16041 -0.42507
-0.05504 0.16041 -0.33337
-0.10449 0.16041 0.04110
0.00450 0.16041 -0.29706
-0.10071 0.16041 -0.24161
-0.03104 0.16041 -0.14977
-0.09764 0.16041 0.03236
0.00473 0.16041 -0.20691
0.05040 0.16041 -0.30417
-0.08904 0.16041 -0.23831
-0.01843 0.16041 -0.43828
-0.06104 0.16041 0.03068
0.07195 0.16041 -0.30053
0.07452 0.16041 -0.37061
0.02531 0.16041 -0.16679
-0.01375 0.16041 -0.03809
0.04850 0.16041 -0.37463
-0.07596 0.16041 0.17006
-0.04921 0.16041 -0.18483
-0.06108 0.16041 0.08749
0.07333 0.16041 -0.32001
-0.04368 0.16041 -0.36362
-0.06759 0.16041 -0.10967
-0.02562 0.16041 -0.30758
0.10312 0.16041 -0.42043
0.00039 0.16041 -0.30440
-0.10242 0.16041 -0.33192
-0.08141 0.16041 0.01712
0.00769 0.16041 -0.26810
-0.01942 0.16041 -0.28324
0.03500 0.16041 -0.38809
0.00946 0.16041 -0.17803
-0.05039 0.16041 0.11887
-0.04853 0.16041 0.17129
-0.05781 0.16041 0.09422
-0.09784 0.16041 0.27065
-0.05371 0.16041 -0.08886
-0.11051 0.16041 -0.15052
-0.06516 0.16041 -0.10265
-0.03493 0.16041 -0.41015
-0.06752 0.16041 -0.11616
-0.07966 0.16041 0.11982
0.00669 0.16041 -0.32510
-0.04014 0.16041 -0.15046
0.02297 0.16041 -0.29199
0.04280 0.16041 -0.24356
0.06202 0.16041 -0.44219
-0.10152 0.16041 -0.09990
-0.07918 0.16041 -0.39784
0.02779 0.16041 -0.12300
-0.05100 0.16041 -0.24110
0.04872 0.16041 -0.21322
-0.06823 0.16041 -0.20117
-0.08161 0.16041 -0.18739
-0.10649 0.16041 0.32987
0.07953 0.16041 -0.40306
-0.10789 0.16041 -0.10220
-0.09579 0.16041 0.34002
-0.06081 0.16041 -0.23790
-0.03689 0.16041 -0.33353
0.00132 0.16041 -0.04287
-0.07817 0.16041 -0.27121
-0.00494 0.16041 -0.39936
0.01678 0.16041 -0.30219
-0.10947 0.16041 0.14328
-0.06978 0.16041 0.12684
-0.06776 0.16041 -0.23505
0.01663 0.16041 -0.22729
0.12956 0.07226 0.33137
-0.11872 0.18509 -0.17026
-0.11211 0.18509 -0.05324
-0.12360 0.18509 -0.10496
-0.12252 0.18509 -0.25073
-0.11663 0.18509 0.06202
0.06837 -0.08637 0.43128
0.00861 -0.08637 0.42842
-0.13004 0.18509 0.09564
-0.12955 0.18509 0.38989
-0.12126 0.18509 0.29120
-0.11236 0.18509 0.38277
-0.12865 0.18509 0.31492
-0.12149 0.18509 0.37156
-0.13413 0.18509 -0.02918
-0.11698 0.18509 0.32746
-0.13573 -0.10368 -0.10238
-0.13573 -0.10594 -0.16580
-0.13573 -0.10251 -0.07565
-0.11201 -0.12688 -0.41953
-0.13000 -0.11159 -0.38742
-0.13464 -0.11157 -0.35009
0.04697 0.18182 -0.41953
-0.11105 0.18402 -0.24917
-0.11105 0.17974 -0.13677
0.11328 0.16164 0.44421
0.00733 -0.02299 0.41950
0.03357 -0.07118 0.41950
0.02294 -0.04343 0.41950
-0.02196 -0.08393 0.41949
0.03964 -0.06433 0.41950
0.01449 -0.08469 0.41950
0.10562 0.02738 0.41952
0.08585 -0.05373 0.41952
-0.01701 -0.04873 0.41949
0.11105 0.02769 0.31679
-0.01157 0.16336 -0.44421
0.04659 0.16456 -0.44421
-0.13388 -0.08679 0.16973
0.02998 -0.08637 0.42848
-0.06018 -0.08637 0.42489
0.11105 0.13691 -0.44084
0.11105 0.09692 0.41988
0.11105 0.13277 0.42132
0.11105 0.06119 0.42396
0.11105 0.17972 0.06343
0.11105 0.17883 -0.14877
-0.12442 -0.15596 0.41941
0.11144 0.16041 -0.02363
0.11298 0.16041 -0.34267
0.12460 0.16041 -0.17881
0.11288 0.16041 -0.30743
0.11728 0.16041 -0.09978
-0.06323 0.18509 -0.43370
0.06672 0.18509 -0.42479
0.11105 -0.10497 0.36994
0.11105 -0.10462 0.26086
-0.12638 -0.11109 0.39967
-0.13338 -0.11155 -0.31804
-0.13314 -0.11133 0.00429
0.13573 0.01485 -0.43320
-0.07681 -0.10615 -0.44421
-0.09326 -0.10447 -0.44421
0.11105 0.04300 0.35596
0.11105 0.07652 0.40327
0.11105 0.04675 0.40927
0.11217 -0.12840 0.41952
-0.11105 0.14505 -0.42339
0.09248 0.18509 0.43933
0.13573 0.17447 -0.43610
-0.13573 -0.08825 0.22804
-0.13573 -0.08749 0.24006
0.01580 -0.09798 0.41950
0.11024 -0.10862 0.41952
0.11105 0.15457 0.35982
0.11105 0.15771 0.27318
-0.12769 -0.08662 -0.44421
0.12339 0.06804 0.28357
0.01981 -0.10810 -0.44421
0.11105 0.09576 -0.42194
-0.07925 0.05777 0.19736
-0.00327 0.00437 0.19739
-0.10852 0.01888 0.19736
0.05559 0.00777 0.19740
-0.11946 -0.02777 0.19735
0.05039 0.05359 0.19740
-0.06717 0.04809 0.19737
-0.05120 0.03406 0.19737
-0.03018 -0.02010 0.19738
-0.10354 0.06909 0.19736
-0.05052 0.05908 0.19737
-0.06463 -0.05041 0.19737
-0.01526 0.05207 0.19738
0.05431 0.01359 0.19740
-0.06422 -0.03471 0.19737
0.04101 0.06284 0.19740
-0.10032 0.08356 0.19736
0.05823 0.01791 0.19740
0.12662 0.16041 0.10396
0.12039 0.16041 0.23901
0.13396 0.16041 -0.23353
0.13050 0.16041 0.13274
0.11565 0.16041 0.35147
0.12554 0.16041 -0.00933
0.12540 0.16041 0.39934
0.05152 0.01962 0.41951
-0.09290 0.10505 0.41947
-0.04821 0.08067 0.41948
-0.11080 0.03928 0.41946
-0.02049 -0.03510 0.41949
0.07791 0.03699 0.41951
-0.05024 0.07418 0.41948
-0.06834 0.12895 0.41947
-0.09266 0.08167 0.41947
-0.10471 -0.06188 0.41946
-0.06177 -0.05424 0.41948
-0.07753 0.03627 0.41947
0.01564 -0.00778 0.41950
0.02970 -0.00053 0.41950
-0.07339 0.13163 0.41947
-0.07579 0.12119 0.41947
0.00718 0.00377 0.41949
-0.07171 0.16041 0.43426
-0.10302 0.16041 0.42880
-0.11105 -0.11058 -0.38485
-0.07366 -0.08914 -0.41953
-0.02080 -0.09408 -0.41953
0.11819 -0.07469 0.44421
0.13395 0.07852 0.44421
0.13072 0.06957 0.44421
0.11105 0.13909 0.04541
0.11105 0.14256 -0.04133
0.11105 0.15089 -0.14814
0.11105 0.15769 0.07455
0.11105 0.14551 -0.10916
0.11105 0.14276 0.02847
0.11105 0.14906 0.19205
0.11105 -0.15326 -0.43886
0.11105 0.17342 0.27426
0.11105 0.17253 -0.19375
0.11105 0.16465 0.13786
0.11105 0.17515 0.13351
0.11105 0.12352 0.35839
0.11105 0.14485 0.37272
0.11105 0.11945 0.29573
0.11105 0.10882 0.27819
0.11105 0.10820 0.28682
0.11105 -0.08392 -0.42560
-0.11517 -0.11146 -0.08271
-0.11489 -0.11146 -0.06319
0.12956 0.06740 0.29439
0.13115 0.11369 0.41953
0.12308 -0.18257 -0.44421
0.11105 0.16964 0.29793
0.11105 0.17642 0.07396
0.11105 0.17192 -0.04027
0.11105 0.17357 -0.27743
0.11105 0.17369 0.15491
-0.13124 0.03534 0.41946
-0.13437 -0.02960 0.41946
-0.11667 -0.11105 0.43695
-0.11105 -0.09827 0.28152
0.01811 0.18477 -0.42416
0.01383 0.17113 -0.42416
-0.05422 0.18349 -0.42416
0.12132 -0.05645 -0.44421
0.12258 -0.03612 -0.44421
-0.01279 0.18509 0.43593
-0.04331 0.18509 0.42969
-0.03782 -0.09557 -0.44421
-0.06919 -0.09806 -0.44421
0.03387 0.09635 0.19740
-0.04486 0.11616 0.19737
0.04374 0.07484 0.19740
0.07173 0.08071 0.19741
0.09689 0.08280 0.19742
0.05377 -0.08993 -0.41953
0.04730 -0.09719 -0.41953
0.01343 0.06207 0.19739
-0.06982 -0.03317 0.19737
-0.11585 0.03759 0.19735
-0.04102 -0.03601 0.19737
0.04460 0.04892 0.19740
-0.08343 0.00139 0.19736
0.02067 0.06681 0.19739
-0.11669 -0.03300 0.19735
0.02495 -0.00178 0.19739
-0.04706 0.09714 0.19737
-0.04428 0.01919 0.19737
-0.08497 0.06077 0.19736
0.02390 0.06244 0.19739
-0.11606 -0.04074 0.19735
-0.08896 -0.04988 0.19736
-0.11105 0.04090 -0.42029
-0.11105 0.08700 -0.43830
-0.12487 0.06986 0.41946
-0.11194 -0.01319 0.41946
-0.11621 0.07372 0.41946
0.12558 0.16041 0.04961
0.13379 0.16041 0.05134
0.13042 0.16041 0.19188
0.13485 0.16041 -0.35168
0.13148 0.16041 -0.11780
0.13054 0.16041 -0.05581
0.12207 0.07375 0.33687
0.03755 -0.08780 -0.43338
-0.03756 -0.08778 -0.42219
0.10063 -0.11172 -0.44272
-0.05691 -0.11164 -0.42527
-0.11105 0.18392 0.20986
-0.11105 0.18344 -0.20492
-0.13573 -0.01063 0.24980
-0.13573 0.09599 0.29647
-0.13573 0.08658 0.34374
-0.13573 0.14912 0.37683
-0.13573 -0.02148 0.23132
-0.13573 0.05961 0.21725
-0.13573 0.10204 0.26003
-0.13573 -0.03890 0.19893
-0.13573 0.09499 0.32233
-0.13573 -0.05006 0.20525
-0.13573 0.15998 0.33062
-0.13573 0.12303 0.36671
-0.13573 0.14862 0.30880
-0.13573 0.05287 0.26770
-0.13573 0.15825 0.30692
-0.13573 0.13283 0.22859
-0.13573 0.15675 0.31749
-0.13573 0.13955 0.30800
0.02583 -0.11105 0.43936
0.07687 -0.11105 0.43102
-0.10375 0.18077 -0.44421
-0.02755 0.18413 -0.44421
-0.13067 -0.08685 0.13473
0.11105 -0.17227 0.44395
-0.07335 -0.10062 -0.41953
-0.13046 -0.18509 -0.43020
-0.05522 0.17660 -0.21332
-0.02148 0.17660 -0.11508
0.06688 0.17660 0.05137
0.09821 0.17660 0.09216
0.03826 0.17660 -0.02984
0.06473 0.17660 0.21141
0.07033 0.17660 -0.00095
0.00468 0.17660 -0.32707
0.10952 0.17660 0.17693
0.09473 0.17660 -0.04147
0.02885 0.17660 -0.32786
0.07308 0.17660 0.21117
0.10693 0.17660 0.10580
0.08615 0.17660 -0.13230
0.10340 0.17660 -0.24163
0.07754 0.17660 0.27330
0.01034 0.17660 -0.14175
-0.06364 0.17660 -0.32849
0.08403 0.17660 0.16490
-0.05058 0.17660 -0.40043
0.08315 0.17660 0.04392
0.10008 0.17660 0.03090
-0.03006 0.17660 -0.34166
0.02669 0.17660 0.03873
0.05492 0.17660 0.02343
0.04421 0.17660 -0.01474
0.03016 0.17660 -0.13480
-0.05948 0.17660 -0.23938
0.01450 0.17660 -0.35858
0.03506 0.17660 -0.10212
0.04931 0.17660 -0.16757
0.03289 0.17660 -0.34838
-0.00032 0.17660 -0.16284
0.04336 0.17660 -0.24110
0.07299 0.17660 0.08933
0.06116 0.17660 -0.15591
0.03391 0.17660 -0.33543
0.08123 0.17660 -0.02900
0.08537 0.17660 -0.10308
0.06281 0.17660 -0.14963
0.07785 0.17660 -0.23667
0.01802 0.17660 -0.31349
0.08966 0.17660 0.10378
0.06117 0.17660 -0.13962
0.04155 0.17660 0.05426
0.10696 0.17660 -0.40583
0.06038 0.17660 0.08544
0.06609 0.17660 -0.33667
-0.04855 0.17660 -0.38475
0.02852 0.17660 -0.36225
0.01912 0.17660 -0.37322
-0.07358 0.17660 -0.39442
0.06516 0.17660 0.23154
0.02453 0.17660 -0.02531
0.10622 0.17660 0.20901
-0.01660 0.17660 -0.21481
0.10703 0.17660 0.39045
0.07666 0.17660 -0.10982
-0.05341 0.17660 -0.31142
0.08440 0.17660 0.10078
0.06577 0.17660 0.22125
0.00993 0.17660 -0.08617
-0.13573 -0.10254 -0.19892
-0.13573 -0.10584 -0.12487
0.11105 -0.00298 0.32827
0.11105 0.01602 0.31311
0.11105 -0.05740 0.25976
-0.13573 -0.14718 0.44347
0.11105 0.09089 0.23115
0.13573 0.16685 -0.15971
0.13573 0.16950 0.11860
0.13573 0.16104 -0.07766
0.13573 0.16395 0.41360
0.13573 0.16153 0.20397
0.13573 0.18106 0.37617
0.13573 0.17156 0.14928
0.00719 0.12947 0.07835
-0.10035 0.12947 -0.06737
-0.07605 0.12947 -0.05916
-0.10276 0.12947 -0.16257
-0.09660 0.12947 -0.14316
-0.03166 0.12947 -0.09765
-0.06272 0.12947 0.14349
-0.10515 0.12947 0.01716
-0.07993 0.12947 0.03700
-0.06809 0.12947 -0.19070
-0.08403 0.12947 0.13755
0.01344 0.12947 0.07493
-0.10480 0.12947 0.10814
-0.09533 0.12947 -0.31498
-0.09128 0.12947 -0.15393
-0.07434 0.12947 -0.24790
-0.07756 0.12947 -0.12379
-0.06316 0.12947 -0.25775
-0.04065 0.12947 0.12218
-0.09409 0.12947 0.00076
-0.06101 0.12947 -0.15383
-0.02165 0.12947 0.03387
0.00493 0.12947 0.16519
-0.03900 0.12947 0.10946
-0.05288 0.12947 0.06938
-0.05876 0.12947 -0.12804
-0.02396 0.12947 -0.03570
-0.03737 0.12947 -0.16708
-0.02571 0.12947 0.05765
-0.10749 0.12947 -0.01853
-0.11092 0.12947 -0.11167
0.06621 0.12947 0.10394
-0.02604 0.12947 0.08159
-0.04804 0.12947 -0.05758
-0.09479 0.12947 -0.16357
-0.10064 0.12947 0.03911
-0.05326 0.12947 -0.12838
0.03451 0.12947 0.04540
-0.10279 0.12947 -0.37302
-0.07020 0.12947 0.11139
-0.05419 0.12947 -0.14979
-0.09176 0.12947 -0.25490
0.05114 0.12947 0.18800
-0.04704 0.12947 -0.15831
0.01377 0.12947 0.02517
-0.01721 0.12947 0.06998
-0.07542 0.12947 -0.17203
-0.10655 0.12947 0.10235
0.00406 0.17613 -0.44421
-0.05725 0.17672 -0.44421
0.07879 0.16041 -0.29418
0.05404 0.16041 -0.01850
0.01291 0.16041 0.10156
0.08685 0.16041 -0.13462
0.05277 0.16041 0.04289
-0.04408 0.16041 0.22740
0.00237 0.16041 0.25477
0.07954 0.16041 -0.07189
0.07487 0.16041 0.12164
0.05609 0.16041 0.21801
-0.05390 0.16041 0.28071
0.03222 0.16041 0.08518
0.10669 0.16041 -0.37309
0.08345 0.16041 -0.08192
0.09562 0.16041 -0.07929
0.08163 0.16041 -0.13013
0.10308 0.16041 0.03892
0.01311 0.16041 0.10828
0.09681 0.16041 -0.27636
0.03351 0.16041 0.14997
0.02115 0.16041 0.21674
0.09505 0.16041 0.17046
0.10492 0.16041 0.19987
0.03719 0.16041 0.00181
0.05055 0.16041 -0.18092
0.10859 0.16041 0.02008
0.01518 0.16041 0.05955
-0.04767 0.16041 0.29202
0.05145 0.16041 0.19522
0.06046 0.16041 -0.09193
0.09924 0.16041 -0.36572
0.04125 0.16041 0.21997
0.09944 0.16041 -0.16798
0.08503 0.16041 0.20497
-0.00741 0.16041 0.04502
0.04347 0.16041 0.08928
0.08047 0.16041 0.08592
-0.01434 0.16041 0.06543
0.08983 0.16041 -0.10267
0.07151 0.16041 0.02702
0.00407 0.16041 0.05620
0.07214 0.16041 -0.07276
0.03656 0.16041 -0.02923
0.03263 0.16041 0.16675
0.06602 0.16041 -0.24101
-0.00106 0.16041 0.14289
-0.01789 0.16041 0.19023
0.11105 0.01593 0.34229
0.11105 0.00610 0.34005
0.13573 0.17188 -0.03682
0.13573 0.18030 0.04680
0.13573 0.17652 0.05447
0.13573 0.17859 -0.18028
0.13573 0.17498 -0.14922
0.13573 0.18126 -0.08850
0.13573 0.17462 -0.26288
