-0.13127 -0.16834 0.43786
-0.12861 -0.16834 0.42756
-0.09030 -0.01072 -0.29346
-0.14193 0.15804 -0.43452
0.12585 0.05195 0.30188
0.15015 0.05067 0.29879
-0.16703 0.04822 0.39102
0.16170 0.14251 -0.42965
-0.08656 -0.00826 0.26850
0.13157 0.04821 0.29433
0.16703 0.04921 -0.32844
-0.05188 0.06231 -0.42817
-0.07608 0.00197 0.28215
-0.01515 -0.00381 0.26201
-0.07652 -0.03392 0.26201
-0.05731 -0.01309 0.26201
-0.13540 0.00002 0.26201
-0.15415 0.01850 0.26201
-0.11359 -0.02572 0.26201
-0.04145 -0.03123 0.26201
-0.09283 -0.01357 0.26201
0.07621 -0.02653 0.26201
0.00130 0.04282 -0.25631
0.11715 0.05820 0.43772
-0.04460 0.15355 -0.42471
0.01845 -0.03406 -0.28317
-0.15078 -0.05167 -0.29172
-0.13026 0.16672 -0.42252
-0.03213 0.06162 0.42789
-0.10210 0.06682 -0.43992
-0.11761 0.03059 0.29395
-0.04732 0.15786 -0.04645
-0.15405 0.15786 0.26858
-0.14220 0.15786 -0.20561
-0.01975 0.15786 -0.35585
-0.00820 0.15786 -0.05273
-0.10755 0.15786 -0.11946
-0.14800 0.15786 -0.32916
-0.09760 0.15786 -0.36909
-0.02498 0.15786 -0.30377
-0.06193 0.15786 0.07109
-0.12518 0.15786 -0.27937
-0.16403 0.15786 -0.40525
-0.03273 0.15786 -0.21432
-0.01683 0.15786 -0.16049
-0.04185 0.15786 -0.09447
-0.00791 0.15786 -0.18113
-0.07176 0.15786 0.12290
-0.03940 0.15786 -0.06691
0.03637 0.15786 -0.15385
-0.16316 0.15786 -0.27922
0.08951 0.15786 -0.23333
-0.12530 0.15786 -0.19721
0.06110 0.15786 -0.36256
0.01576 0.15786 -0.12646
-0.07156 0.15786 -0.23774
0.11533 0.15786 -0.35302
-0.13422 0.15786 0.17015
-0.14242 0.15786 -0.16009
-0.01168 0.15786 -0.13364
-0.07075 0.15786 -0.22964
-0.01542 0.15786 -0.36873
-0.04574 0.15786 -0.06893
-0.11557 0.15786 0.18911
0.05283 0.15786 -0.27524
-0.10696 0.15786 0.18961
-0.07618 0.15786 -0.26304
0.06680 0.15786 -0.40504
-0.11528 0.15786 0.26659
-0.13387 0.15786 0.08949
0.09664 0.15786 -0.31948
-0.15758 0.15786 -0.31980
0.00550 0.15786 -0.03591
-0.04980 0.15786 -0.32577
-0.09773 0.15786 -0.05638
0.03265 0.15786 -0.29327
-0.00034 0.15786 -0.36496
-0.07239 0.15786 -0.12530
0.05239 0.15786 -0.30975
-0.10506 0.15786 0.03785
-0.06072 0.15786 -0.24761
-0.08729 0.15786 0.04569
0.03863 0.15786 -0.28844
-0.14067 0.15786 0.26130
-0.03380 0.15786 -0.26538
-0.06165 0.15786 0.01958
-0.05249 0.15786 -0.20559
0.07942 0.15786 -0.20566
-0.04005 0.15786 -0.32067
0.10729 0.15786 -0.29056
0.03596 0.15786 -0.33387
-0.06354 0.15786 0.04364
-0.13914 0.15786 0.29274
-0.11238 0.15786 0.06328
-0.09657 0.15786 0.10407
0.04425 0.15786 -0.11256
0.07673 0.15786 -0.35689
0.03704 0.15786 -0.20065
-0.14236 0.15786 0.16731
-0.16620 0.15786 0.07611
-0.03043 0.15786 -0.15225
-0.12681 0.15786 0.10756
-0.14179 0.15786 -0.02039
-0.13422 0.15786 0.16087
-0.09098 0.15786 -0.21026
0.02127 0.15786 -0.31119
-0.12289 0.15786 -0.08904
-0.02386 0.15786 0.03037
-0.07179 0.15786 -0.03657
0.00977 0.15786 -0.24749
0.06713 0.15786 -0.41092
-0.16426 0.15786 0.02882
-0.13917 0.15786 0.33238
-0.12461 0.15786 0.01640
0.04226 0.15786 -0.36773
-0.15504 0.15786 0.04539
-0.16666 0.15786 -0.36023
0.04495 0.15786 -0.24994
-0.00532 0.15786 -0.24188
-0.01676 0.15786 -0.12746
-0.08061 0.15786 -0.37227
0.03059 0.15786 -0.14020
0.02069 0.15786 -0.40754
-0.13743 0.15786 -0.36593
-0.08481 0.15786 -0.01369
0.02521 0.15786 -0.32804
-0.16531 0.15786 0.27620
-0.12197 0.15786 -0.39228
-0.15984 0.15786 0.35625
-0.04250 0.15786 -0.40407
-0.14664 0.15786 0.07573
-0.12740 0.15786 0.29149
-0.13899 0.15786 0.09977
-0.02863 0.15786 -0.19114
-0.07789 0.15786 -0.05748
-0.12982 0.15786 0.05304
0.12662 0.15786 -0.37718
-0.15008 0.15786 0.16386
-0.04082 0.15786 -0.33383
-0.04963 0.15786 -0.11057
-0.07486 0.15786 0.02399
0.07009 0.15786 -0.28210
-0.14461 0.15786 -0.03922
-0.07802 0.15786 -0.33459
-0.16506 0.15786 -0.24927
0.14655 0.03288 -0.25019
-0.03738 0.05349 -0.41725
-0.03961 0.03411 -0.26092
-0.13662 0.04721 0.25196
0.07978 -0.07087 -0.32879
-0.08549 -0.07734 -0.33618
-0.07650 -0.07559 -0.33417
0.10991 -0.05966 -0.31597
-0.04427 -0.11969 -0.38457
-0.02696 -0.06104 -0.31754
-0.05071 -0.12528 -0.39097
-0.07211 -0.12475 -0.39036
0.03295 -0.07474 -0.33321
-0.13792 -0.15686 -0.42706
0.11000 -0.04950 -0.30435
-0.02020 -0.10960 -0.37305
-0.12967 -0.05872 -0.31490
-0.12838 -0.07439 -0.33281
-0.04067 -0.06306 -0.31985
0.03750 -0.06292 -0.31969
-0.02262 -0.06310 -0.31990
-0.11664 -0.14328 -0.41154
-0.00705 -0.10568 -0.36857
-0.07643 -0.04606 -0.30042
-0.03608 -0.11479 -0.37897
-0.00898 -0.06166 -0.31826
-0.11423 -0.13748 -0.40491
-0.04655 -0.05824 -0.31435
-0.08162 -0.05099 -0.30607
-0.14069 -0.13101 -0.39752
0.06345 0.14468 -0.43985
-0.04152 0.16754 0.42010
-0.12050 0.04843 0.43013
-0.07472 0.05210 0.24275
0.13389 0.04032 0.30112
0.16703 0.04941 -0.15269
0.16703 0.04869 -0.11932
-0.16703 -0.14845 -0.40208
-0.03232 0.03238 -0.26129
0.09013 -0.00461 -0.25153
-0.05899 0.02013 -0.25153
0.05090 0.00931 -0.25153
0.08108 0.00424 -0.25153
0.03150 0.00492 -0.25153
0.04349 0.01066 -0.25153
0.06482 0.00471 -0.25153
0.14709 0.01939 -0.25153
-0.09543 0.02091 -0.25153
-0.12003 0.04791 -0.42946
-0.02548 -0.03654 0.29486
-0.00685 0.01851 0.26201
0.10484 0.01162 0.26201
-0.06600 0.01454 0.26201
0.08429 0.00796 0.26201
0.16002 -0.00055 0.26201
0.14188 -0.01589 0.26201
-0.15121 0.01526 0.28297
0.09092 -0.02925 0.28297
0.07532 -0.02937 0.28297
-0.10228 -0.00156 0.28297
-0.10678 -0.00862 0.28297
-0.05522 -0.01390 0.28297
-0.13784 -0.00164 0.28297
-0.00436 -0.00283 0.28297
-0.07912 -0.00792 0.30165
-0.16703 0.04687 0.22522
-0.16703 0.04832 0.20437
-0.07018 0.04042 0.24374
-0.05961 0.05875 0.42593
-0.04149 0.05093 -0.29941
-0.01675 0.03199 0.29443
0.11993 -0.03603 0.25967
-0.07803 0.00390 -0.29577
0.15206 0.00593 0.25153
0.13496 0.00172 0.25153
0.11797 -0.00567 0.25153
-0.10805 -0.02562 0.25153
0.12744 -0.02476 0.25153
-0.15068 -0.03321 0.25153
0.06637 -0.01401 0.25153
0.12074 -0.02851 0.25153
0.10890 -0.01622 0.25153
0.10248 0.05306 0.31561
-0.04965 0.05306 0.34136
-0.01570 0.05306 0.33131
-0.09828 0.05306 0.31999
0.12627 0.05306 0.38882
0.04677 0.05306 0.32452
-0.04419 0.05306 0.33167
0.04019 0.05306 0.36275
0.07991 0.05306 0.33358
0.02271 0.05306 0.36467
0.15352 0.05306 0.33805
-0.02212 0.05306 0.33043
0.05989 0.05306 0.32436
-0.00753 0.05306 0.35064
0.10823 0.05306 0.34514
-0.02363 0.04338 0.42006
-0.16703 0.05162 -0.06524
0.04666 0.04261 0.41424
-0.08950 0.00261 -0.27483
-0.16703 0.04985 0.32557
-0.16218 0.16813 -0.41558
0.08586 -0.03223 0.28300
0.05670 0.05446 -0.42015
0.00618 0.05304 0.30906
0.10199 0.04189 -0.28797
-0.02813 0.16834 -0.22064
0.15962 0.16834 0.03104
0.07296 0.16834 0.11427
0.01762 0.16834 0.01198
0.15696 0.16834 0.34104
0.04911 0.16834 -0.14561
0.00835 0.16834 -0.14317
-0.02373 0.16834 -0.38839
0.16151 0.16834 -0.38257
-0.00880 0.16834 -0.28133
0.15940 0.16834 -0.19619
0.08825 0.16834 -0.20468
0.11497 0.16834 -0.30334
0.06091 0.16834 -0.37348
0.04669 0.16834 -0.05112
-0.10263 0.16834 -0.25974
-0.04306 0.16834 -0.34510
0.12422 0.16834 0.24478
0.15029 0.16834 0.36593
0.10377 0.16834 -0.28496
0.01614 0.16834 -0.04531
0.14077 0.16834 -0.04637
0.05562 0.16834 -0.41074
-0.04066 0.16834 -0.35518
0.13301 0.16834 0.26711
0.07492 0.16834 0.03894
-0.04885 0.16834 -0.24081
0.13737 0.16834 -0.39882
0.12979 0.16834 -0.13868
0.16695 0.16834 -0.38796
-0.06200 0.16834 -0.35645
0.02836 0.16834 -0.26926
0.11878 0.16834 0.10112
0.15001 0.16834 0.32137
0.12767 0.16834 0.17631
0.16042 0.16834 0.38694
0.07154 0.16834 -0.07112
0.01180 0.16834 -0.05499
0.10580 0.16834 -0.02923
0.09532 0.16834 0.01285
0.07260 0.16834 -0.26792
0.14033 0.16834 -0.20981
0.15391 0.16834 -0.08528
0.07602 0.16834 0.14200
0.15744 0.16834 0.31992
-0.04319 0.16834 -0.13015
0.14559 0.16834 0.02111
0.08687 0.16834 -0.26947
-0.13637 0.16834 -0.34653
0.15979 0.16834 -0.18324
0.12437 0.16834 -0.22199
0.08270 0.16834 -0.12968
0.07606 0.16834 0.05595
0.07261 0.16834 -0.14832
0.16435 0.16834 0.12371
-0.02632 0.16834 -0.17358
-0.02044 0.16834 -0.33421
0.12864 0.16834 -0.29440
0.11913 0.16834 -0.05791
0.02871 0.16834 -0.14441
0.16553 0.16834 0.15345
0.08761 0.16834 0.11717
0.16164 0.16834 -0.05841
-0.08387 0.16834 -0.32634
0.03057 0.16834 -0.34030
0.14728 0.16834 0.08537
0.04756 0.16834 -0.38570
0.12990 0.16834 0.31474
0.02782 0.16834 -0.15005
0.15118 0.16834 0.13490
0.16167 0.16834 -0.39266
0.11911 0.16834 -0.25959
0.04587 0.16834 -0.32440
0.09994 0.16834 -0.17621
0.16391 0.16834 0.32123
0.04742 0.16834 0.02466
-0.01897 0.16834 -0.36903
-0.02508 0.16834 -0.37278
-0.01463 0.16834 -0.12575
0.02027 0.16834 -0.05622
-0.01795 0.16834 -0.35054
0.07698 0.16834 -0.21345
-0.05104 0.16834 -0.36308
0.16144 0.16834 0.25698
-0.06946 0.16834 -0.32990
-0.01971 0.16834 -0.25239
-0.03185 0.16834 -0.25397
0.03631 0.16834 -0.10923
0.12231 0.16834 -0.00057
0.14147 0.16834 0.25937
0.15320 0.16834 0.00724
0.10921 0.16834 0.18629
0.01070 0.16834 -0.06377
0.12955 0.16834 -0.18703
-0.04929 0.16834 -0.18860
0.08878 0.16834 -0.02781
0.15160 0.16834 -0.31244
0.12965 0.16834 0.11266
0.11493 0.16834 -0.24995
-0.03307 0.16834 -0.40989
0.16139 0.16834 0.02498
0.09737 0.16834 -0.25111
0.05994 0.16834 -0.15175
-0.06695 0.16834 -0.29899
-0.01764 0.16834 -0.14613
0.10373 0.16834 -0.27097
0.07183 0.16834 -0.10922
0.08289 0.16834 -0.04600
0.12115 0.16834 -0.33257
0.07561 0.16834 0.12036
0.09814 0.16834 -0.00853
-0.14782 -0.02587 -0.29346
0.16703 0.07741 0.43012
0.13065 0.04852 0.25025
-0.06670 -0.05177 -0.30695
0.09726 -0.07004 -0.32784
-0.09807 -0.08678 -0.34697
-0.05510 -0.07232 -0.33044
-0.14991 -0.05361 -0.30905
-0.01087 -0.05550 -0.31121
-0.09562 -0.06205 -0.31871
0.12503 -0.05664 -0.31252
-0.05611 -0.11586 -0.38020
-0.02985 -0.06623 -0.32348
-0.10854 -0.05876 -0.31494
-0.04606 -0.09393 -0.35514
-0.08880 -0.12354 -0.38898
-0.08829 -0.05949 -0.31578
-0.01474 -0.10284 -0.36532
0.05840 -0.04630 -0.30071
-0.14348 -0.14441 -0.41283
-0.11814 -0.05396 -0.30946
0.08085 -0.05726 -0.31323
-0.01549 -0.06420 -0.32116
-0.15031 -0.06423 -0.32120
-0.08893 -0.08231 -0.34186
0.06532 -0.05042 -0.30541
-0.14198 -0.14033 -0.40817
-0.15124 -0.07291 -0.33111
-0.07692 -0.05210 0.29153
0.11039 -0.05454 -0.29490
0.05620 -0.11539 -0.36279
0.10505 -0.11917 -0.36700
0.09050 -0.10448 -0.35062
0.13872 -0.12844 -0.37734
0.10229 -0.08892 -0.33326
0.16234 -0.11408 -0.36132
0.07177 -0.08921 -0.33358
0.00818 -0.08006 -0.32337
-0.01105 -0.07352 -0.31607
0.02720 -0.06965 -0.31176
0.01300 -0.10841 -0.35501
0.02295 -0.07980 -0.32308
0.05202 -0.11762 -0.36528
0.00136 -0.09103 -0.33560
-0.09341 -0.07036 -0.31255
-0.02825 -0.09988 -0.34548
0.08903 -0.12798 -0.37683
0.09653 -0.08569 -0.32965
0.04683 -0.09645 -0.34165
0.03978 -0.11723 -0.36484
0.09898 -0.12100 -0.36904
0.14844 -0.09659 -0.34181
0.05478 -0.06529 -0.30689
0.16594 -0.15412 -0.40600
-0.06940 0.04217 0.30611
0.12953 0.14222 0.44017
-0.04039 0.14856 -0.43934
-0.16703 -0.08739 -0.34331
0.12334 0.03233 0.26129
0.04793 0.03832 -0.24648
0.16149 0.03284 0.26122
0.16703 0.03576 0.28723
0.02079 0.04258 0.39686
0.04099 0.04258 0.41012
-0.00521 0.04258 0.37150
0.11452 0.04258 0.35843
-0.14683 0.04258 0.41140
-0.09297 0.04258 0.41393
-0.06160 0.04258 0.39954
-0.06091 0.04258 0.40714
0.16060 0.04258 0.35252
0.14559 0.04258 0.32667
0.10416 0.04258 0.38807
0.12598 0.04258 0.33036
0.12389 0.04258 0.35960
-0.16659 0.03895 -0.24566
-0.16675 0.16395 -0.42823
-0.04229 -0.03724 0.29510
-0.03331 0.03749 0.25953
-0.01400 -0.00046 0.25153
-0.08958 0.01420 0.25153
-0.13223 0.00692 0.25153
0.09807 0.01888 0.25153
-0.05786 -0.01096 0.25153
-0.16452 -0.02147 0.25153
-0.15517 0.02677 0.25153
0.04744 0.02209 0.25153
0.11375 0.02404 0.25153
-0.06796 0.15927 0.43358
0.01003 0.03997 -0.30066
-0.02098 0.03044 -0.26154
0.05465 0.04244 -0.25660
-0.08458 0.04855 -0.25022
-0.16703 0.06828 -0.43355
-0.15145 -0.00797 -0.29346
-0.16373 0.00876 -0.29346
0.04230 0.16195 0.43084
-0.16548 -0.04578 -0.28710
-0.02817 0.15748 -0.41692
0.01115 -0.16001 -0.43066
0.14174 -0.14064 -0.40852
0.10848 -0.12639 -0.39223
0.06742 -0.12790 -0.39396
0.15885 -0.13416 -0.40111
0.04333 -0.10474 -0.36749
0.12592 -0.16743 -0.43913
0.08553 -0.08846 -0.34889
0.14590 -0.10929 -0.37269
0.02446 -0.10485 -0.36762
0.16057 -0.14302 -0.41124
0.12039 -0.12956 -0.39586
0.00402 -0.16093 -0.43171
0.12891 -0.08633 -0.34645
0.13751 -0.09697 -0.35861
-0.05215 -0.12898 -0.39520
-0.03233 -0.13043 -0.39685
-0.02384 -0.14782 -0.41672
0.07624 -0.14349 -0.41178
-0.01561 -0.16503 -0.43640
0.08226 -0.14722 -0.41604
0.01848 -0.16707 -0.43873
0.03616 -0.11439 -0.37852
0.10586 -0.08183 -0.34131
0.10498 -0.11198 -0.37577
0.15291 -0.06612 -0.32336
0.16703 0.04527 -0.29856
0.16257 0.16769 0.41898
0.05052 -0.04536 -0.28685
-0.03840 0.05146 0.30069
-0.09411 0.16834 -0.19124
0.04015 0.16834 0.18515
-0.06403 0.16834 -0.15016
-0.16224 0.16834 0.26726
-0.07800 0.16834 0.25728
-0.14973 0.16834 -0.26613
-0.05452 0.16834 0.01044
-0.12699 0.16834 -0.25932
0.03423 0.16834 0.34272
-0.08695 0.16834 0.37993
0.06020 0.16834 0.23429
-0.04344 0.16834 0.22087
-0.08356 0.16834 0.11864
0.00218 0.16834 0.26746
-0.11040 0.16834 -0.11320
-0.13581 0.16834 -0.20435
-0.01730 0.16834 0.14328
-0.00293 0.16834 0.24507
-0.03760 0.16834 0.13723
-0.12805 0.16834 -0.24457
0.05526 0.16834 0.28180
-0.01707 0.16834 0.19429
-0.05040 0.16834 0.01972
-0.16251 0.16834 -0.39963
0.00391 0.16834 0.21580
0.04709 0.16834 0.23670
-0.10345 0.16834 -0.24274
0.09191 0.16834 0.29608
-0.07625 0.16834 0.40818
-0.12823 0.16834 0.03350
-0.01320 0.16834 0.38299
-0.01690 0.16834 0.15354
0.03405 0.16834 0.26870
-0.05870 0.16834 0.35402
-0.07835 0.16834 0.12092
0.11128 0.16834 0.33975
-0.16163 0.16834 -0.20679
-0.16256 0.16834 -0.13866
-0.00637 0.16834 0.16968
-0.05472 0.16834 0.07569
-0.08548 0.16834 -0.07659
0.06412 0.16834 0.22218
-0.11510 0.16834 0.26876
-0.13643 0.16834 -0.14872
-0.09922 0.16834 0.18211
-0.08694 0.16834 0.04688
-0.05471 0.16834 0.40914
-0.02540 0.16834 0.21744
-0.01307 0.16834 0.08143
-0.14549 0.16834 -0.14549
-0.12579 0.16834 -0.13160
-0.06193 0.16834 0.19246
0.00414 0.16834 0.20303
-0.14560 0.16834 0.01828
-0.03509 0.16834 -0.01441
-0.14491 0.16834 -0.05860
-0.15096 0.16834 0.40767
-0.15620 0.16834 -0.08873
0.08297 0.16834 0.36558
-0.03200 0.16834 0.26057
-0.16450 0.16834 -0.04652
-0.11628 0.16834 -0.19325
-0.10101 0.16834 0.23127
-0.12082 0.16834 -0.05182
0.09978 0.16834 0.40941
-0.16073 0.16834 0.02254
-0.04089 0.16834 0.08934
-0.13488 0.16834 -0.07937
0.15479 0.16834 0.40459
-0.06208 0.16834 -0.02732
-0.00040 0.16834 0.16704
-0.08711 0.16834 0.36327
0.02617 0.16834 0.18062
0.10412 0.16834 0.27311
-0.15706 0.16834 -0.19459
-0.12126 0.16834 -0.11860
-0.07646 0.16834 0.04750
-0.13460 0.16834 0.36253
-0.16464 0.16834 -0.25230
-0.10142 0.16834 0.21769
0.14029 0.16834 0.38831
0.09502 0.16834 0.36019
-0.16440 0.16834 0.18205
-0.05688 0.16834 -0.14064
-0.06734 0.16834 0.40526
-0.16677 0.16834 0.10467
-0.13459 0.16834 -0.03718
-0.10700 0.16834 -0.03798
-0.15584 0.16834 0.09543
-0.13553 0.16834 -0.14350
-0.16517 0.16834 -0.31088
-0.07616 0.16834 0.36883
-0.15121 0.16834 -0.23865
0.09702 0.16834 0.39890
-0.15544 0.16834 -0.38474
0.14955 0.16834 0.41237
-0.14783 0.16834 0.08168
-0.01952 0.16834 0.29106
-0.06662 0.16834 0.32659
0.09054 0.16834 0.27023
-0.12998 0.16834 0.11499
-0.03543 0.16834 0.27251
-0.03021 0.16834 0.14563
0.09726 0.16834 0.27318
0.07406 0.16834 0.20575
-0.04454 0.16834 0.39947
-0.01169 0.16834 0.16305
-0.15062 0.16834 -0.20403
0.04356 0.16834 0.13920
-0.01051 0.16834 0.27290
-0.08722 0.16834 0.17153
-0.01363 0.16834 0.32594
-0.11032 0.16834 -0.18461
0.08764 0.00518 0.24715
0.10279 -0.01962 -0.29346
0.16703 -0.08236 0.33481
-0.14780 0.05306 -0.03892
-0.01940 0.05306 0.02185
-0.11347 0.05306 -0.23234
-0.08113 0.05306 -0.03694
0.09778 0.05306 -0.19627
-0.05195 0.05306 -0.08503
0.03404 0.05306 -0.20727
0.05864 0.05306 -0.14815
0.05915 0.05306 -0.21275
-0.07971 0.05306 0.10476
-0.04718 0.05306 -0.22350
0.04275 0.05306 -0.17428
-0.05566 0.05306 -0.02979
-0.13712 0.05306 0.06244
-0.02062 0.05306 -0.15579
0.05900 0.05306 -0.08774
-0.11434 0.05306 -0.12590
-0.01547 0.05306 -0.06980
0.07207 0.05306 -0.22137
-0.02503 0.05306 -0.08789
-0.07002 0.05306 -0.03175
-0.06521 0.05306 -0.05363
-0.14061 0.05306 -0.00937
-0.00252 0.05306 -0.15727
-0.11094 0.05306 0.13872
-0.05058 0.05306 -0.04714
-0.03814 0.05306 -0.00425
-0.13177 0.05306 0.14181
0.07803 0.05306 -0.20844
-0.15431 0.05306 -0.23373
0.05463 0.05306 -0.22437
-0.01933 0.05306 -0.02052
-0.02497 0.05306 -0.13387
-0.09560 0.05306 0.02152
-0.07358 0.05306 -0.06940
-0.15992 0.05306 -0.12380
-0.10733 0.05306 -0.01720
-0.08912 0.05306 -0.12598
-0.13834 0.05306 -0.01877
-0.10590 0.05306 -0.04994
0.05962 0.05306 -0.17906
-0.16439 0.05306 0.17891
0.02131 0.05306 -0.22966
-0.11667 0.05306 -0.20495
-0.03012 0.05306 -0.16517
0.09206 0.05306 -0.20183
-0.06379 0.05306 0.01523
0.06112 0.05306 -0.23281
0.09431 0.05306 -0.20872
-0.09863 0.05306 0.10821
-0.13665 0.05306 0.04730
-0.15164 0.05306 -0.17947
-0.15471 0.05306 0.09751
-0.14821 0.05306 -0.12087
-0.10409 0.05306 -0.11893
-0.08335 0.05306 0.11124
0.01607 0.05306 -0.16810
-0.13744 0.05306 -0.10481
-0.10451 0.05306 -0.12734
-0.00213 0.05306 -0.03904
-0.02046 0.05306 -0.18748
-0.01887 0.05226 -0.24188
-0.16703 0.10592 -0.43906
-0.06461 0.04098 0.24245
0.08317 0.00663 0.24106
-0.01647 0.04948 -0.24901
-0.05578 0.16257 -0.43003
0.16703 0.04752 0.13138
0.16703 0.04614 0.08039
0.03134 0.12886 -0.44018
-0.02001 0.12887 -0.44018
0.15033 0.13013 -0.44018
0.15248 0.11927 -0.44018
0.08067 0.09109 -0.44018
0.07658 0.11005 -0.44018
0.12938 0.10530 -0.44018
0.01786 0.11304 -0.44018
0.10265 0.13463 -0.44018
0.11082 0.09017 -0.44018
-0.16703 0.05046 0.23609
0.12895 0.05965 0.42662
-0.04604 -0.03904 -0.29528
0.12243 0.15683 -0.43545
-0.14753 0.04197 -0.30493
-0.08742 0.06074 -0.43877
0.09969 0.05236 0.30386
-0.03103 0.03464 -0.28428
0.07558 -0.00309 0.28788
0.14544 -0.14545 -0.39632
-0.00143 -0.08457 -0.32840
0.09836 -0.08095 -0.32436
-0.08920 -0.05859 -0.29941
0.03355 -0.08300 -0.32665
0.02986 -0.11833 -0.36607
0.14504 -0.06792 -0.30983
0.14163 -0.09508 -0.34013
0.11701 -0.12284 -0.37110
0.02453 -0.10698 -0.35340
0.08571 -0.13444 -0.38404
-0.01091 -0.09300 -0.33781
0.06575 -0.07126 -0.31356
0.07367 -0.07226 -0.31467
0.14133 -0.13971 -0.38992
-0.01570 -0.05745 -0.29814
0.11966 -0.09961 -0.34518
-0.02193 -0.10212 -0.34798
0.16420 -0.09757 -0.34291
0.00896 -0.09174 -0.33641
-0.06356 -0.07391 -0.31651
-0.10095 -0.05328 -0.29350
-0.12297 0.04761 0.29355
0.07235 0.06672 0.43991
0.15048 0.04135 -0.30343
-0.15097 -0.16104 0.43184
0.08372 -0.14120 0.40916
-0.13182 -0.07999 0.33921
-0.04200 -0.10051 0.36266
0.03838 -0.14898 0.41806
0.02371 -0.12473 0.39034
-0.16509 -0.05102 0.30610
-0.02585 -0.13671 0.40403
0.12765 -0.15513 0.42509
0.03804 -0.15588 0.42594
-0.02847 -0.11787 0.38249
-0.02536 -0.14784 0.41675
-0.05337 -0.09460 0.35591
-0.05599 -0.08950 0.35007
0.07214 -0.13523 0.40234
-0.11382 -0.15674 0.42692
-0.05106 -0.12224 0.38749
0.00178 -0.14584 0.41446
-0.09723 -0.14004 0.40784
-0.11916 -0.10941 0.37283
-0.04954 -0.10442 0.36712
-0.10153 -0.09181 0.35271
-0.09006 -0.00499 0.27673
-0.06211 0.05554 0.42234
-0.08490 -0.00960 -0.24698
-0.02164 0.15779 -0.43472
0.12002 -0.16834 0.42783
0.05314 -0.16834 0.43783
0.07773 -0.16834 0.43846
0.06644 0.04258 0.31415
-0.13640 0.04258 0.37702
-0.14654 0.04258 0.33029
-0.16114 0.04258 0.36525
-0.11926 0.04258 0.35516
-0.05013 0.04258 0.33945
-0.07494 0.04258 0.38162
-0.04486 0.04258 0.36846
0.08344 0.04258 0.32202
-0.00375 0.04258 0.31506
0.00904 0.04258 0.33253
-0.14002 0.15157 0.42640
-0.01269 0.14966 0.42774
-0.10555 0.04113 0.25760
-0.14484 0.05306 0.31596
0.13437 0.05306 0.35534
0.11711 0.05306 0.31849
-0.07784 0.05306 0.31110
0.06209 0.05306 0.34861
-0.09180 0.05306 0.32758
0.06973 0.05306 0.31434
0.03988 0.05306 0.35608
-0.03814 0.05306 0.32883
0.05386 0.05306 0.37632
0.08638 0.05306 0.35797
0.13550 -0.04054 0.28445
0.13857 0.04977 -0.29662
-0.16703 0.15745 0.42827
0.12793 0.03593 0.24849
0.14041 0.02390 -0.29346
-0.09166 0.02368 -0.29346
0.01196 0.01196 -0.29346
0.03546 0.04491 -0.42425
0.16703 0.04397 0.31712
0.04149 -0.04123 -0.29641
-0.08187 0.15615 0.42090
0.09417 0.02936 -0.26168
-0.07089 -0.03983 0.28422
-0.12851 0.03994 -0.24436
0.04093 -0.07477 0.31733
0.13277 -0.06801 0.30960
0.00886 -0.07295 0.31524
0.05364 -0.06688 0.30831
0.05622 -0.07127 0.31332
-0.09539 0.08931 -0.42970
-0.03128 0.12121 -0.42970
-0.03479 0.11584 -0.42970
-0.13728 0.08913 -0.42970
0.01045 0.14183 -0.42970
0.03111 0.12047 -0.42970
-0.11935 0.12759 -0.42970
-0.01982 0.13030 -0.42970
-0.12685 0.08766 -0.42970
-0.01692 0.11188 -0.42970
0.04713 0.13202 -0.42970
-0.13017 0.03642 0.24812
-0.10840 -0.03603 0.25303
-0.11975 -0.00450 0.29346
-0.15527 -0.01395 0.29346
-0.08368 0.00583 -0.25621
0.07348 0.00132 0.26201
0.14149 -0.03034 0.26201
0.07657 0.00749 0.26201
-0.00880 -0.00261 0.26201
0.00968 0.02021 0.26201
-0.03288 0.00667 0.26201
0.05336 0.00815 0.26201
0.16636 -0.01752 0.26201
0.01744 0.04816 -0.25071
0.11134 -0.07751 0.32046
0.00007 -0.06722 0.30869
0.15423 -0.07434 0.31683
0.02548 -0.06912 0.31087
-0.03601 -0.07684 0.31969
0.08408 -0.00896 0.29469
0.09081 -0.00306 0.28425
-0.09075 0.00090 0.28806
0.14195 0.14449 -0.42939
0.16703 0.16584 0.32908
0.16703 0.16650 0.38634
0.16703 0.16418 0.30188
0.09665 0.13638 0.42970
-0.03968 0.11690 0.42970
0.09903 0.09112 0.42970
0.16046 0.09983 0.42970
0.14365 0.11118 0.42970
0.01722 0.13036 0.42970
0.13727 0.09244 0.42970
0.13149 0.10976 0.42970
0.00989 0.11650 0.42970
0.04111 0.13600 0.42970
-0.16703 -0.05943 0.30377
-0.04019 0.05290 0.23702
0.14644 0.05036 -0.24695
0.04945 -0.03603 -0.26029
0.13085 -0.03603 -0.25357
0.14217 0.05318 0.41491
-0.03632 0.15941 0.43347
-0.15537 0.06033 -0.43860
0.08058 0.04258 0.20834
-0.04668 0.04258 0.20861
-0.03428 0.04258 0.07878
-0.07884 0.04258 -0.10466
-0.14612 0.04258 0.10436
0.03832 0.04258 0.12533
0.06769 0.04258 0.21934
-0.08124 0.04258 0.02675
-0.14134 0.04258 0.12474
-0.04598 0.04258 -0.00243
-0.08157 0.04258 0.02040
-0.01390 0.04258 0.19997
-0.15293 0.04258 0.09149
-0.02905 0.04258 0.04159
0.00908 0.04258 0.17497
-0.07031 0.04258 0.10361
-0.12823 0.04258 0.05633
-0.15450 0.04258 0.06046
0.07048 0.04258 0.15208
0.09995 0.04258 0.20077
-0.00233 0.04258 0.19798
-0.14416 0.04258 -0.16276
0.05996 0.04258 0.21833
-0.13463 0.04258 0.09449
-0.13961 0.04258 0.07699
-0.14734 0.04258 -0.03130
-0.11424 0.04258 -0.09275
-0.15317 0.04258 -0.06189
-0.08620 0.04258 0.15746
-0.13420 0.04258 -0.10475
-0.06707 0.04258 0.05043
-0.02211 0.04258 0.19740
-0.05385 0.04258 -0.05890
0.08514 0.04258 0.13319
-0.09986 0.04258 0.22282
-0.07620 0.04258 0.10035
-0.13868 0.04258 0.03324
-0.14147 0.04258 0.22082
-0.10036 0.04258 0.17771
0.08005 0.04258 0.12945
-0.16217 0.04258 0.02683
0.00553 0.04258 0.05514
-0.07168 0.04258 0.23328
-0.16233 0.04258 -0.14575
-0.06908 0.04258 -0.02949
-0.02328 0.04258 0.19140
-0.02314 0.04258 0.10923
0.01351 0.04258 0.22203
-0.10555 0.04258 0.00734
-0.15133 0.04258 -0.11961
-0.02911 0.04258 0.18440
-0.11898 0.04258 0.18595
0.05466 0.04258 0.08835
-0.07757 0.04258 0.21494
-0.01060 0.04258 0.14404
0.08538 0.04258 0.20260
-0.10790 0.04258 -0.11519
-0.06548 0.04258 0.06824
-0.07103 0.04258 0.21872
-0.06837 0.04258 0.05884
-0.14164 0.04258 -0.18126
-0.02540 0.04258 0.22682
0.13105 0.02671 -0.26201
-0.02524 -0.00671 -0.26201
-0.13262 0.01743 -0.26201
-0.09795 -0.00614 -0.26201
-0.12588 -0.00219 -0.26201
-0.07246 0.02147 -0.26201
-0.09800 0.02167 -0.26201
-0.10175 -0.02246 -0.26201
0.06340 0.01105 -0.26201
0.02855 -0.00766 -0.26201
0.15548 0.00338 -0.26201
-0.00410 -0.00558 -0.26201
0.13761 -0.02713 -0.26201
0.04891 -0.00197 -0.26201
-0.12295 -0.03321 -0.26201
0.14509 -0.03379 -0.26201
0.07415 -0.01214 -0.26201
0.04338 -0.03287 -0.26201
0.07611 -0.02645 0.29347
-0.02822 -0.02671 0.29347
0.04780 -0.02067 0.29347
-0.14437 0.05238 0.24094
-0.00633 0.15558 -0.42207
-0.01372 0.05285 0.30759
0.03576 -0.03990 -0.28443
-0.15061 0.15368 0.43732
0.08422 0.04878 0.43059
0.02843 0.06264 -0.43937
-0.16703 -0.10539 0.36534
0.13811 0.03031 0.28343
0.16703 0.03497 0.29423
-0.14127 0.15609 -0.42103
0.11305 0.04058 0.30157
0.11383 0.04899 -0.43087
-0.02056 -0.00229 -0.29346
-0.05315 0.04081 -0.24286
-0.00863 0.04149 0.30378
-0.00715 0.04650 0.42762
0.02702 0.03659 -0.29700
-0.14570 0.16715 0.42148
0.01878 0.04073 -0.28708
0.05963 0.11415 -0.42970
0.09163 0.07924 -0.42970
0.14628 0.08199 -0.42970
0.02247 0.10147 -0.42970
-0.06119 0.08914 -0.42970
0.05805 0.08547 -0.42970
-0.01172 0.08759 -0.42970
0.07752 0.08536 -0.42970
-0.01950 0.09077 -0.42970
0.08370 0.09341 -0.42970
-0.13113 0.03217 0.29450
-0.03271 0.03244 0.25037
-0.14838 0.15657 -0.41989
-0.11357 0.03002 0.25112
0.16703 0.04705 0.33404
0.15067 -0.09302 -0.35410
-0.03644 -0.12825 -0.39436
0.00967 -0.10985 -0.37333
0.15405 -0.13118 -0.39771
0.10698 -0.12158 -0.38674
0.01502 -0.11202 -0.37581
0.09208 -0.12111 -0.38620
0.08039 -0.09024 -0.35092
0.08637 -0.13458 -0.40159
0.14960 -0.09947 -0.36147
-0.14401 -0.16459 -0.43589
0.07216 -0.10676 -0.36979
0.00335 -0.15590 -0.42595
0.10788 -0.06999 -0.32777
0.11632 -0.15946 -0.43003
0.15138 -0.16101 -0.43180
0.14217 -0.11927 -0.38410
0.01533 -0.15254 -0.42212
0.15367 -0.13794 -0.40544
0.08393 -0.11999 -0.38492
-0.00419 -0.11706 -0.38157
0.04408 -0.14180 -0.40985
0.13982 -0.14930 -0.41842
-0.08304 -0.16437 -0.43563
0.16354 -0.07446 -0.33288
-0.00631 0.06602 -0.42934
-0.15509 -0.16834 -0.43250
-0.02981 -0.16834 -0.43953
0.02277 -0.02317 -0.28297
0.03184 -0.02859 -0.28297
0.13809 -0.01189 -0.28297
0.07296 0.00318 -0.28297
0.07997 -0.00724 -0.28297
-0.00265 -0.00537 -0.28297
0.12853 -0.01549 -0.28297
0.02576 -0.02782 -0.28297
-0.07017 0.03829 0.28580
0.16703 -0.05109 -0.30385
0.05105 0.06780 0.44005
0.13460 0.16583 0.42468
-0.04618 -0.03723 0.28356
-0.13846 -0.03250 -0.28303
-0.03286 0.04258 0.38249
-0.10655 0.04258 0.40913
0.11983 0.04258 0.40800
0.07017 0.04258 0.35972
0.05869 0.04258 0.38881
0.16695 0.04258 0.33966
0.15779 0.04258 0.31994
-0.03722 0.04258 0.39195
0.13322 0.04258 0.37350
0.05382 0.04258 0.36434
-0.01727 0.04258 0.39339
0.16351 0.04258 0.36470
0.13183 0.04258 0.33274
0.12332 0.04174 0.28786
0.14096 0.04057 0.24343
0.16146 0.16791 -0.41729
-0.10457 0.14789 0.43943
0.02567 -0.06321 0.30411
-0.12656 -0.06122 0.30183
-0.16272 -0.07462 0.31715
-0.07584 -0.05581 0.29566
0.10315 -0.05463 0.29431
-0.12883 -0.07024 0.31215
0.13515 0.16834 -0.41399
-0.01523 0.16711 0.42158
-0.03116 -0.01099 0.29346
-0.05676 0.05611 -0.42308
0.02137 0.00443 0.29346
-0.01214 -0.01173 0.25153
0.04118 -0.01075 0.25153
-0.06524 -0.02933 0.25153
0.14526 -0.01085 0.25153
0.02040 -0.01027 0.25153
0.15598 -0.00308 0.25153
-0.03293 -0.02322 0.25153
0.10459 -0.03318 0.25153
0.00972 0.05319 -0.41497
-0.00566 0.16410 -0.42804
0.01153 0.04258 -0.05295
0.00093 0.04258 -0.09985
0.00103 0.04258 -0.16065
0.15317 0.04258 -0.03133
0.07697 0.04258 -0.22399
0.14192 0.04258 0.00638
0.02956 0.04258 -0.04973
-0.10465 0.04258 -0.20640
-0.05092 0.04258 -0.17888
0.10657 0.04258 0.00148
0.16192 0.04258 0.01041
0.05715 0.04258 0.04834
-0.00716 0.04258 -0.09209
-0.05151 0.04258 -0.10271
0.00804 0.04258 -0.14793
-0.11070 0.04258 -0.15651
0.09551 0.04258 -0.08430
0.08132 0.04258 -0.07760
-0.05986 0.04258 -0.11820
0.10940 0.04258 -0.16525
-0.04127 0.04258 -0.17281
0.05294 0.04258 -0.20875
0.10447 0.04258 -0.19008
-0.06005 0.04258 -0.18923
0.07321 0.04258 0.08136
0.08692 0.04258 -0.10749
0.12720 0.04258 0.07270
0.11838 0.04258 0.05672
0.07582 0.04258 -0.02608
-0.05540 0.04258 -0.08947
-0.08170 0.04258 -0.13186
0.12419 0.04258 -0.16673
0.09436 0.04258 -0.09952
0.15552 0.04258 -0.11632
0.10258 0.04258 -0.08503
0.09683 0.04258 -0.19936
0.14910 0.04258 0.12313
-0.00586 0.04258 -0.12524
0.01523 0.04258 -0.10303
0.07036 0.04258 0.00754
0.02181 0.04258 -0.12478
-0.06842 0.04258 -0.12801
0.16012 0.04258 0.19954
0.07419 0.04258 -0.08762
0.05411 0.04258 0.02018
-0.02452 0.04258 -0.17854
0.12775 0.04258 -0.00709
0.07349 0.04258 0.03543
0.13977 0.04258 -0.07067
0.07626 0.04258 0.01476
0.07093 0.04258 -0.01615
0.14303 0.04258 0.12108
0.15717 0.04258 -0.09376
0.04528 0.04258 -0.16794
-0.02976 0.04258 -0.16762
-0.00741 0.04258 -0.15290
0.16410 0.04258 -0.01971
0.12824 0.04258 -0.21091
0.08039 0.04258 -0.06667
-0.03365 0.04258 -0.18024
0.13536 0.04258 -0.21032
0.02333 0.04258 -0.10882
0.12177 0.04258 -0.13514
-0.09441 0.04258 -0.15518
0.14642 0.04258 -0.13958
0.00698 0.04258 -0.10142
-0.13508 0.04171 -0.28783
0.02146 -0.05527 0.31095
-0.01310 -0.07699 0.33578
0.10229 -0.11011 0.37363
0.00991 -0.09064 0.35138
0.13068 -0.05335 0.30876
0.00663 -0.05735 0.31333
0.15405 -0.13686 0.40420
0.09831 -0.13221 0.39889
0.09273 -0.08212 0.34164
0.02484 -0.08081 0.34015
0.06812 -0.09288 0.35394
0.03556 -0.10998 0.37348
0.08556 -0.07708 0.33588
-0.12606 -0.05048 0.30548
0.07206 -0.07347 0.33175
-0.06251 -0.06934 0.32703
0.10873 -0.14592 0.41455
0.05769 -0.05525 0.31093
-0.08670 -0.05417 0.30970
0.07023 -0.11930 0.38413
-0.05244 -0.06405 0.32099
0.16598 -0.11756 0.38214
-0.04556 -0.09028 0.35096
0.15097 -0.08780 0.34813
0.02938 -0.11712 0.38164
0.12832 0.16381 -0.42841
0.15019 0.04306 -0.41764
-0.14980 0.03329 -0.28382
0.11026 -0.03603 -0.25545
0.11920 -0.03603 -0.25717
0.10719 0.01454 0.29346
0.06779 0.05129 -0.43330
0.01981 0.16834 -0.18160
0.04603 0.16834 -0.31564
0.07769 0.16834 0.16281
-0.01552 0.16834 -0.29365
0.10111 0.16834 0.08630
0.01574 0.16834 0.02933
0.11322 0.16834 0.00872
0.14430 0.16834 -0.30575
-0.10528 0.16834 -0.26810
0.12180 0.16834 -0.23564
0.00465 0.16834 -0.08041
0.02238 0.16834 0.00937
0.07502 0.16834 0.06760
0.15811 0.16834 -0.06291
0.12608 0.16834 0.06008
-0.04892 0.16834 -0.39788
0.05573 0.16834 -0.13145
0.12881 0.16834 -0.11582
0.00680 0.16834 -0.36091
0.16093 0.16834 -0.15923
0.10978 0.16834 -0.02501
0.16455 0.16834 -0.36306
0.09763 0.16834 -0.22594
-0.01107 0.16834 -0.33838
0.04076 0.16834 -0.37007
0.13128 0.16834 -0.26323
0.08556 0.16834 0.02545
0.09527 0.16834 0.14000
0.13170 0.16834 -0.25728
0.03850 0.16834 0.01792
0.16064 0.16834 -0.09216
0.12781 0.16834 0.13818
0.12435 0.16834 0.22696
-0.03901 0.16834 -0.19384
0.15349 0.16834 -0.36297
-0.14012 0.16834 -0.39978
0.06470 0.16834 -0.38116
-0.10629 0.16834 -0.40304
0.15341 0.16834 0.17601
0.15276 0.16834 0.27459
0.04980 0.16834 0.09825
0.07186 0.16834 -0.30474
0.16316 0.16834 0.28567
0.12926 0.16834 0.10023
-0.01130 0.16834 -0.11443
-0.02483 0.16834 -0.14838
0.10948 0.16834 -0.29835
0.11864 0.16834 0.19715
0.15423 0.16834 0.04656
0.08360 0.16834 -0.20980
-0.07377 0.16834 -0.35539
0.05761 0.16834 -0.08273
0.14995 0.16834 0.29104
0.00002 0.16834 -0.02437
0.15800 0.16834 -0.25186
-0.00711 0.16834 -0.23140
0.16263 0.16834 -0.03320
0.07640 0.16834 0.08982
0.06554 0.16834 -0.39783
-0.08051 0.16834 -0.21380
0.11481 0.16834 0.06121
-0.08619 0.16834 -0.22832
-0.04722 0.16834 -0.33664
0.08824 0.16834 -0.04440
0.00129 0.16834 -0.17207
-0.06923 0.16834 -0.37305
0.10750 0.16834 0.05381
-0.01852 0.16834 -0.15215
0.09065 0.16834 -0.26519
0.02249 0.16834 -0.36326
0.12429 0.16834 -0.40457
0.10971 0.16834 -0.09678
0.01100 0.16834 -0.31920
0.00793 0.16834 -0.00351
-0.00388 0.16834 -0.33678
-0.01121 0.16834 -0.32351
0.07944 0.16834 -0.11563
0.11769 0.16834 0.28472
0.04219 0.16834 0.08828
0.01940 0.16834 -0.28735
0.02789 0.16834 0.00709
0.13686 0.16834 -0.07977
0.03773 0.16834 0.04858
0.05576 0.16834 -0.24376
0.09137 0.16834 -0.00563
0.12834 0.16834 0.23951
0.10601 0.16834 -0.19766
0.05408 0.16834 -0.05329
0.13798 0.16834 0.22058
0.14370 0.16834 -0.29968
0.02526 0.16834 -0.11045
-0.00687 0.16834 -0.35531
0.05649 0.16834 -0.02441
0.05070 0.16834 -0.34993
0.02887 0.16834 -0.25880
0.16417 0.16834 0.39510
0.09711 0.16834 -0.35322
0.02859 0.16834 -0.09229
0.00285 0.16834 -0.31606
-0.01156 0.16834 -0.27654
-0.06808 0.16834 -0.18621
0.07205 0.16834 -0.34694
0.11724 0.16834 -0.10755
0.04742 0.16834 -0.02031
0.05099 0.16834 0.04858
-0.09365 0.16834 -0.25244
-0.01754 0.16834 -0.27094
0.15570 0.16834 -0.32499
0.04219 0.16834 -0.08152
-0.16703 -0.02225 -0.25525
0.16703 -0.07718 0.33046
0.12121 -0.03385 -0.28315
0.06878 0.04042 -0.30125
-0.13468 0.04565 -0.42602
-0.01305 0.05330 0.41582
-0.12214 -0.14709 -0.39815
-0.07046 -0.14758 -0.39870
-0.00234 -0.14439 -0.39515
-0.04368 -0.13195 -0.38127
-0.03956 -0.10303 -0.34900
0.06582 -0.15689 -0.40909
-0.11207 -0.14586 -0.39678
-0.05332 -0.12940 -0.37842
-0.03723 -0.11750 -0.36514
0.02106 -0.12817 -0.37705
-0.01925 -0.14893 -0.40021
-0.10017 -0.11362 -0.36081
-0.00427 -0.12295 -0.37122
-0.13019 -0.07605 -0.31889
0.16475 -0.16764 -0.42109
0.02685 -0.16792 -0.42139
-0.15267 -0.14847 -0.39969
-0.04064 -0.12753 -0.37634
-0.13740 -0.12809 -0.37696
-0.05983 -0.15193 -0.40355
-0.15839 -0.13286 -0.38228
0.08680 -0.16548 -0.41867
-0.10438 -0.10817 -0.35473
-0.04960 0.01614 -0.29346
-0.14171 0.02127 -0.29346
0.03298 0.12723 0.44018
-0.12844 0.12657 0.44018
-0.08345 0.09151 0.44018
-0.07203 0.11243 0.44018
-0.00313 0.10649 0.44018
0.12137 0.13321 0.44018
-0.03790 0.13163 0.44018
-0.10372 0.13905 0.44018
-0.01214 0.11277 0.44018
-0.07169 0.14134 0.44018
-0.12793 -0.04428 -0.29864
-0.06202 0.04216 -0.30601
0.08495 0.04557 -0.25409
-0.02900 -0.05384 0.29340
0.12919 0.04348 0.42079
-0.10777 -0.05925 0.29958
-0.06101 -0.06911 0.31086
-0.01388 -0.05633 0.29625
-0.06897 -0.06935 0.31113
-0.14243 -0.06364 0.30461
0.16703 -0.05240 0.30135
0.11709 -0.03601 0.29468
0.04884 0.04258 -0.14765
0.12205 0.04258 -0.11580
0.15526 0.04258 0.10386
0.16558 0.04258 -0.06793
0.12750 0.04258 0.13386
0.12163 0.04258 0.03318
0.10871 0.04258 0.10883
0.02803 0.04258 -0.07517
0.09049 0.04258 -0.12254
0.11247 0.04258 0.07774
0.05033 0.04258 0.00690
0.16433 0.04258 0.13815
0.03699 0.04258 0.01692
-0.12918 0.04258 -0.21449
0.13157 0.04258 -0.19202
-0.05157 0.04258 -0.14416
0.06971 0.04258 -0.18955
0.08748 0.04258 -0.11357
0.16421 0.04258 -0.04100
-0.05520 0.04258 -0.16660
0.00407 0.04258 -0.13479
0.10417 0.04258 0.08927
0.09100 0.04258 -0.09375
-0.03721 0.04258 -0.15172
0.04987 0.04258 -0.09355
0.02833 0.04258 -0.17604
0.05515 0.04258 0.03717
0.01862 0.04258 -0.13364
-0.03203 0.04258 -0.12266
0.13193 0.04258 -0.12069
0.04019 0.04258 -0.00289
0.08407 0.04258 0.05914
0.02567 0.04258 -0.03803
0.06362 0.04258 -0.17861
0.07807 0.04258 -0.10251
0.15938 0.04258 0.00422
0.10184 0.04258 -0.00523
0.02581 0.04258 -0.13459
-0.00979 0.04258 -0.11665
0.01079 0.04258 -0.04747
0.10811 0.04258 0.02865
0.02636 0.04258 0.01283
0.14689 0.04258 -0.11904
0.12323 0.04258 -0.01748
0.03617 0.04258 -0.11354
0.15186 0.04258 -0.22168
0.11999 0.04258 -0.03698
-0.08662 0.04258 -0.21246
0.15154 0.04258 -0.23139
0.07015 0.04258 -0.06866
0.16655 0.04258 0.03286
0.11020 0.04258 0.13816
0.10947 0.04258 -0.23306
0.13817 0.04258 -0.21741
0.09932 0.04258 0.12089
-0.06436 0.04258 -0.16658
0.14569 0.03793 0.29803
-0.16703 0.16637 -0.23900
-0.16703 0.16479 0.07469
-0.11246 0.15411 0.42398
-0.09681 0.11346 0.42970
0.07081 0.06984 0.42970
-0.04103 0.10667 0.42970
0.11411 0.07337 0.42970
-0.09481 0.09592 0.42970
-0.09242 0.10773 0.42970
-0.05918 0.07805 0.42970
-0.14776 0.13645 0.42970
0.07756 0.07089 0.42970
0.02916 0.08541 0.42970
0.01584 0.03368 0.29513
-0.13155 0.06908 0.44018
0.10403 0.12749 0.44018
-0.00088 0.10106 0.44018
0.08676 0.11421 0.44018
0.05636 0.07834 0.44018
0.01875 0.08275 0.44018
-0.00864 0.09226 0.44018
0.14437 0.13046 0.44018
-0.09696 0.07001 0.44018
0.00002 0.08986 0.44018
0.09436 -0.01771 -0.26201
0.09471 0.00947 -0.26201
-0.14178 -0.03180 -0.26201
0.10435 -0.01077 -0.26201
0.06924 -0.00510 -0.26201
-0.09339 -0.03294 -0.26201
0.07654 -0.01775 -0.26201
0.16536 -0.00874 -0.26201
-0.16703 -0.12974 0.38085
-0.06578 0.03546 -0.29613
-0.07550 0.04272 -0.41510
0.03606 0.03523 -0.29595
0.12305 0.03406 -0.26094
0.09708 0.01577 0.29346
-0.07922 0.03975 -0.25859
-0.12810 0.05306 -0.40378
-0.09035 0.05306 -0.39326
0.16636 0.05306 -0.40662
0.15028 0.05306 -0.40228
0.13985 0.05306 -0.31997
0.03659 0.05306 -0.40198
0.15484 0.05306 -0.36255
0.07548 0.05306 -0.35342
-0.00813 0.05306 -0.40083
-0.04671 0.05306 -0.41226
0.06529 0.05306 -0.36768
0.11048 0.05306 -0.37581
0.15500 0.05306 -0.31378
0.01283 0.05306 -0.36074
0.01794 0.05306 -0.39602
-0.00310 0.04037 0.24380
0.16655 -0.02930 0.29347
-0.16417 -0.04107 0.29688
-0.07491 -0.03239 -0.29354
0.02801 0.05431 0.41977
0.06838 0.16036 -0.43274
-0.10206 0.15021 -0.42744
0.07131 0.04318 0.41855
-0.12776 0.04036 0.28679
0.12557 0.04258 -0.35140
0.16252 0.04258 -0.39408
0.13900 0.04258 -0.37757
0.15066 0.04258 -0.34990
0.05812 0.04258 -0.33557
-0.08439 0.04258 -0.32905
-0.07921 0.04258 -0.33133
0.14731 0.04258 -0.38966
-0.02605 0.04258 -0.35128
0.07482 0.04258 -0.36725
0.03443 0.04258 -0.32961
0.14151 0.04258 -0.38923
-0.04998 0.04258 -0.32031
0.04042 0.04258 -0.36268
0.12532 -0.03749 -0.28375
0.16703 -0.06586 -0.32157
0.13722 0.02044 0.28297
0.15741 -0.01986 0.28297
-0.03827 0.02306 0.28297
-0.04147 0.01204 0.28297
0.11139 0.00543 0.28297
0.12289 0.02683 0.28297
0.13091 -0.01974 0.28297
-0.02036 0.01934 0.28297
0.14125 0.03828 0.25920
0.14801 0.04156 0.24104
0.07792 0.05041 0.24684
-0.11726 -0.04587 0.28681
-0.02014 -0.11201 0.37580
0.05764 -0.16502 0.43639
0.01547 -0.12026 0.38523
-0.16063 -0.09801 0.35980
0.03263 -0.14804 0.41697
0.11687 -0.16312 0.43421
-0.13221 -0.08872 0.34918
-0.09237 -0.09173 0.35262
-0.13381 -0.09687 0.35850
-0.11893 -0.06722 0.32461
-0.08660 -0.08110 0.34048
-0.10606 -0.13677 0.40409
-0.11914 -0.15638 0.42651
0.15518 -0.16503 0.43639
-0.13662 -0.15317 0.42284
-0.16223 -0.06370 0.32059
-0.09162 -0.12268 0.38799
-0.03751 -0.12619 0.39200
-0.04979 -0.13318 0.40000
-0.02726 -0.12715 0.39310
-0.12710 -0.10081 0.36300
-0.16297 -0.16113 0.43194
0.16659 0.15267 0.42555
0.16350 0.05054 0.29847
-0.00262 0.05727 -0.43733
-0.14365 -0.02832 0.26201
-0.01502 -0.03289 0.26201
-0.12203 -0.00578 0.26201
-0.09620 0.00585 0.26201
-0.09379 -0.02344 0.26201
-0.11888 -0.01552 0.26201
0.01346 -0.02014 0.26201
-0.06298 -0.02010 0.26201
0.07573 -0.02441 -0.25153
-0.13083 0.01365 -0.25153
-0.02518 -0.02011 -0.25153
-0.16051 -0.00074 -0.25153
-0.00326 -0.01979 -0.25153
-0.05346 -0.00198 -0.25153
-0.08044 -0.03365 -0.25153
-0.07184 -0.01265 -0.25153
-0.04874 -0.02662 -0.25153
-0.10562 -0.00356 -0.29346
-0.09426 -0.00722 -0.29346
-0.04443 0.02768 0.29356
0.11051 0.16753 -0.42013
0.15956 0.16589 -0.42453
0.16703 0.04531 0.06426
0.16703 0.04541 0.10811
0.10495 -0.03147 0.28299
0.05060 0.16122 -0.43179
-0.00370 0.05118 0.43322
-0.04354 -0.03184 -0.29351
-0.15562 0.04258 -0.36139
-0.13374 0.04258 -0.35073
0.06538 0.04258 -0.40573
0.12353 0.04258 -0.40933
-0.12663 0.04258 -0.33557
0.10524 0.04258 -0.39983
-0.09517 0.04258 -0.37268
-0.00912 0.04258 -0.39339
-0.14539 0.04258 -0.34689
-0.00507 0.04258 -0.37810
-0.02521 0.04258 -0.38002
-0.14334 0.04258 -0.32053
-0.11933 0.04258 -0.38232
-0.12955 -0.01401 -0.28297
-0.13249 0.00341 -0.28297
0.02701 0.00569 -0.28297
-0.13474 -0.00357 -0.28297
-0.16219 -0.02866 -0.28297
0.05539 0.02223 -0.28297
-0.07639 -0.01447 -0.28297
-0.16087 -0.00932 -0.28297
-0.08028 0.00527 -0.27567
-0.00757 0.05227 0.30316
-0.09908 0.04233 0.23766
-0.16703 0.05103 0.36126
-0.04554 0.16834 0.28893
0.09945 0.16834 0.33763
0.12746 0.16834 0.38207
-0.04885 0.16834 -0.06786
-0.14566 0.16834 0.21066
-0.04798 0.16834 0.20063
-0.14685 0.16834 0.34782
-0.14421 0.16834 -0.04913
-0.15842 0.16834 0.06364
0.00581 0.16834 0.12871
-0.05730 0.16834 -0.03467
-0.02192 0.16834 0.26746
-0.12465 0.16834 0.12842
-0.16052 0.16834 -0.11425
-0.09771 0.16834 0.10962
-0.12679 0.16834 -0.19140
-0.05925 0.16834 0.03155
-0.10837 0.16834 -0.23809
-0.12588 0.16834 -0.28575
0.08632 0.16834 0.29108
-0.13202 0.16834 0.09300
0.05465 0.16834 0.31612
0.01111 0.16834 0.05349
0.06403 0.16834 0.27076
-0.16525 0.16834 -0.02798
0.01142 0.16834 0.38913
0.03760 0.16834 0.28502
-0.01634 0.16834 0.35349
-0.10649 0.16834 0.09553
0.05715 0.16834 0.30172
-0.07176 0.16834 0.33285
0.05207 0.16834 0.26031
-0.08683 0.16834 0.28954
-0.13789 0.16834 0.32886
0.13670 0.16834 0.37319
0.02905 0.16834 0.24467
-0.00800 0.16834 0.29639
-0.09319 0.16834 0.12191
-0.02317 0.16834 0.37833
-0.16000 0.16834 0.37466
-0.13287 0.16834 -0.08865
-0.06711 0.16834 0.18752
0.03057 0.16834 0.38431
-0.07935 0.16834 -0.05167
-0.13477 0.16834 -0.23639
-0.15858 0.16834 0.20967
-0.09196 0.16834 0.41008
-0.05505 0.16834 0.04966
-0.11991 0.16834 0.10106
-0.03221 0.16834 0.18499
0.00519 0.16834 0.24926
-0.06691 0.16834 0.36485
-0.11606 0.16834 -0.09550
0.02275 0.16834 0.32982
-0.14662 0.16834 0.33038
-0.12244 0.16834 0.28223
-0.08756 0.16834 -0.17276
-0.14506 0.16834 0.10673
-0.16625 0.16834 -0.10186
-0.14460 0.16834 0.17122
0.02893 0.16834 0.25345
-0.11940 0.16834 0.38813
-0.01152 0.16834 0.23045
0.11429 0.16834 0.30939
-0.10922 0.16834 -0.08509
-0.04950 0.16834 0.28430
-0.04768 0.16834 -0.01764
-0.12961 0.16834 0.06952
-0.14860 0.16834 -0.28248
-0.11415 0.16834 0.33700
-0.00002 0.16834 0.36537
-0.03147 0.16834 0.16256
-0.02690 0.16834 0.05471
0.03348 0.16834 0.15675
-0.07716 0.16834 0.21452
-0.12165 0.16834 0.33482
-0.13742 0.16834 0.26094
-0.10990 0.16834 -0.02043
-0.15114 0.16834 0.13342
0.00704 0.16834 0.27766
-0.11158 0.16834 -0.17499
0.14730 0.16834 0.37651
-0.11260 0.16834 0.38555
-0.09091 0.16834 0.15252
-0.14025 0.16834 -0.07765
-0.06101 0.16834 0.15339
-0.07501 0.16834 0.26894
-0.14348 0.16834 0.27360
-0.14872 0.16834 -0.13438
0.02391 0.16834 0.13333
0.04186 0.16834 0.38120
-0.08173 0.16834 0.14142
-0.03909 0.16834 0.29776
-0.15851 0.16834 0.12891
-0.14634 0.16834 0.29482
-0.06619 0.16834 0.06900
0.06342 0.16834 0.38563
-0.14021 0.16834 0.21070
0.04912 0.16834 0.32697
-0.01618 0.16834 0.30560
0.00134 0.16834 0.19648
0.05598 0.16834 0.37192
-0.08816 0.16834 0.24646
-0.07048 0.16834 -0.14322
0.16703 0.00830 -0.28810
0.11225 -0.12483 0.37453
0.03101 -0.13773 0.38928
-0.09695 -0.16499 0.42043
-0.01730 -0.16070 0.41553
-0.06225 -0.15587 0.41001
-0.04023 -0.15593 0.41008
0.04941 -0.14295 0.39525
-0.08955 -0.16678 0.42247
-0.04002 -0.14337 0.39573
0.01380 -0.12685 0.37685
0.16642 -0.09832 0.34424
-0.01545 -0.15562 0.40972
-0.08888 -0.15624 0.41043
-0.08280 -0.15771 0.41212
-0.06597 -0.16716 0.42292
0.13792 -0.16143 0.41637
-0.02326 -0.16115 0.41604
0.11442 -0.13905 0.39079
-0.06268 0.16352 -0.42879
-0.07374 0.04213 -0.23919
0.12782 0.05306 -0.00023
-0.06975 0.05306 0.21984
-0.08875 0.05306 0.15295
-0.05873 0.05306 0.10846
-0.01644 0.05306 0.07667
-0.03418 0.05306 0.06880
0.08580 0.05306 0.21074
0.04508 0.05306 0.12770
0.12880 0.05306 -0.01382
0.07800 0.05306 0.12773
-0.03202 0.05306 0.19862
0.15211 0.05306 0.10209
0.16651 0.05306 -0.12457
0.10998 0.05306 0.19185
0.04383 0.05306 0.15630
-0.05369 0.05306 0.22968
0.00266 0.05306 0.00402
0.08505 0.05306 0.02947
-0.10358 0.05306 0.20251
0.06810 0.05306 0.08076
0.15676 0.05306 0.04315
0.14318 0.05306 -0.18547
0.16520 0.05306 0.22428
0.14051 0.05306 0.10825
0.05399 0.05306 0.05780
0.03744 0.05306 -0.04842
-0.09506 0.05306 0.14896
0.01271 0.05306 0.17384
0.08256 0.05306 -0.04859
0.08676 0.05306 0.16223
0.14162 0.05306 0.08171
0.00191 0.05306 0.16159
0.02129 0.05306 -0.00399
0.12859 0.05306 0.10688
0.13773 0.05306 -0.10406
-0.11379 0.05306 0.23100
0.00608 0.05306 0.03553
0.01704 0.05306 0.14596
-0.00988 0.05306 0.14266
-0.03229 0.05306 0.04674
0.07907 0.05306 0.22190
-0.07804 0.05306 0.21093
0.07460 0.05306 0.08435
-0.03698 0.05306 0.06168
-0.08897 0.05306 0.19918
-0.05680 0.05306 0.13312
0.16609 0.05306 -0.10386
0.08554 0.05306 -0.01601
0.14142 0.05306 0.18167
0.13381 0.05306 -0.02091
0.12590 0.05306 0.06198
-0.06014 0.05306 0.19498
0.05845 0.05306 0.16508
0.11875 0.05306 -0.13221
-0.07043 0.05306 0.14691
0.15210 0.05306 -0.03728
-0.03272 0.05306 0.10185
0.01572 0.05306 0.00153
-0.05240 0.05306 0.16922
0.09509 0.05306 -0.02587
0.09817 0.05306 -0.03699
-0.04316 0.05306 0.19775
0.08320 0.05306 -0.04094
0.07178 0.05306 0.22808
0.16703 0.08987 0.43855
-0.09681 0.01770 0.29346
-0.11490 0.02256 0.29346
0.13543 0.02960 0.25117
-0.14664 -0.04190 0.29738
-0.13925 -0.05298 0.29246
0.09600 0.04575 -0.25386
-0.11888 -0.03603 -0.25511
0.15386 -0.04186 -0.29681
0.08020 0.02880 -0.28323
0.06750 0.03522 -0.24904
0.16056 0.04903 -0.29540
0.00101 0.14423 0.42943
-0.00563 0.16335 0.42902
-0.00408 0.14706 -0.42881
-0.08829 0.03259 -0.29468
-0.16703 0.04485 -0.40075
0.10357 0.04258 -0.37128
0.15939 0.04258 -0.34324
-0.00388 0.04258 -0.34893
-0.00710 0.04258 -0.35675
-0.02126 0.04258 -0.32771
-0.07667 0.04258 -0.33673
0.06130 0.04258 -0.37625
-0.03716 0.04258 -0.33127
0.05872 0.04258 -0.36631
0.05489 0.04258 -0.34300
0.16528 0.04258 -0.35432
0.11792 0.15388 0.42429
-0.04099 0.03632 0.26001
-0.05583 -0.03166 -0.29350
-0.00708 0.05306 0.20268
-0.00026 0.05306 0.13737
0.13366 0.05306 0.06302
-0.00290 0.05306 0.04107
0.11000 0.05306 0.17750
0.11921 0.05306 -0.12009
0.01623 0.05306 0.10430
-0.03581 0.05306 0.05418
0.07114 0.05306 -0.00860
0.02870 0.05306 0.00928
-0.03600 0.05306 0.15073
0.14985 0.05306 -0.17126
-0.14112 0.05306 0.20950
0.16636 0.05306 -0.04138
0.14890 0.05306 0.13471
-0.09405 0.05306 0.21461
-0.07938 0.05306 0.11723
0.13728 0.05306 0.15032
0.11000 0.05306 0.20739
0.14550 0.05306 -0.13189
-0.06058 0.05306 0.17814
-0.03230 0.05306 0.21085
0.05444 0.05306 -0.06230
0.14400 0.05306 0.03299
0.13802 0.05306 0.17104
0.02371 0.05306 0.07205
-0.12349 0.05306 0.19451
0.13463 0.05306 0.03110
0.12079 0.05306 0.03981
0.08439 0.05306 -0.02189
-0.00371 0.05306 0.10743
-0.02595 0.05306 0.04839
0.06968 0.05306 0.14890
0.01558 0.05306 0.01135
0.05308 0.05306 -0.01440
0.12881 0.05306 0.13891
0.15067 0.05306 -0.19909
0.07700 0.05306 0.19552
0.07076 0.05306 0.00397
0.05643 0.05306 -0.02294
0.11159 0.05306 -0.04407
0.03184 0.05306 0.21083
0.03563 0.05306 0.11296
-0.11300 0.05306 0.21168
0.09222 0.05306 0.17202
0.09554 0.05306 0.19895
0.06319 0.05306 0.17118
0.05616 0.05306 0.15214
-0.00243 0.05306 0.09615
0.03333 0.05306 -0.01693
-0.00965 0.05306 0.03292
0.09103 0.05306 0.00634
0.10219 0.05306 -0.14111
0.12884 0.05306 -0.12387
0.11722 0.05306 0.05642
0.00750 0.05306 0.15199
-0.02388 0.05306 0.05805
0.16168 0.05306 0.10309
0.05692 0.05306 0.04176
0.11219 0.05306 -0.06135
-0.14050 0.04551 0.42569
0.02180 0.07032 -0.42970
0.07892 0.07316 -0.42970
0.00278 0.09472 -0.42970
0.02864 0.07326 -0.42970
0.16042 0.08751 -0.42970
-0.11013 0.07323 -0.42970
0.07583 0.10770 -0.42970
0.08958 0.16786 0.41768
-0.13704 0.02903 -0.29374
-0.12566 0.02882 -0.29371
0.01941 0.03236 -0.25040
-0.13111 0.05159 0.24398
-0.05276 0.04592 0.42667
-0.07578 0.16470 0.42725
0.16703 0.16421 -0.39621
0.16703 0.16596 -0.24853
0.16703 0.16363 -0.06650
0.00112 0.04166 -0.24080
0.09664 -0.10399 0.36664
-0.08556 -0.06889 0.32652
0.00864 -0.06173 0.31834
0.13982 -0.11613 0.38050
-0.06496 -0.08071 0.34003
0.15661 -0.07429 0.33269
0.13647 -0.05687 0.31278
0.03319 -0.05696 0.31289
0.07821 -0.09516 0.35655
0.12821 -0.08118 0.34057
0.11081 -0.11439 0.37853
-0.15794 -0.04969 0.30458
0.07134 -0.10044 0.36258
-0.00473 -0.07957 0.33873
-0.09374 -0.07125 0.32922
0.04907 -0.08334 0.34304
0.01896 -0.07840 0.33739
0.13675 -0.13166 0.39826
-0.14231 -0.04729 0.30184
0.15816 -0.12763 0.39365
0.12219 -0.14173 0.40976
0.15688 -0.11780 0.38242
0.07529 -0.09180 0.35270
0.02643 -0.08531 0.34529
-0.07586 0.00070 -0.28224
0.10233 0.15762 -0.41580
0.16703 0.14140 0.43496
-0.05729 0.03555 -0.28466
-0.10281 0.05306 -0.02103
-0.11392 0.05306 0.11485
0.00461 0.05306 -0.12357
0.02116 0.05306 -0.20159
-0.07447 0.05306 -0.07740
-0.01154 0.05306 -0.09404
0.02680 0.05306 -0.05775
-0.01763 0.05306 -0.04969
-0.14358 0.05306 -0.08449
-0.01620 0.05306 -0.10463
-0.00479 0.05306 -0.11776
-0.13921 0.05306 -0.18628
0.13222 0.05306 -0.21897
0.07263 0.05306 -0.12545
-0.07443 0.05306 -0.08546
0.01652 0.05306 -0.15042
0.01805 0.05306 -0.09125
-0.05819 0.05306 0.04601
-0.05336 0.05306 -0.12148
0.01125 0.05306 -0.18862
-0.13336 0.05306 0.03106
-0.16557 0.05306 -0.08873
-0.10062 0.05306 -0.18617
0.01832 0.05306 -0.13206
-0.05628 0.05306 0.02469
-0.02721 0.05306 -0.09458
-0.16432 0.05306 -0.04435
-0.14216 0.05306 0.19071
0.03473 0.05306 -0.10705
-0.11751 0.05306 -0.02159
-0.13687 0.05306 0.13139
-0.12164 0.05306 -0.07838
-0.03248 0.05306 -0.09717
-0.06016 0.05306 0.01112
0.08469 0.05306 -0.12956
-0.03276 0.05306 0.00631
-0.15627 0.05306 0.14057
-0.03617 0.05306 0.01510
-0.09558 0.05306 0.08126
