-0.19393 0.12136 -0.10257
-0.16335 0.12026 -0.07865
-0.07434 0.12126 -0.10043
-0.16867 0.12207 -0.11824
-0.16370 0.12097 -0.09412
-0.09751 0.12051 -0.08405
-0.18361 0.12116 -0.09838
-0.22931 0.12238 -0.12493
-0.06844 0.12094 -0.09340
-0.09544 0.12160 -0.10790
0.01149 0.12142 -0.10404
-0.06784 0.12578 -0.23430
-0.08666 0.07740 0.27499
0.21712 0.19634 -0.31898
-0.19674 0.15393 0.27253
-0.07522 0.15402 0.27535
-0.21258 0.11715 0.18493
-0.21258 0.10925 0.11970
-0.11503 0.08079 0.12273
-0.11503 0.09436 0.19562
0.08655 0.15779 0.38383
0.21850 0.15753 0.38383
-0.01517 0.15589 0.38383
0.06143 0.17281 0.38383
0.18536 0.17780 0.38383
0.11838 0.17766 0.38383
0.13909 0.06002 0.09110
0.13598 0.06002 0.19380
0.13922 0.06002 -0.11733
0.14130 0.06002 0.15979
-0.17562 0.15271 -0.26868
-0.13976 0.07979 0.12865
-0.14015 0.07701 0.12317
-0.12736 -0.18776 0.28813
-0.16625 0.18630 0.38617
0.14419 -0.02770 -0.18529
0.03162 -0.07125 -0.27883
0.08681 -0.07125 -0.27650
0.16958 -0.02212 -0.24916
0.14463 -0.01517 -0.17171
0.12462 -0.21138 -0.27781
0.00256 0.15422 -0.28014
0.15599 0.08696 0.31311
0.19531 0.17722 -0.35474
0.12215 0.17569 -0.35209
-0.11260 -0.09412 -0.23041
-0.11025 -0.10483 -0.22826
-0.15494 0.12304 0.26688
0.14629 0.06002 -0.33078
0.14523 0.06002 -0.12417
-0.12851 0.15456 -0.20526
0.15014 -0.05002 0.15514
-0.01516 0.18535 0.36746
0.01041 0.18702 0.36966
-0.05987 0.16655 0.33316
-0.01560 0.16612 0.33215
0.12425 -0.15963 -0.30508
0.11951 -0.18840 -0.29316
-0.21437 0.09216 0.16440
0.10943 -0.08529 -0.28632
-0.09192 0.02710 0.24256
-0.14052 -0.11161 -0.27925
0.15195 -0.01001 -0.23902
0.16643 0.13589 0.22628
0.03084 0.15629 0.29729
0.17744 0.08636 -0.29459
0.19142 0.11506 -0.27414
0.05129 0.15489 0.28731
-0.11821 0.15452 0.28339
0.06808 0.13065 -0.22267
0.08001 0.13054 -0.22171
0.20628 0.12951 -0.21204
-0.00348 0.12885 -0.20584
0.04552 0.12770 -0.19514
-0.09025 0.12909 -0.20815
0.06650 0.13167 -0.23222
0.09817 0.13058 -0.22204
0.07621 0.12888 -0.20617
-0.02656 0.12854 -0.20302
0.12155 0.13180 -0.23347
0.13537 0.09341 0.25426
-0.04744 0.14608 0.33815
0.12078 0.14449 0.32872
-0.02899 0.14581 0.33657
-0.14485 0.14814 0.35033
-0.21377 0.14697 0.34342
0.06725 0.14623 0.33905
-0.01345 0.14832 0.35140
-0.13396 0.14822 0.35079
-0.10297 0.14793 0.34906
0.09402 0.14489 0.33111
-0.15802 0.15174 0.37156
-0.17946 0.15527 -0.10311
0.14417 -0.09578 -0.07691
0.14417 -0.09273 0.05117
0.14417 -0.12225 0.11073
0.14417 -0.10555 0.12727
0.14417 -0.12179 0.19659
0.14417 -0.09641 -0.16717
0.14417 -0.12033 0.12507
0.14417 -0.11471 0.08230
0.14417 -0.09036 0.25703
0.14417 -0.09591 0.02885
0.14417 -0.11465 0.12924
0.14417 -0.14749 0.15635
0.14417 -0.08975 -0.07583
0.14417 -0.12341 0.00114
0.14417 -0.10979 -0.02070
0.14417 -0.09704 -0.05815
0.17394 0.13433 -0.30827
0.16535 -0.14422 -0.31199
-0.13222 -0.00305 0.26538
-0.09163 0.13589 -0.27438
-0.11252 -0.06660 0.26608
0.03048 0.19817 -0.38335
0.13568 0.19489 -0.37953
-0.06426 0.08668 0.28171
0.13040 0.12114 0.09782
0.04353 0.12093 0.09330
0.12587 0.12038 0.08128
0.12203 0.12077 0.08970
-0.14676 0.12208 0.11831
0.11559 0.12254 0.12853
0.12312 0.12218 0.12052
0.06609 0.12227 0.12256
-0.11438 0.12185 0.11346
0.20122 0.12202 0.11717
0.02788 0.12242 0.12579
0.03857 0.12174 0.11088
0.02185 -0.06240 0.26064
0.00484 -0.06445 0.26064
0.18188 -0.08147 0.28412
0.12624 0.13589 -0.26221
0.15453 -0.04013 -0.18092
0.22256 0.16023 0.21509
-0.13029 -0.06008 -0.24772
-0.21658 0.09749 -0.14573
-0.21658 0.08895 -0.16599
0.10706 -0.11726 0.24688
0.22351 0.17293 -0.34219
0.09887 0.08656 0.27947
0.13548 0.12664 0.18224
-0.04771 0.12690 0.18561
0.01515 0.12729 0.19079
0.01286 0.12492 0.15971
-0.16434 0.12711 0.18832
0.07016 0.12506 0.16148
-0.02422 0.12695 0.18634
0.13732 0.12412 0.14915
0.18786 0.12589 0.17235
0.01364 0.12602 0.17407
0.21900 0.12713 0.18869
0.15000 -0.08904 -0.08589
0.15690 -0.08904 0.09512
0.14974 -0.08904 -0.10910
-0.14830 0.13589 0.25294
-0.07152 -0.01369 -0.27923
0.14417 -0.10016 -0.23407
0.14417 -0.13866 0.05844
0.14417 -0.15452 -0.12671
0.14417 -0.15355 0.15756
0.14417 -0.15147 -0.23352
0.14417 -0.14758 -0.14923
0.14417 -0.16457 -0.20497
0.14417 -0.15684 -0.23123
0.14417 -0.14256 -0.20811
0.14417 -0.11648 -0.08059
0.14417 -0.14374 -0.12172
0.14417 -0.13377 -0.20222
0.14417 -0.14455 -0.25470
0.14417 -0.09935 -0.26293
0.14417 -0.12739 -0.21596
0.14417 -0.15019 -0.21745
-0.23030 0.14627 -0.31930
-0.13021 0.06962 -0.15482
0.15046 0.06938 0.15593
0.15046 0.06355 0.34713
0.15046 0.06548 0.20510
0.21955 0.16641 -0.03080
0.15697 -0.14596 0.18063
0.15697 -0.12679 0.17932
0.15697 -0.11127 0.24545
0.15697 -0.14492 0.13573
0.15697 -0.15999 -0.21398
0.15697 -0.15570 0.18021
0.15697 -0.14716 0.22847
0.15697 -0.12754 0.05191
0.15697 -0.14668 -0.08457
0.15697 -0.12224 0.18563
0.15697 -0.14287 0.01592
0.15697 -0.14931 -0.11639
0.15697 -0.14283 0.00417
0.15697 -0.15249 -0.07002
0.15697 -0.14093 -0.04516
0.15697 -0.15360 0.06030
0.15697 -0.14555 0.21742
0.14166 0.09341 0.25976
-0.06391 -0.19944 0.28383
-0.08054 0.13589 -0.29263
0.22790 0.12893 0.03231
-0.12911 0.10712 0.09974
0.10822 -0.17433 -0.27598
0.10754 -0.09204 -0.25466
0.10603 0.11891 -0.30697
-0.18800 0.08970 0.10614
-0.14244 0.12071 -0.12303
0.16086 -0.10312 0.26704
0.07724 -0.10471 0.26704
0.00993 -0.10624 0.26704
0.05219 -0.10485 0.26704
0.09531 -0.12419 0.26704
-0.06985 -0.12885 0.26704
0.16911 -0.10655 0.26704
0.11445 -0.08567 0.26704
0.20116 -0.11945 0.26704
0.13992 -0.13377 0.26746
0.12264 -0.13377 0.27112
0.15525 -0.16471 0.30772
-0.15947 -0.06660 0.27385
-0.00769 -0.06660 0.27580
-0.05713 -0.17896 0.27675
0.14178 -0.03907 0.30038
-0.12281 -0.01099 -0.24594
-0.09174 0.06362 -0.28616
-0.17458 0.11935 -0.10350
-0.16941 0.11935 -0.10468
0.12464 0.09544 -0.31795
-0.11278 0.01427 -0.29449
-0.21322 0.10033 0.16484
0.23030 0.14151 -0.26510
0.14158 0.12239 0.03981
0.18597 -0.18191 0.25298
-0.11587 0.08102 -0.08178
0.15412 -0.13030 0.26789
0.14421 -0.01380 -0.18652
0.12405 -0.12707 -0.30817
-0.10990 0.05501 -0.24639
-0.11093 -0.04926 -0.23488
0.13106 0.12239 0.03114
-0.14499 0.11935 -0.17007
0.19318 -0.15556 -0.27123
0.13708 0.13645 -0.27237
0.11587 0.13589 -0.26831
0.01727 0.13435 -0.25714
0.14985 0.13592 -0.26854
-0.03460 0.13443 -0.25774
0.02033 0.13649 -0.27267
0.06501 0.13745 -0.27959
-0.18482 0.13475 -0.26006
0.16892 0.13909 -0.29147
0.10837 0.14008 -0.29862
-0.10941 -0.17284 -0.23031
-0.22542 0.11929 -0.04338
0.05195 0.11957 -0.06207
-0.15587 0.11959 -0.06313
-0.21008 0.11876 -0.00882
-0.18701 0.11903 -0.02675
-0.20852 0.11915 -0.03436
-0.03823 0.11957 -0.06195
-0.14281 0.11926 -0.04151
-0.18419 0.11959 -0.06337
-0.13116 0.11924 -0.04014
-0.03358 0.11923 -0.03936
-0.09764 0.11912 -0.03277
0.21532 0.16952 -0.29511
-0.13462 -0.03260 0.26396
-0.12799 0.09647 -0.18414
-0.16891 0.08425 -0.18208
-0.08352 -0.07082 -0.23393
0.13544 0.06962 0.03707
0.13986 0.06962 0.15530
0.14094 0.06962 0.19835
0.13936 0.06962 0.31339
0.12397 0.06962 -0.02149
0.12782 0.06962 0.37303
0.14391 0.06962 0.30959
0.12435 0.06962 -0.01213
0.20049 0.15469 -0.28516
-0.04344 0.15487 -0.28710
-0.08354 -0.21138 0.26122
0.14725 -0.06558 -0.17286
-0.17996 0.11581 0.09974
0.19010 -0.06235 0.28783
0.22294 -0.06153 0.28783
-0.09060 -0.13455 0.22013
-0.09435 -0.05857 0.22972
-0.05483 -0.11122 -0.25791
0.18623 -0.13495 0.29266
0.16342 0.01253 0.28508
0.14608 -0.03066 -0.21219
-0.12588 0.16988 -0.34087
-0.21852 0.17346 -0.34804
-0.07434 -0.12269 -0.30806
-0.13349 -0.05517 0.25146
-0.22617 0.19288 0.37720
-0.07776 0.19676 0.38170
-0.15321 0.11935 -0.11888
-0.16817 0.11935 -0.12752
-0.17627 0.11935 -0.16953
0.22171 0.20074 -0.37661
0.18400 0.08730 0.29147
0.19446 -0.14927 -0.27040
0.11359 0.17698 -0.35431
0.18979 0.17738 -0.35500
0.12090 0.09275 0.21862
-0.10844 0.17804 0.35615
-0.22251 0.17592 0.35249
-0.21148 0.10722 0.14720
-0.14184 0.08616 0.24006
-0.12223 -0.15523 0.30172
-0.12633 0.11906 -0.14149
0.16569 0.15682 0.30052
0.19088 0.15690 0.30086
-0.11803 -0.07053 -0.23524
0.11311 -0.10859 0.23902
0.23030 0.13032 0.20910
-0.11570 0.13589 0.30847
-0.23030 0.13687 0.25756
-0.23030 0.13831 0.16220
-0.23030 0.14674 0.21318
-0.14176 0.12140 -0.30396
-0.06718 -0.04515 -0.28206
-0.14033 -0.11900 -0.28177
0.14407 -0.03290 -0.17601
0.10261 0.15570 -0.29349
0.12355 0.15568 -0.29336
-0.12876 -0.15961 0.23683
-0.07132 -0.21138 0.26742
0.20311 0.17332 0.34775
0.14754 -0.21138 0.28515
0.15218 -0.09709 -0.26947
0.12718 -0.06239 -0.23597
0.14233 -0.18520 0.22843
-0.14666 0.11969 -0.06623
0.11897 0.12107 -0.09625
0.08859 0.12121 -0.09938
0.21652 0.12197 -0.11595
0.10119 0.12043 -0.08241
0.12127 0.12133 -0.10200
0.17365 0.12180 -0.11225
0.19207 0.12100 -0.09473
0.19910 0.12081 -0.09061
-0.04605 0.12020 -0.07731
0.06924 0.12005 -0.07400
0.18501 -0.07460 -0.27166
-0.14466 0.08676 0.28046
-0.06955 -0.12624 -0.30520
0.11169 -0.18771 -0.25780
-0.22230 0.15535 0.29125
-0.19464 0.15545 0.29189
-0.13972 0.09122 0.12930
0.14128 -0.03006 0.18284
0.09944 0.08484 0.29344
-0.20663 0.11935 -0.17145
-0.19310 0.11935 -0.16875
-0.15491 0.11935 -0.13733
-0.14055 0.08581 0.29397
0.17048 0.13013 0.30566
0.14782 -0.00210 -0.20939
0.18204 -0.09659 -0.24659
-0.09589 0.04852 0.28860
-0.23030 0.14591 0.10021
-0.23030 0.13996 0.18516
-0.23030 0.14605 0.01899
-0.23030 0.13882 0.23733
-0.12070 0.12091 -0.08178
0.13298 -0.00715 0.38219
0.13745 -0.00715 -0.03321
0.14083 -0.00715 -0.13286
-0.14236 0.09882 -0.18414
0.11179 -0.01777 -0.27470
0.10251 -0.12657 -0.27616
-0.20112 0.19854 0.38424
-0.11503 0.08637 -0.16667
-0.11503 0.10129 -0.17018
-0.11503 0.09988 -0.12643
0.14413 0.11329 -0.21977
0.15263 0.08849 -0.25522
-0.13287 -0.07728 -0.28927
0.11272 0.09611 0.30688
-0.12778 0.09230 0.30960
0.11456 -0.02035 0.28073
-0.15148 0.13589 0.26985
0.08990 0.09438 -0.26704
0.17502 -0.21138 0.25170
0.09883 0.10070 -0.24155
-0.19254 0.18221 -0.36273
-0.15674 0.18037 -0.35997
-0.13076 -0.06526 0.26064
-0.14493 0.10858 -0.08818
0.16607 -0.10722 0.30434
0.15762 -0.03769 0.29763
-0.16995 0.13211 0.23632
0.15067 0.12788 0.19686
0.14521 0.12822 0.20000
-0.17475 0.13237 0.23875
-0.03966 0.13032 0.21960
-0.04553 0.13045 0.22079
-0.05280 0.13157 0.23129
-0.22101 0.12922 0.20932
-0.20877 0.13215 0.23676
-0.15686 0.13252 0.24016
0.18575 0.13589 0.25592
0.11850 -0.03274 0.24382
0.12803 -0.09101 -0.23236
0.12456 0.06962 -0.19131
0.14308 0.06962 0.30194
0.12519 0.06962 -0.22318
0.12608 0.06962 0.25701
0.12804 0.06962 -0.23943
0.12859 0.06962 0.19596
0.13000 0.06962 0.27909
0.13399 0.06962 0.16248
-0.13807 -0.16641 0.27287
0.14988 0.13354 -0.02446
-0.04280 0.13371 0.25125
0.22463 0.13109 0.22681
0.02830 0.13382 0.25229
0.14437 0.13196 0.23497
0.13179 0.13279 0.24273
0.12857 0.13011 0.21766
0.20258 0.12896 0.20694
-0.21826 0.13420 0.25590
0.02156 0.13309 0.24549
0.18426 0.12901 0.20736
0.08184 0.13298 0.24449
0.02114 0.13119 0.22775
-0.10194 0.05383 -0.29129
0.17978 0.17090 0.34292
-0.02174 0.17093 0.34297
-0.18708 0.15388 -0.27096
-0.11086 0.07719 0.24724
-0.06163 0.15404 0.27615
0.02379 0.15404 0.27607
-0.05473 -0.10941 0.27504
-0.16392 0.07351 0.10614
0.20754 0.18499 -0.38383
0.09030 0.16820 -0.38383
-0.17234 0.18216 -0.38383
0.20392 0.17562 -0.38383
-0.00752 0.17489 -0.38383
0.16944 -0.05923 0.26064
-0.13132 -0.02492 -0.25596
0.15958 -0.18935 -0.23236
-0.05028 -0.07125 -0.28324
-0.06865 0.13589 -0.27646
0.22790 0.14173 -0.11603
0.10594 -0.13171 0.28533
0.10355 -0.14001 0.28167
-0.11960 -0.07125 -0.28680
-0.10764 0.04821 -0.29180
0.13740 -0.21138 -0.26481
0.21937 0.16925 0.10119
-0.10594 -0.01348 0.23539
-0.17516 0.11935 0.13605
-0.17858 0.11935 0.14842
-0.18482 0.11935 0.13245
-0.10792 0.15427 -0.07919
-0.19254 0.19191 0.37607
-0.12921 0.19172 0.37585
-0.20513 0.07299 0.10614
0.14099 -0.04968 0.15918
-0.10984 0.06555 0.28737
-0.23030 0.12965 -0.01504
-0.10444 0.11820 0.31542
-0.11728 0.12239 0.18858
0.12967 0.08313 -0.02141
0.12967 0.10369 -0.02445
0.14441 -0.07073 0.19242
0.22993 0.14691 0.07421
-0.13177 -0.00171 -0.27243
0.14477 -0.09583 -0.31050
0.15651 0.13589 -0.27546
0.19554 0.19217 -0.39023
0.15195 -0.04661 0.20533
0.12375 0.13589 0.29026
0.12317 -0.02392 0.24084
0.15046 0.06415 0.38613
-0.23030 0.14908 -0.30828
-0.14744 0.07827 -0.08178
0.04069 0.16084 0.31687
0.22926 0.12620 0.04420
0.16001 -0.11317 -0.31082
-0.00433 0.18821 -0.37122
-0.18936 0.18651 -0.36899
-0.17890 0.11758 -0.18414
-0.21467 0.07278 -0.08818
0.15377 -0.06660 0.27305
0.03780 -0.06660 0.26772
-0.06461 0.13589 0.27856
0.18835 0.18351 -0.36470
-0.08036 0.18364 -0.36489
-0.08575 -0.01786 0.23817
-0.16095 0.16351 -0.32512
-0.08670 0.16377 -0.32584
-0.08854 0.16486 0.32893
-0.13720 0.16279 0.32309
-0.12745 0.10072 -0.31478
-0.06136 0.15462 0.28441
0.06082 0.15141 0.10104
0.03098 0.15141 0.13190
0.09994 0.15141 0.14976
-0.08460 0.15141 0.25254
0.02759 0.15141 0.10411
-0.08543 0.15141 0.26422
-0.01427 0.15141 0.26542
-0.22617 0.15141 0.19295
-0.16696 0.15141 -0.17924
-0.13767 0.15141 -0.03098
0.12793 0.15141 0.24510
-0.13519 0.15141 0.12875
-0.03055 0.15141 0.00221
-0.18860 0.15141 -0.07441
-0.14513 0.15141 0.13739
-0.02756 0.15141 0.10003
-0.12050 0.15141 0.10743
-0.20969 0.15141 0.07496
-0.13068 0.15141 0.02927
-0.21912 0.15141 -0.04178
0.08970 0.15141 0.22847
-0.06389 0.15141 -0.05336
-0.18712 0.15141 -0.00096
-0.05585 0.15141 0.21078
-0.04126 0.15141 0.24404
0.15007 0.15141 0.23787
0.00524 0.15141 0.03557
-0.10442 0.15141 -0.09661
-0.17350 0.15141 0.17251
-0.15130 0.15141 0.24080
-0.19335 0.15141 0.13053
-0.01224 0.15141 0.01710
-0.16779 0.15141 0.15514
0.07575 0.15141 0.22404
-0.19177 0.15141 -0.09351
-0.20877 0.15141 -0.10302
0.08978 0.15141 0.16678
-0.20639 0.15141 0.12548
-0.21483 0.15141 0.05237
-0.09720 0.15141 0.25247
-0.00838 0.15141 0.26004
-0.18953 0.15141 0.26838
-0.06998 0.15141 0.20426
-0.11908 0.15141 0.09958
-0.08673 0.15141 0.19493
0.17107 0.15141 0.22949
-0.14221 0.15141 0.01331
0.03190 0.15141 0.23393
-0.12303 0.15141 -0.08919
-0.00737 0.15141 0.04485
0.05771 0.15141 0.13065
-0.17170 0.15141 -0.10180
-0.10901 0.15141 0.17915
-0.02962 0.15141 0.11891
-0.16206 0.15141 0.11236
0.01762 0.15141 0.26277
-0.12943 0.15141 0.15216
-0.23028 0.15141 0.08225
-0.22270 0.15141 -0.08256
-0.13778 0.15141 -0.10183
-0.06747 0.15141 0.24159
-0.06899 0.15141 0.03038
-0.20243 0.15141 -0.15471
-0.15680 0.15141 -0.17805
-0.21968 0.15141 0.25335
-0.16908 0.15141 -0.12988
-0.05596 0.15141 0.00646
-0.00783 0.15141 0.25221
-0.06751 0.15141 -0.00571
-0.15737 0.15141 0.02993
-0.06848 0.15141 0.01780
-0.02466 0.15141 0.07247
-0.22996 0.15141 0.25139
-0.21141 0.15141 0.23506
0.01817 0.15141 0.13759
-0.21124 0.15141 -0.11923
-0.16478 0.15141 -0.00409
-0.20769 0.15141 -0.04623
-0.17822 0.15141 0.07846
-0.16977 0.15141 0.14191
-0.14651 0.15141 0.07845
-0.11635 0.15141 -0.02909
-0.00571 0.15141 0.19852
-0.07449 0.15141 0.04553
-0.20926 0.15141 -0.09726
-0.19467 0.15141 0.05485
-0.07456 0.15141 0.06696
-0.02361 0.15141 0.01526
-0.17980 0.15141 0.25258
0.04318 0.15141 0.26356
-0.15521 0.15141 0.20182
-0.22968 0.15141 -0.21959
0.08269 0.15141 0.15452
0.15970 -0.02698 -0.29789
-0.07075 0.09932 0.22670
-0.13256 -0.18356 -0.25474
-0.10745 0.09884 -0.32038
0.21617 0.19682 -0.36881
0.12327 0.06278 0.29409
0.12327 0.06636 0.11639
0.12327 0.06624 0.08849
-0.21219 0.08388 0.19570
0.12824 0.04937 0.28635
-0.14519 -0.11396 0.27983
0.03357 -0.12984 0.27983
-0.10444 -0.08769 0.27983
0.04684 -0.11721 0.27983
-0.07580 -0.12997 0.27983
-0.15137 -0.09692 0.27983
-0.04317 -0.11486 0.27983
-0.01720 -0.11158 0.27983
0.02637 -0.10364 0.27983
0.01607 -0.10963 0.27983
0.14768 -0.08904 0.24887
0.15017 -0.08904 0.05292
-0.07426 0.09010 0.26646
0.12620 -0.05105 -0.23788
-0.05470 0.09482 0.25121
0.04170 0.11957 0.06215
0.19290 0.11918 0.03650
-0.08761 0.11943 0.05283
0.16817 0.11921 0.03819
0.01301 0.11917 0.03544
0.06162 0.11940 0.05077
0.13659 0.11883 0.01338
-0.17538 0.11951 0.05802
0.21696 0.11867 0.00312
0.03659 0.11941 0.05125
-0.13181 0.11951 0.05793
0.15546 0.11883 0.01364
0.13865 0.13589 -0.28191
-0.11196 -0.21039 0.23681
-0.15574 0.11935 0.16467
-0.17819 0.11935 0.18520
-0.14934 0.11935 0.15199
-0.17163 0.16425 0.32721
-0.07090 0.08631 -0.29944
-0.15226 0.06962 0.17336
-0.16498 0.06962 0.15884
0.17991 -0.09562 -0.26797
0.19602 -0.11669 -0.26797
0.05400 -0.09865 -0.26797
0.12862 -0.10164 -0.26797
0.11398 -0.07803 -0.26797
0.11108 -0.08780 -0.26797
0.16069 -0.09580 -0.26797
0.09427 -0.09293 -0.26797
0.14506 -0.02956 0.29949
-0.20384 0.16023 -0.31472
-0.18254 0.15964 -0.31266
-0.09608 0.14116 0.30649
0.09214 0.14012 0.29894
0.11799 0.13718 0.27765
0.14766 0.13801 0.28369
0.17523 0.13729 0.27846
-0.10083 0.14280 0.31838
-0.16476 0.14286 0.31884
0.02087 0.13990 0.29733
0.10682 0.13840 0.28646
0.13513 0.14098 0.30518
-0.14470 0.14280 0.31841
0.16672 0.13780 0.28212
0.13463 -0.04380 0.23231
-0.19609 0.10089 0.19570
0.13227 0.13589 -0.30483
-0.11503 0.10372 0.19334
-0.11503 0.07687 0.18589
0.13451 -0.16048 -0.30982
0.15160 -0.02439 0.17710
-0.14142 -0.12058 -0.26070
0.14245 -0.11420 0.22256
-0.00104 0.18413 0.36563
0.05177 0.18372 0.36501
0.14330 -0.13573 -0.22313
-0.12404 -0.21078 -0.24974
-0.05780 0.12304 0.28593
0.10742 -0.08613 0.25345
-0.12265 -0.06080 -0.23975
-0.15373 0.08627 0.25372
-0.07304 -0.03188 0.28555
0.14913 0.06002 0.37931
0.14995 0.06002 -0.03801
0.14599 0.06002 0.13056
-0.21551 0.10050 -0.08818
0.08300 0.15022 0.36262
-0.05951 0.15121 0.36845
-0.10252 0.15201 0.37316
0.22201 0.14999 0.36126
-0.00728 0.15161 0.37084
-0.00682 0.15031 0.36313
0.07690 0.15327 0.38064
0.18459 0.14646 0.34039
0.00056 0.15034 0.36332
0.05751 0.15162 0.37091
0.09304 0.15322 0.38034
-0.00716 0.15336 0.38119
0.09012 0.08651 0.26938
-0.07345 -0.04703 -0.29259
0.14425 -0.07679 -0.17507
-0.08481 0.07395 -0.27402
-0.05402 -0.11264 -0.27623
0.14134 -0.06749 0.18795
-0.05735 -0.10774 0.28185
0.10494 -0.16174 -0.26974
0.17196 0.16407 -0.32669
-0.13538 0.16479 -0.32875
0.18133 -0.08568 0.24524
-0.23030 0.14072 -0.06542
0.18095 0.15410 0.27791
0.16293 0.15403 0.27564
0.22218 0.16412 -0.22196
0.17816 0.11300 0.23073
-0.13138 0.09127 0.26414
0.23030 0.12590 0.05111
0.13944 -0.13147 -0.31407
0.16698 0.18621 0.38597
-0.11654 0.12239 0.10698
0.11766 -0.17405 0.23942
0.01980 0.13483 0.26061
-0.05337 0.13574 0.26718
-0.15542 0.13800 0.28362
-0.15363 0.13447 0.25798
-0.01738 0.13747 0.27976
-0.09237 0.13827 0.28554
0.03039 0.13669 0.27407
-0.17790 0.13912 0.29169
-0.18532 0.13535 0.26441
-0.12273 0.13538 0.26460
-0.08725 0.13532 0.26416
-0.21415 0.13511 0.26267
-0.12121 0.13589 0.30767
0.12491 -0.10580 0.22899
0.15180 -0.00868 0.19284
0.14604 -0.16581 -0.06938
0.17782 -0.14045 0.30245
0.14158 -0.03914 0.20726
0.15697 -0.11664 -0.17466
0.15697 -0.13319 -0.09926
0.15697 -0.12218 -0.09998
0.15697 -0.10137 -0.15438
0.15697 -0.09831 -0.02652
0.15697 -0.11007 -0.24914
0.15697 -0.11772 -0.05180
0.15697 -0.16340 -0.26695
0.15697 -0.14134 -0.25395
0.15697 -0.09021 -0.18051
0.15697 -0.11697 0.01736
0.15697 -0.10376 0.05583
0.15697 -0.09259 -0.02794
0.15697 -0.14884 -0.24147
0.15697 -0.09406 0.01276
0.15697 -0.12764 -0.08556
-0.05373 0.12290 -0.27721
-0.19241 0.09984 -0.08706
0.19265 -0.12374 0.25960
-0.06519 0.15368 -0.15512
0.13706 0.15141 -0.06904
-0.01260 0.15141 -0.25055
0.02034 0.15141 -0.02205
-0.02019 0.15141 -0.10101
0.13247 0.15141 -0.06236
0.21313 0.15141 -0.14644
0.17900 0.15141 -0.07148
-0.10513 0.15141 -0.23083
-0.11908 0.15141 -0.16275
-0.05710 0.15141 -0.22939
-0.05536 0.15141 -0.21755
-0.07834 0.15141 -0.18946
0.08959 0.15141 -0.26104
0.12141 0.15141 -0.06864
0.14463 0.15141 0.17181
0.06020 0.15141 -0.01552
0.19167 0.15141 -0.08378
-0.17330 0.15141 -0.20632
0.19783 0.15141 0.06193
-0.13369 0.15141 -0.21249
0.18489 0.15141 -0.20659
-0.14999 0.15141 -0.17373
0.12659 0.15141 -0.11285
-0.00069 0.15141 -0.17948
0.17760 0.15141 -0.20667
-0.15278 0.15141 -0.21340
0.19964 0.15141 0.12427
0.11006 0.15141 -0.16559
-0.05953 0.15141 -0.14429
0.02891 0.15141 0.00897
0.09663 0.15141 -0.17469
0.03179 0.15141 -0.25591
0.18356 0.15141 0.11375
0.05868 0.15141 -0.19355
-0.12388 0.15141 -0.19531
0.10169 0.15141 -0.02209
0.05882 0.15141 -0.09040
0.17368 0.15141 -0.01803
0.10200 0.15141 0.08881
0.12085 0.15141 0.09285
-0.15200 0.15141 -0.26129
0.04919 0.15141 -0.01318
0.01563 0.15141 -0.06931
0.10600 0.15141 0.13593
-0.03349 0.15141 -0.06303
-0.02422 0.15141 -0.25417
0.08856 0.15141 0.11443
0.14721 0.15141 0.04825
-0.08023 0.15141 -0.20920
-0.08020 0.15141 -0.22725
0.04926 0.15141 -0.17351
0.00965 0.15141 -0.15776
-0.02390 0.15141 -0.20953
-0.03491 0.15141 -0.18266
0.08988 0.15141 0.03458
0.18786 0.15141 0.05548
0.20784 0.15141 0.12076
-0.10362 0.15141 -0.15143
0.04390 0.15141 -0.22082
0.05668 0.15141 -0.07280
0.21356 0.15141 0.04804
0.19521 0.15141 0.20611
0.14999 0.15141 -0.12456
0.02699 0.15141 -0.00140
0.20262 0.15141 -0.04297
0.16773 0.15141 0.11509
0.10959 0.15141 0.04170
-0.02693 0.15141 -0.11977
0.21149 0.15141 -0.24411
0.09285 0.15141 -0.13907
-0.14630 0.15141 -0.21987
0.03100 0.15141 -0.18391
0.01351 0.15141 -0.21676
0.07902 0.15141 -0.14492
0.05402 0.15141 0.05824
0.19904 0.15141 0.08786
0.16245 0.15141 -0.19045
0.21208 0.15141 0.20889
0.02571 0.15141 -0.25594
0.18920 0.15141 -0.05062
0.14156 0.15141 0.06590
0.08484 0.15141 0.07434
0.07224 0.15141 -0.17237
0.03003 0.15141 -0.20459
0.21255 0.15141 -0.22868
-0.08267 0.15141 -0.09528
-0.06421 0.15141 -0.18251
0.09275 0.15141 -0.23605
0.15481 0.15141 -0.00918
0.18980 0.15141 -0.03110
0.19962 0.15141 -0.25974
-0.14706 0.15141 -0.19228
-0.01501 0.15141 -0.17960
0.17394 0.10465 -0.04574
0.21579 0.15381 0.01723
0.21471 0.15381 0.10621
-0.23030 0.12016 -0.06534
0.21700 0.18435 -0.25971
-0.14020 0.11789 0.22920
0.21688 0.18527 0.27352
0.18450 -0.16781 0.24378
-0.20748 0.11009 -0.08381
-0.04142 0.19850 -0.38449
0.14758 -0.16581 0.12758
0.14780 -0.16581 0.18927
0.15421 -0.16581 -0.12950
0.13917 0.06962 0.02888
0.14576 0.13589 0.27113
0.16070 -0.08775 0.22827
-0.23030 0.13775 -0.13562
0.07642 -0.05748 0.28783
0.05593 -0.05811 0.28783
0.14530 0.07122 0.05280
0.09135 0.09165 -0.28304
-0.04530 -0.06166 -0.26732
-0.08807 -0.06166 -0.27218
0.06304 -0.06166 -0.26405
0.04201 -0.06166 -0.27045
0.17518 -0.06166 -0.26338
-0.09958 -0.18353 0.30472
0.11027 0.13414 0.30507
0.13714 0.06962 -0.07074
0.14456 0.06962 -0.20494
0.14968 0.06962 -0.01723
0.14061 0.06962 -0.28614
0.14552 0.06962 -0.26980
0.12789 0.06962 -0.34740
0.13102 0.06962 -0.29747
0.14027 0.06962 -0.15472
0.16094 -0.21138 0.26005
0.21697 0.20308 -0.35772
0.08491 0.15553 0.29241
0.08977 0.15514 0.28990
0.11473 -0.19024 -0.25207
0.18372 0.08523 -0.29729
0.22213 0.16737 -0.24501
-0.05136 0.16682 -0.33380
-0.13343 0.16668 -0.33348
-0.15765 0.10033 -0.08178
0.15268 0.11791 -0.31932
0.14754 0.05713 0.24505
-0.10526 0.15424 -0.16685
-0.08203 0.05872 0.27062
0.14061 0.04127 0.38234
-0.08572 0.07902 -0.26304
0.14406 0.12171 -0.03065
0.22260 0.17716 -0.32696
0.11333 -0.15135 0.29428
0.15286 0.13589 0.21758
0.23030 0.13459 -0.20840
-0.20390 0.08631 -0.17774
0.22868 0.11901 -0.02518
0.20844 0.11875 -0.00807
-0.17911 0.11865 -0.00154
-0.11107 0.11877 -0.00959
0.18880 0.11950 -0.05708
0.03331 0.11906 -0.02838
0.04972 0.11871 -0.00545
0.21182 0.11868 -0.00355
0.07207 0.11909 -0.03066
-0.19544 0.11863 -0.00024
-0.02819 0.11903 -0.02675
-0.18781 0.11865 -0.00129
-0.04186 0.15085 0.36635
0.08557 0.15269 0.37719
0.03200 0.15053 0.36443
-0.10749 0.15103 0.36742
0.06729 0.15147 0.37001
0.02904 0.14838 0.35171
0.14685 0.15108 0.36768
-0.17783 0.15328 0.38071
0.15901 0.14930 0.35719
0.11806 0.15112 0.36793
0.22790 0.14532 0.00146
0.22790 0.14664 -0.12401
0.18456 -0.20089 0.26216
-0.20602 0.10941 -0.17835
0.06085 -0.06669 -0.25997
-0.20299 0.11005 0.20010
0.17650 -0.19931 -0.24538
0.22069 0.16895 -0.13807
0.13148 -0.19239 -0.23565
-0.12431 0.08606 -0.26589
0.19152 0.13577 -0.26758
-0.00405 -0.05700 0.27531
-0.15603 -0.05700 0.27958
0.17217 -0.05700 0.28506
-0.06576 -0.05700 0.28117
-0.21658 0.07974 -0.12355
-0.22298 0.09072 -0.11899
-0.16039 0.10394 0.19570
0.15046 0.06922 0.09071
0.15046 0.06694 0.16481
0.15046 0.06439 0.04235
0.12965 0.06002 -0.37778
-0.13209 -0.05525 0.28387
-0.14413 0.10032 0.23417
-0.13171 -0.19408 0.25594
0.14246 0.05464 -0.26608
0.14246 0.02832 0.00801
0.14246 0.03149 -0.22372
0.14246 0.04711 -0.36076
0.14246 0.03002 0.03096
0.14246 0.05341 -0.22738
0.14246 0.05675 0.23898
0.14246 0.05195 0.07607
0.14246 0.05131 0.12854
0.14246 0.02022 -0.35777
0.14246 0.04356 0.16571
0.14246 0.02541 -0.03524
0.14246 0.01608 -0.31949
0.14246 0.05242 -0.10231
0.14246 0.04112 -0.13597
0.14246 0.04689 0.22025
0.14246 0.04819 0.15091
0.14246 0.02442 -0.09790
0.14246 0.05554 -0.24239
0.22323 0.16117 0.28485
-0.14243 0.10058 -0.17674
-0.11768 0.07339 0.09974
0.09050 0.13203 0.27196
0.19670 0.15782 -0.30505
0.14915 0.15803 -0.30601
0.18374 -0.07125 -0.28550
-0.07021 -0.11381 0.23160
-0.08299 0.17660 -0.35366
-0.20416 0.17435 -0.34979
0.22017 0.15381 0.05502
0.22257 0.15381 0.11243
-0.13571 -0.11187 0.28795
-0.10308 -0.15947 -0.22629
-0.12052 -0.16400 -0.23403
0.11328 0.08881 -0.29253
0.21792 0.21005 -0.37779
0.09330 0.08559 -0.26538
0.18306 0.13205 -0.29811
-0.00627 0.17390 -0.34891
0.16158 0.17328 -0.34767
0.18666 -0.08294 -0.26992
0.15396 -0.15640 -0.26947
-0.05609 -0.18174 -0.26926
0.12888 0.13589 0.30360
0.11491 0.00508 0.27596
-0.06551 0.08777 0.26101
-0.09228 0.01014 0.23985
0.13041 0.06002 0.19052
0.12975 0.06002 0.04415
0.13708 0.06002 -0.26423
0.14737 -0.01620 0.23497
-0.14243 0.07731 -0.12844
-0.14243 0.06981 -0.14402
0.23030 0.15195 -0.07204
-0.08815 0.08533 0.31044
0.22790 0.14145 -0.19436
-0.04834 -0.12928 -0.26797
-0.06187 -0.13215 -0.26797
0.00121 -0.11218 -0.26797
-0.00710 -0.11016 -0.26797
-0.09002 -0.08768 -0.26797
0.10711 -0.13196 -0.26797
0.06038 -0.11469 -0.26797
-0.04363 -0.12022 -0.26797
-0.11302 0.03102 -0.24488
0.11546 0.08768 0.29613
-0.07505 -0.07577 0.27983
-0.01639 -0.09215 0.27983
0.17528 -0.07178 0.27983
0.08997 -0.10229 0.27983
0.14153 -0.07582 0.27983
0.18348 -0.08569 0.27983
0.20306 -0.09521 0.27983
0.08117 -0.07791 0.27983
0.19580 -0.08515 0.27983
-0.15226 0.18982 0.38971
-0.08905 0.05558 -0.25147
0.22381 0.16022 0.31090
0.09309 0.08583 0.28237
-0.08451 -0.21138 -0.27993
0.11376 -0.11030 -0.29707
0.10659 -0.16721 0.27154
-0.05268 -0.13343 0.28128
-0.09370 -0.06660 0.28113
-0.00106 -0.06660 0.28066
-0.09883 -0.18932 0.22874
0.00826 0.11962 -0.06457
0.20036 0.11970 -0.06642
0.07406 0.12152 -0.10612
-0.01816 0.12006 -0.07432
0.21918 0.12148 -0.10527
0.20278 0.12234 -0.12421
0.17192 0.11964 -0.06502
0.02012 0.11986 -0.06989
-0.01993 0.12048 -0.08348
-0.04858 0.12045 -0.08282
0.09024 0.12075 -0.08932
-0.02287 0.12018 -0.07686
0.13262 -0.13377 0.27277
0.09505 -0.13377 0.27015
-0.14789 0.15517 -0.29010
-0.10520 0.15607 -0.29585
0.11807 0.12850 -0.22492
0.14246 0.00957 -0.08595
0.14246 0.00741 0.34331
0.14246 -0.00329 0.35761
0.14246 0.00042 0.12360
0.14246 0.00131 0.32849
0.14246 0.02222 0.29745
0.14246 0.02266 0.35380
0.14246 0.04650 0.37187
0.14246 0.01394 0.01083
0.14246 -0.00426 0.07626
0.14246 0.00152 -0.09307
0.14246 0.03533 0.15557
0.14246 0.01775 0.23067
0.14246 0.01967 0.01956
0.14246 0.00127 -0.07947
0.14246 0.01321 0.18692
0.14246 0.01072 0.11614
0.14246 -0.00273 0.01214
0.18703 -0.09663 -0.28118
0.07206 0.12511 -0.16217
0.06250 0.12281 -0.13204
0.19179 0.12344 -0.14033
0.03798 0.12391 -0.14650
-0.00939 0.12472 -0.15707
0.16629 0.12286 -0.13266
0.08752 0.12368 -0.14350
-0.00672 0.12361 -0.14255
-0.05115 0.12412 -0.14926
0.19871 0.12701 -0.18710
0.21909 0.12403 -0.14806
0.22803 0.12290 -0.13321
0.14405 0.13589 -0.28227
-0.16992 0.09097 -0.18414
-0.08927 0.15520 0.29027
0.20586 0.15553 0.29240
0.12967 0.03519 0.13949
0.12967 0.04799 -0.06625
0.12967 0.04294 -0.08479
0.12967 0.00454 0.25857
0.12967 0.01269 0.20365
0.12967 0.02736 0.11234
0.12967 0.02528 0.25940
0.12967 0.04721 -0.03604
0.12967 0.05658 0.23017
0.12967 0.02893 0.13675
0.12967 0.02350 0.08567
0.12967 0.05789 -0.09312
0.12967 0.01443 0.31739
0.12967 0.03454 -0.03556
0.12967 0.03929 0.07160
0.12967 0.03381 0.08823
0.12967 0.02070 0.29181
0.12967 0.04537 0.35897
0.12967 0.04732 -0.01734
-0.03219 -0.10251 0.26704
0.13518 -0.07276 0.26704
0.18762 -0.06937 0.26704
0.07581 -0.08665 0.26704
0.05088 -0.06660 0.26704
-0.10125 -0.07278 0.26704
-0.15726 -0.10668 0.26704
-0.09215 -0.09011 0.26704
0.13460 -0.07882 0.26704
-0.07666 -0.15247 0.22575
0.17026 0.00374 -0.25867
0.16432 0.03802 -0.25866
-0.13532 0.07707 0.19167
-0.07369 -0.21138 0.25441
0.13369 0.06962 0.01729
-0.18367 0.12827 -0.20048
0.01661 0.13349 -0.24922
0.04149 0.13170 -0.23254
0.11047 0.13400 -0.25402
-0.16293 0.13322 -0.24670
-0.21973 0.13337 -0.24808
-0.09731 0.13281 -0.24283
0.04426 0.13267 -0.24153
-0.02533 0.13109 -0.22685
0.00830 0.13303 -0.24493
-0.22077 0.12766 -0.19477
-0.15160 0.13002 -0.21678
0.20457 0.19158 0.39015
-0.09070 0.09341 0.25789
-0.18843 0.10075 0.09974
0.13083 0.06002 -0.07012
0.12973 0.06002 0.17499
0.13116 0.06002 -0.27027
-0.17070 0.10528 -0.08178
-0.06877 -0.07125 -0.27575
-0.13199 -0.07125 -0.26891
-0.11918 -0.08773 0.30105
0.22790 0.14422 -0.01181
0.17267 -0.17305 -0.23577
0.15386 0.13589 -0.28348
-0.09082 -0.07125 -0.26382
-0.13956 0.09123 0.20209
-0.23030 0.14382 -0.07134
-0.23030 0.13783 0.03718
0.11483 -0.20808 0.26095
-0.11469 -0.00443 -0.29592
0.22298 0.15724 -0.09295
0.22163 0.16228 0.08366
0.22322 0.15637 -0.01382
-0.10880 0.15429 -0.21509
0.22991 0.15381 -0.01731
0.12510 0.13589 -0.25304
0.15015 0.13388 0.03998
0.15438 -0.08283 -0.23004
0.17384 -0.14429 0.30471
-0.15026 0.10331 0.10614
0.18124 0.13564 0.29515
-0.23030 0.15114 0.32444
0.23030 0.15188 -0.23632
0.22005 0.19971 -0.38383
-0.12261 -0.09338 -0.30229
-0.13501 0.10643 0.09974
0.16676 -0.21138 0.24261
-0.16563 0.19614 -0.38099
0.11209 -0.01678 -0.26179
0.10423 -0.10537 -0.26309
0.14137 0.15287 -0.37825
-0.06141 0.15266 -0.37705
-0.20151 0.14578 -0.33638
-0.10446 0.15057 -0.36467
0.06461 0.15200 -0.37312
-0.02420 0.15203 -0.37332
-0.11940 0.14663 -0.34138
0.04555 0.15267 -0.37707
-0.08505 0.14836 -0.35165
-0.10651 0.15256 -0.37645
0.08975 0.15086 -0.36640
-0.01395 0.15367 -0.38299
0.11216 0.09528 -0.22850
0.17769 -0.18709 -0.24336
-0.23030 0.13176 -0.00025
-0.23030 0.12149 0.10279
-0.06501 0.11671 0.23263
-0.23030 0.19446 0.38072
0.14417 -0.09675 0.04167
0.14417 -0.09612 0.25050
0.14417 -0.12441 0.24495
0.14417 -0.10581 -0.02793
0.14417 -0.09194 0.24256
0.14417 -0.11672 0.09891
0.14417 -0.10382 0.19016
0.14417 -0.09146 0.01061
0.14417 -0.12444 0.06006
0.14417 -0.12512 0.17723
0.14417 -0.13843 0.22503
0.14417 -0.08976 0.10843
0.14417 -0.11509 0.10759
0.14417 -0.10362 0.21707
0.14417 -0.14400 0.22104
0.14417 -0.12604 0.11823
0.15769 -0.21138 -0.25691
-0.09314 0.19750 -0.38733
-0.12076 0.12239 -0.11631
-0.11165 0.08814 -0.22037
0.18340 -0.13191 -0.29878
0.17512 -0.05455 -0.28963
0.13501 0.08744 -0.30935
-0.12317 -0.11958 0.22971
0.12164 0.13589 -0.29475
0.16499 0.02829 -0.28091
-0.16546 0.08402 -0.08444
0.15163 -0.13843 -0.27105
0.14334 -0.20022 -0.23347
0.18879 0.13589 -0.25942
0.14231 -0.03454 0.21361
0.17405 -0.11973 -0.30478
0.16428 -0.03981 -0.29709
0.14541 0.14653 -0.34080
0.11807 0.14825 -0.35099
0.12934 0.14527 -0.33332
-0.02169 0.14378 -0.32455
0.21245 0.14364 -0.32375
0.19566 0.14901 -0.35548
0.01511 0.14787 -0.34870
0.13959 0.14331 -0.32176
-0.04212 0.14579 -0.33645
0.20067 0.14958 -0.35885
0.00048 0.14651 -0.34069
-0.12676 -0.04352 -0.24572
0.17558 0.13589 -0.27258
0.12577 0.11565 0.21653
-0.11000 -0.05334 -0.30384
-0.10593 0.11239 0.21436
0.14623 -0.01021 -0.21060
0.15092 -0.05700 0.26463
0.12912 -0.05700 0.26382
0.14498 -0.05700 0.27771
0.16605 -0.03023 0.29129
0.11964 0.04275 -0.28074
-0.23030 0.14198 -0.08599
0.17933 -0.20039 -0.28784
-0.19357 0.12096 -0.09402
-0.21709 0.12218 -0.12049
-0.03537 0.12249 -0.12735
0.03336 0.12129 -0.10121
-0.20384 0.12007 -0.07436
-0.09436 0.12129 -0.10105
0.04727 0.12149 -0.10552
-0.03374 0.12164 -0.10873
-0.19887 0.12057 -0.08533
-0.11343 0.12069 -0.08798
-0.07608 0.00243 -0.25419
-0.09950 -0.13737 0.31224
0.22579 0.15381 0.18589
0.22930 0.15381 0.21056
0.22790 0.13558 -0.02284
0.18386 0.10937 -0.24330
0.18299 0.17359 -0.34829
-0.01400 0.17393 -0.34897
0.15996 -0.00107 -0.24432
-0.12745 -0.14070 0.23052
-0.18352 0.19775 -0.38700
0.15446 -0.01109 -0.21855
0.12967 0.03365 -0.37374
0.12967 0.01433 -0.22836
0.12967 0.02438 -0.31661
0.12967 0.02506 -0.21048
0.12967 -0.00373 0.05749
0.12967 0.00777 -0.30427
0.12967 -0.00388 0.01481
0.12967 -0.00362 0.13638
0.12967 -0.00189 0.26136
0.12967 0.00874 -0.04756
0.12967 0.00346 -0.35959
0.12967 -0.00574 0.06238
0.12967 0.00922 0.03613
0.12967 0.03274 -0.19922
0.12967 0.01370 -0.11797
0.12967 0.02162 -0.19836
0.12967 0.00295 -0.33330
0.12967 -0.00168 -0.08832
0.12967 0.01175 -0.32534
0.12967 0.00487 -0.24715
0.12967 0.09679 0.05223
0.12967 0.09959 0.03508
-0.09120 -0.07125 -0.27046
-0.16948 0.15513 -0.19947
-0.20537 0.11935 0.12498
-0.18736 0.11935 0.15591
-0.19043 0.11935 0.13306
-0.08797 0.13589 0.29693
-0.13921 0.12239 0.11622
0.12777 0.15962 -0.31260
0.14326 -0.21138 0.29400
-0.13331 0.08507 0.30589
0.22102 0.16455 0.09412
0.22369 0.15461 -0.13192
-0.05433 0.14178 -0.31099
0.04926 0.14202 -0.31271
-0.16054 0.13796 -0.28328
-0.03991 0.14168 -0.31024
0.01344 0.14013 -0.29905
0.02482 0.14031 -0.30029
-0.08931 0.14270 -0.31763
-0.10743 0.13693 -0.27581
0.04274 0.14267 -0.31743
-0.20795 0.16165 -0.31970
0.08693 0.15938 -0.31176
-0.11889 0.09288 -0.25592
0.14181 -0.10727 -0.22662
0.22077 0.17160 -0.17409
-0.11614 0.08214 0.28258
0.14117 -0.02807 0.17437
-0.17890 0.06962 -0.12110
-0.19549 0.06962 -0.12123
-0.21224 0.06962 -0.12725
0.13735 -0.15810 0.30837
-0.05428 0.09289 -0.25809
-0.14579 0.08738 0.20209
-0.09134 -0.04754 0.23152
-0.21731 0.18635 0.36878
-0.12150 0.18747 0.37025
0.09338 0.08553 0.25817
-0.14824 0.09577 -0.24491
0.13744 0.08622 0.22048
-0.06469 -0.09561 0.29083
0.20391 0.15386 -0.27025
0.17453 0.15401 -0.27504
0.14158 -0.01982 0.20768
-0.21351 0.09276 0.15023
-0.10843 0.09341 0.25528
0.17038 0.10381 0.30574
0.14858 0.05934 0.28709
-0.07471 0.01251 0.25998
-0.06686 -0.03694 0.25731
-0.16090 -0.13517 -0.27962
0.11330 0.08597 -0.30664
-0.12098 -0.06263 0.29667
-0.23030 0.16538 -0.35665
0.16077 -0.11753 -0.22682
0.14279 0.12744 -0.19273
-0.13520 0.12817 -0.19951
0.17302 0.12798 -0.19777
0.22203 0.13123 -0.22811
-0.00421 0.12815 -0.19933
0.22149 0.12781 -0.19612
-0.07294 0.12801 -0.19802
0.02905 0.12997 -0.21637
0.19455 0.12945 -0.21148
0.12184 0.12994 -0.21607
-0.08349 0.13102 0.31087
0.14160 0.15946 0.38383
0.22554 0.18264 0.38383
-0.04940 0.16109 0.38383
0.07770 0.17385 0.38383
0.20954 0.16350 0.38383
0.18926 0.16571 0.38383
0.19032 0.09989 0.27735
-0.12193 0.19525 -0.38943
-0.13812 0.06962 -0.13718
-0.06404 -0.07181 -0.28571
-0.09590 0.12382 0.14527
-0.11163 0.12423 0.15068
-0.08551 0.12431 0.15176
-0.22847 0.12406 0.14843
-0.19933 0.12648 0.18013
-0.20414 0.12611 0.17532
-0.12129 0.12424 0.15083
-0.14117 0.12337 0.13944
-0.22523 0.12729 0.19072
-0.18394 0.12374 0.14420
-0.21514 0.12687 0.18521
0.02357 0.12301 0.13462
-0.12227 0.11395 -0.08178
0.13695 -0.13269 0.31075
-0.22366 0.11874 -0.00759
-0.19462 0.11925 -0.04071
-0.19667 0.11950 -0.05744
0.19759 0.11956 -0.06134
0.20867 0.11958 -0.06254
-0.10145 0.11899 -0.02410
-0.19411 0.11914 -0.03382
-0.09361 0.11952 -0.05844
-0.01759 0.11959 -0.06312
-0.17409 0.11938 -0.04937
-0.21831 0.11917 -0.03597
-0.16176 0.11942 -0.05210
0.12544 0.05693 -0.25160
0.18579 0.16038 0.31525
0.13006 0.16023 0.31474
0.14932 0.08731 0.05496
0.09218 0.10356 0.24984
0.15894 -0.17306 -0.30850
0.22718 0.15561 -0.29291
0.14830 0.09341 0.27867
0.00655 -0.07810 -0.26797
0.16995 -0.11340 -0.26797
-0.10053 -0.07477 -0.26797
0.02051 -0.07207 -0.26797
0.01227 -0.08116 -0.26797
0.01314 -0.07270 -0.26797
0.19439 -0.12603 -0.26797
0.01863 -0.07722 -0.26797
0.14463 -0.09511 -0.26797
-0.11922 -0.07265 -0.26797
0.10136 0.12416 0.14977
-0.10159 0.12727 0.19046
-0.05505 0.12569 0.16973
-0.10820 0.12727 0.19054
0.22679 0.12307 0.13547
-0.01877 0.12543 0.16644
0.20611 0.12602 0.17408
0.19302 0.12452 0.15441
0.15319 0.12605 0.17452
-0.00306 0.12565 0.16932
0.13881 -0.14442 -0.31420
-0.14019 -0.15940 0.26807
-0.14244 0.08959 -0.08690
0.13196 0.12103 -0.04740
0.12442 0.11892 -0.22243
-0.03632 0.15328 -0.17068
-0.12431 -0.07297 -0.23949
0.15313 0.02149 0.24185
-0.14250 -0.14695 0.26939
-0.09657 0.04043 0.24275
0.15342 0.09415 0.21579
-0.22198 0.16631 0.33261
0.00842 0.16911 0.33920
0.15605 0.11938 0.05413
-0.08122 0.04096 -0.25782
0.16342 -0.06323 0.23305
-0.17223 0.10977 -0.17774
-0.23030 0.14012 -0.21030
0.10220 -0.14545 0.26039
0.14528 -0.05188 0.23002
0.14554 -0.04333 0.23118
0.11268 0.00058 0.26631
-0.00195 -0.06447 -0.28716
-0.12287 0.02116 0.24791
0.19426 -0.14105 -0.25675
0.07186 -0.11352 0.27983
0.09146 -0.11987 0.27983
0.06159 -0.12048 0.27983
-0.12032 -0.09950 0.27983
-0.07593 -0.11563 0.27983
-0.13263 -0.12527 0.27983
-0.04187 -0.09614 0.27983
-0.01742 -0.12050 0.27983
-0.10368 -0.10421 0.27983
0.09108 0.15791 0.30548
-0.03304 0.15695 0.30108
0.14100 -0.02966 0.16022
-0.15286 0.06962 -0.10995
-0.17923 0.06962 -0.17495
-0.14373 0.06962 -0.12853
-0.15809 0.17156 0.34422
-0.19759 0.17100 0.34312
-0.07320 -0.16107 0.30280
0.11701 0.13589 0.22813
0.21526 0.17300 0.34710
0.23030 0.12477 -0.10316
-0.02319 -0.06166 -0.26669
-0.15086 -0.06166 -0.26161
-0.00877 -0.06166 -0.27409
0.16345 -0.06166 -0.26192
0.13909 0.12454 0.21431
0.15476 -0.18516 -0.23084
0.23030 0.15053 0.22005
-0.03200 0.19354 0.37796
0.17932 0.19797 0.38311
-0.18882 0.10812 0.09974
-0.19137 0.10158 -0.08178
0.15119 -0.10787 0.30858
0.14826 0.07507 -0.04287
-0.04528 0.15141 -0.16625
0.15405 0.15141 0.11303
0.15424 0.15141 0.03309
0.13081 0.15141 -0.23298
0.06997 0.15141 -0.06100
-0.02471 0.15141 -0.09677
0.03994 0.15141 -0.10997
0.14927 0.15141 0.16207
0.06374 0.15141 -0.12741
0.06586 0.15141 -0.24988
0.13907 0.15141 -0.19199
0.16859 0.15141 0.02215
0.19819 0.15141 -0.09281
-0.03542 0.15141 -0.21463
0.09163 0.15141 -0.06230
0.20918 0.15141 0.16287
0.19063 0.15141 -0.22212
0.12319 0.15141 0.10677
0.02031 0.15141 -0.08269
-0.03998 0.15141 -0.20855
0.06965 0.15141 -0.22335
-0.10816 0.15141 -0.26478
0.12388 0.15141 0.14466
0.12028 0.15141 0.09870
-0.04677 0.15141 -0.06134
0.14992 0.15141 -0.18834
-0.00525 0.15141 -0.07781
0.18066 0.15141 -0.12667
-0.00835 0.15141 -0.11620
0.16305 0.15141 -0.25325
0.12171 0.15141 -0.19264
0.10340 0.15141 -0.21335
-0.01696 0.15141 -0.20631
0.14516 0.15141 0.05329
0.07666 0.15141 0.01162
0.16218 0.15141 -0.01591
-0.02938 0.15141 -0.06982
-0.07251 0.15141 -0.08162
0.05505 0.15141 -0.05074
0.06161 0.15141 -0.04250
-0.00153 0.15141 -0.14645
0.09928 0.15141 0.10287
-0.10271 0.15141 -0.26545
0.07112 0.15141 -0.04606
-0.11726 0.15141 -0.25790
0.15983 0.15141 0.01460
0.10892 0.15141 0.04991
0.08415 0.15141 -0.05052
0.17793 0.15141 0.19234
0.09311 0.15141 -0.14782
0.15865 0.15141 -0.22577
0.18039 0.15141 0.17777
0.13464 0.15141 -0.18577
0.08257 0.15141 -0.11082
0.02029 0.15141 -0.17098
0.12926 0.15141 0.05440
-0.10708 0.15141 -0.25919
0.07007 0.15141 -0.23964
0.12562 0.15141 -0.13470
-0.12208 0.15141 -0.16843
0.19317 0.15141 0.01392
-0.11588 0.15141 -0.14627
-0.14181 0.15141 -0.19257
0.00062 0.15141 -0.24138
-0.01959 0.15141 -0.02184
0.14656 0.15141 0.14350
0.08080 0.15141 0.06353
-0.12798 0.15141 -0.23756
0.13188 0.15141 0.01881
0.16438 0.15141 0.06185
0.12689 0.15141 0.12670
0.15555 0.15141 -0.18600
0.17477 0.15141 0.20219
0.08943 0.15141 -0.12835
0.03815 0.15141 0.02428
0.16232 0.15141 -0.06951
0.16039 0.15141 -0.02321
0.08044 0.15141 -0.07753
0.17643 0.15141 0.09634
0.07085 0.15141 0.05701
-0.16938 0.15141 -0.21052
0.11432 0.15141 0.09188
0.04071 0.15141 -0.04699
0.17742 0.15141 -0.24846
0.01307 0.15141 -0.22749
-0.12147 0.15141 -0.21025
0.20172 0.15141 -0.08883
0.06684 0.15141 -0.09257
0.10306 0.15141 -0.08791
0.13708 -0.00715 0.04400
0.14125 -0.00715 0.20116
0.14033 -0.00715 -0.21662
0.17824 0.12658 -0.23580
-0.08853 -0.07359 -0.23148
0.15046 0.06082 0.14639
0.15046 0.06236 -0.02156
0.15046 0.06096 -0.11338
0.18045 0.11688 -0.04110
0.00128 -0.06660 0.26819
0.19435 -0.06660 0.27081
0.14236 0.07940 0.05496
-0.07986 0.16567 -0.38383
-0.20203 0.15590 -0.38383
-0.16522 0.15780 -0.38383
0.09595 0.15840 -0.38383
0.06724 0.15541 -0.38383
0.01761 0.16303 -0.38383
0.01019 0.18760 0.38826
0.22993 0.13329 0.17868
-0.10146 -0.01316 -0.23744
-0.10581 0.03620 -0.24370
0.22133 0.19777 -0.36526
-0.09310 -0.21138 0.24960
-0.11503 0.10762 0.11689
-0.11503 0.10099 0.12814
0.10144 0.12815 0.23300
0.22643 0.15381 0.14343
0.15886 0.08394 0.26740
0.10829 -0.05372 0.26351
-0.11904 0.09235 0.21658
0.21512 0.16625 -0.28623
-0.11490 -0.07329 0.23082
-0.11248 -0.16506 0.22713
0.22092 0.18966 -0.30803
0.12327 0.06654 0.36690
0.12327 0.06645 0.33416
0.12327 0.06917 -0.03326
-0.12909 0.13589 0.29746
-0.12600 -0.02647 0.28768
0.14591 -0.00950 0.19965
0.05690 0.12088 0.09225
0.06651 0.12174 0.11102
-0.15650 0.12227 0.12262
0.13185 0.12142 0.10407
0.15247 0.12203 0.11733
0.07799 0.12170 0.11022
0.17185 0.12059 0.08577
0.16988 0.12116 0.09826
-0.07816 0.12233 0.12394
0.19166 0.11991 0.07102
-0.20302 0.11935 -0.09133
-0.19833 0.11935 -0.15527
0.23030 0.13722 -0.24413
0.22253 0.18578 -0.35721
0.14920 -0.07155 -0.20680
-0.00104 0.18809 0.37106
0.11556 0.18891 0.37214
0.22320 0.17050 0.32504
-0.15944 0.06962 -0.16646
-0.19148 0.06962 -0.16931
-0.04430 -0.06217 0.28783
-0.00939 -0.06107 0.28783
0.16555 0.09998 -0.04740
-0.09359 -0.01065 -0.23877
-0.09532 -0.04005 -0.23477
-0.10688 0.13589 -0.23728
-0.04990 0.15347 -0.11905
0.04749 -0.06166 -0.27348
-0.12794 -0.06166 -0.28554
0.04700 -0.06166 -0.28336
0.05266 -0.06166 -0.28533
0.10368 0.13589 -0.23935
0.22080 0.19236 0.31768
-0.05944 -0.18726 0.25382
0.09111 0.14371 -0.32411
0.19707 0.14671 -0.34188
-0.10899 0.14567 -0.33573
0.13969 0.14487 -0.33098
0.07492 0.14783 -0.34851
0.11027 0.15021 -0.36254
0.19661 0.15103 -0.36741
0.21878 0.15163 -0.37098
-0.00669 0.14532 -0.33362
0.02197 0.14608 -0.33815
0.22570 0.14829 -0.35119
-0.11232 0.14316 -0.32086
0.11093 -0.09015 0.28733
-0.08875 0.13077 0.22382
-0.22641 0.12810 0.19891
-0.21374 0.13392 0.25321
-0.17946 0.13172 0.23269
0.09467 0.12926 0.20966
-0.10032 0.12991 0.21581
0.00758 0.13054 0.22170
0.02054 0.13041 0.22045
-0.15707 0.12874 0.20487
0.17344 0.12825 0.20025
0.10155 -0.13651 0.27199
-0.15113 0.11421 0.10614
0.12492 0.13589 0.22699
-0.10705 0.19067 0.37446
-0.09874 0.19016 0.37380
-0.09168 0.13007 -0.21727
0.08248 0.13255 -0.24044
0.05675 0.13219 -0.23710
-0.15767 0.12865 -0.20405
-0.12237 0.12920 -0.20914
-0.04793 0.13056 -0.22183
-0.20282 0.13118 -0.22766
-0.06396 0.13294 -0.24407
0.14580 0.13348 -0.24917
0.02303 0.13367 -0.25093
-0.01640 0.13254 -0.24033
-0.10355 0.13313 -0.24585
-0.09177 -0.09123 -0.30926
-0.09249 -0.05601 -0.30469
-0.08858 0.07247 0.27939
-0.13023 0.01807 0.26886
0.11900 -0.05127 -0.29441
0.06265 0.18601 -0.38547
0.16262 0.09409 0.04856
-0.14466 0.11055 0.19570
-0.07764 -0.02726 -0.24502
-0.05300 0.08571 -0.27236
0.12967 0.02917 -0.18437
0.12967 0.02086 -0.19157
0.12967 0.02574 -0.17584
0.12967 0.00274 -0.15265
0.12967 0.01878 -0.03416
0.12967 -0.00254 0.10400
0.12967 0.01075 -0.33447
0.12967 0.01346 -0.01643
0.12967 0.04140 -0.24536
0.12967 -0.00263 -0.21673
0.12967 -0.00164 -0.36083
0.12967 0.01614 -0.21855
0.12967 0.00339 -0.26014
0.12967 -0.00176 -0.11022
0.12967 0.02578 -0.37329
0.12967 0.04542 -0.30130
0.12967 0.00488 -0.00581
0.12967 0.02403 -0.15325
0.12967 0.02832 -0.05939
-0.11900 0.17966 0.35890
-0.16649 0.17969 0.35895
-0.14632 0.10242 -0.24211
0.22929 0.14691 -0.25612
-0.16524 0.10569 -0.18414
-0.07138 0.11923 0.03957
-0.16100 0.11864 0.00068
-0.18869 0.11890 0.01789
0.05491 0.11890 0.01781
-0.16815 0.11900 0.02472
-0.02213 0.11895 0.02102
-0.10690 0.11901 0.02495
-0.12748 0.11927 0.04246
-0.11742 0.11867 0.00303
-0.07071 0.11915 0.03433
-0.04395 0.11867 0.00276
-0.06509 -0.08574 0.24307
0.12523 -0.02502 -0.29589
-0.08640 -0.20548 0.23295
-0.11965 -0.12954 0.22607
-0.10687 0.08686 -0.31203
0.10325 -0.14356 -0.25558
0.10668 0.13589 0.25076
-0.11533 -0.19941 0.23611
-0.07771 -0.08597 -0.23417
0.06163 0.17544 0.35167
0.12303 0.17841 0.35679
-0.11674 0.06962 -0.13701
-0.11503 0.08869 -0.11604
-0.11503 0.10543 -0.08772
-0.11503 0.07415 -0.16664
0.16560 0.10255 -0.22598
-0.07141 -0.06082 -0.24413
-0.14841 0.11236 0.23987
0.21713 0.18934 0.27950
-0.06563 0.16630 -0.38383
-0.03416 0.15745 -0.38383
-0.13212 0.16979 -0.38383
-0.20831 0.15545 -0.38383
-0.15835 0.17828 -0.38383
0.15381 -0.05785 -0.20009
0.11187 -0.17210 -0.28826
0.12951 0.15454 -0.28360
0.17635 0.15449 -0.28306
0.12561 -0.04881 0.29638
0.12891 0.06349 0.28512
-0.06614 -0.21138 0.27650
0.14406 0.11781 0.03062
0.14406 0.11111 -0.03552
-0.07026 -0.02931 0.25228
-0.05472 -0.13806 0.24368
-0.09786 -0.12170 0.22100
-0.16077 -0.11164 0.27684
0.18631 -0.17715 0.28074
-0.13659 -0.16815 -0.28097
0.14530 -0.21013 -0.23504
-0.12866 0.02820 -0.26149
0.12263 0.06702 -0.28090
-0.12487 -0.20321 -0.28857
0.23030 0.15319 -0.37759
0.15668 0.00725 -0.29388
-0.14148 0.10581 0.29890
-0.09680 0.04322 -0.29188
0.11922 0.09113 0.24875
0.12688 -0.00511 -0.24298
-0.10704 -0.08746 0.30555
-0.09900 -0.09541 0.30740
0.11527 -0.08902 -0.24238
0.22294 0.16815 0.30246
0.12607 -0.11018 0.30403
-0.09236 -0.21138 0.27773
-0.08373 0.15813 -0.30648
-0.13499 0.15765 -0.30428
0.23030 0.12469 -0.01020
0.14978 0.02161 -0.29441
0.08964 0.09185 0.26616
-0.23030 0.16547 -0.37937
-0.21258 0.09676 0.18794
-0.21258 0.08243 0.18239
0.15505 0.13589 0.28303
0.21624 0.16400 0.15291
0.11475 0.08957 0.28642
-0.18888 0.11015 0.19570
-0.11261 -0.01170 0.29513
0.23030 0.12358 -0.04572
0.18732 0.15684 -0.30058
-0.02149 0.15683 -0.30057
-0.16929 0.12370 -0.14378
-0.16050 0.12723 -0.18995
0.05246 0.12563 -0.16897
-0.10149 0.12689 -0.18549
0.07843 0.12687 -0.18518
-0.01495 0.12565 -0.16921
-0.00539 0.12630 -0.17779
-0.16447 0.12418 -0.15002
-0.21449 0.12570 -0.16995
-0.17462 0.12579 -0.17108
-0.12038 0.12534 -0.16512
-0.09843 0.12535 -0.16537
-0.15572 0.15438 -0.28189
-0.09358 0.15416 -0.27946
0.11940 -0.06660 0.26474
-0.06020 0.08532 -0.24935
-0.20520 0.06962 0.15353
-0.19423 0.06962 0.17794
0.10735 -0.10906 -0.28685
0.10945 -0.09242 -0.28808
0.16841 -0.01805 0.28630
-0.10317 0.13589 -0.25641
-0.13806 -0.08388 0.27549
-0.08591 0.13589 -0.29405
-0.13819 -0.07046 -0.26808
0.23030 0.14696 0.17655
-0.11159 0.07395 0.28574
-0.11933 -0.04157 -0.29814
0.17292 -0.07588 0.29438
0.14976 -0.06302 -0.28716
0.10763 -0.06449 -0.28716
-0.06939 -0.15953 0.23186
0.10302 0.08782 -0.25693
-0.13227 -0.12842 0.23682
-0.08419 -0.19763 -0.30278
0.22790 0.13413 0.02336
0.21393 -0.08930 -0.27458
-0.12447 -0.20139 -0.24740
-0.10798 0.09341 0.28145
-0.14243 0.11565 -0.17534
0.16247 0.15519 -0.29024
-0.18464 0.15641 -0.29804
0.20552 -0.12884 -0.28076
0.19485 -0.10837 -0.28076
0.12471 -0.11813 -0.28076
0.08713 -0.10533 -0.28076
-0.06338 -0.12984 -0.28076
-0.09959 -0.13064 -0.28076
0.01439 -0.11859 -0.28076
0.06777 -0.13037 -0.28076
0.20826 -0.11400 -0.28076
-0.01097 -0.11846 -0.28076
-0.11351 0.15813 0.30647
-0.03982 0.15790 0.30540
-0.10218 0.11314 0.31543
-0.13158 -0.15390 0.29322
0.08873 0.11865 -0.00191
0.09826 0.11883 -0.01362
-0.14167 0.11873 -0.00693
0.17317 0.11871 -0.00519
0.20546 0.11899 -0.02412
0.13271 0.11884 -0.01399
0.18190 0.11888 -0.01674
0.19802 0.11879 -0.01103
-0.07658 0.11864 -0.00059
-0.05567 -0.17821 0.26398
-0.13947 -0.14558 -0.28610
0.14406 0.08470 0.05061
-0.19049 0.11935 0.19774
0.00618 0.16790 -0.33634
-0.08438 0.05272 -0.25609
0.14458 -0.06166 -0.26920
-0.02823 -0.06166 -0.28083
0.02054 -0.06166 -0.28554
-0.01466 -0.06166 -0.28133
-0.07757 -0.18827 0.29958
0.12967 0.10673 0.01971
0.12967 0.11557 -0.00640
0.12967 0.08351 0.04180
-0.17584 0.11940 0.10210
-0.12746 0.13589 0.24454
-0.08648 0.01695 0.24399
-0.11128 -0.20488 -0.29965
-0.16276 0.11935 0.20076
0.10348 -0.12022 0.25525
0.18948 -0.17455 -0.26563
-0.18292 0.16941 0.33990
-0.09557 0.16595 -0.33174
-0.07936 0.16773 -0.33595
-0.10120 0.06022 -0.24670
0.13264 0.06962 -0.37988
0.14200 0.06962 -0.04785
0.14356 0.06962 -0.07562
0.13222 0.06962 -0.25593
0.13966 0.06962 -0.24413
0.13617 0.06962 -0.33121
0.13287 0.06962 -0.29168
0.10862 -0.06218 0.25624
0.21665 0.17482 -0.22180
