-0.22255 0.22453 -0.19468
0.15848 0.23522 0.00874
-0.22350 0.22453 0.28060
0.08699 0.23522 0.10998
-0.00061 0.25101 0.26484
0.19671 0.28868 0.08402
0.27993 0.06906 -0.23581
-0.26611 -0.02698 0.25350
-0.24478 0.04076 -0.25416
-0.11573 0.25397 -0.26217
0.05527 0.28868 -0.21254
0.09094 0.23522 0.22391
0.15407 0.23740 -0.23860
0.16649 0.23522 0.22298
-0.00098 0.22453 0.25351
0.22376 0.25388 -0.14081
-0.22057 -0.19908 -0.24131
-0.14602 0.27705 0.24140
0.12435 0.27927 0.23940
-0.02800 0.24461 0.23211
-0.04087 0.22911 0.24606
0.18283 0.22531 -0.22320
-0.14844 0.28868 -0.14498
-0.12135 0.28868 0.02950
0.10263 0.24787 0.26766
-0.08797 0.23522 -0.01333
0.26189 -0.12878 -0.25773
0.23689 0.28206 0.16840
-0.23580 -0.23155 -0.22609
-0.25275 0.26444 -0.02726
-0.11766 0.28868 0.18745
0.13197 0.23461 -0.24111
-0.19946 0.28088 0.04324
-0.08530 0.23522 -0.00555
-0.23749 0.23864 0.12612
-0.04922 0.28868 -0.02766
-0.22752 0.28868 -0.05013
0.26386 0.04428 -0.22080
-0.28831 0.22493 -0.03889
-0.16241 0.23522 -0.21673
0.06703 0.23522 -0.07651
0.22952 0.28868 0.20121
-0.22685 -0.21755 0.26381
-0.12077 0.23522 0.01858
-0.08769 0.22453 -0.25043
-0.11894 0.23522 0.12188
0.07421 0.23522 0.13474
0.28357 0.19655 0.23605
-0.04155 0.28868 -0.09325
-0.22906 0.04550 -0.27041
-0.13290 0.26455 0.21416
-0.18810 0.23522 -0.05387
0.25394 0.22453 -0.17322
0.05982 0.27613 -0.20374
0.13856 0.23143 -0.28246
-0.22073 0.04292 -0.24359
0.09587 0.28868 0.09485
0.25058 0.10736 -0.26903
0.08457 0.23522 -0.18668
0.22107 0.22453 0.25065
-0.13735 0.28868 0.17544
0.03811 0.23522 0.16588
-0.27144 0.24367 0.03889
-0.22401 0.08187 -0.27956
-0.01943 0.23522 0.11900
-0.17161 0.23522 -0.10692
-0.22372 0.25393 0.10169
0.14224 0.23522 -0.15402
0.19701 0.28361 0.14421
-0.28215 0.22453 -0.14642
0.06993 0.28868 0.13622
-0.27626 0.23477 -0.23413
-0.15904 0.28757 -0.23193
-0.09091 0.28868 0.06625
-0.07824 0.23522 0.13861
-0.18310 0.22453 -0.20607
0.25639 0.21922 0.23124
-0.23813 -0.01687 -0.25433
-0.18803 0.22453 0.25219
-0.24751 -0.14363 0.26797
-0.18759 0.28613 -0.19474
-0.25331 0.26382 -0.12130
0.22814 0.24628 -0.19245
-0.00297 0.23522 -0.19074
-0.16409 0.28868 0.10262
0.11666 0.28868 -0.21629
0.03602 0.23522 0.11403
-0.20202 0.28868 0.08518
0.26962 0.22287 -0.25000
-0.08503 0.23522 0.06937
-0.25991 0.17087 0.25971
0.10399 0.28868 0.20041
0.26785 0.24767 -0.03518
0.24794 -0.07774 0.26305
-0.09583 0.28868 -0.05781
-0.22755 0.16419 -0.26691
0.25169 0.02245 -0.21957
-0.26130 0.14751 -0.24965
0.04557 0.23522 -0.04109
0.03565 0.23522 -0.09034
0.12893 0.26605 -0.21281
0.25322 0.03206 0.26639
-0.07965 0.28868 0.07545
0.13921 0.23522 0.10908
-0.03873 0.22453 -0.28575
-0.27791 0.19970 -0.23891
0.00577 0.28868 0.00788
-0.17926 0.25434 0.26184
-0.15237 0.27494 -0.24330
-0.16654 0.23522 -0.01921
-0.19594 0.23522 0.11281
0.24513 0.23015 -0.10681
-0.15312 0.28868 0.18821
0.02705 0.28868 -0.07609
-0.22909 -0.28861 -0.23279
-0.22937 0.19664 0.23674
-0.16115 0.23522 -0.19307
-0.23802 0.23375 0.18283
0.12730 0.25392 0.26222
0.19283 0.22453 0.21363
0.09910 0.27720 -0.20278
0.20441 0.22453 -0.22675
-0.25309 0.26406 -0.01713
0.07893 0.27988 -0.23886
0.19245 0.24120 -0.21223
-0.08923 0.23522 0.07508
0.19796 0.22453 0.21783
-0.08911 0.28868 -0.10703
0.22390 0.22914 0.28452
-0.21590 -0.04280 0.24918
0.23587 0.23522 0.01694
0.07944 0.23068 0.24465
0.04400 0.28868 0.06248
-0.04031 0.24517 0.27010
0.17870 0.28868 -0.15560
-0.21810 0.23522 0.11067
-0.26041 -0.15293 -0.20971
0.08880 0.23522 0.17385
0.08773 0.22453 -0.26699
-0.16259 0.28868 0.05660
-0.27282 0.21718 -0.24596
-0.24634 -0.10152 -0.21554
-0.10557 0.27315 0.24491
0.23601 0.13444 0.25595
-0.25749 0.17706 0.26213
0.12644 0.23522 0.13032
0.25717 0.14556 -0.26244
0.13977 0.28868 -0.00299
-0.25427 0.16714 -0.22771
0.25284 -0.15984 0.25256
-0.28681 0.22660 0.16723
0.23839 0.12336 0.23663
0.27153 0.02952 -0.21997
0.28584 0.22453 -0.03834
0.02114 0.23522 -0.02972
-0.21505 -0.09498 -0.24683
0.02355 0.28868 -0.18912
-0.16375 0.23522 0.22092
-0.17277 0.23522 0.11583
-0.24326 -0.11759 0.26943
-0.20281 0.27716 0.10088
0.24231 0.27552 -0.23094
0.07713 0.23522 -0.15324
0.19245 0.24700 0.20669
0.01560 0.23522 -0.08541
0.24210 0.15487 0.23486
0.14870 0.22738 -0.24762
0.03262 0.23522 0.09309
-0.20162 0.22453 0.22854
-0.03070 0.28868 0.00574
0.28698 0.22453 -0.02589
-0.20598 0.28868 0.01295
-0.23006 0.20879 0.24693
-0.21167 -0.17969 -0.26247
0.26543 0.15599 0.25419
0.17775 0.23522 0.02529
-0.11245 0.24573 -0.23110
0.22321 0.25450 -0.01941
-0.25617 0.26064 -0.22149
0.26466 0.22453 -0.24816
0.24584 -0.00317 0.24375
0.23691 0.16931 -0.28271
-0.17997 0.24266 0.23387
0.02450 0.27502 0.20474
-0.04466 0.23522 0.00799
-0.23991 0.22453 0.21927
-0.01740 0.28868 -0.10183
0.26656 0.02537 -0.21974
0.26249 0.05662 0.25712
-0.15383 0.23522 -0.22468
-0.24909 0.26850 -0.00578
-0.20163 0.27847 -0.02732
0.24993 0.22480 -0.07744
-0.22251 0.07462 0.24060
0.19814 0.23522 -0.04476
0.18014 0.25229 -0.22520
0.27699 0.10307 0.24263
0.28703 0.22453 -0.18764
-0.23483 0.00771 0.26039
-0.12719 0.28868 -0.15841
-0.25467 0.22432 -0.26492
-0.22540 0.12601 -0.27498
-0.10063 0.25957 0.21865
0.05940 0.26705 0.25040
0.21721 0.23522 -0.01433
0.09033 0.28868 -0.19577
-0.23544 0.23818 -0.23094
-0.05365 0.22453 -0.25598
-0.10603 0.23522 -0.23891
-0.25857 -0.05913 -0.21499
0.01677 0.23522 0.18522
-0.25131 -0.03297 0.26830
0.10321 0.27393 -0.20572
0.09546 0.23522 0.11245
-0.00442 0.28868 -0.16409
0.22119 0.23522 0.03039
0.24831 0.26938 0.23045
-0.03155 0.23522 0.06248
0.26074 -0.27211 -0.23494
-0.25526 0.22453 -0.25685
0.23902 0.23693 -0.09956
-0.26115 0.17534 0.25293
0.13718 0.24286 0.27217
0.27833 0.14074 -0.22623
-0.23389 -0.16058 -0.24240
0.21445 0.26423 0.14692
-0.06258 0.23522 0.01065
-0.26269 0.25340 0.20224
0.21587 0.26265 0.04630
-0.23000 0.20784 -0.24949
0.14343 0.23522 -0.03316
0.26370 0.22453 0.23774
0.20689 0.23753 -0.19245
-0.05313 0.23522 0.21024
-0.10585 0.28868 -0.08169
0.06245 0.23522 -0.00029
-0.02114 0.23522 0.13423
-0.20878 0.27053 0.05314
0.25477 0.02360 0.26484
-0.03813 0.23137 0.28252
-0.10133 0.28868 -0.04049
0.05430 0.28868 -0.07946
0.07998 0.23522 0.20459
-0.19607 0.23522 -0.16342
-0.25859 0.02490 0.26102
0.05071 0.25523 -0.26104
-0.09022 0.28868 -0.18586
-0.17311 0.28868 0.08111
-0.26819 0.22453 0.11505
-0.20350 0.27639 0.13962
0.02283 0.28868 -0.02488
0.25453 0.20600 0.23198
-0.15017 0.28868 -0.16073
-0.27938 0.22400 0.24023
-0.26506 0.04676 0.25455
0.24420 0.07032 -0.27541
-0.21357 0.26515 0.25212
0.23203 0.24469 -0.06741
-0.25790 -0.14549 -0.21013
-0.20627 0.27332 0.17949
-0.25331 0.09685 -0.25194
0.01036 0.23522 0.10577
0.02090 0.25194 -0.22551
-0.22897 0.24810 -0.04002
-0.23001 0.17022 -0.23187
0.22549 0.25196 0.00239
-0.27014 0.24511 -0.17103
0.17875 0.28868 -0.18204
-0.25824 -0.03952 0.26138
-0.21322 0.25969 0.25703
-0.06451 0.28651 0.23289
0.06190 0.23522 0.21082
-0.00187 0.28868 0.15313
0.21390 0.28868 -0.10558
-0.02323 0.28868 -0.15062
-0.24056 0.22853 0.19001
-0.24616 -0.07073 0.27207
-0.12516 0.25760 -0.25891
-0.25298 0.08149 0.25054
0.22657 0.23522 0.06461
-0.21201 0.22453 -0.26359
-0.15193 0.28868 0.07539
-0.28759 0.22573 0.09954
-0.19994 0.23522 0.16663
-0.21749 -0.25923 -0.24439
-0.13670 0.23522 -0.23870
-0.27629 0.22453 0.02675
-0.20509 0.23522 0.06154
-0.20693 0.22751 -0.28599
0.25956 -0.18175 -0.26006
-0.17663 0.23522 -0.04347
0.07422 0.28868 0.17917
0.09804 0.23522 0.17196
0.22691 0.23522 0.14058
-0.01529 0.28868 0.00377
-0.21636 0.22453 -0.27446
0.20605 0.27357 -0.02415
0.17308 0.23522 -0.18305
-0.24693 0.22453 -0.23634
-0.24947 0.26809 -0.13562
0.27121 0.22453 0.07966
0.03484 0.23522 -0.01189
-0.15989 0.24299 -0.27206
0.11096 0.27642 0.20348
-0.10717 0.23522 -0.18487
-0.26432 0.14410 0.24625
0.18956 0.22562 -0.24056
-0.03810 0.26981 0.20943
-0.23094 0.26633 0.24860
-0.04055 0.28868 0.05054
-0.13130 0.23522 0.02567
0.24501 -0.02564 0.25963
-0.00439 0.27981 -0.23892
-0.23939 -0.13331 0.26855
-0.24611 -0.25037 -0.21577
-0.08892 0.27171 0.20772
0.23734 0.23880 0.02697
0.06958 0.23522 -0.11556
-0.21464 -0.10382 -0.26803
-0.26629 0.24304 -0.23094
-0.19763 0.28292 -0.17676
0.14589 0.28868 0.16942
-0.24644 0.10831 -0.26010
0.04124 0.22453 -0.26766
-0.25920 -0.00817 -0.23424
0.06387 0.27881 -0.23982
0.26207 -0.13570 0.25120
0.04493 0.23522 -0.22124
0.09968 0.23522 -0.17166
-0.20879 0.28868 -0.08949
-0.21798 -0.00590 0.26742
0.16017 0.28602 0.23333
0.25589 0.26095 0.14705
-0.15237 0.23522 0.06665
0.09599 0.23522 -0.04730
0.12343 0.23522 -0.19781
-0.08975 0.28423 -0.19645
0.23094 0.22998 0.28252
-0.21777 -0.08511 0.27126
0.15451 0.28868 -0.16152
0.26396 -0.05729 0.25565
0.27490 -0.01538 0.24472
0.18315 0.23522 0.08519
0.18101 0.28868 0.07367
0.03588 0.23522 0.04794
0.24328 0.00511 0.25982
0.25168 -0.14412 0.26598
0.27911 0.23515 0.22453
-0.23085 0.22288 0.27705
0.08583 0.23522 0.02873
-0.25410 0.22453 -0.15335
-0.21918 0.23522 0.16168
0.22715 0.25012 0.16116
0.26878 0.24663 -0.11808
-0.22971 -0.13945 -0.24896
-0.28011 0.23404 0.14709
0.23779 0.10274 0.26042
0.22385 0.28868 -0.20962
0.19414 0.28680 -0.08174
-0.10911 0.23522 0.14753
0.15914 0.28868 0.18145
0.26234 -0.07323 -0.21419
-0.04787 0.28868 0.00209
-0.14228 0.23265 -0.24287
-0.08609 0.28868 0.15281
0.20887 0.22453 -0.24336
-0.23728 0.26042 0.25004
-0.00991 0.23522 -0.04533
-0.19094 0.28489 0.23435
0.17508 0.23522 0.21072
-0.11106 0.28868 0.18680
-0.24057 -0.19988 -0.22131
0.19220 0.28868 0.16400
-0.06253 0.23522 0.10068
-0.22807 0.17355 -0.26695
-0.25731 0.17435 0.25666
-0.23242 0.28703 0.22875
-0.22752 0.16369 0.26776
-0.01298 0.28868 0.01980
0.01569 0.28868 -0.10943
0.14012 0.28868 -0.21021
0.11000 0.23522 -0.19353
0.24247 0.08860 -0.27715
0.25589 0.23901 -0.25069
0.21405 0.22453 -0.27982
0.23100 0.23522 0.01028
0.26195 -0.25062 -0.22183
0.13096 0.28868 -0.22503
0.19358 0.23522 -0.17956
-0.22837 -0.19605 -0.23351
-0.24199 0.27640 -0.19613
-0.23596 -0.25179 -0.23007
-0.04148 0.23522 0.23873
-0.24706 0.27076 -0.19827
-0.06579 0.23522 0.14223
0.15348 0.22453 -0.26564
-0.24300 0.22453 -0.24366
0.17075 0.28868 -0.05528
-0.05069 0.28868 -0.07758
-0.09088 0.23522 0.02510
-0.24161 0.13512 0.26794
0.25183 -0.03839 0.24573
-0.15904 0.23522 -0.05891
-0.23972 0.00639 0.25536
-0.28444 0.22923 -0.10420
0.26764 0.22453 -0.08168
0.09155 0.23522 -0.11116
-0.04961 0.23522 0.18578
0.27917 0.19720 0.23248
-0.21978 0.25831 0.08320
-0.11967 0.28868 -0.20057
0.23360 0.23522 0.07013
-0.05760 0.23522 0.08714
0.22804 0.28868 -0.01102
0.21470 0.26396 -0.16448
0.04504 0.28118 -0.23769
0.27190 -0.07363 -0.22097
-0.07221 0.23522 -0.02610
-0.18485 0.25908 -0.25757
-0.09013 0.23522 -0.02019
-0.00639 0.22453 0.27365
0.24482 0.22453 0.24529
0.25254 0.10428 -0.22418
-0.20498 0.28868 0.12453
-0.07386 0.23927 -0.27541
-0.11870 0.28868 -0.08928
-0.24175 0.23011 -0.19245
0.11070 0.28868 0.01711
-0.26205 0.22453 0.05664
0.11628 0.22453 0.27847
-0.13680 0.28868 0.06586
0.24818 0.09293 -0.27144
0.05250 0.23522 0.12552
-0.22918 0.28868 -0.00594
0.27382 0.06727 0.24579
0.22150 0.25639 0.07340
0.06389 0.28868 0.13257
0.04818 0.22453 -0.28558
0.08162 0.28868 -0.20236
0.26896 -0.11796 -0.21168
-0.22778 -0.02926 0.27440
0.25727 -0.15762 -0.26235
0.28543 0.22813 0.11639
-0.25652 0.06441 -0.22193
0.23094 0.25429 -0.24241
0.21678 0.23522 -0.05356
0.22333 0.28868 -0.15820
-0.22690 0.00707 -0.26826
0.20956 0.23522 0.09974
-0.10219 0.23522 0.24034
-0.20791 0.23187 -0.28206
0.00603 0.23522 0.13536
0.23845 0.23756 0.06682
-0.10434 0.23522 0.10877
-0.00745 0.26046 -0.21784
-0.11242 0.28868 -0.17660
0.24543 0.27258 0.06861
-0.10860 0.23522 -0.05900
0.06778 0.28868 -0.13368
0.00507 0.23522 -0.06182
-0.24199 0.27640 -0.01091
-0.05132 0.23522 -0.07388
-0.10758 0.28868 -0.04683
-0.26747 0.24808 0.01835
-0.13737 0.22966 -0.28405
0.03382 0.28868 0.02354
-0.01919 0.28868 -0.01198
-0.22769 -0.05960 -0.23419
0.23207 0.28742 0.00444
0.17388 0.28868 0.20922
0.27700 0.09771 -0.24262
0.27107 0.22453 -0.19112
-0.25479 0.26217 -0.20986
-0.24408 0.27408 0.03528
0.20093 0.27925 -0.09050
-0.24172 0.03321 0.27789
0.18473 0.23339 -0.18283
-0.27345 0.24144 -0.20304
-0.12950 0.28868 0.19594
0.00346 0.27931 0.20088
-0.20287 0.28868 0.10222
0.21521 0.26338 -0.02935
0.25856 0.09646 0.26106
0.25483 0.26214 -0.04552
-0.10099 0.23522 0.17710
-0.13019 0.23522 0.04472
0.22242 0.28868 -0.12743
0.02765 0.23522 0.22271
-0.20714 0.22453 -0.25013
0.04744 0.26725 -0.21173
0.24291 0.01174 0.27322
0.26668 0.24896 -0.10489
0.24785 0.22712 -0.01180
0.19834 0.22453 0.27016
0.25117 -0.02754 -0.26845
-0.26301 0.25305 0.09327
0.15839 0.23522 0.11335
-0.15551 0.28868 -0.17972
-0.18702 0.28868 0.10431
0.22288 0.22453 -0.23185
-0.28041 0.22453 0.20814
-0.17102 0.28868 -0.06125
-0.23808 -0.25976 -0.22705
0.20085 0.27935 -0.02263
0.03268 0.24202 -0.27293
0.23555 0.14256 0.23875
-0.22995 -0.25623 -0.23558
0.10380 0.27272 0.24530
-0.22579 0.00952 -0.23609
0.07625 0.28868 0.19991
0.10359 0.23522 0.10714
0.02690 0.28868 -0.22623
-0.11745 0.23522 0.22946
-0.18151 0.23517 -0.24060
0.13204 0.28868 0.21238
0.23744 0.23868 0.03594
-0.04878 0.28868 -0.19865
-0.13182 0.28868 -0.02041
0.24392 0.07445 0.27570
-0.22365 0.28868 -0.19578
0.01350 0.26785 0.21119
0.20986 0.26933 0.02011
-0.08477 0.23522 0.12865
0.00247 0.28868 0.02318
-0.25288 -0.26258 -0.21194
0.17376 0.28868 0.05556
0.09256 0.28868 -0.12556
-0.16604 0.23522 -0.07734
0.09335 0.28868 -0.13963
0.23094 0.23171 -0.24434
0.21888 0.23522 0.05939
0.21149 0.28868 0.07407
0.09096 0.23522 0.15236
0.15764 0.23522 0.22180
0.24994 0.21932 -0.26968
-0.05656 0.28868 0.05494
0.23092 0.22561 0.28770
0.26324 0.11757 0.23696
-0.27931 0.23493 -0.16813
-0.19468 0.28868 -0.21102
-0.07775 0.23522 -0.04829
0.24288 0.23264 -0.06148
-0.22287 0.23522 0.10209
-0.01072 0.22453 0.28586
0.00592 0.23522 0.05421
-0.21114 0.28868 -0.09831
0.01976 0.23522 -0.12320
-0.21383 0.23522 0.04998
-0.20961 -0.23904 0.25785
0.17754 0.23522 0.00135
0.21004 0.23522 0.17065
-0.01409 0.22453 0.26021
0.26350 -0.22306 -0.25435
0.27654 0.10623 -0.22429
0.21328 0.23522 -0.02737
0.10032 0.28868 0.05983
-0.28092 0.15993 -0.23143
0.10014 0.28868 -0.18629
0.19768 0.28287 0.05838
0.11261 0.24407 0.27108
-0.24239 0.13926 0.27722
-0.02978 0.23522 -0.21404
-0.00255 0.23522 -0.09135
0.18871 0.23522 0.23142
0.23127 0.26943 -0.24794
-0.14472 0.23522 0.07135
0.01933 0.25256 0.26344
0.18979 0.28608 0.19479
-0.19740 0.28318 0.12363
-0.22919 0.03155 -0.26872
0.26026 0.22453 0.11844
0.11279 0.28868 0.09291
0.23662 0.28236 0.10434
0.23551 0.28360 -0.02643
0.26011 0.11886 0.25951
-0.26926 0.24610 0.04535
-0.19006 0.28868 0.03489
-0.02225 0.28868 0.00155
0.24319 0.23230 -0.15427
0.11958 0.28868 0.15431
-0.24403 0.00346 0.25071
0.12596 0.23522 0.23855
0.06533 0.22453 -0.27516
-0.21406 -0.23513 -0.24782
-0.23273 0.24392 0.11238
-0.23049 0.21646 -0.25368
-0.16251 0.23522 -0.04993
0.12351 0.23522 0.10860
0.26237 0.22453 -0.00963
0.24466 0.23066 0.13572
0.17000 0.23522 -0.18811
-0.16092 0.23522 -0.15767
-0.21473 -0.06371 0.25462
-0.16302 0.23522 0.15308
0.19516 0.26679 -0.25063
-0.28178 0.20153 0.23783
-0.18925 0.26082 -0.21752
0.26849 -0.10137 -0.21261
0.11005 0.23522 -0.09638
-0.10296 0.23522 -0.10754
0.19245 0.26949 -0.19799
-0.15056 0.23522 -0.06550
0.00594 0.23522 -0.21461
-0.03337 0.23522 -0.04374
-0.06845 0.28868 0.10165
-0.19691 0.23522 0.04893
0.00406 0.22453 -0.28376
0.25096 -0.13131 0.25780
0.13204 0.27268 -0.24533
-0.10881 0.28868 0.16829
0.25845 0.22453 -0.12511
0.24862 0.22453 -0.20728
-0.06025 0.23522 -0.15083
-0.24121 0.27727 0.10873
0.18568 0.27673 -0.20320
-0.24421 0.23117 -0.03044
-0.17864 0.28868 0.22755
-0.16855 0.23522 0.18889
-0.24281 0.23272 -0.08477
-0.09667 0.23522 -0.04800
0.20600 0.27729 -0.24119
-0.18983 0.26703 0.21193
-0.27107 0.24409 0.23038
-0.26875 0.05785 0.25086
0.23966 0.22453 0.25158
-0.28644 0.22453 -0.16680
-0.24237 0.23320 -0.16331
0.14107 0.26523 0.21355
0.04366 0.22453 -0.27437
0.25657 0.26020 -0.13011
-0.25940 0.25705 0.07770
-0.04160 0.26643 -0.25096
0.21161 0.26739 -0.12990
-0.22859 0.18272 0.26108
0.24076 0.05002 0.24103
0.25509 -0.08926 -0.26452
-0.20093 0.22922 -0.28445
0.25183 0.26546 0.00118
-0.16547 0.23522 -0.13337
0.08720 0.23522 0.09559
0.01796 0.23522 -0.11332
-0.24867 0.22453 -0.26643
-0.00658 0.28868 -0.06710
-0.09000 0.28868 0.08836
-0.11105 0.22453 0.25809
0.26483 -0.01854 -0.21727
0.21005 0.26911 0.12801
-0.12625 0.24929 -0.22790
0.08827 0.27469 0.20504
0.25144 0.07260 -0.26818
0.20436 0.28868 -0.11635
-0.26420 0.22453 -0.02010
0.23932 0.07557 0.25454
0.18027 0.24888 0.22827
-0.09185 0.22679 -0.24815
0.10047 0.26442 0.25277
0.00108 0.23522 -0.07910
-0.23494 0.24146 0.03427
-0.18205 0.23522 -0.11980
-0.23094 0.22822 -0.26382
0.27877 0.18135 0.23337
-0.25648 0.12873 -0.22555
0.17126 0.28868 -0.16077
0.08039 0.23522 -0.11428
0.06458 0.24398 -0.23268
-0.04070 0.27492 0.24332
-0.26908 0.12608 0.23946
0.14149 0.23522 0.08649
0.25812 0.17019 -0.26149
-0.08148 0.23522 0.05688
0.23942 0.10651 -0.22430
-0.05881 0.23522 0.16658
-0.08622 0.23522 0.03625
0.10958 0.28868 -0.01220
-0.06820 0.28868 -0.18760
-0.05931 0.22693 -0.24802
0.18037 0.23522 -0.00409
0.26672 0.22453 0.01106
-0.23562 -0.09285 -0.24829
-0.24914 0.14333 0.27048
-0.18077 0.23522 0.08469
0.12666 0.24130 -0.27357
-0.27181 0.24187 -0.23094
0.23558 0.19520 -0.22929
0.25043 -0.04261 -0.21591
0.23240 0.28705 0.01555
-0.26623 0.24946 -0.01024
-0.27000 0.24528 -0.11390
0.21868 0.28664 -0.23277
-0.16847 0.26424 -0.25293
-0.26891 0.16712 -0.22771
0.02539 0.22453 -0.28688
0.03190 0.24277 0.23377
0.27782 0.03152 -0.22597
-0.21562 0.23875 0.19245
0.19723 0.22453 0.19547
-0.07798 0.23522 -0.02227
0.15084 0.28868 -0.11187
0.01090 0.25820 -0.25837
-0.02901 0.23522 -0.01683
-0.21767 -0.26632 -0.24673
0.26238 -0.08436 0.24832
-0.21109 -0.12831 -0.26263
0.21056 0.26855 -0.11117
-0.22300 0.06041 0.27944
0.18467 0.28868 -0.14715
0.02247 0.23556 0.24025
-0.05136 0.23522 0.11433
0.24632 0.22882 0.09446
0.23739 0.28150 0.05094
-0.25252 0.22453 0.03062
-0.07505 0.28868 0.15373
0.19961 0.28072 -0.13647
-0.23564 -0.16723 -0.23991
-0.22128 0.28868 0.02289
0.15604 0.23522 0.16670
0.03064 0.28868 -0.08925
0.18992 0.28868 -0.22467
0.08703 0.28868 -0.05762
-0.24571 0.16474 -0.22758
-0.01463 0.28868 -0.12022
-0.26890 0.00777 -0.22633
0.00054 0.28497 -0.19578
0.15166 0.23522 -0.05561
0.11021 0.23590 0.23994
-0.25623 -0.15654 0.26338
-0.21616 0.23522 -0.00904
-0.23239 0.23837 0.27476
0.25196 0.12924 -0.26766
0.27020 -0.05135 -0.24941
0.14201 0.23561 -0.27870
-0.09150 0.23522 -0.10628
0.08451 0.22453 -0.27515
0.27243 -0.06418 -0.23275
-0.23155 0.23522 -0.17062
0.24368 0.22453 0.27561
-0.25657 -0.03322 -0.21644
-0.24311 0.27515 0.04744
-0.21565 0.23522 -0.07342
-0.24988 -0.11001 -0.21212
-0.04591 0.23522 -0.15604
0.20843 0.22453 0.18671
0.23480 0.23522 0.15044
-0.19160 0.22453 -0.20712
0.11974 0.23522 -0.09898
0.15322 0.28868 0.02744
-0.22498 0.28868 0.14632
0.16909 0.22453 0.28357
0.01820 0.28868 -0.01858
-0.26024 0.01624 -0.23594
0.25507 0.11219 -0.22462
-0.24810 0.22453 -0.26077
0.11414 0.28868 0.11492
0.22996 0.25770 -0.25882
0.26384 -0.21700 -0.21271
-0.00267 0.23522 0.20577
0.27183 -0.07501 -0.23021
-0.15809 0.24825 -0.22883
-0.07435 0.22453 0.25852
-0.19245 0.27877 -0.19308
-0.26790 0.24761 -0.12210
0.20347 0.22453 -0.19001
0.15847 0.28868 -0.16844
0.23722 0.11280 0.26092
-0.22864 0.18359 -0.23633
-0.19793 0.22453 -0.20246
0.28308 0.23075 0.17347
-0.09837 0.28868 -0.10284
-0.10162 0.28868 0.02324
-0.03084 0.28868 -0.02636
0.07550 0.28868 0.20573
-0.22101 0.04789 -0.26231
-0.22009 0.23084 -0.28299
0.12487 0.28868 0.00723
-0.14588 0.28868 -0.07078
-0.22586 0.13422 0.26439
-0.14207 0.28868 0.22950
0.27744 0.22453 0.09110
0.24759 0.27017 0.05592
0.02174 0.23522 0.12415
-0.21574 -0.04577 -0.25046
-0.19870 0.28173 -0.15645
-0.04634 0.23522 0.09997
0.13453 0.25402 -0.26213
-0.24866 0.26899 0.09069
-0.06049 0.22453 0.26493
-0.09843 0.28795 0.19311
0.13719 0.24977 0.26595
-0.22600 0.12069 0.28193
0.20585 0.22453 -0.28702
0.25856 0.14443 0.26105
-0.21936 0.01863 -0.26870
-0.05494 0.28868 0.09526
0.20931 0.26994 -0.17966
-0.02560 0.23522 -0.01141
-0.24252 0.27581 0.01694
-0.22996 0.20704 0.25549
0.15604 0.23522 0.09559
-0.23256 0.28688 -0.06856
-0.24638 0.22474 0.19245
-0.24893 0.22592 -0.12844
-0.20556 -0.26125 -0.25940
-0.24192 0.27648 0.00256
-0.26853 0.24691 -0.10633
0.23517 0.23522 -0.07850
-0.04340 0.28868 -0.17960
-0.13334 0.28868 -0.00997
-0.09945 0.23860 0.23752
-0.22519 0.12233 0.24291
-0.22905 -0.26259 -0.23577
-0.05747 0.23522 -0.16095
-0.04596 0.28868 -0.22878
-0.02347 0.28182 -0.19862
-0.01305 0.24824 -0.26733
-0.06026 0.23522 -0.17212
-0.18579 0.23522 0.10551
0.17514 0.28868 0.17069
0.19723 0.23936 0.27532
-0.22979 0.02512 -0.26739
0.20092 0.27230 0.24568
-0.24925 0.12649 -0.22543
-0.27399 0.18585 0.24563
-0.18792 0.23522 0.17189
-0.00945 0.23522 -0.21787
-0.14937 0.28868 0.04945
0.19197 0.22453 -0.20169
-0.23579 -0.05075 0.25286
0.25536 -0.17174 0.26426
0.25294 0.23101 -0.26084
-0.25719 -0.10539 -0.22531
0.17786 0.24203 0.23443
-0.09836 0.27190 -0.24604
-0.12212 0.24769 -0.26782
-0.26136 0.25488 0.02475
0.26481 -0.19976 -0.23673
-0.16976 0.28868 0.12347
-0.25801 0.22453 0.07538
-0.22345 0.25423 -0.04068
0.23186 0.21246 -0.23026
-0.22881 0.28868 -0.10610
-0.09751 0.28868 0.05722
-0.03242 0.28868 -0.07612
-0.24328 0.21235 0.27634
-0.25796 -0.09594 -0.22560
-0.22603 0.13730 0.24091
0.06236 0.22453 -0.25996
-0.00024 0.23561 0.24021
0.23953 0.07185 0.24397
-0.18221 0.23522 -0.20999
-0.14847 0.23522 0.20582
0.25256 -0.11318 -0.21194
-0.27768 0.04881 0.24193
0.04650 0.27200 0.20746
0.26332 -0.06705 0.24734
0.06883 0.22453 0.27712
-0.10231 0.23522 -0.01636
0.25005 0.26744 -0.04798
0.27057 -0.09728 -0.22367
-0.24817 0.22453 -0.21224
-0.21015 -0.14513 0.26414
-0.25868 -0.19390 -0.21386
0.19360 0.23522 0.00911
-0.13558 0.27665 0.20327
-0.08067 0.25381 -0.22383
0.06300 0.28345 -0.23565
-0.07353 0.28868 0.02454
0.22773 0.28868 0.18824
-0.25595 -0.21546 -0.21417
0.22064 0.28868 0.01207
0.25742 0.25925 0.09330
0.27384 0.01560 -0.24577
-0.07687 0.28868 -0.08930
-0.11826 0.28868 -0.16287
-0.07798 0.28042 -0.23837
0.18631 0.24850 0.22861
-0.26610 0.24960 0.15665
0.28100 0.22164 -0.23861
-0.25887 -0.04427 -0.21582
-0.22063 0.04133 0.27183
0.24368 0.27452 0.16459
-0.10808 0.23522 -0.11181
-0.07249 0.28868 0.07845
-0.26448 0.18435 -0.22868
-0.16654 0.23522 0.06174
-0.03793 0.22453 -0.25859
-0.17917 0.27239 -0.24559
0.24695 -0.01046 0.24416
-0.22747 -0.09181 0.25656
0.18461 0.23384 -0.24056
-0.01094 0.22453 -0.28808
0.00129 0.28868 0.19901
-0.04279 0.28868 0.14062
-0.01340 0.28868 -0.02368
-0.24308 0.11542 -0.26427
0.24638 0.05527 -0.22142
-0.03352 0.28868 0.05035
0.19961 0.28868 0.22314
-0.21509 -0.05727 -0.27067
-0.19840 0.28207 -0.14635
-0.11320 0.23522 0.15780
-0.23094 -0.08663 0.25367
0.17554 0.23522 0.05689
-0.19306 0.28799 -0.14901
0.19117 0.22453 0.22328
-0.13036 0.26275 -0.25427
0.25254 -0.07305 0.24768
-0.22401 -0.16077 0.26700
-0.04301 0.23522 -0.08372
0.14333 0.28868 -0.12757
-0.25697 0.03675 -0.22038
0.21355 0.22453 0.23001
0.26250 0.05697 -0.22151
-0.08497 0.23522 0.12035
0.03468 0.28868 0.18652
-0.23982 0.22453 0.26593
-0.26054 0.10873 0.25908
-0.18640 0.28868 -0.03560
-0.15388 0.23071 0.24462
0.04491 0.28868 -0.10087
-0.22129 -0.07488 -0.26464
-0.19897 0.28143 0.18671
-0.12407 0.23522 0.14997
0.10838 0.23522 0.07473
0.12808 0.23522 0.05078
0.11575 0.23522 0.06160
-0.06655 0.28868 0.11857
0.22873 0.24836 0.04638
-0.01553 0.28868 0.13388
0.09730 0.23522 -0.16097
-0.19349 0.27679 0.24164
0.26233 -0.24386 -0.22923
0.26260 0.01318 -0.21905
0.25647 -0.14297 0.26315
-0.08070 0.28868 0.15466
-0.28703 0.22453 0.22834
0.02505 0.22706 -0.24790
-0.24576 0.22944 0.14785
0.25873 0.25779 -0.12402
0.27026 0.22453 -0.22757
0.16099 0.28868 0.09616
-0.25299 0.21104 -0.23018
-0.24003 0.12507 0.26840
-0.25399 -0.13754 0.26562
0.26635 0.20473 -0.25326
-0.21475 0.26389 0.18969
-0.25546 0.22453 -0.11718
-0.14965 0.23522 -0.20573
0.06817 0.28868 0.00426
-0.01550 0.28868 -0.17242
-0.23959 0.19918 0.27718
-0.28173 0.23225 0.18649
0.18283 0.23191 0.21342
0.13026 0.28868 -0.10944
-0.23326 0.09085 0.28116
-0.22178 -0.19769 0.26493
0.25220 0.22453 0.16213
-0.01321 0.22929 -0.28439
-0.21116 -0.12716 -0.25313
0.17981 0.23522 0.22255
-0.19517 0.28565 0.14266
0.24759 0.27017 0.16849
-0.12595 0.28868 -0.01347
-0.03671 0.25494 -0.26131
-0.28386 0.22988 -0.05321
-0.19012 0.23522 0.04600
0.14274 0.23522 -0.17734
-0.22312 0.28868 -0.18607
-0.24663 0.12685 0.26200
0.07641 0.22453 0.25271
-0.23094 0.23544 -0.26737
-0.19390 0.22453 0.25990
-0.27802 0.23637 0.04908
0.06856 0.22453 0.26426
-0.23233 0.10654 0.27401
-0.27524 0.22453 0.09172
-0.21213 -0.10987 -0.25205
-0.05064 0.25310 -0.26295
-0.17742 0.28623 0.19465
-0.17300 0.23522 -0.23050
-0.15163 0.23765 -0.23837
-0.21500 0.26362 -0.03239
0.20774 0.23522 0.12858
-0.05069 0.22453 -0.26068
-0.23908 0.08929 0.28054
-0.02742 0.23522 0.13894
0.05016 0.28868 -0.14599
-0.08770 0.23977 -0.27496
-0.24253 -0.08059 -0.24276
-0.25773 -0.12281 0.26188
0.27914 0.23513 0.20823
0.18994 0.23522 0.13573
-0.13046 0.27412 0.24404
0.26076 0.22453 0.03860
0.16458 0.26078 -0.21755
0.19294 0.28868 -0.21110
0.07900 0.28868 -0.08389
-0.13705 0.23522 -0.01254
-0.14903 0.23522 0.22883
-0.13192 0.23522 0.05896
-0.13621 0.22453 -0.26314
0.27203 0.22453 0.21075
0.20398 0.24257 0.27243
-0.19324 0.28780 0.00527
-0.02177 0.28868 0.13888
0.01043 0.26347 0.25362
-0.26002 0.22453 0.23121
0.26326 0.24305 0.23094
-0.10458 0.28868 -0.00458
0.26633 0.24935 0.04814
-0.21742 0.26093 0.04805
0.26780 0.22453 -0.15538
-0.24933 0.18043 -0.26532
-0.26826 0.22453 -0.08329
0.25225 0.03001 -0.26737
0.28539 0.22817 0.15654
-0.17308 0.28563 -0.19519
0.05215 0.23522 0.19077
-0.06306 0.28868 -0.18516
-0.13634 0.24575 -0.23109
0.05131 0.27961 0.20061
0.27240 0.03337 -0.24721
-0.23415 -0.16004 0.26704
-0.00010 0.23172 -0.28220
0.05545 0.28868 0.00741
-0.19023 0.22453 -0.25978
0.07009 0.23522 0.02959
0.27312 0.08781 -0.24649
-0.12706 0.28868 -0.13705
-0.25673 0.26002 0.18735
0.20574 0.23522 -0.15033
0.20690 0.22453 -0.19979
0.22349 0.23522 0.17078
0.26016 -0.28235 -0.23985
-0.20790 0.22453 -0.20622
-0.23465 -0.26798 0.26097
0.16509 0.28868 -0.21316
-0.10471 0.28868 0.21895
0.07264 0.28868 -0.05297
0.27619 0.07806 -0.22270
0.01561 0.23522 -0.03475
0.13915 0.23522 0.06232
0.08097 0.23522 0.06502
-0.23609 0.16538 0.28353
0.11448 0.23522 -0.21811
-0.22073 0.04303 -0.27279
0.05780 0.28868 -0.01510
-0.13462 0.23522 -0.20403
0.23256 0.24411 0.00859
-0.27252 0.24248 0.08081
-0.11802 0.23522 -0.06811
-0.03240 0.25849 0.25811
-0.16817 0.28868 0.18579
0.28014 0.23401 0.01513
-0.28384 0.22453 0.00245
-0.07939 0.25506 0.26120
0.06683 0.23522 -0.17986
0.27171 0.08927 0.24790
-0.19527 0.23522 -0.05802
-0.05996 0.26176 0.25516
0.19631 0.28439 0.12390
0.27082 0.24436 0.11169
-0.07307 0.22965 -0.24557
-0.09546 0.23522 0.19502
0.19245 0.26511 0.20383
-0.12117 0.22453 -0.28676
0.25286 0.26432 -0.18121
0.23389 0.17216 0.25169
0.01208 0.23522 0.06893
0.15212 0.27401 0.20565
-0.03705 0.28868 -0.05083
-0.14656 0.23522 -0.00652
0.25953 0.12915 -0.26009
0.23211 0.24461 -0.10716
-0.19325 0.28779 0.08850
-0.23866 0.28010 0.18716
0.15004 0.23522 0.08961
-0.21659 -0.03066 -0.27011
-0.10655 0.23522 0.18585
-0.05028 0.28868 -0.15744
0.25200 0.04447 0.26762
0.05445 0.28395 -0.19670
-0.24981 0.22494 0.15179
-0.06673 0.28868 -0.19705
0.15996 0.23808 -0.23799
0.20048 0.23522 0.13693
-0.10260 0.28276 -0.19777
-0.24719 -0.06254 -0.21479
-0.26242 0.00740 -0.21873
-0.05755 0.28868 -0.13767
0.26906 0.24631 -0.20069
0.24463 0.23070 0.14509
-0.18050 0.23522 0.09285
-0.06505 0.28868 -0.13821
-0.09251 0.28868 -0.08722
-0.26616 0.09126 -0.22344
0.19181 0.28868 0.02847
-0.12534 0.23522 0.16359
-0.23393 0.28536 -0.21675
-0.24360 0.27461 -0.22825
-0.20626 -0.24737 0.26027
0.04975 0.23522 0.00543
-0.03883 0.28868 -0.20878
0.06594 0.23522 -0.06294
0.25950 0.22453 0.20264
-0.25465 0.20828 0.26497
0.23786 0.23522 0.00176
-0.15611 0.22762 0.28589
-0.11768 0.23522 0.07379
0.06075 0.28868 0.00474
-0.23696 0.14999 0.28265
-0.24713 0.26518 0.23094
0.05769 0.23522 -0.08629
0.26860 0.08107 0.25101
0.12572 0.25332 -0.22427
-0.07024 0.27301 0.24504
0.28178 0.23218 -0.10663
0.24876 0.22611 0.07777
-0.10750 0.28868 -0.21436
0.24849 0.22640 -0.06662
-0.21795 -0.12094 0.26280
0.15747 0.23522 -0.08245
0.05726 0.28868 -0.02794
0.21290 0.22453 0.18348
-0.02731 0.28868 0.02378
0.02108 0.23522 -0.07043
0.23220 0.23875 -0.19245
-0.23908 0.15208 -0.27238
-0.21080 0.26828 -0.00584
0.23663 0.22453 -0.27860
-0.24111 0.23461 0.00114
0.10143 0.22453 0.26007
0.20224 0.28868 -0.18542
0.09529 0.28416 -0.23500
-0.01278 0.28868 -0.13725
-0.22635 0.14294 0.27946
-0.23634 0.28267 0.09868
0.25512 0.22453 0.09769
-0.20795 -0.25182 -0.25808
-0.22282 0.22453 0.28866
0.26707 -0.15956 -0.23241
0.05396 0.23522 0.02192
-0.15529 0.23522 -0.12446
0.25160 0.05035 -0.26801
0.24339 0.00323 0.26872
-0.21923 0.22453 0.18320
-0.22476 -0.14340 0.26798
0.25387 0.22453 0.07745
-0.19603 0.28469 0.10030
-0.19245 0.25036 0.20989
-0.18758 0.23522 -0.04594
0.05012 0.23522 -0.23061
-0.23902 0.23693 0.02619
0.28032 0.09512 -0.23930
-0.21054 0.28868 0.06946
0.28427 0.22942 -0.21505
0.25954 -0.26977 -0.26008
-0.27358 0.09844 -0.23186
0.18213 0.23522 0.12054
0.00503 0.27216 -0.24581
-0.26950 0.22453 -0.02736
0.11018 0.23522 -0.10696
-0.23616 -0.25598 0.26165
-0.27809 0.23629 -0.20983
0.27683 0.01388 -0.22282
0.24609 -0.04143 -0.27353
-0.08303 0.23522 -0.22645
0.20474 0.23522 0.11922
0.23997 0.27864 -0.22510
0.08087 0.23522 0.07648
0.27272 0.24225 -0.12063
0.26089 0.03514 0.24159
0.16672 0.28868 0.13557
-0.12280 0.22453 -0.26704
-0.20024 0.23522 -0.04807
-0.25808 0.22453 -0.17482
0.11689 0.25881 -0.21933
-0.27370 0.00125 -0.22079
0.13578 0.28868 0.11302
-0.15794 0.28868 0.20754
0.17784 0.28868 -0.11507
-0.22833 0.22453 0.25929
-0.03235 0.28868 0.22384
0.13591 0.23522 0.22193
0.05013 0.23522 -0.18553
0.23886 0.08370 0.24314
-0.27756 0.22453 -0.00532
-0.23689 0.00530 -0.25806
0.15971 0.24640 -0.23050
-0.08550 0.27870 -0.23992
0.26409 -0.21250 -0.21704
0.20109 0.23377 0.18283
0.19245 0.25083 -0.21386
-0.23093 0.24592 -0.13461
-0.04285 0.28868 0.10238
-0.26035 0.25600 -0.13635
0.12779 0.22453 -0.26858
-0.28634 0.22712 0.10602
0.25628 -0.13853 0.25136
0.08262 0.23522 -0.19392
-0.12093 0.22453 0.28251
-0.24336 0.27488 -0.16199
-0.21749 0.26085 -0.18109
0.06891 0.24042 -0.23588
-0.09182 0.24223 0.27274
-0.05106 0.28868 0.01752
-0.17993 0.22453 0.28427
-0.04714 0.23522 -0.10039
-0.23859 -0.27692 -0.22329
0.23094 0.25299 0.25716
-0.21289 -0.12748 0.26887
0.18459 0.28868 0.21307
0.14170 0.22453 0.28101
-0.03345 0.23522 0.09561
-0.16857 0.28868 0.00691
0.19609 0.23522 0.19132
-0.22714 0.23522 -0.14678
0.13238 0.23522 -0.00062
-0.11563 0.23522 0.01755
0.02009 0.28868 0.05406
0.04546 0.28868 0.02881
0.27043 0.22453 -0.24072
-0.01006 0.28709 -0.23236
0.10050 0.28868 -0.08485
0.08982 0.22453 0.26578
0.13090 0.23522 -0.18267
0.09776 0.23273 0.28129
0.28488 0.22453 0.22601
0.11165 0.22453 0.28652
-0.26323 0.22453 -0.06952
0.18515 0.28376 -0.19687
-0.23727 -0.13056 -0.24240
-0.22603 -0.12696 -0.25404
-0.27636 0.23820 -0.13467
-0.22912 -0.17839 0.26601
-0.08783 0.28868 0.17904
-0.24098 0.17201 0.27272
-0.20705 0.28868 0.23016
-0.25177 0.12159 0.25627
0.18358 0.28868 -0.13945
0.02763 0.22453 0.26221
0.24242 0.02052 0.26617
0.13640 0.24704 0.22993
-0.10529 0.28868 0.06055
-0.21678 -0.02726 0.27290
-0.24565 0.22956 0.14253
-0.10304 0.26886 -0.24878
-0.24883 0.13348 -0.26054
0.23392 0.26594 0.24842
0.14761 0.26597 0.21289
-0.19908 0.23522 0.13735
-0.22206 0.28868 0.04088
-0.12673 0.28868 -0.00603
-0.23925 0.23522 -0.05025
0.06847 0.22768 0.28583
0.02359 0.23522 0.02301
0.26312 -0.22979 -0.23991
0.25335 0.21677 -0.23050
0.19616 0.23522 -0.09382
0.18353 0.22453 -0.26579
-0.05365 0.27125 0.20814
-0.24231 0.27452 0.23230
-0.23711 0.28182 0.21400
-0.23338 0.20989 0.28459
-0.26434 0.19807 -0.22945
0.23975 0.06784 0.24999
-0.23893 0.16438 0.27392
0.05322 0.28868 0.10368
0.16151 0.28723 -0.23224
0.03306 0.28868 -0.12096
-0.17058 0.23522 0.05836
0.22310 0.28868 0.22911
0.24509 0.19182 0.27452
0.16375 0.28868 -0.12053
0.27431 0.20278 -0.22972
-0.07815 0.23522 0.00094
0.10920 0.23522 0.17895
0.27310 0.22453 -0.07944
-0.15815 0.23522 -0.03529
-0.17501 0.28868 -0.07163
-0.05787 0.23522 0.14595
-0.00491 0.28868 0.20825
-0.24368 -0.12946 -0.21820
0.11613 0.28868 -0.07752
-0.21522 -0.05498 0.25388
0.00617 0.22453 -0.25340
-0.25551 -0.02659 -0.23586
-0.00748 0.23522 -0.09819
0.27624 0.23834 0.21862
-0.10066 0.28868 0.13545
-0.05202 0.28868 0.05204
0.02836 0.28256 -0.19796
-0.07846 0.23522 -0.08127
0.21713 0.28868 0.22941
-0.21400 -0.07660 0.25813
-0.24097 -0.23288 -0.22718
0.17989 0.28868 -0.09430
-0.14763 0.28868 0.08194
0.26980 -0.11104 -0.21266
-0.21219 -0.10879 0.25746
-0.18283 0.23408 0.19924
-0.23996 -0.22434 -0.22192
0.24235 0.11076 0.23734
-0.04992 0.27302 -0.24502
0.06000 0.28868 -0.07175
-0.22157 0.05787 -0.27356
0.26882 0.24659 0.15904
-0.28127 0.13573 0.23834
-0.23356 0.20189 0.28605
-0.22012 -0.12987 -0.24176
-0.26297 0.13669 0.24676
-0.25105 0.22453 -0.18521
0.09210 0.28868 -0.18902
-0.04144 0.25361 0.26250
0.13566 0.23522 -0.23254
-0.24188 0.22820 0.27443
0.25953 -0.02025 -0.21717
0.23611 0.25313 0.25776
-0.23100 -0.19858 -0.24102
-0.27668 0.07972 0.24294
0.14356 0.28868 -0.13369
-0.02370 0.28868 0.05714
0.00563 0.28868 0.10490
0.19395 0.28868 -0.05316
-0.10212 0.23522 -0.09550
0.19696 0.28868 0.02013
0.03558 0.28868 -0.21581
-0.24878 0.26885 0.18437
-0.18921 0.23522 0.14044
-0.24056 0.22564 -0.18359
-0.02293 0.22492 -0.24983
0.02378 0.23522 -0.16569
0.24736 0.16492 0.27226
0.15396 0.24682 -0.26861
-0.23672 -0.07951 0.27157
-0.09052 0.28868 0.20576
-0.03257 0.22809 -0.24698
0.19293 0.23522 -0.07711
0.07537 0.23522 -0.19392
-0.24609 -0.13783 0.26829
0.11126 0.23522 -0.18554
0.26421 0.25171 -0.08074
0.02677 0.22453 -0.27080
-0.17276 0.28868 -0.11076
-0.28826 0.22499 -0.14213
-0.25222 0.22453 -0.14690
-0.18726 0.27255 0.24545
-0.22601 0.28868 0.09627
-0.02722 0.28868 -0.06786
-0.15983 0.28868 -0.18895
0.28634 0.20112 0.23328
-0.21721 0.28868 -0.00340
-0.28755 0.22578 -0.01258
-0.23226 0.00059 -0.22962
0.19539 0.28541 -0.08867
-0.17927 0.28868 0.21042
-0.10420 0.23522 -0.22289
-0.28511 0.16385 0.23450
0.16222 0.23522 -0.20974
-0.24037 0.02170 0.27727
-0.18283 0.22868 0.19074
-0.11388 0.28868 -0.06160
-0.22695 -0.00945 -0.23493
-0.23106 0.15479 0.28071
0.00398 0.23522 0.16608
-0.23228 0.03898 -0.22960
0.21281 0.22817 -0.28539
0.11506 0.28868 -0.00429
-0.24336 0.23210 -0.02037
0.28766 0.22565 0.07751
0.15820 0.23522 0.05809
-0.11473 0.23800 -0.27655
-0.23290 0.24373 0.00831
0.25723 -0.01349 -0.26239
-0.19796 0.25097 -0.19245
-0.26364 0.16417 0.25597
0.25949 0.21834 0.26012
0.15765 0.28868 -0.21532
-0.23996 0.23229 -0.27266
-0.25930 -0.28603 -0.20288
0.25996 -0.28593 -0.20640
0.04975 0.24112 0.27374
0.20388 0.28868 -0.10242
-0.05425 0.28868 0.20107
-0.09262 0.27114 0.24672
0.08944 0.28868 -0.07985
-0.26361 -0.12450 -0.21131
-0.05150 0.23522 -0.14980
-0.20921 -0.16178 0.25820
-0.03407 0.26078 0.21755
0.01666 0.26715 -0.21183
-0.24665 0.22845 0.02989
-0.21334 0.23522 0.13896
0.15556 0.28868 -0.01545
0.26369 -0.21958 -0.24577
-0.15779 0.28868 0.12606
0.11604 0.23522 -0.05513
-0.21743 -0.05450 -0.24446
0.00130 0.28868 -0.12666
0.23094 0.23297 0.26101
-0.26275 0.25333 -0.22348
0.23094 0.24613 0.24903
-0.02781 0.23522 -0.07044
0.03763 0.24377 0.23286
-0.05645 0.28868 -0.16389
0.03290 0.26334 0.21526
-0.18212 0.23522 0.12888
0.06164 0.28868 -0.19660
-0.18129 0.28868 0.05613
-0.18064 0.23522 -0.00071
0.08694 0.24058 0.27422
0.14135 0.23522 0.11395
0.00708 0.23522 0.11772
-0.16615 0.22725 0.28622
-0.23076 -0.00149 -0.26343
-0.21761 -0.01241 -0.27154
-0.05219 0.22453 -0.27326
-0.26984 0.12082 -0.22511
0.01226 0.23522 0.20752
0.22253 0.25526 -0.12290
-0.26288 0.25319 0.03437
0.02160 0.28868 -0.04927
-0.16529 0.28427 -0.23490
-0.20716 -0.19816 -0.26467
0.27938 0.23485 -0.04028
0.24227 0.23333 -0.09270
-0.28634 0.22712 -0.21461
0.22749 0.23522 -0.10950
0.27853 0.23579 0.19836
-0.19743 0.24724 0.19245
-0.24381 -0.15458 -0.23316
0.24003 0.06289 0.27229
-0.20039 0.22453 -0.22404
-0.25817 0.04834 0.26144
-0.23992 -0.02610 -0.25150
0.24301 0.23250 0.11083
-0.23802 0.23804 -0.11693
-0.07830 0.27077 -0.20857
-0.02905 0.23522 0.14868
0.13487 0.28868 -0.20099
0.11053 0.28188 0.23706
0.25891 0.25760 -0.05815
0.15625 0.28868 0.05878
0.24758 -0.03114 0.24532
-0.07444 0.27623 0.24214
-0.23311 0.28626 -0.03257
-0.22865 0.24845 -0.12015
-0.04684 0.24327 -0.23332
0.06276 0.28868 0.11210
0.20621 0.28868 0.07904
0.10075 0.23522 0.03370
0.01888 0.26453 0.21418
-0.23595 0.22453 0.23610
0.21244 0.23522 0.12469
0.27073 0.12036 0.24889
-0.22821 -0.21021 -0.23367
-0.09040 0.27929 0.20089
-0.27438 0.04073 -0.22060
0.20322 0.27670 -0.10168
-0.23899 0.14177 -0.27131
0.02706 0.25727 -0.25920
-0.08827 0.28868 0.07611
-0.01263 0.28868 -0.19069
-0.13800 0.23522 0.07097
-0.12198 0.26881 0.24882
-0.25425 0.26277 -0.13683
0.11474 0.28342 0.19718
-0.07461 0.23522 0.23670
-0.23963 0.21551 0.27999
0.04950 0.23522 -0.02136
0.03892 0.25367 0.26244
0.27572 0.09536 0.23821
0.01829 0.23522 0.13793
0.07052 0.28868 0.02844
-0.23726 -0.00435 -0.22462
-0.20675 0.27279 0.02813
0.21999 0.28868 0.01897
-0.21816 -0.09482 0.27071
0.17106 0.23522 0.07801
-0.07402 0.28868 0.11397
-0.22173 -0.09557 0.26188
-0.13420 0.28868 -0.17111
-0.22578 0.13272 0.27081
0.25910 0.24593 -0.24126
0.05152 0.23522 0.10461
0.28249 0.22453 -0.04587
0.19163 0.23522 -0.10154
0.17340 0.22453 0.25613
0.00686 0.28868 -0.18384
0.20168 0.22453 0.27737
0.02627 0.28868 0.07489
-0.02686 0.23522 0.21247
0.25208 0.26518 0.00942
0.17105 0.28868 -0.08968
0.28157 0.15941 -0.23805
0.28140 0.18261 0.23821
-0.25157 0.26576 0.22147
0.01485 0.28868 0.06909
-0.05766 0.23522 0.01889
0.21062 0.26848 0.11651
-0.27425 0.02086 0.24537
-0.26180 -0.08698 -0.21342
-0.23029 0.21305 0.23517
-0.19417 0.22453 0.20569
-0.21995 0.02908 0.25467
0.07813 0.28868 0.10333
0.25390 -0.02104 0.26572
-0.24594 -0.08531 -0.23882
0.22654 0.22925 -0.18283
0.04065 0.26549 0.25181
-0.02513 0.28868 -0.04335
0.06974 0.23522 -0.23528
0.26177 -0.23736 0.25692
0.14943 0.28868 0.12353
0.07612 0.24697 0.22998
0.20268 0.28868 -0.03285
-0.15715 0.26244 -0.25455
-0.22984 0.24713 0.13574
0.04170 0.26433 -0.21436
-0.21224 -0.22700 0.25658
0.15022 0.28868 0.10122
-0.13784 0.23522 -0.07907
-0.13636 0.23377 0.28035
-0.21507 0.23522 0.12671
-0.26872 0.05824 -0.23219
-0.03987 0.23522 -0.16809
-0.23820 -0.21583 -0.23188
-0.21919 0.25897 0.10438
0.23635 0.12831 0.25938
-0.04705 0.23522 -0.11516
0.16372 0.23522 -0.19569
0.27313 -0.05186 -0.24366
0.22642 0.25093 -0.06169
0.07618 0.28868 -0.13729
0.28568 0.22785 0.10199
-0.07779 0.28868 0.17467
0.21463 0.26403 0.01714
0.21497 0.25866 0.19245
0.01169 0.27841 0.24017
0.13407 0.28868 0.10744
-0.23989 0.06711 0.27973
0.14620 0.23522 0.05722
0.07004 0.25961 0.25709
0.26228 0.25385 0.13218
-0.14555 0.22453 -0.26863
0.21940 0.23522 -0.18899
-0.24208 0.04111 0.25690
-0.00765 0.28868 -0.18902
-0.19245 0.23700 0.19697
0.22286 0.28868 0.06876
-0.25581 0.26104 -0.20459
0.05556 0.28868 -0.10720
0.07477 0.23522 -0.15888
0.17872 0.22453 0.26350
-0.09241 0.26785 -0.21119
0.15596 0.27854 -0.24006
0.23124 0.24558 0.04047
0.28262 0.23079 0.23136
0.26575 0.22453 0.15730
-0.25920 0.20957 0.26042
-0.23434 -0.16742 -0.22754
0.06674 0.23522 0.03719
-0.17773 0.23522 -0.09974
-0.00210 0.28868 -0.17619
-0.05508 0.28868 0.21854
0.04601 0.23522 -0.03521
-0.25833 0.22453 0.23701
-0.21525 -0.05448 -0.25922
0.00781 0.23522 -0.11951
0.25727 0.04146 0.24124
0.27779 0.06951 -0.24183
0.04088 0.22843 0.28516
-0.28290 0.22453 -0.11319
0.06262 0.26385 -0.25328
0.27523 0.23947 0.18323
0.02690 0.28868 0.11976
-0.22212 0.23522 0.08664
0.12118 0.23522 0.03607
-0.22250 0.01560 -0.23938
-0.19162 0.25405 0.26210
-0.10929 0.27868 0.23994
0.23655 0.24053 -0.23094
0.00997 0.23522 -0.16567
-0.23262 0.01269 -0.26317
-0.22551 0.10955 -0.23637
-0.22430 0.27406 -0.24409
0.06544 0.28868 0.05048
0.12572 0.26646 0.21244
-0.17665 0.28066 0.19966
0.21026 0.26889 0.00756
-0.08149 0.26343 0.21517
-0.20288 0.23522 0.09811
0.20075 0.26766 0.19245
-0.24183 0.23381 0.18896
-0.17417 0.23522 -0.08576
0.13610 0.23522 -0.09500
0.20232 0.28868 0.03146
0.25841 0.25815 0.08729
0.13158 0.28868 -0.19570
-0.14312 0.28868 -0.12054
-0.22464 0.11255 0.23846
-0.19565 0.28512 0.02260
-0.15382 0.24610 0.23077
0.24897 -0.09600 0.26279
-0.16867 0.23946 -0.27524
-0.02295 0.22453 0.26375
-0.25776 -0.27727 0.26045
-0.23251 0.08588 -0.27150
-0.22190 0.06378 -0.24594
-0.20928 0.22453 0.22773
0.19613 0.28868 0.19867
-0.06935 0.23522 -0.19944
-0.02095 0.23522 0.14509
0.27946 0.23477 -0.08281
0.27953 0.23469 -0.00389
-0.22665 0.14824 0.25106
0.21106 0.28868 0.16322
0.24600 0.11652 -0.22487
0.08718 0.26034 -0.25644
-0.21874 0.28868 -0.04261
0.25154 -0.01548 0.24444
-0.00236 0.28868 -0.10708
0.06501 0.23522 0.01688
0.26462 0.22953 0.25050
0.26032 0.10223 -0.25929
0.24816 0.26954 0.17804
-0.23257 0.28687 -0.01657
-0.22110 -0.13872 -0.25765
-0.23660 0.20026 -0.28029
-0.23842 0.28036 -0.15657
0.24221 0.27616 0.00948
0.22748 0.28868 0.13735
-0.20099 0.27919 -0.00380
-0.20011 0.28016 -0.06006
-0.18999 0.22453 -0.22896
0.08734 0.28868 -0.20400
0.18730 0.24246 -0.23404
-0.27083 0.01988 -0.22576
0.26881 0.14865 -0.22667
-0.17173 0.22453 -0.27684
0.25389 0.26317 0.17304
-0.22790 0.24929 0.03352
0.11370 0.23522 -0.22690
-0.08203 0.28671 -0.19422
0.22481 0.22453 -0.25698
0.14957 0.28868 0.11589
0.12669 0.25805 0.25850
-0.10954 0.28868 -0.15414
-0.19318 0.28787 -0.04447
-0.15199 0.23522 0.03167
0.19245 0.23714 0.20241
-0.08458 0.28868 -0.08703
-0.20850 0.23522 -0.14768
-0.24495 0.04008 -0.22057
0.22672 0.22453 0.26796
-0.22307 0.08468 0.26155
-0.00913 0.25433 0.26185
-0.00276 0.28119 0.19919
-0.19193 0.23522 0.03450
-0.00704 0.23522 0.10236
-0.24949 -0.25397 -0.21239
0.14355 0.25610 0.22177
0.23292 0.18925 0.24873
0.08169 0.28868 -0.10161
-0.10738 0.28868 0.10062
-0.25482 0.11092 0.26480
-0.26802 -0.09093 -0.21611
0.23879 0.27996 0.20334
-0.11386 0.28868 0.21578
0.18283 0.23515 -0.22509
-0.07396 0.28868 0.00995
0.05298 0.28868 -0.05470
-0.21565 -0.16401 -0.26026
-0.11156 0.23849 -0.23762
0.27493 0.20990 0.24469
-0.28217 0.23175 -0.08327
0.23855 0.08927 0.28009
-0.03564 0.23522 -0.01289
-0.25421 0.13693 -0.25555
0.18887 0.28868 0.18142
0.04106 0.28868 -0.03550
0.24687 0.09978 0.27274
-0.07202 0.24206 0.23441
0.25915 0.25733 -0.17701
-0.01020 0.23977 -0.27495
-0.25498 0.26197 0.10680
-0.28667 0.22676 0.00946
-0.03005 0.23830 -0.23779
0.02618 0.28868 0.16826
-0.23235 0.06395 0.26920
-0.21346 0.28868 -0.06450
0.23167 0.22453 0.27002
-0.15180 0.23522 0.04044
-0.25702 0.25969 0.02305
0.26128 0.22453 0.12688
0.26914 0.24623 -0.13598
0.23426 0.16556 0.23803
-0.10328 0.27412 -0.24404
0.26630 -0.04579 0.24615
-0.18862 0.23522 -0.03386
0.04594 0.23522 -0.21143
-0.26275 0.22453 0.06765
0.23277 0.28664 -0.19458
0.09699 0.28868 -0.05087
0.26052 -0.08155 0.25910
0.04394 0.28868 -0.12111
-0.03798 0.27900 -0.23964
-0.27138 0.24374 0.20009
0.26221 0.00734 -0.25740
0.12778 0.26052 -0.25628
-0.26545 0.16115 -0.22737
-0.27248 0.07753 0.24714
0.08875 0.23522 0.05629
-0.28861 0.22459 0.00001
-0.22858 0.13617 -0.23330
0.23681 0.28215 0.15494
0.25215 0.25346 0.24142
0.27287 0.21797 -0.23057
0.24143 0.27703 -0.07448
-0.20465 -0.27374 0.26065
0.06604 0.24118 0.27368
-0.23678 0.22453 0.28044
0.26525 0.25056 -0.13327
0.07189 0.23522 -0.20749
-0.23841 -0.21341 0.26404
-0.06806 0.28868 -0.02992
0.00881 0.23522 -0.00777
0.24673 0.25926 0.24163
-0.22414 0.28868 -0.11205
-0.03879 0.23522 0.12018
-0.15014 0.23522 -0.04344
0.25450 0.26249 -0.19242
0.18395 0.28868 0.17248
-0.13607 0.28868 0.15142
-0.19245 0.23904 -0.22110
0.25003 0.22417 0.23096
-0.14524 0.23522 -0.04886
0.23146 0.22453 -0.18656
-0.22870 0.24840 0.01073
0.24326 0.23133 -0.19245
-0.12942 0.28868 -0.18436
-0.23629 0.23561 0.19245
-0.03612 0.26497 -0.21378
-0.16331 0.27751 -0.24099
-0.07980 0.23224 0.28173
0.08301 0.23522 -0.22606
-0.22329 0.08852 -0.27892
0.19245 0.24175 -0.22651
0.15456 0.23522 0.20885
-0.21402 0.23522 -0.08205
-0.07455 0.23522 0.07160
0.27793 0.03357 -0.23501
0.28657 0.22453 -0.22322
0.19917 0.28121 -0.11306
0.23070 0.23522 0.15610
0.07755 0.22619 -0.28718
-0.06814 0.28868 -0.05707
-0.22207 -0.08797 -0.23981
0.08429 0.23522 -0.16883
0.13173 0.28868 -0.15878
-0.23986 0.23522 0.12062
-0.18095 0.23522 -0.18620
-0.20801 -0.21744 0.26382
-0.16211 0.23210 -0.28186
0.27861 0.23571 -0.14457
0.14172 0.28849 -0.23111
0.22339 0.23522 0.16212
-0.23850 -0.05566 0.27292
0.04601 0.22453 0.25668
0.23507 0.28409 -0.05729
-0.21722 -0.23164 -0.25107
-0.22855 0.04276 0.27062
-0.27159 0.24351 -0.10333
0.27305 0.16267 0.24657
-0.21980 -0.16781 -0.24208
-0.08184 0.28868 -0.21562
-0.26687 0.22453 0.05858
0.12477 0.28868 0.11124
0.08970 0.23522 -0.14845
-0.20610 -0.24119 -0.25578
0.23922 0.07730 0.24217
0.26534 -0.19037 -0.25309
0.27386 -0.03890 -0.24078
-0.18617 0.28868 -0.01237
0.14569 0.28868 -0.04764
-0.08658 0.28868 -0.20099
-0.19563 0.28868 0.17254
-0.17495 0.23522 -0.01813
-0.14236 0.23522 -0.20114
0.06233 0.25434 0.22335
-0.21783 -0.08809 -0.24405
-0.22670 0.14919 -0.26694
-0.01228 0.23522 -0.09266
-0.24267 0.01233 0.25307
-0.09875 0.23522 0.02162
-0.05675 0.28868 0.10542
-0.11936 0.23522 -0.19720
-0.26341 0.25260 -0.19224
-0.14664 0.23522 0.07990
0.01881 0.28868 -0.19590
-0.22216 -0.18991 0.26536
-0.07978 0.22453 0.26982
0.26944 0.24590 -0.05377
0.00029 0.23522 -0.11575
0.12708 0.23522 0.06937
-0.15297 0.23522 0.00727
0.27775 0.23667 0.04094
-0.21110 0.26796 -0.07985
0.13965 0.23522 -0.23981
-0.12466 0.28868 -0.02579
-0.09862 0.28868 -0.00310
0.16023 0.23522 -0.02306
0.15987 0.28868 -0.07666
0.19327 0.28776 0.06710
0.22246 0.25533 0.17851
-0.20389 0.23522 -0.13449
0.24937 0.26820 -0.22401
0.13547 0.28868 0.22203
0.23889 0.08312 0.26130
-0.11338 0.28266 0.23636
-0.25312 -0.00742 0.26650
0.13104 0.23522 -0.15335
-0.24046 -0.01708 -0.22142
0.24111 0.27738 -0.17701
0.16325 0.26085 0.25599
-0.25303 -0.14197 -0.22535
0.14198 0.28868 0.17549
-0.06410 0.22453 0.27857
-0.04805 0.23522 0.04521
-0.23750 0.23861 0.05694
0.20511 0.27460 0.10861
0.05046 0.23522 0.04281
-0.15593 0.23522 -0.02735
0.19876 0.25756 0.25894
-0.08824 0.28868 -0.06005
0.17312 0.28588 0.19497
0.26485 0.22453 0.18626
0.22416 0.28868 0.15642
-0.03071 0.23522 -0.22168
-0.25131 0.26604 0.06014
-0.24843 0.26924 0.01317
-0.20429 0.23590 -0.27844
0.17777 0.28868 -0.14574
0.26704 0.08014 -0.25257
-0.11428 0.28814 -0.19293
-0.05911 0.28868 -0.04246
0.03780 0.23522 0.06990
0.24891 0.26320 -0.23094
0.05985 0.28868 0.16481
0.03488 0.28868 -0.18124
-0.10510 0.28868 0.04443
-0.07187 0.28868 -0.12522
-0.17444 0.23522 0.13576
-0.24477 0.15044 0.26652
0.12774 0.22453 -0.25894
0.26506 0.07748 0.25455
-0.24988 0.10090 -0.22399
-0.28342 0.23037 0.00514
0.21301 0.28868 -0.00150
0.17928 0.23522 -0.13419
-0.21041 -0.14039 -0.25611
0.16984 0.22571 -0.28761
0.05625 0.23522 -0.22506
0.02701 0.23522 0.16109
-0.00374 0.22951 0.28419
-0.23914 0.22453 0.25683
0.10253 0.28868 -0.15955
-0.22374 0.09646 0.27719
0.25134 0.26601 0.11911
0.20567 0.23522 -0.08711
-0.09015 0.23522 0.14362
0.01352 0.28868 0.17218
0.05609 0.23522 0.15967
0.23094 0.22533 0.23128
0.26586 0.24988 -0.00541
0.27752 0.23692 0.00876
-0.23593 0.13423 -0.27353
0.19996 0.28034 0.17749
-0.10233 0.23522 -0.16362
0.03702 0.27418 -0.20549
0.10991 0.23522 0.06438
0.25579 0.20900 0.26382
-0.01396 0.23522 0.18108
0.10084 0.23522 -0.16548
-0.24099 -0.18311 -0.23277
0.12837 0.23522 0.09619
-0.19398 0.28868 -0.22422
-0.05773 0.23522 -0.08024
-0.23915 0.27955 0.14190
0.27959 0.22453 -0.07763
-0.08040 0.22749 0.28600
0.27816 0.22453 -0.09296
-0.23852 -0.15554 -0.22336
-0.24541 0.27259 0.15946
-0.21558 0.28868 -0.02011
-0.14307 0.28868 0.18921
0.18923 0.22453 -0.20883
0.23172 0.21068 0.24454
-0.24706 0.03684 0.27255
-0.14966 0.28868 -0.09593
0.27450 0.23110 -0.23094
0.24833 0.12862 0.27129
-0.04564 0.22510 -0.24967
0.05257 0.25190 0.26404
-0.21542 -0.22400 -0.24646
0.04350 0.25678 -0.22115
0.23317 0.18481 0.23928
-0.21954 0.28868 -0.04778
0.22850 0.28868 0.04974
0.26147 -0.25921 -0.21878
