-0.05139 0.09057 0.00977
-0.05823 0.04543 0.11671
0.12235 -0.08353 -0.29668
0.12235 -0.11954 -0.27624
0.12235 -0.15916 -0.31024
-0.02349 0.15020 -0.03264
0.13845 -0.21644 0.25485
0.05710 -0.08337 -0.38153
0.03970 -0.16616 -0.38153
0.01286 -0.16678 -0.38153
0.00940 -0.04247 -0.38153
0.04710 -0.16120 -0.38153
0.10976 -0.14867 -0.38153
0.09719 -0.04767 -0.38153
0.02021 -0.11872 -0.38153
0.09264 -0.21294 -0.38153
0.11457 -0.20912 -0.38153
0.08827 -0.05378 -0.38153
0.01520 -0.06631 -0.38153
0.02633 -0.03520 -0.38153
0.08352 -0.18294 -0.38153
0.08860 -0.04567 -0.38153
0.08636 -0.13380 -0.38153
-0.11548 -0.00500 -0.38153
0.02726 -0.16850 -0.38153
-0.01291 -0.11095 -0.38153
-0.08078 -0.01287 -0.38153
0.07628 -0.06814 -0.38153
0.01046 -0.13944 -0.38153
0.02135 -0.05955 -0.38153
0.08345 -0.23289 -0.38153
0.11148 -0.01639 -0.38153
0.00402 -0.06670 -0.38153
0.00945 -0.06210 -0.38153
0.00963 -0.00759 -0.38153
0.05688 -0.17341 -0.38153
0.08772 -0.09255 -0.38153
0.14596 -0.05922 0.25580
0.14596 -0.02988 0.23925
0.14596 -0.02938 0.24673
0.00653 -0.28833 -0.25607
0.07185 -0.28833 -0.20191
0.06483 -0.28833 -0.23791
-0.02292 -0.28833 -0.21320
-0.01204 -0.28833 -0.18115
0.09723 -0.28833 -0.27683
0.07240 -0.28833 -0.18176
0.08042 -0.28833 -0.26147
0.06983 -0.28833 -0.30823
0.05239 -0.28833 -0.18209
0.03317 -0.28833 -0.20376
-0.05126 -0.28833 -0.18856
0.01837 -0.28833 -0.17927
0.06904 -0.28833 -0.22143
0.02916 -0.28833 -0.18692
0.03348 -0.28833 -0.24042
0.12235 0.00184 -0.05123
0.12235 0.00029 -0.03184
0.05307 0.01976 0.12225
-0.02763 0.06840 0.12530
0.12526 -0.06052 -0.31792
0.12235 -0.26655 0.24651
0.12235 -0.27892 0.23037
0.14245 -0.16975 -0.25271
-0.06266 0.04050 -0.00491
-0.06266 0.06280 -0.00440
-0.06266 0.02494 0.08687
-0.06266 0.03426 0.09158
-0.06266 0.06930 -0.00300
-0.06266 0.03587 -0.01782
-0.06266 0.09193 -0.04037
-0.06266 0.02510 0.10863
0.13726 -0.02145 0.30801
0.00168 0.28833 -0.34772
-0.00383 0.28833 -0.33511
-0.01854 0.28833 -0.31316
-0.02806 0.28833 -0.34126
-0.01196 0.28833 -0.30176
-0.06619 0.28833 -0.22034
-0.01351 0.28833 -0.36340
-0.06049 0.28833 -0.36179
-0.06976 -0.23158 -0.05757
-0.06976 -0.14854 -0.05724
-0.06976 -0.13058 -0.08405
-0.06976 -0.21759 -0.02350
-0.06976 -0.26814 -0.00245
-0.06976 -0.23285 0.11520
-0.06976 -0.24359 -0.15246
-0.06976 -0.17193 -0.07375
-0.06976 -0.25036 0.10050
-0.06976 -0.28546 0.00979
-0.06976 -0.26737 0.06238
-0.06976 -0.21074 0.01113
-0.06976 -0.23069 -0.01409
-0.06976 -0.24305 -0.12134
-0.06976 -0.24094 0.12454
-0.06976 -0.02838 -0.16732
-0.06976 -0.23266 -0.12063
-0.06976 -0.10158 -0.16078
-0.06976 -0.15015 -0.10779
-0.06976 -0.28745 0.12057
-0.06976 -0.17676 0.01015
-0.06976 -0.03494 -0.13384
-0.06976 -0.21614 -0.11131
-0.06976 -0.18107 -0.07046
-0.06976 -0.21930 0.06694
-0.06976 -0.14160 -0.13482
-0.06976 -0.16832 -0.03005
-0.06976 -0.22577 0.06153
-0.06976 -0.20796 0.04288
-0.06976 -0.08077 -0.12557
-0.06976 -0.27492 -0.06467
-0.06976 -0.26559 -0.16087
-0.06976 -0.23987 0.14627
-0.06976 -0.18999 -0.08895
-0.06976 -0.10078 -0.06975
-0.06976 -0.17495 -0.03942
-0.06976 -0.22696 -0.16611
-0.06976 -0.00811 -0.16783
-0.06976 -0.26960 0.18085
-0.06976 -0.11385 -0.05319
-0.06976 -0.03417 -0.16120
-0.06976 -0.02810 -0.14746
-0.06976 -0.27835 0.00078
0.12235 -0.11740 0.31960
0.12235 -0.08742 0.27517
0.14596 -0.04172 0.27093
0.14596 -0.06534 0.27668
0.11190 -0.16510 0.38153
0.09101 -0.28370 0.38153
0.12208 0.00560 0.38153
0.07408 -0.08162 0.38153
0.05113 -0.23976 0.38153
0.02251 -0.12328 0.38153
0.09622 -0.16102 0.38153
0.10194 -0.23001 0.38153
0.07692 -0.20234 0.38153
-0.06258 -0.27796 0.38153
0.02294 -0.13858 0.38153
0.05960 -0.18151 0.38153
0.00293 -0.28570 0.38153
0.09512 -0.06885 0.38153
0.01493 -0.21758 0.38153
0.07779 -0.26817 0.38153
0.09329 -0.04220 0.38153
0.02686 -0.18416 0.38153
0.01780 -0.23923 0.38153
-0.00243 -0.16102 0.38153
-0.05615 -0.27258 0.38153
0.08261 -0.04212 0.38153
-0.02968 -0.19171 0.38153
-0.01123 -0.19153 0.38153
0.01776 -0.26233 0.38153
0.04463 -0.18738 0.38153
-0.00924 -0.27776 0.38153
0.04541 -0.25610 0.38153
0.09817 -0.27948 0.38153
0.13689 -0.16975 -0.26914
0.13845 -0.02065 -0.22473
0.05271 0.01831 0.03407
-0.05584 0.15579 0.00808
0.00395 0.21302 0.38153
0.00778 0.16750 0.38153
-0.09204 0.08435 0.38153
-0.04707 0.01975 0.38153
0.01631 0.08413 0.38153
-0.04119 0.14476 0.38153
-0.12228 0.03242 0.38153
-0.04521 0.15633 0.38153
-0.05416 0.09428 0.38153
-0.01080 0.11159 0.38153
-0.00103 0.21593 0.38153
0.01778 0.15709 0.38153
-0.06263 0.02357 0.38153
0.01135 0.05182 0.38153
-0.01295 0.20210 0.38153
0.00785 0.07307 0.38153
-0.02983 0.04228 0.38153
0.00091 0.04181 0.38153
0.02683 0.16518 0.24105
0.02683 0.10303 0.24346
0.02683 0.08916 0.25684
0.02683 0.01725 0.26380
0.02683 0.15097 0.26820
0.02683 0.13418 0.27573
0.02683 0.12106 0.23701
0.02683 0.13837 0.25316
0.02683 0.02504 0.21866
0.02683 0.14150 0.29805
0.02683 0.01779 0.24121
0.02683 0.09018 0.32134
0.02683 0.06947 0.28308
0.02683 0.20637 0.25583
0.02683 0.17307 0.24679
0.02683 0.04364 0.31670
0.02683 0.19137 0.22147
-0.02349 0.15628 0.06627
-0.03976 0.17168 -0.17461
-0.05467 0.20266 -0.17461
-0.00123 0.08494 -0.17461
-0.02881 0.09764 -0.17461
-0.02500 0.13014 -0.17461
-0.04498 0.14718 -0.17461
-0.06236 0.22290 -0.17461
-0.06408 0.11421 -0.17461
0.00727 0.02892 -0.17461
-0.06596 0.17196 -0.17461
-0.06958 0.28031 -0.17461
0.12235 -0.25253 0.29161
0.12235 -0.23199 0.28981
0.14596 -0.02515 0.34503
0.14596 -0.02738 0.25765
0.14596 -0.02536 0.35036
-0.02353 0.16276 0.04985
-0.04228 0.16276 -0.05029
0.12235 -0.01252 -0.30291
0.12235 -0.00574 -0.30520
0.12235 -0.00154 -0.24378
-0.06164 -0.04621 0.21819
0.01360 -0.11603 0.21819
-0.03556 -0.10885 0.21819
0.00897 -0.07888 0.21819
-0.05484 -0.09720 0.21819
-0.02167 -0.10436 0.21819
0.05060 -0.03761 0.21819
-0.00936 -0.19230 0.21819
-0.06526 -0.06260 0.21819
0.05576 -0.07576 0.21819
0.00023 -0.02909 0.21819
-0.02744 -0.05005 0.21819
0.05361 -0.02858 0.21819
0.00871 -0.10098 0.21819
-0.05110 -0.18090 0.21819
-0.04303 -0.07092 0.21819
-0.05401 -0.14463 0.21819
0.09470 -0.03153 0.21819
-0.06483 -0.14523 0.21819
0.05449 -0.02132 0.21819
-0.02791 -0.20307 0.21819
0.12252 -0.07693 -0.27737
0.12235 -0.01255 -0.24204
0.12235 -0.00509 -0.23864
-0.14596 0.28064 -0.15773
-0.14596 0.09749 0.18664
-0.14596 0.07218 0.32260
-0.14596 0.20012 0.11478
-0.14596 0.27918 0.04221
-0.14596 0.09625 0.16570
-0.14596 0.16252 0.00271
-0.14596 0.20227 0.23340
-0.14596 0.18560 0.28176
-0.14596 0.16000 0.12888
-0.14596 0.10386 0.28175
-0.14596 0.13275 0.22993
-0.14596 0.27156 -0.14919
-0.14596 0.20742 -0.08027
-0.14596 0.21582 0.09729
-0.14596 0.15838 0.01913
-0.14596 0.28471 0.06807
-0.14596 0.18621 0.32480
-0.14596 0.24532 -0.13567
-0.14596 0.12567 0.35440
-0.14596 0.03627 0.37636
-0.14596 0.19571 0.34119
-0.14596 0.20613 0.22985
-0.14596 0.19330 -0.03781
-0.14596 0.12822 0.21047
-0.14596 0.24775 0.26355
-0.14596 0.27487 -0.12669
-0.14596 0.20272 0.02488
-0.14596 0.03480 0.32793
-0.14596 0.19797 0.04898
-0.14596 0.08487 0.35910
-0.14596 0.20338 0.07954
-0.14596 0.20567 0.05417
-0.14596 0.14289 0.33635
-0.14596 0.25706 -0.22497
-0.14596 0.21882 0.33923
-0.14596 0.17268 -0.01075
-0.14596 0.28254 -0.25573
-0.14596 0.10420 0.17712
-0.14596 0.21890 0.15810
-0.14596 0.25707 0.08448
-0.14596 0.25987 -0.26534
-0.14596 0.06852 0.23344
-0.14596 0.27350 -0.30947
-0.14596 0.23205 0.05874
-0.14596 0.23942 0.23865
-0.14596 0.24573 0.07619
-0.14596 0.19253 0.34775
-0.14596 0.08444 0.17658
-0.14596 0.20309 0.29662
-0.14596 0.11324 0.14330
-0.14596 0.11132 0.19516
-0.14596 0.19891 0.26321
-0.14596 0.15910 0.01113
-0.14596 0.25322 -0.19340
-0.14596 0.16737 0.23581
-0.14596 0.22080 -0.08113
-0.14596 0.28762 0.27689
-0.14596 0.18454 -0.05847
-0.14596 0.23056 -0.07674
-0.14596 0.17753 0.09377
-0.14596 0.24387 -0.11829
-0.14596 0.25836 -0.28137
-0.14596 0.16159 0.27077
-0.14596 0.23754 0.07855
-0.14596 0.11869 0.29217
-0.14596 0.27347 0.35994
-0.14596 0.12677 0.06716
-0.14596 0.12157 0.07895
-0.14596 0.23177 -0.12206
-0.14596 0.26770 -0.13040
-0.14596 0.25273 0.21769
-0.14596 0.28318 0.15924
-0.14596 0.18253 -0.08058
-0.14596 0.09924 0.29385
-0.14596 0.22842 0.26806
-0.14596 0.24073 0.25607
-0.14596 0.09357 0.25415
-0.14596 0.26196 -0.23871
-0.14596 0.27699 0.01451
-0.14596 0.23674 0.16134
-0.14596 0.25579 0.31120
-0.14596 0.18984 0.05923
-0.11104 -0.28833 0.37099
0.10251 -0.28833 0.37668
0.04343 -0.28833 0.36917
-0.05916 -0.28833 0.26385
-0.08900 -0.28833 0.32742
0.01331 -0.28833 0.31536
-0.10263 -0.28833 0.30992
-0.07976 -0.28833 0.30553
-0.02510 -0.28833 0.28653
-0.01667 -0.28833 0.36198
-0.09250 -0.28833 0.36334
-0.04515 -0.28833 0.35902
-0.08464 -0.28833 0.28740
0.02070 -0.28833 0.31777
0.07659 -0.28833 0.38015
-0.05686 -0.28833 0.36302
0.09998 -0.28833 0.27891
-0.00639 -0.28833 0.23279
0.05050 -0.28833 0.24617
0.04426 -0.28833 0.25809
0.04430 -0.28833 0.30922
0.03922 -0.28833 0.29052
0.10295 -0.28833 0.22723
0.02419 -0.28833 0.22143
0.12051 -0.28833 0.25242
0.08692 -0.28833 0.31432
0.14090 -0.08262 0.33772
0.02642 0.12344 0.21819
0.02023 0.08359 0.21819
-0.01364 0.14269 0.21819
0.02154 0.18262 0.21819
0.02125 0.23184 0.21819
-0.02645 0.11346 0.21819
-0.03424 0.10738 0.21819
-0.01702 0.09916 0.21819
0.01304 0.21550 0.21819
0.01339 0.11961 0.21819
-0.05100 0.00929 -0.15379
-0.02346 0.00929 -0.00328
-0.03503 0.00929 -0.13679
0.00935 0.00929 -0.11494
-0.06484 0.00929 0.04949
-0.04941 0.00929 -0.06492
-0.03301 0.00929 -0.14897
-0.04025 0.00929 0.01045
-0.06219 0.00929 0.10102
0.00177 0.00929 -0.13932
-0.06727 0.00929 0.00533
-0.05079 0.00929 0.11159
-0.05431 0.00929 -0.07950
-0.04699 0.00929 0.12297
0.14320 -0.22568 -0.21671
-0.01369 0.00610 -0.17461
0.10585 -0.26241 0.21819
0.09741 -0.15159 0.21819
0.04784 -0.28123 0.21819
0.03562 -0.18740 0.21819
0.04921 -0.14964 0.21819
0.11668 -0.14671 0.21819
0.06288 -0.11098 0.21819
-0.03937 -0.27450 0.21819
0.04890 -0.18685 0.21819
0.05514 -0.26358 0.21819
0.08441 -0.16271 0.21819
0.09860 -0.16768 0.21819
0.06062 -0.28453 0.21819
0.05186 -0.22069 0.21819
0.07477 -0.10055 0.21819
0.07353 -0.15493 0.21819
0.11487 -0.02542 0.21819
0.10583 -0.16025 0.21819
0.11469 -0.17742 0.21819
0.02556 -0.24538 0.21819
0.07755 -0.13594 0.21819
0.06843 -0.16189 0.21819
-0.03721 0.14382 0.12530
-0.04033 0.10390 0.12530
-0.02737 -0.28703 -0.38153
-0.14146 -0.04935 -0.38153
-0.12179 -0.25343 -0.38153
-0.07899 -0.09311 -0.38153
-0.09541 -0.13595 -0.38153
-0.01492 -0.26580 -0.38153
-0.14193 -0.16366 -0.38153
-0.09209 -0.06636 -0.38153
-0.09997 -0.11212 -0.38153
0.00262 -0.23511 -0.38153
0.01235 -0.21548 -0.38153
-0.12862 -0.14350 -0.38153
-0.14469 -0.24148 -0.38153
0.05536 -0.22928 -0.38153
-0.09566 -0.14218 -0.38153
-0.13728 -0.09751 -0.38153
0.00157 -0.26034 -0.38153
-0.12234 -0.24436 -0.38153
-0.03092 -0.26628 -0.38153
0.00800 -0.24368 -0.38153
0.08228 -0.25785 -0.38153
0.00046 -0.20826 -0.38153
-0.14513 -0.06447 -0.38153
-0.08540 -0.20565 -0.38153
-0.13090 -0.21913 -0.38153
-0.11918 -0.05637 -0.38153
-0.09292 -0.12385 -0.38153
-0.13429 -0.15368 -0.38153
-0.08754 -0.13966 -0.38153
-0.02515 -0.22926 -0.38153
0.12761 -0.07693 -0.24122
-0.09084 -0.28833 0.22079
-0.11103 -0.28833 0.16637
-0.08151 -0.28833 0.16629
-0.10955 -0.28833 0.18318
-0.07022 -0.28833 0.03870
-0.09093 -0.28833 0.25134
-0.11259 -0.28833 0.19311
-0.12689 -0.28833 0.26112
-0.08098 -0.28833 0.18341
-0.11938 -0.28833 0.22429
-0.09117 -0.28833 0.12911
-0.07336 -0.28833 0.21390
-0.02349 0.10560 0.11616
-0.06266 0.12286 0.04744
-0.06266 0.11130 0.04440
-0.06266 0.07060 0.08392
-0.06266 0.07604 0.11281
-0.06266 0.10080 0.02423
-0.06266 0.13132 0.07425
-0.06266 0.12992 0.08147
0.04991 0.02681 0.07920
-0.02349 0.12122 0.05599
-0.02349 0.14214 0.01198
-0.02349 0.09422 -0.02548
-0.02349 0.06400 -0.02140
-0.02349 0.14278 0.06124
0.12235 -0.07793 0.24218
0.12235 -0.03351 0.23256
-0.00204 0.24947 0.38153
-0.09760 0.26415 0.38153
-0.13241 0.18382 0.38153
-0.11799 0.22137 0.38153
-0.13094 0.24474 0.38153
-0.10097 0.23270 0.38153
-0.12610 0.09117 0.38153
-0.13227 0.05632 0.38153
-0.12085 0.18431 0.38153
-0.10884 0.12893 0.38153
-0.08051 0.26550 0.38153
-0.13774 0.27910 0.38153
-0.08183 0.28813 0.38153
-0.14025 0.02557 0.38153
-0.14016 0.13643 0.38153
-0.00135 0.26463 0.38153
-0.12053 0.19121 0.38153
-0.07091 0.16885 0.38153
0.12235 -0.08137 0.29840
0.12235 -0.15006 0.33821
0.12235 -0.14955 0.33167
-0.05535 0.02110 -0.00573
0.12235 -0.26848 0.21824
0.12235 -0.23207 0.23750
0.12235 -0.19167 0.22346
0.12235 -0.06183 0.21849
0.12235 -0.14748 -0.18304
0.12235 -0.13610 -0.20849
0.12235 -0.09825 -0.18272
0.12235 -0.08976 -0.21282
0.12235 -0.05389 -0.20036
0.12235 -0.03942 -0.22773
0.12235 -0.11036 -0.18686
0.13725 -0.07940 0.26218
-0.05139 0.15679 0.08453
0.13951 -0.08015 -0.28150
0.14596 -0.04001 -0.26006
0.14596 -0.02226 -0.25106
0.14596 -0.04050 -0.23413
0.02635 0.28833 0.22935
-0.01335 0.28833 0.25226
-0.01533 0.28833 0.29880
-0.02257 0.28833 0.21924
0.00316 0.28833 0.29940
0.01032 0.28833 0.25331
0.07719 0.01370 0.06886
-0.05577 0.12588 -0.04749
0.12235 -0.00973 0.31468
0.12235 0.00328 0.30553
0.12235 0.00544 0.23469
-0.02563 -0.28833 -0.22345
-0.01698 -0.28833 -0.28779
0.05000 -0.28833 -0.37698
0.05440 -0.28833 -0.36610
-0.05124 -0.28833 -0.28629
-0.13181 -0.28833 -0.36674
0.03839 -0.28833 -0.32146
-0.12058 -0.28833 -0.33552
-0.02973 -0.28833 -0.35845
-0.00804 -0.28833 -0.34263
0.05056 -0.28833 -0.31227
-0.07107 -0.28833 -0.35679
0.05108 -0.28833 -0.32665
-0.01049 -0.28833 -0.29416
-0.01358 -0.28833 -0.32006
-0.06881 -0.28833 -0.19837
-0.04060 -0.28833 -0.23843
-0.07240 -0.28833 -0.30811
-0.09698 -0.28833 -0.35207
0.08782 -0.28833 -0.36913
0.08807 -0.28833 -0.35756
0.12235 -0.25489 0.34299
0.12235 -0.26303 0.29786
0.12235 -0.25867 0.28768
0.12235 -0.25653 -0.20570
0.12235 -0.25786 -0.19241
0.14596 -0.17300 -0.29168
0.14596 -0.20181 -0.23900
0.14596 -0.17666 -0.24337
-0.05139 0.15317 0.05938
-0.05139 0.10318 0.07035
-0.05139 0.10220 0.08274
-0.05139 0.13380 0.10631
-0.05139 0.04756 0.10411
-0.05139 0.07680 0.07881
-0.05139 0.13803 0.05062
-0.05139 0.14708 0.07785
-0.05139 0.05828 0.10797
0.13845 -0.06416 -0.32636
0.10999 -0.03768 0.21819
0.03586 -0.16548 0.21819
0.11478 -0.07554 0.21819
0.02066 -0.27616 0.21819
0.09313 -0.23710 0.21819
0.01299 -0.27128 0.21819
0.10942 -0.20254 0.21819
0.09756 -0.10151 0.21819
-0.03057 -0.25904 0.21819
0.12111 -0.10348 0.21819
0.00871 -0.20185 0.21819
0.06545 -0.12033 0.21819
0.00240 -0.22678 0.21819
0.08944 -0.07454 0.21819
0.06043 -0.25735 0.21819
0.10331 -0.20530 0.21819
0.04610 -0.20036 0.21819
0.05303 -0.11407 0.21819
-0.05083 -0.00065 0.21819
-0.08416 0.28833 -0.07057
-0.13883 0.28833 0.32601
-0.08909 0.28833 -0.18229
-0.10921 0.28833 0.21740
-0.08601 0.28833 -0.18985
-0.13926 0.28833 0.35395
-0.07267 0.28833 -0.28416
-0.07611 0.28833 -0.02279
-0.07428 0.28833 0.18434
-0.08555 0.28833 -0.03273
-0.11267 0.28833 0.25908
-0.08553 0.28833 -0.00141
-0.09353 0.28833 -0.03466
-0.10443 0.28833 0.23009
-0.09339 0.28833 -0.05115
-0.09054 0.28833 -0.02609
-0.08066 0.28833 -0.11370
-0.12392 0.28833 0.26126
-0.02349 0.02298 0.05986
0.12235 0.00563 0.22443
0.12235 -0.01717 0.30146
0.13437 -0.17910 0.33861
0.12235 -0.02453 0.26257
0.12235 -0.22489 0.25072
-0.10426 0.28833 0.30780
-0.06739 0.28833 0.34094
-0.02005 0.28833 0.32026
-0.07038 0.28833 0.27487
-0.07139 0.28833 0.34739
-0.05591 0.28833 0.31130
-0.02761 0.28833 0.32351
-0.07205 0.28833 0.22967
-0.07955 0.28833 0.28499
-0.04560 0.28833 0.33170
-0.04848 0.28833 0.36194
0.13845 -0.05260 0.35223
-0.01318 -0.21816 -0.17461
-0.03899 -0.26668 -0.17461
0.06349 -0.26641 -0.17461
0.03506 -0.19088 -0.17461
-0.04083 -0.16828 -0.17461
-0.01778 -0.28514 -0.17461
0.01046 -0.20778 -0.17461
-0.02974 -0.19767 -0.17461
-0.05966 -0.01866 -0.17461
0.00608 -0.28353 -0.17461
-0.06043 -0.03784 -0.17461
0.03907 -0.26442 -0.17461
0.02426 -0.20925 -0.17461
0.00010 -0.27115 -0.17461
0.10508 -0.26823 -0.17461
-0.05677 -0.25999 -0.17461
-0.05198 -0.13080 -0.17461
0.06926 -0.21371 -0.17461
-0.05449 -0.16334 -0.17461
-0.04739 -0.06112 -0.17461
-0.04827 -0.28781 -0.17461
0.02671 -0.14828 -0.17461
-0.02349 0.16265 0.09543
-0.10706 0.06948 -0.38045
-0.14119 0.09330 -0.38045
-0.10201 0.20512 -0.38045
-0.13633 0.18829 -0.38045
-0.11573 0.13960 -0.38045
-0.08204 0.08853 -0.38045
-0.12991 0.14022 -0.38045
-0.06106 0.06170 -0.38045
-0.11369 0.19125 -0.38045
-0.14321 0.06697 -0.38045
-0.11777 0.09358 -0.38045
-0.12641 0.03404 -0.38045
-0.00837 0.03814 -0.38045
-0.04280 0.10044 -0.38045
-0.02593 0.08638 -0.38045
-0.03366 0.08773 -0.38045
-0.01416 0.06162 -0.38045
-0.05677 0.14022 -0.38045
0.13623 -0.20727 -0.23603
0.12235 -0.05837 -0.32745
0.13845 -0.02334 0.34386
-0.02349 0.01417 0.05522
0.12235 -0.24536 -0.20887
0.12235 -0.22698 -0.21818
0.13845 -0.22723 0.35252
0.12235 -0.06757 0.25399
0.12235 -0.03945 0.23081
0.12235 -0.13562 0.25357
0.12235 -0.10700 -0.24241
0.12235 -0.16651 -0.28890
-0.02349 0.04026 -0.03827
0.13851 -0.04599 0.35915
0.07697 0.00929 0.12067
0.08017 0.00929 0.34796
0.04348 0.00929 0.26938
0.04210 0.00929 0.02222
0.03969 0.00929 -0.03675
0.06922 0.00929 0.26784
0.03354 0.00929 -0.13275
0.07582 0.00929 0.32410
0.03370 0.00929 -0.07396
0.04845 0.00929 0.20637
0.04729 0.00929 0.08367
0.04789 0.00929 0.22078
0.07765 0.00929 0.34246
0.03064 0.00929 -0.01623
0.06710 0.00929 0.17521
0.03727 0.00929 0.17671
0.08033 0.00929 0.31043
0.06306 0.00929 0.20757
0.04551 0.00929 0.17472
0.03285 0.00929 0.14750
0.04845 0.00929 0.05717
0.14547 -0.04767 0.35915
0.07420 0.02184 0.02636
-0.06266 0.05278 -0.02361
-0.06266 0.10997 -0.01201
-0.06266 0.07309 0.01674
-0.06266 0.13700 -0.03340
-0.06266 0.05657 -0.01304
-0.06266 0.03892 -0.03285
-0.06266 0.05610 -0.00150
0.12727 -0.19289 0.33861
0.14596 -0.06834 -0.26522
0.14596 -0.07208 -0.26888
0.14596 -0.06264 -0.29168
-0.03908 -0.06013 0.38153
0.00328 -0.10476 0.38153
-0.12360 -0.07916 0.38153
-0.04191 -0.12527 0.38153
-0.00909 -0.09156 0.38153
-0.13395 -0.19563 0.38153
-0.14457 -0.20615 0.38153
-0.10285 -0.04553 0.38153
-0.00103 -0.05155 0.38153
-0.10084 -0.11943 0.38153
-0.03248 -0.08126 0.38153
-0.13010 -0.24435 0.38153
-0.00712 -0.03220 0.38153
-0.04976 -0.09401 0.38153
-0.13582 -0.18040 0.38153
-0.03268 -0.14187 0.38153
-0.06297 -0.12086 0.38153
0.04657 -0.02254 0.38153
0.07659 -0.00650 0.38153
-0.02825 -0.13777 0.38153
0.06734 0.00482 0.38153
-0.13207 -0.21557 0.38153
0.01311 -0.07115 0.38153
0.01664 -0.09071 0.38153
-0.10737 -0.11769 0.38153
-0.10115 -0.16977 0.38153
0.03550 -0.02368 0.38153
0.01576 0.00737 0.38153
-0.04556 -0.12037 0.38153
-0.13969 -0.22971 0.38153
-0.05409 -0.04786 0.38153
-0.03773 0.01144 0.08312
-0.03846 0.01144 0.09765
-0.06364 -0.28833 -0.17675
0.06950 -0.28833 -0.31945
0.10527 -0.28833 -0.21778
0.07715 -0.28833 -0.23307
0.11040 -0.28833 -0.18888
0.02731 -0.28833 -0.24233
0.07593 -0.28833 -0.26472
0.10585 -0.28833 -0.24773
0.11245 -0.28833 -0.31359
0.08337 -0.28833 -0.21224
-0.00673 -0.28833 -0.18913
0.07914 -0.28833 -0.20862
-0.00184 -0.28833 -0.22209
0.11832 -0.28833 -0.26851
0.06736 -0.28833 -0.27605
-0.05227 0.03736 0.21819
-0.01387 0.15053 0.21819
0.00976 0.18346 0.21819
-0.05121 0.01770 0.21819
0.01878 0.11796 0.21819
-0.03845 0.09069 0.21819
-0.02083 0.06412 0.21819
0.01929 0.18908 0.21819
-0.03755 0.03766 0.21819
-0.00150 0.18816 0.21819
0.01639 0.24013 -0.17461
0.00831 0.26186 -0.17461
-0.01222 0.20755 -0.17461
-0.01998 0.26977 -0.17461
0.00737 0.08068 -0.17461
0.02321 0.19249 -0.17461
0.01399 0.22476 -0.17461
0.00300 0.09371 -0.17461
-0.00824 0.15368 -0.17461
0.00823 0.15504 -0.17461
0.00515 0.20274 -0.17461
0.14268 -0.17564 -0.33799
0.12235 -0.19549 -0.32090
0.12235 -0.09317 -0.31797
0.12235 -0.16667 -0.31795
0.12717 -0.20215 -0.23603
-0.05139 0.10305 0.04849
-0.05139 0.09812 0.07672
-0.05139 0.07955 0.11303
-0.05139 0.04991 0.11511
-0.05139 0.15419 0.04708
-0.05139 0.08582 0.08400
-0.05139 0.11014 0.09959
-0.05139 0.07786 0.07347
-0.02349 0.01585 -0.02800
0.12235 -0.15343 -0.25237
0.12235 -0.14260 -0.25368
0.12235 -0.11355 -0.26148
-0.04207 0.28833 -0.25082
-0.03950 0.28833 -0.33529
-0.03767 0.28833 -0.30480
0.00277 0.28833 -0.36772
-0.06797 0.28833 -0.33991
-0.05012 0.28833 -0.24446
-0.06524 0.04896 0.21819
-0.03069 0.26272 0.21819
-0.06720 0.18720 0.21819
-0.04865 0.11390 0.21819
-0.04401 0.09548 0.21819
-0.03583 0.11670 0.21819
0.00980 0.25141 0.21819
-0.06799 0.20391 0.21819
-0.06549 0.07294 0.21819
-0.05253 0.17020 0.21819
0.13845 -0.03462 0.24553
0.02440 -0.28134 -0.17461
0.04442 -0.17938 -0.17461
-0.03922 -0.20472 -0.17461
0.01812 -0.19640 -0.17461
0.05204 -0.22906 -0.17461
-0.02789 -0.12533 -0.17461
-0.02751 -0.25262 -0.17461
-0.03274 -0.12338 -0.17461
0.03910 -0.18101 -0.17461
-0.03042 -0.09292 -0.17461
-0.06283 -0.09231 -0.17461
0.02876 -0.21371 -0.17461
-0.05197 -0.21156 -0.17461
-0.03599 -0.15633 -0.17461
0.04393 -0.17288 -0.17461
-0.00471 -0.14948 -0.17461
0.04756 -0.19506 -0.17461
0.00796 -0.26340 -0.17461
0.12302 -0.17906 0.25705
-0.06266 0.08295 0.06479
-0.06266 0.13881 -0.01987
-0.06266 0.12475 0.10262
-0.06266 0.07466 0.06508
-0.06266 0.14299 0.10502
-0.06266 0.07316 0.05505
-0.06266 0.12383 0.06310
-0.06266 0.15138 0.04216
-0.06266 0.11965 0.09312
-0.05469 0.26188 -0.38045
0.00969 0.14062 -0.38045
-0.04154 0.17170 -0.38045
0.02658 0.22496 -0.38045
-0.00731 0.10188 -0.38045
0.01735 0.27061 -0.38045
-0.04129 0.16577 -0.38045
0.00566 0.23257 -0.38045
-0.01050 0.11723 -0.38045
-0.05371 0.22075 -0.38045
-0.11001 0.27715 -0.38045
-0.04893 0.15135 -0.38045
0.02645 0.19775 -0.38045
0.02719 0.03476 -0.38045
-0.08333 0.19694 -0.38045
-0.08553 0.27370 -0.38045
0.13429 -0.17205 0.29451
0.07724 0.02232 0.07611
0.04742 0.02675 0.03026
0.12235 -0.00810 -0.36485
0.12235 -0.21009 -0.38126
-0.02349 0.07856 0.10488
-0.06976 0.00215 0.15895
-0.06976 0.00287 0.18097
0.12235 -0.18773 -0.20389
0.12235 -0.26303 -0.18766
0.12235 -0.15158 -0.20979
0.12235 -0.22033 -0.20461
0.12235 -0.01939 -0.29003
0.13389 -0.18310 -0.31760
-0.03565 0.11969 -0.05929
0.12235 -0.13860 -0.18872
0.12235 -0.08507 -0.20120
0.12235 -0.07295 -0.18680
0.12235 -0.09396 -0.17520
0.12235 -0.00508 -0.18062
0.12235 -0.14309 -0.20435
0.14292 -0.17205 0.23764
-0.03067 0.16276 0.00520
-0.02731 0.16276 0.02282
-0.06976 0.00237 -0.02024
0.13093 -0.02148 -0.29478
0.05726 0.01708 0.00891
0.12235 -0.13418 -0.34237
0.12235 -0.12990 -0.36692
0.12235 -0.12901 -0.34787
0.12235 -0.04874 -0.37013
0.12235 -0.09361 -0.35483
0.12235 -0.17629 -0.35797
0.12235 -0.07472 -0.33437
0.12235 -0.06773 -0.35695
0.07041 0.00929 -0.29743
0.10467 0.00929 -0.36334
0.04419 0.00929 -0.21681
0.03436 0.00929 -0.24377
0.04547 0.00929 -0.28945
0.02941 0.00929 -0.18303
0.04887 0.00929 -0.36870
0.12235 -0.07102 0.34136
0.14094 -0.23092 -0.25982
-0.06191 0.15579 0.06299
-0.05139 0.01636 0.06557
-0.02349 0.02908 -0.01995
0.11869 0.00929 -0.12637
0.08533 0.00929 0.13421
0.05730 0.00929 -0.16381
0.10501 0.00929 -0.06760
0.11967 0.00929 0.07805
0.06465 0.00929 -0.14267
0.08493 0.00929 0.14622
0.11763 0.00929 0.18045
0.05221 0.00929 -0.11257
0.05966 0.00929 -0.11081
0.09992 0.00929 0.16620
0.10462 0.00929 -0.01988
0.07415 0.00929 -0.07096
0.05915 0.00929 -0.23666
0.04669 0.00929 -0.09450
0.10440 0.00929 -0.21704
0.09081 0.00929 -0.05706
0.07035 0.00929 -0.05626
0.07961 0.00929 -0.07895
0.11162 0.00929 -0.05054
0.06282 0.00929 -0.17369
0.09373 0.00929 -0.24357
0.10096 0.00929 -0.04777
0.11493 0.00929 -0.11272
0.07616 0.00929 0.07431
0.12181 0.00929 -0.06343
0.09392 0.00929 -0.06897
0.08338 0.00929 -0.00852
0.14332 -0.02145 0.30875
-0.14596 -0.07298 -0.05746
-0.14596 0.08956 -0.33000
-0.14596 0.12710 -0.28365
-0.14596 -0.06512 -0.13013
-0.14596 0.01532 -0.15411
-0.14596 0.00951 -0.14327
-0.14596 0.13185 -0.33479
-0.14596 0.19906 -0.31076
-0.14596 0.00811 -0.25978
-0.14596 0.00165 -0.23973
-0.14596 0.06376 -0.18302
-0.14596 0.11875 -0.19874
-0.14596 -0.00166 -0.04932
-0.14596 -0.24969 0.32420
-0.14596 0.18809 -0.37271
-0.14596 0.15273 -0.35709
-0.14596 0.08193 -0.32272
-0.14596 0.02470 -0.12329
-0.14596 -0.10971 0.07301
-0.14596 0.00538 -0.11687
-0.14596 0.13180 -0.25291
-0.14596 0.02904 -0.21132
-0.14596 -0.12109 0.02181
-0.14596 0.14978 -0.33261
-0.14596 0.06110 -0.33264
-0.14596 0.09939 -0.28267
-0.14596 0.06246 -0.31274
-0.14596 -0.05734 -0.12813
-0.14596 -0.00378 -0.18087
-0.14596 -0.05176 -0.11351
-0.14596 0.14756 -0.25021
-0.14596 -0.02017 -0.15034
-0.14596 0.08018 -0.29852
-0.14596 0.02423 -0.29203
-0.14596 0.14651 -0.33962
-0.14596 0.05681 -0.28859
-0.14596 0.10751 -0.31929
-0.14596 0.15078 -0.26987
-0.14596 0.17490 -0.25843
-0.14596 0.03635 -0.26449
-0.14596 0.04587 -0.25838
-0.14596 -0.21053 0.19248
-0.14596 -0.01276 0.01356
-0.14596 0.03571 -0.18457
-0.14596 0.17754 -0.24958
-0.14596 -0.12136 0.14530
-0.14596 -0.03019 0.03472
-0.14596 -0.02591 -0.00809
-0.14596 0.12523 -0.35597
-0.14596 0.00861 -0.21041
-0.14596 0.20187 -0.35759
-0.14596 -0.04687 -0.14631
-0.14596 -0.13134 0.02664
-0.14596 0.03291 -0.25935
-0.14596 -0.10735 0.05766
-0.14596 -0.01353 -0.11107
-0.14596 -0.08569 -0.08235
-0.14596 -0.06213 -0.05316
-0.14596 -0.01051 -0.05454
-0.14596 0.01540 -0.06734
-0.14596 0.01118 -0.19898
-0.14596 0.06756 -0.33987
-0.14596 -0.08483 0.05595
-0.14596 -0.21622 0.24377
-0.14596 0.23716 -0.36863
-0.14596 -0.04078 -0.00625
-0.14596 -0.04978 0.00769
-0.14596 -0.10822 0.10879
-0.14596 0.11197 -0.26508
-0.14596 0.06304 -0.08835
-0.14596 -0.11683 0.08016
-0.14596 0.08885 -0.37906
-0.14596 -0.11084 0.03799
-0.14596 -0.12051 0.08624
-0.14596 0.12107 -0.34946
-0.14596 0.04150 -0.07001
-0.14596 -0.21080 0.20463
-0.14596 -0.05032 -0.15562
-0.14596 0.22260 -0.36271
-0.14596 -0.03538 -0.26564
-0.14596 -0.03174 -0.14661
-0.14596 0.02926 -0.36644
-0.02349 0.07856 -0.05424
-0.02349 0.02554 0.00174
0.05601 0.02390 -0.01318
0.01719 -0.00144 0.03624
0.02736 -0.00144 -0.08143
-0.02674 -0.00144 0.07646
-0.03848 -0.00144 0.17090
0.00890 -0.00144 0.13789
-0.00521 -0.00144 0.14633
-0.02090 -0.00144 0.17458
0.01862 -0.00144 -0.11912
-0.01209 -0.00144 -0.00958
0.00751 -0.00144 0.03462
-0.00397 -0.00144 0.15247
0.02765 -0.00144 0.04705
0.01359 -0.00144 0.17288
0.01414 -0.00144 -0.03839
0.05857 0.02475 0.10298
0.09593 -0.00144 0.06219
0.06603 -0.00144 -0.11217
0.10288 -0.00144 0.01714
0.12133 -0.00144 0.14727
0.09643 -0.00144 0.10817
0.11111 -0.00144 -0.03024
0.06733 -0.00144 -0.05255
0.08680 -0.00144 -0.07970
0.05432 -0.00144 -0.09514
0.08666 -0.00144 0.06415
0.11646 -0.00144 0.09622
0.11841 -0.00144 0.16875
0.10879 -0.00144 -0.13356
-0.02349 0.10837 0.09200
0.13972 -0.19072 0.35793
-0.06976 -0.19857 0.15258
-0.06976 -0.12003 0.07382
-0.06976 -0.15822 0.04028
-0.06976 -0.14173 0.20042
-0.06976 -0.04630 0.17065
-0.06976 -0.06836 0.18503
-0.06976 -0.11704 0.09400
-0.06976 -0.15621 0.14127
-0.06976 -0.14163 0.14296
-0.06976 -0.06963 0.14414
-0.06976 -0.12998 0.10712
-0.06976 -0.01183 0.04698
-0.06976 -0.23737 0.20877
-0.06976 -0.20999 0.13602
-0.06976 -0.21961 0.19915
-0.06976 -0.12266 0.02729
-0.06976 -0.05549 0.19116
-0.06976 -0.05406 0.13178
-0.06976 -0.08285 0.09919
-0.06976 -0.13433 0.13160
-0.06976 -0.09389 -0.01087
-0.06976 -0.08071 0.01755
-0.06976 -0.02832 0.11798
-0.06976 -0.08322 0.15979
-0.06976 -0.16895 0.14314
-0.06976 -0.13859 0.13702
-0.06976 -0.05859 -0.06811
-0.06976 -0.15493 0.15006
-0.06976 -0.03791 -0.10987
-0.06976 -0.09003 -0.02046
-0.06976 -0.08631 0.03388
-0.06976 -0.17773 0.14779
-0.06976 -0.10632 0.07272
-0.06976 -0.02827 0.20638
-0.06976 -0.09288 0.13867
-0.06976 -0.19039 0.20065
-0.06976 -0.22212 0.18159
-0.06976 -0.07450 0.01594
-0.06976 -0.18413 0.17144
-0.06976 -0.13247 0.06133
-0.06976 -0.14333 0.18976
-0.06976 -0.11423 0.02565
-0.06976 -0.08719 -0.01008
-0.06976 -0.01055 0.19182
-0.06073 -0.00144 0.04642
-0.04285 -0.00144 -0.12330
-0.01949 -0.00144 -0.01747
0.00615 -0.00144 -0.10935
-0.00064 -0.00144 -0.13188
-0.06165 -0.00144 0.07308
-0.06401 -0.00144 -0.12137
-0.01993 -0.00144 -0.08531
-0.02797 -0.00144 -0.06968
0.01248 -0.00144 -0.17050
-0.03531 -0.00144 0.05166
-0.03671 -0.00144 0.03463
0.01867 -0.00144 -0.13503
0.12235 -0.27012 -0.35850
0.12235 -0.25597 -0.32499
-0.02349 0.15065 0.08498
0.12235 0.00107 -0.08796
-0.05787 -0.08628 0.21819
0.10511 -0.00851 0.21819
-0.02204 -0.15304 0.21819
0.00314 -0.08896 0.21819
0.06654 -0.04112 0.21819
-0.05643 -0.21809 0.21819
-0.00106 -0.05479 0.21819
-0.03623 -0.22209 0.21819
-0.06563 -0.21150 0.21819
-0.05245 -0.22531 0.21819
0.06419 -0.03260 0.21819
0.01957 -0.15045 0.21819
-0.01015 -0.14683 0.21819
-0.01492 -0.03397 0.21819
0.08048 -0.04199 0.21819
0.03100 -0.12327 0.21819
-0.02943 -0.11900 0.21819
0.13845 -0.22470 -0.22640
0.14456 -0.02145 0.24961
0.13845 -0.05452 0.24688
0.12287 -0.04025 -0.23636
-0.00734 0.00929 0.14980
0.01113 0.00929 0.12765
0.01624 0.00929 0.15184
-0.00374 0.00929 0.16897
-0.01197 0.00929 0.00696
0.01322 0.00929 0.16973
-0.00765 0.00929 0.17753
-0.00804 0.00929 0.04931
0.02540 0.00929 0.00857
0.00236 0.00929 0.04260
0.01289 0.00929 -0.09656
-0.04705 0.00929 0.14285
0.01649 0.00929 0.18539
-0.02680 0.00929 0.10551
-0.14596 0.12940 0.28554
-0.14596 0.21785 0.00298
-0.14596 0.13196 0.10875
-0.14596 0.28744 0.04841
-0.14596 0.12582 0.11543
-0.14596 0.28369 0.20192
-0.14596 0.09758 0.23473
-0.14596 0.17011 -0.05116
-0.14596 0.22464 0.35980
-0.14596 0.12548 0.25189
-0.14596 0.22991 -0.13437
-0.14596 0.16645 -0.03637
-0.14596 0.15891 0.32255
-0.14596 0.28522 -0.36859
-0.14596 0.16634 0.01045
-0.14596 0.23555 -0.23402
-0.14596 0.22997 0.30412
-0.14596 0.12656 0.15277
-0.14596 0.20880 -0.00489
-0.14596 0.16637 0.11203
-0.14596 0.21557 -0.04205
-0.14596 0.28669 -0.07810
-0.14596 0.13354 0.19020
-0.14596 0.28664 0.00744
-0.14596 0.25162 0.05088
-0.14596 0.25788 -0.04394
-0.14596 0.27848 0.30726
-0.14596 0.08576 0.25389
-0.14596 0.28322 0.23403
-0.14596 0.11204 0.31705
-0.14596 0.14622 0.09929
-0.14596 0.21722 0.12296
-0.14596 0.23730 0.17731
-0.14596 0.19326 -0.06602
-0.14596 0.19478 -0.05021
-0.14596 0.27407 0.18598
-0.14596 0.25903 -0.15504
-0.14596 0.22949 0.14471
-0.14596 0.26299 -0.20928
-0.14596 0.09200 0.22322
-0.14596 0.08802 0.29724
-0.14596 0.24039 0.19264
-0.14596 0.16689 0.36082
-0.14596 0.04694 0.33312
-0.14596 0.12130 0.16645
-0.14596 0.24496 -0.01217
-0.14596 0.14000 0.19709
-0.14596 0.10240 0.30942
-0.14596 0.24421 0.24230
-0.14596 0.22337 -0.06820
-0.14596 0.25032 0.00848
-0.14596 0.22916 0.00962
-0.14596 0.23563 -0.03635
-0.14596 0.23662 -0.18895
-0.14596 0.05203 0.36240
-0.14596 0.25733 0.24832
-0.14596 0.25699 0.31908
-0.14596 0.23397 0.32198
-0.14596 0.26629 -0.04962
-0.14596 0.27181 0.08823
-0.14596 0.04198 0.31624
-0.14596 0.14181 0.33063
-0.14596 0.27245 -0.25287
-0.14596 0.25800 0.37155
-0.14596 0.24305 -0.03374
-0.14596 0.15706 0.15241
-0.14596 0.13651 0.25621
-0.14596 0.14221 0.10970
-0.14596 0.09117 0.31111
-0.14596 0.05856 0.35159
-0.14596 0.15272 0.14097
-0.14596 0.19846 0.30966
-0.14596 0.22877 0.04989
-0.14596 0.16682 0.09831
-0.14596 0.24869 -0.19013
-0.14596 0.22234 -0.13194
-0.14596 0.19396 0.16037
-0.14596 0.22210 0.01818
-0.02349 0.04047 0.02090
-0.05139 0.15761 0.02780
-0.11279 -0.28833 0.22047
-0.10188 -0.28833 0.17925
-0.07958 -0.28833 0.22902
-0.08882 -0.28833 0.06903
-0.08712 -0.28833 0.17611
-0.09775 -0.28833 0.10256
-0.10618 -0.28833 0.29396
-0.12799 -0.28833 0.31610
-0.10101 -0.28833 0.20029
-0.09328 -0.28833 0.02562
-0.09423 -0.28833 0.20093
-0.04564 0.08385 -0.05929
-0.05105 0.04886 -0.05929
0.13845 -0.02700 0.34911
0.14596 -0.03205 0.30756
0.14596 -0.06386 0.32272
0.14596 -0.02311 0.35819
0.11582 0.00929 -0.29453
0.08877 0.00929 0.11615
0.10955 0.00929 -0.12482
0.07840 0.00929 -0.16012
0.08476 0.00929 -0.19505
0.06764 0.00929 -0.19696
0.11901 0.00929 -0.13954
0.09262 0.00929 -0.11146
0.09569 0.00929 0.14859
0.08660 0.00929 -0.06756
0.11387 0.00929 -0.30552
0.09698 0.00929 -0.08463
0.10334 0.00929 0.08620
0.11174 0.00929 0.30218
0.10841 0.00929 -0.28360
0.11904 0.00929 0.33448
0.08495 0.00929 -0.26714
0.09237 0.00929 -0.02579
0.10185 0.00929 0.04520
0.09363 0.00929 -0.27649
0.09703 0.00929 -0.01991
0.10668 0.00929 -0.17758
0.08553 0.00929 -0.22663
0.05954 0.02534 0.02493
-0.02349 0.04128 0.09489
0.13845 -0.03544 -0.32477
0.02898 0.12156 -0.23290
0.02898 0.24551 -0.26944
0.02898 0.25243 -0.32423
0.02898 0.24880 -0.33267
0.02898 0.09682 -0.17893
0.02898 0.27376 -0.31469
0.02898 0.15569 -0.17853
0.02898 0.22953 -0.20781
0.02898 0.11037 -0.18371
0.02898 0.21025 -0.18601
0.02898 0.13933 -0.18295
0.02898 0.27411 -0.21159
0.02898 0.15736 -0.25641
0.02898 0.27390 -0.35501
0.02898 0.13149 -0.20303
0.02898 0.21410 -0.31467
0.02898 0.25611 -0.34443
0.02898 0.26064 -0.34152
0.02898 0.22634 -0.20332
0.02898 0.13702 -0.23890
0.02898 0.15527 -0.27810
0.12235 -0.02247 0.36883
0.12235 -0.11961 0.34996
0.12235 -0.02930 0.37009
0.12235 -0.09794 0.36114
0.12235 -0.08720 0.35630
0.13890 -0.02886 -0.21704
0.12235 0.00826 -0.35658
0.13845 -0.20512 -0.22532
-0.02349 0.10542 0.06769
-0.02349 0.05864 0.08624
-0.02349 0.09751 0.08721
-0.02349 0.12287 0.06537
-0.02349 0.07870 0.03093
0.09768 -0.00144 -0.08575
0.07881 -0.00144 -0.08166
0.07241 -0.00144 -0.01631
0.10184 -0.00144 0.00965
0.11027 -0.00144 0.05317
0.08975 -0.00144 -0.00611
0.11168 -0.00144 -0.10458
0.10802 -0.00144 0.14351
0.08198 -0.00144 0.01449
0.10639 -0.00144 -0.07506
0.09919 -0.00144 -0.13228
0.11913 -0.00144 0.01506
0.07017 0.02157 -0.01851
-0.14596 -0.17604 -0.28533
-0.14596 -0.03678 -0.33328
-0.14596 -0.21197 0.05495
-0.14596 -0.14256 -0.09975
-0.14596 -0.21859 -0.13214
-0.14596 -0.22262 -0.26977
-0.14596 -0.26968 -0.06734
-0.14596 -0.05579 -0.23499
-0.14596 -0.28596 0.31749
-0.14596 -0.09181 -0.15513
-0.14596 -0.19230 -0.10961
-0.14596 -0.14593 -0.34172
-0.14596 -0.13551 -0.05478
-0.14596 -0.01942 -0.35673
-0.14596 -0.25712 -0.15102
-0.14596 -0.26905 -0.18974
-0.14596 -0.28191 -0.10508
-0.14596 -0.09757 -0.22720
-0.14596 -0.22413 -0.14768
-0.14596 -0.22675 0.16821
-0.14596 -0.01200 -0.35922
-0.14596 -0.10178 -0.24552
-0.14596 -0.20467 0.16167
-0.14596 -0.25406 0.18951
-0.14596 -0.18020 0.07404
-0.14596 -0.17784 0.03168
-0.14596 -0.24687 -0.07167
-0.14596 -0.25494 0.13464
-0.14596 -0.12233 -0.37787
-0.14596 -0.18039 -0.37302
-0.14596 -0.15044 -0.09411
-0.14596 -0.28586 -0.26877
-0.14596 -0.04545 -0.31948
-0.14596 -0.25974 0.27692
-0.14596 -0.19388 0.09189
-0.14596 -0.05706 -0.24918
-0.14596 -0.28609 0.34366
-0.14596 -0.27316 0.16637
-0.14596 -0.23355 0.05447
-0.14596 -0.28443 0.28507
-0.14596 -0.21926 -0.32519
-0.14596 -0.21361 -0.30358
-0.14596 -0.20941 -0.03567
-0.14596 -0.13847 -0.24884
-0.14596 -0.27933 -0.08923
-0.14596 -0.26545 0.26022
-0.14596 -0.17963 -0.03133
-0.14596 -0.16480 0.03927
-0.14596 -0.21615 0.12006
-0.14596 -0.28488 -0.24150
-0.14596 -0.12816 -0.25488
-0.14596 -0.21280 0.11370
-0.14596 -0.18034 -0.14618
-0.14596 -0.20757 -0.13179
-0.14596 -0.21934 -0.31688
-0.14596 -0.19215 -0.19865
-0.14596 -0.18042 0.00274
-0.14596 -0.22022 -0.06068
-0.14596 -0.23327 0.03451
-0.14596 -0.18033 -0.18273
-0.14596 -0.21260 -0.25331
-0.14596 -0.15710 -0.36133
-0.14596 -0.21307 0.02103
-0.14596 -0.16927 -0.24035
-0.14596 -0.04946 -0.37509
-0.14596 -0.02540 -0.33689
-0.14596 -0.22639 0.07037
-0.14596 -0.27580 0.33043
-0.14596 -0.16157 0.02179
-0.14596 -0.21944 0.03684
-0.14596 -0.14053 -0.10887
-0.14596 -0.13556 -0.32562
-0.14596 -0.23887 0.08023
-0.14596 -0.09667 -0.17180
-0.14596 -0.11046 -0.08917
-0.14596 -0.26425 -0.07253
-0.14596 -0.12487 -0.23849
-0.14596 -0.15649 0.03327
-0.14596 -0.17605 -0.19804
-0.14596 -0.10961 -0.15123
-0.14596 -0.16835 -0.21583
-0.06976 -0.09708 -0.07958
-0.06976 -0.08341 -0.10091
-0.06976 -0.21022 0.07578
-0.06976 -0.20438 0.00908
-0.06976 -0.08663 -0.11269
-0.06976 -0.20673 -0.07776
-0.06976 -0.15384 -0.02169
-0.06976 -0.16676 -0.16675
-0.06976 -0.11492 -0.03367
-0.06976 -0.19304 -0.08051
-0.06976 -0.24479 -0.14544
-0.06976 -0.17722 -0.01636
-0.06976 -0.21294 -0.14459
-0.06976 -0.11247 -0.10961
-0.06976 -0.22964 0.06980
-0.06976 -0.14362 -0.12194
-0.06976 -0.27265 0.16339
-0.06976 -0.21729 0.08234
-0.06976 -0.23506 -0.10393
-0.06976 -0.23320 0.05583
-0.06976 -0.28018 -0.17015
-0.06976 -0.27002 -0.01777
-0.06976 -0.25666 -0.16906
-0.06976 -0.12885 -0.01165
-0.06976 -0.16443 -0.02227
-0.06976 -0.24904 0.00027
-0.06976 -0.28241 0.14015
-0.06976 -0.14008 -0.03050
-0.06976 -0.12300 -0.08185
-0.06976 -0.24645 -0.11576
-0.06976 -0.24754 0.05232
-0.06976 -0.16070 -0.11626
-0.06976 -0.07642 -0.15697
-0.06976 -0.15837 -0.01787
-0.06976 -0.13195 -0.13993
-0.06976 -0.09145 -0.06109
-0.06976 -0.15337 0.01444
0.13420 -0.23000 0.27188
0.09623 0.01529 0.07429
-0.06976 0.00265 0.05993
-0.06976 0.00390 -0.07060
0.14204 -0.08015 -0.26888
0.02683 0.16505 0.22440
0.02683 0.21296 0.22576
0.02683 0.04700 0.32599
0.02683 0.03055 0.36032
0.02683 0.08278 0.24897
0.02683 0.09808 0.22579
0.02683 0.20127 0.24740
0.02683 0.05921 0.34902
0.02683 0.08496 0.23506
0.02683 0.06557 0.27788
0.02683 0.11150 0.30801
0.02683 0.12510 0.23018
0.02683 0.02387 0.26112
0.02683 0.01209 0.34031
0.02683 0.03060 0.24923
0.02683 0.06544 0.26353
0.02898 0.18327 -0.35776
0.02898 0.01919 -0.27863
0.02898 0.16448 -0.37046
0.02898 0.05125 -0.20623
0.02898 0.06871 -0.27270
0.02898 0.18414 -0.31870
0.02898 0.12253 -0.36766
0.02898 0.21814 -0.36281
0.02898 0.18751 -0.30917
0.02898 0.08036 -0.25952
0.02898 0.01622 -0.21611
0.02898 0.16994 -0.29910
0.02898 0.03233 -0.19655
0.02898 0.05544 -0.25484
0.02898 0.07132 -0.28645
0.02898 0.08240 -0.34919
0.02898 0.03992 -0.25854
0.02898 0.10810 -0.27154
0.02898 0.13487 -0.31815
0.02898 0.09942 -0.31304
0.02898 0.17895 -0.31195
0.02898 0.22628 -0.34760
0.02683 0.18215 0.31222
0.02683 0.24963 0.36219
0.02683 0.25824 0.26943
0.02683 0.25571 0.30116
0.02683 0.21239 0.27501
0.02683 0.13264 0.32230
0.02683 0.08870 0.35332
0.02683 0.28519 0.32893
0.02683 0.10148 0.37136
0.02683 0.14959 0.31448
0.02683 0.16287 0.29393
0.02683 0.23906 0.37172
0.02683 0.27831 0.24814
0.02683 0.21988 0.36138
0.14175 -0.23092 -0.30156
0.12235 -0.01534 0.35212
0.14596 -0.04550 -0.27835
0.14596 -0.02720 -0.27367
0.14596 -0.02598 -0.24189
0.14596 -0.18740 0.26454
0.14596 -0.22540 0.27756
0.14596 -0.20477 0.26058
-0.02979 0.10833 -0.05929
-0.03693 0.02013 -0.05929
0.13898 -0.23322 0.32240
-0.00255 0.28833 -0.30986
-0.00436 0.28833 -0.27263
-0.02854 0.28833 -0.23093
-0.02352 0.28833 -0.22121
-0.00951 0.28833 -0.23060
-0.02453 0.28833 -0.20629
0.01120 0.28833 -0.20608
-0.03313 0.28833 -0.17814
0.12564 -0.04526 0.33983
-0.02591 0.01668 -0.05929
0.08777 0.01899 -0.02226
0.13845 -0.18259 0.24097
-0.07267 -0.28833 -0.28097
-0.07141 -0.28833 -0.22819
-0.01583 -0.28833 -0.30354
0.00093 -0.28833 -0.25680
-0.05719 -0.28833 -0.23288
-0.07335 -0.28833 -0.36890
0.00692 -0.28833 -0.31694
0.06390 -0.28833 -0.35485
0.01104 -0.28833 -0.26634
-0.12018 -0.28833 -0.37137
-0.03449 -0.28833 -0.28508
-0.04357 -0.28833 -0.21034
-0.01402 -0.28833 -0.36990
-0.08502 -0.28833 -0.28337
-0.03906 -0.28833 -0.29451
-0.03985 -0.28833 -0.22566
-0.07451 -0.28833 -0.24350
0.01437 -0.28833 -0.35145
-0.03408 -0.28833 -0.32631
-0.08946 -0.28833 -0.36003
-0.02349 0.05410 0.00646
-0.02349 0.04828 -0.01736
-0.02349 0.04799 0.08191
-0.02349 0.07446 0.07245
-0.02349 0.06401 0.08064
0.06855 -0.00144 0.12406
0.05526 -0.00144 0.16541
0.05524 -0.00144 -0.05848
0.06433 -0.00144 0.10673
0.02937 -0.00144 -0.11426
0.05440 -0.00144 0.21155
0.08323 -0.00144 0.10958
0.07732 -0.00144 0.15948
0.07572 -0.00144 0.07052
0.07518 -0.00144 0.12601
0.05169 -0.00144 0.00619
0.02990 -0.00144 0.17828
0.06166 -0.00144 0.09380
0.04958 -0.00144 -0.04341
0.00409 -0.09544 -0.17461
0.09786 -0.13379 -0.17461
0.00661 -0.01303 -0.17461
0.03689 -0.08142 -0.17461
0.08764 -0.17751 -0.17461
0.08784 -0.03599 -0.17461
-0.02811 -0.00389 -0.17461
0.04774 -0.06028 -0.17461
0.07989 -0.05599 -0.17461
0.05391 -0.15299 -0.17461
0.04748 -0.16236 -0.17461
0.12174 -0.01182 -0.17461
0.10816 -0.04738 -0.17461
0.08666 -0.15187 -0.17461
0.10121 -0.07517 -0.17461
0.08168 -0.21136 -0.17461
0.11901 -0.03483 -0.17461
0.05423 -0.01934 -0.17461
0.08248 -0.22057 -0.17461
0.06178 -0.18781 -0.17461
0.04005 -0.07584 -0.17461
-0.14081 -0.28833 -0.30276
-0.11869 -0.28833 -0.23007
-0.11974 -0.28833 -0.30398
-0.12818 -0.28833 -0.01116
-0.13745 -0.28833 0.12603
-0.09183 -0.28833 -0.13289
-0.09631 -0.28833 0.01407
-0.11829 -0.28833 0.05572
-0.11532 -0.28833 -0.02274
-0.14022 -0.28833 0.26505
-0.14542 -0.28833 -0.32032
-0.13433 -0.28833 0.19380
-0.12200 -0.28833 0.14342
-0.10117 -0.28833 -0.22220
-0.12561 -0.28833 -0.03368
-0.12908 -0.28833 -0.08151
-0.10033 -0.28833 0.01926
-0.14458 -0.28833 0.25407
-0.12986 -0.28833 -0.33727
-0.12483 -0.28833 0.12332
-0.14079 -0.28833 0.29569
-0.11560 -0.28833 0.11888
-0.10948 -0.28833 0.05308
0.07443 0.02214 0.11867
-0.05139 0.15646 0.11342
0.14202 -0.17205 0.25622
-0.04596 0.12943 0.12530
-0.05002 0.16276 0.06746
-0.04347 0.16276 0.11242
-0.06976 0.00306 0.12616
0.04809 -0.00144 0.17366
0.05347 -0.00144 0.08190
0.08303 -0.00144 0.17015
0.05382 -0.00144 -0.06930
0.03206 -0.00144 -0.14960
0.06929 -0.00144 0.01762
0.08857 -0.00144 0.11741
0.05935 -0.00144 0.01852
0.02728 -0.00144 0.14703
0.02783 -0.00144 0.20911
0.06905 -0.00144 0.00220
0.05413 -0.00144 0.14742
0.06066 -0.00144 -0.02348
-0.02349 0.08048 -0.04539
0.12235 -0.19667 -0.21993
0.12235 -0.16575 -0.22028
0.12235 -0.11079 -0.21666
0.12235 -0.18117 -0.22329
-0.03012 0.02355 0.12530
-0.02397 0.06362 0.12530
0.02582 0.00665 -0.17461
0.12235 -0.24306 -0.33084
0.06020 0.02414 0.07908
-0.04787 0.01144 -0.03326
-0.05079 0.01144 0.05549
-0.07847 0.28833 0.07301
-0.07855 0.28833 0.09021
-0.08306 0.28833 0.09765
-0.10379 0.28833 0.01443
-0.09249 0.28833 -0.09966
-0.08280 0.28833 -0.12045
-0.11346 0.28833 0.08787
-0.09933 0.28833 0.20720
-0.09041 0.28833 -0.12712
-0.07908 0.28833 -0.23928
-0.07600 0.28833 -0.31581
-0.12378 0.28833 0.30314
-0.10276 0.28833 -0.04381
-0.10819 0.28833 0.06299
-0.08284 0.28833 0.13255
-0.10357 0.28833 0.15242
-0.08939 0.28833 -0.14882
-0.02349 0.12763 0.11726
-0.06743 0.00929 0.14153
-0.03626 0.00929 0.00487
-0.02308 0.00929 -0.07753
-0.00502 0.00929 -0.10503
-0.05456 0.00929 0.06600
-0.05199 0.00929 0.02843
-0.06724 0.00929 0.01846
-0.06226 0.00929 -0.02796
-0.00959 0.00929 -0.12891
-0.02731 0.00929 0.02708
-0.05220 0.00929 0.09468
-0.03908 0.00929 -0.08656
-0.06099 0.00929 0.04229
0.02000 -0.19151 -0.38153
0.03724 -0.23660 -0.38153
-0.11984 -0.22517 -0.38153
0.05883 -0.27767 -0.38153
-0.07781 -0.23198 -0.38153
-0.09970 -0.05997 -0.38153
0.03473 -0.22931 -0.38153
-0.09932 -0.10006 -0.38153
0.03733 -0.19541 -0.38153
-0.09806 -0.05400 -0.38153
-0.01173 -0.21802 -0.38153
-0.13639 -0.07748 -0.38153
-0.11680 -0.21171 -0.38153
-0.13375 -0.04909 -0.38153
-0.13453 -0.07210 -0.38153
-0.06749 -0.27511 -0.38153
-0.14192 -0.28621 -0.38153
-0.08893 -0.22771 -0.38153
-0.07975 -0.11120 -0.38153
-0.02747 -0.16228 -0.38153
-0.09520 -0.25930 -0.38153
-0.09863 -0.19256 -0.38153
-0.07713 -0.26297 -0.38153
-0.10260 -0.25708 -0.38153
-0.06051 -0.16516 -0.38153
-0.02879 -0.23665 -0.38153
-0.04339 -0.16690 -0.38153
-0.11109 -0.23423 -0.38153
0.02396 -0.22543 -0.38153
0.13866 -0.17576 -0.21671
0.01532 0.11970 0.38153
-0.00599 0.07675 0.38153
-0.00240 0.11716 0.38153
0.02145 0.18743 0.38153
-0.03223 0.17891 0.38153
0.02181 0.21039 0.38153
-0.00610 0.03579 0.38153
0.02076 0.24020 0.38153
-0.05883 0.05565 0.38153
-0.05944 0.09954 0.38153
-0.05657 0.06125 0.38153
-0.07573 0.11635 0.38153
-0.01834 0.08596 0.38153
0.02054 0.17309 0.38153
-0.05572 0.04975 0.38153
-0.00439 0.22228 0.38153
0.12235 -0.28760 -0.28127
0.12235 -0.27762 -0.28784
0.12235 -0.28552 -0.30852
0.12235 -0.24325 -0.24085
0.12235 -0.26698 -0.31799
0.12235 0.00654 -0.18215
0.13845 -0.08190 0.29576
0.14596 -0.21443 -0.23847
0.14596 -0.18929 -0.25493
0.14596 -0.19496 -0.24418
0.12235 -0.08010 -0.37665
0.12235 -0.18382 -0.37536
0.12235 -0.04834 -0.37539
0.12235 -0.24069 -0.38108
0.12235 -0.08987 -0.37940
0.12235 -0.06718 -0.34618
0.12235 -0.04903 -0.35117
0.07559 0.02281 0.08854
-0.05139 0.11504 -0.01285
-0.05139 0.04400 0.04686
-0.05139 0.03628 0.06338
-0.05139 0.05388 0.00930
-0.05139 0.13378 -0.04601
-0.05139 0.02393 -0.01526
-0.05139 0.07185 -0.00911
-0.05139 0.03444 0.00497
-0.05139 0.06224 -0.03215
-0.02349 0.16245 -0.05536
0.12235 -0.21271 -0.34079
0.12235 -0.22861 -0.33176
0.12235 -0.25038 -0.35104
0.12235 -0.25222 -0.36779
-0.14596 0.03115 0.13120
-0.14596 -0.08496 0.12455
-0.14596 -0.06580 0.21936
-0.14596 0.24227 -0.31455
-0.14596 0.04622 -0.04795
-0.14596 0.11885 0.06296
-0.14596 -0.01823 0.26571
-0.14596 0.03066 0.19681
-0.14596 -0.12479 0.23464
-0.14596 0.01935 0.25368
-0.14596 -0.12105 0.36112
-0.14596 -0.05128 0.15013
-0.14596 0.19965 -0.25268
-0.14596 0.01211 -0.00109
-0.14596 0.09340 -0.09771
-0.14596 0.15667 -0.06455
-0.14596 -0.02145 0.24071
-0.14596 -0.09792 0.16922
-0.14596 0.12872 -0.09040
-0.14596 -0.12913 0.35556
-0.14596 -0.03690 0.13979
-0.14596 -0.00872 0.35953
-0.14596 -0.08394 0.23945
-0.14596 0.08952 -0.03224
-0.14596 -0.01485 0.15462
-0.14596 0.03606 -0.04704
-0.14596 0.13953 -0.12331
-0.14596 -0.11072 0.16926
-0.14596 -0.04743 0.27034
-0.14596 -0.16010 0.33152
-0.14596 0.00865 0.01868
-0.14596 -0.05958 0.18908
-0.14596 0.15679 -0.20373
-0.14596 -0.01653 0.35855
-0.14596 0.05902 -0.03186
-0.14596 0.05322 0.14460
-0.14596 -0.16153 0.35481
-0.14596 0.02339 0.12618
-0.14596 0.17119 -0.16566
-0.14596 0.01366 0.24619
-0.14596 -0.08810 0.18406
-0.14596 0.24424 -0.32107
-0.14596 -0.09340 0.28530
-0.14596 -0.04416 0.08668
-0.14596 0.16632 -0.07464
-0.14596 0.02051 0.30390
-0.14596 0.03704 0.15304
-0.14596 0.13644 -0.09598
-0.14596 0.02981 0.05132
-0.14596 -0.04812 0.07063
-0.14596 0.19182 -0.14374
-0.14596 0.16389 -0.19567
-0.14596 -0.00534 0.05450
-0.14596 0.10933 -0.08946
-0.14596 0.01311 0.03629
-0.14596 0.19496 -0.17559
-0.14596 0.11706 -0.03296
-0.14596 -0.09522 0.29976
-0.14596 -0.04477 0.20606
-0.14596 -0.12738 0.22772
-0.14596 0.09475 0.04072
-0.14596 -0.12255 0.20841
-0.14596 0.00591 0.13241
-0.14596 0.10328 -0.00036
-0.14596 -0.13167 0.29021
-0.14596 -0.04114 0.12235
-0.14596 -0.08738 0.19766
-0.14596 -0.17330 0.28413
-0.14596 -0.15471 0.26308
-0.14596 0.06869 0.20604
-0.14596 -0.01025 0.17898
-0.14596 0.01226 0.16268
-0.14596 -0.06663 0.28408
-0.14596 0.15558 -0.04345
-0.14596 0.08186 0.08666
-0.14596 -0.16682 0.32234
-0.14596 -0.04271 0.13048
-0.14596 -0.12646 0.17463
-0.14596 0.07584 -0.00465
-0.14596 0.07804 0.18880
-0.14596 -0.10664 0.20693
-0.14596 -0.01494 0.21049
-0.14596 -0.17167 0.29370
-0.14596 -0.07679 0.28179
-0.14596 0.06650 0.09219
-0.14596 0.09036 -0.02431
-0.14596 0.04133 0.17948
-0.02349 0.10855 0.00975
-0.02349 0.13804 0.01752
-0.02349 0.14309 0.01907
-0.02349 0.09166 0.00829
-0.02349 0.06794 -0.04086
-0.12699 0.28833 -0.22348
-0.11803 0.28833 -0.03585
-0.12295 0.28833 -0.35962
-0.09627 0.28833 -0.22999
-0.09753 0.28833 -0.26563
-0.14014 0.28833 0.10114
-0.13042 0.28833 0.04546
-0.11738 0.28833 -0.11118
-0.12280 0.28833 0.05388
-0.08306 0.28833 -0.34128
-0.09460 0.28833 -0.19650
-0.14147 0.28833 0.13412
-0.12483 0.28833 -0.06046
-0.12522 0.28833 -0.35248
-0.14371 0.28833 -0.34475
-0.12835 0.28833 0.02679
-0.09881 0.28833 -0.31427
-0.08826 0.28833 -0.35513
-0.09410 0.28833 -0.14021
-0.14544 0.28833 0.10938
-0.14146 0.28833 0.14814
-0.10970 0.28833 -0.26936
0.01283 0.01617 -0.17461
-0.02334 0.01947 -0.17461
-0.01665 0.11435 -0.17461
-0.03086 0.14481 -0.17461
-0.05556 0.01374 -0.17461
-0.06035 0.20032 -0.17461
-0.02798 0.05452 -0.17461
-0.04060 0.02943 -0.17461
0.01590 0.03029 -0.17461
-0.00211 -0.00652 -0.38153
0.03174 -0.03026 -0.38153
0.11603 0.00252 -0.38153
0.11771 -0.18467 -0.38153
0.09327 -0.13861 -0.38153
-0.04424 -0.08897 -0.38153
0.07153 -0.07530 -0.38153
0.03354 -0.08041 -0.38153
0.08599 -0.02903 -0.38153
0.12071 -0.22211 -0.38153
0.04743 -0.14616 -0.38153
0.00538 -0.09889 -0.38153
0.00813 -0.10592 -0.38153
0.03494 -0.14914 -0.38153
-0.07453 -0.04561 -0.38153
0.12085 -0.05273 -0.38153
0.03169 -0.07009 -0.38153
0.05515 -0.13878 -0.38153
0.02306 -0.17364 -0.38153
0.05683 -0.07623 -0.38153
0.10904 -0.21929 -0.38153
-0.05514 -0.07296 -0.38153
0.06230 -0.10870 -0.38153
0.07368 -0.05046 -0.38153
-0.10703 -0.00641 -0.38153
0.06530 -0.14650 -0.38153
0.06602 -0.03847 -0.38153
-0.02324 -0.06455 -0.38153
0.03800 -0.01824 -0.38153
