-0.11679 0.12839 0.23114
0.17097 -0.10072 0.41962
0.17802 0.02716 0.42668
0.17692 -0.10233 0.42557
-0.01244 0.03027 0.41757
-0.02540 0.15280 -0.41737
-0.08637 0.16605 -0.41737
0.05758 0.14633 -0.41737
0.07692 0.15001 -0.41737
-0.08297 0.16004 -0.41737
-0.11679 0.15261 -0.35628
0.04255 0.17949 -0.22395
-0.09914 0.17949 0.11596
-0.07308 0.17949 -0.40382
-0.16098 0.17949 -0.06987
-0.14963 0.17949 0.18030
0.04478 0.17949 -0.32618
-0.12216 0.17949 -0.11854
0.08136 0.17949 -0.22525
-0.13931 0.17949 0.03542
-0.10973 0.17949 -0.24116
0.06907 0.17949 -0.35888
-0.03660 0.17949 -0.23702
-0.12130 0.17949 -0.22503
-0.15314 0.17949 -0.13833
0.08767 0.17949 -0.27395
-0.06978 0.17949 -0.15793
0.02729 0.17949 -0.34420
-0.17210 0.17949 0.03784
0.05550 0.17949 -0.29223
-0.04787 0.17949 -0.05292
-0.07207 0.17949 -0.33859
-0.16272 0.17949 0.38577
-0.14153 0.17949 -0.01791
-0.14768 0.17949 0.33431
-0.15046 0.17949 0.05359
-0.10532 0.17949 -0.26586
-0.05558 0.17949 -0.10626
-0.12297 0.17949 0.20362
-0.16030 0.17949 -0.12431
-0.13356 0.17949 0.08999
-0.15594 0.17949 -0.33975
-0.17680 0.17949 0.35417
-0.15277 0.17949 0.22372
0.01532 0.17949 -0.13175
0.01912 0.17949 -0.41740
0.01068 0.17949 -0.08565
0.00796 0.17949 -0.05571
-0.00961 0.17949 -0.42212
0.01943 0.17949 -0.08567
-0.04300 0.17949 0.10095
0.11777 0.17949 -0.29591
0.05403 0.17949 -0.21751
0.00746 0.17949 -0.26196
0.12850 0.17949 -0.40985
0.01237 0.17949 -0.37234
-0.14998 0.17949 0.32473
-0.11395 0.17949 -0.19707
0.08885 0.17949 -0.34813
-0.00690 0.17949 -0.12203
-0.08451 0.17949 -0.36048
-0.16305 0.17949 -0.26524
-0.13709 0.17949 -0.16142
-0.14387 0.17949 -0.22019
-0.01373 0.17949 -0.00777
-0.02692 0.17949 -0.02333
-0.08218 0.17949 0.07282
-0.07016 0.17949 0.13875
-0.14713 0.17949 -0.25294
-0.15578 0.17949 0.31694
-0.02443 0.17949 -0.39508
0.00440 0.17949 -0.14570
-0.17162 0.17949 -0.25074
-0.10600 0.17949 -0.25994
-0.04708 0.17949 -0.29792
-0.06872 0.17949 -0.30875
-0.10801 0.17949 -0.03442
0.07986 0.17949 -0.28878
0.04288 0.17949 -0.15865
0.15792 0.17949 -0.39262
0.11686 0.17949 -0.37954
0.05319 0.17949 -0.39948
-0.16563 0.17949 -0.15656
-0.17016 0.17949 0.18566
-0.09340 0.17949 0.07022
-0.10967 0.17949 -0.10720
0.03810 0.17949 -0.18500
-0.05850 0.17949 -0.37312
0.14849 0.17949 -0.40003
-0.02416 0.17949 -0.36166
-0.14878 0.17949 0.01368
0.07709 0.17949 -0.33882
-0.09046 0.17949 -0.11385
-0.14910 0.17949 0.25835
-0.10300 0.17949 -0.37856
-0.12041 0.17949 0.11961
-0.10141 0.17949 0.01718
-0.05627 0.17949 -0.22547
-0.00378 0.17949 -0.15013
0.11636 0.17949 -0.42308
0.14313 0.17949 -0.37261
-0.08246 0.17949 -0.36983
-0.10338 0.17949 -0.23128
-0.07997 0.17949 -0.21190
-0.10797 0.17949 -0.13690
-0.11823 0.17949 -0.29335
-0.12100 0.17949 -0.00760
-0.16370 0.17949 0.14287
0.02063 0.17949 -0.23850
-0.11845 0.17949 0.13769
-0.07660 0.17949 -0.19683
-0.16337 0.17949 -0.42484
-0.14697 0.17949 0.26408
-0.14656 0.17949 0.18845
0.03297 0.17949 -0.35343
-0.04224 0.17949 -0.37597
-0.12823 0.17949 -0.35859
-0.08027 0.17949 -0.11532
-0.01584 0.17949 -0.39703
0.08218 0.17949 -0.42174
0.07569 0.17949 -0.39788
-0.17465 0.17949 0.19072
-0.15048 0.17949 0.11975
-0.12498 0.17949 0.27666
-0.17737 0.17949 -0.39130
-0.02853 0.17949 -0.10119
-0.12567 0.17949 0.05128
-0.12049 0.17949 -0.35804
-0.15702 0.17949 0.02486
-0.15234 0.17949 0.23784
-0.14381 0.17949 0.32923
-0.02489 0.17949 -0.06745
-0.07209 0.17949 -0.05015
-0.02066 0.17949 -0.01359
0.00498 0.17949 -0.27415
0.00157 0.17949 -0.16832
-0.14808 0.17949 -0.35250
-0.14324 0.17949 -0.28329
-0.14631 0.17949 -0.26494
-0.16891 0.17949 0.13351
-0.13870 0.17949 -0.42107
-0.15656 0.17949 0.21553
-0.14721 0.17949 -0.34046
0.03695 0.17949 -0.34590
-0.15220 0.17949 0.09846
-0.09157 0.17949 -0.04876
-0.17523 0.17949 -0.20843
-0.07720 0.17949 0.01364
-0.06553 0.17949 -0.28193
-0.08893 0.17949 -0.39500
-0.12821 0.17949 -0.13714
-0.15770 -0.08758 0.41737
-0.06099 -0.11380 0.41737
-0.09795 -0.11866 0.41737
-0.14363 -0.09671 0.41737
-0.11981 -0.06561 0.41737
-0.14983 -0.05123 0.41737
-0.15001 0.01026 0.41737
-0.09505 0.02323 0.41737
-0.12431 0.07328 0.41737
-0.11155 -0.13620 0.41737
-0.16763 0.14870 0.41737
-0.13725 0.01505 0.41737
-0.13981 0.07215 0.41737
-0.11081 0.03904 0.41737
-0.12434 -0.01447 0.41737
-0.11443 -0.08991 0.41737
-0.08298 0.00316 0.41737
-0.06809 -0.07161 0.41737
-0.09519 0.01107 0.41737
-0.09134 -0.03873 0.41737
-0.06093 -0.05811 0.41737
-0.16501 -0.13618 0.41737
-0.16598 -0.00335 0.41737
-0.02988 0.17544 0.43076
0.00968 -0.00351 -0.42312
-0.10817 0.13861 -0.27610
-0.00740 0.00104 -0.41795
0.00476 -0.15120 0.41737
-0.03183 -0.13652 0.41737
-0.10251 -0.15790 0.41737
0.07663 -0.15848 0.41737
-0.05063 -0.14933 0.41737
0.01197 0.07987 0.42002
0.17867 0.17917 -0.07414
0.17165 0.17733 -0.42810
-0.11550 -0.00144 0.01033
-0.11374 -0.00144 0.07320
-0.11463 -0.00144 0.20792
-0.11679 0.13356 0.11381
0.11518 -0.17417 -0.42991
-0.10817 0.13400 -0.14071
-0.10817 0.14942 0.24402
-0.11679 0.10752 -0.14151
-0.11679 0.09341 -0.07559
-0.11679 0.03523 -0.25942
-0.11679 0.08345 -0.00529
-0.11679 0.11555 0.07107
-0.11679 0.10347 0.20482
-0.11679 0.03955 -0.17580
-0.11679 0.11994 0.19446
-0.11679 0.08676 0.01523
-0.11679 0.06449 -0.24569
-0.11679 0.06937 -0.21900
-0.11679 0.12197 0.17689
-0.11679 0.09344 0.03915
-0.11679 0.03934 -0.32033
-0.11679 0.12741 -0.16176
-0.11679 0.11982 -0.25914
-0.11679 0.11954 -0.15794
-0.11679 0.12224 0.27938
-0.11679 0.05290 -0.22052
-0.11679 0.09619 -0.18052
-0.11679 0.12137 -0.20265
-0.11679 0.06140 -0.11673
-0.11679 0.11906 -0.33558
-0.11679 0.05778 -0.36333
-0.11679 0.10633 -0.39031
-0.11679 0.11699 0.27393
-0.11679 0.09970 0.14517
-0.11679 0.11904 -0.22605
-0.11679 0.11268 -0.07525
-0.11679 0.09595 -0.13801
-0.11679 0.01268 -0.39839
-0.11679 0.08480 0.07006
-0.11679 0.10602 0.10621
-0.11679 0.11355 -0.09094
-0.11679 0.09508 -0.23943
-0.11679 0.08459 -0.05425
-0.11679 0.07334 0.01016
-0.11679 0.07979 0.01507
-0.11679 0.10281 -0.09464
-0.11679 0.12624 -0.00782
-0.11679 0.09083 0.00847
-0.11679 0.09286 -0.27250
-0.11679 0.08329 -0.01728
-0.11679 0.07534 0.04805
-0.11679 0.05875 -0.29401
-0.07676 0.03223 0.41737
-0.09368 0.04996 0.41737
-0.06366 -0.02046 0.41737
-0.09393 0.14452 0.41737
-0.05099 0.12354 0.41737
-0.04297 0.11061 0.41737
-0.05920 0.13428 0.41737
-0.07268 0.10646 0.41737
-0.04001 0.05888 0.41737
-0.04949 0.06809 0.41737
-0.03853 0.10111 0.41737
-0.10202 0.09932 0.41737
-0.02561 0.07090 0.41737
-0.08123 0.04813 0.41737
-0.09935 0.07906 0.41737
-0.07387 0.00506 0.41737
-0.02179 0.10888 0.41737
-0.07350 0.12921 0.41737
-0.17919 0.13503 0.42992
0.07211 0.16778 0.41883
-0.08724 0.16985 0.42090
0.10547 0.16690 0.41795
-0.17010 0.12255 0.41876
-0.16895 -0.08104 0.41760
-0.17235 0.02891 0.42100
0.00804 -0.03509 -0.41731
0.00251 -0.09782 -0.42312
-0.02776 0.16609 0.22556
0.04196 0.16609 0.30419
-0.11102 0.16609 0.19482
-0.15017 0.16609 0.22808
-0.13227 0.16609 0.04096
-0.01570 0.16609 0.20063
-0.08169 0.16609 0.04985
-0.06533 0.16609 0.02950
0.06369 0.16609 0.35675
0.02854 0.16609 0.25958
-0.08186 0.16609 0.19464
0.07189 0.16609 0.25376
0.02077 0.16609 0.13215
-0.07839 0.16609 0.34093
-0.07446 0.16609 -0.06070
0.02098 0.16609 0.35702
0.01263 0.16609 0.24025
-0.00857 0.16609 0.32472
-0.14394 0.16609 -0.24040
-0.09331 0.16609 0.21876
-0.12228 0.16609 0.28495
-0.00370 0.16609 0.18934
0.14978 0.16609 0.39590
0.01762 0.16609 0.40971
-0.02286 0.16609 0.17705
-0.08298 0.16609 0.27946
0.04818 0.16609 0.32194
0.06213 0.16609 0.25538
0.02850 0.16609 0.31547
-0.15020 0.16609 -0.23370
0.07288 0.16609 0.22392
0.06006 0.16609 0.18437
-0.00055 0.16609 0.00525
-0.13842 0.16609 0.08086
0.05459 0.16609 0.29392
-0.14676 0.16609 0.11721
-0.03681 0.16609 -0.08357
-0.13317 0.16609 0.27253
-0.16543 0.16609 0.36618
-0.16830 0.16609 -0.06903
-0.15516 0.16609 0.27633
-0.03132 0.16609 0.30696
0.01935 0.16609 0.04816
-0.12207 0.16609 -0.11081
-0.16317 0.16609 -0.31415
-0.04032 0.16609 0.31964
-0.06389 0.16609 -0.02044
-0.09718 0.16609 0.00784
0.03848 0.16609 0.26430
-0.01280 0.16609 0.07691
-0.16474 0.16609 0.27879
0.02651 0.16609 0.16026
0.05990 0.16609 0.32023
0.07456 0.16609 0.36195
0.06741 0.16609 0.32086
-0.06017 0.16609 0.26420
-0.05250 0.16609 -0.04374
0.02894 0.16609 0.24572
0.09885 0.16609 0.36448
-0.12467 0.16609 -0.22376
-0.04368 0.16609 0.21546
-0.03627 0.16609 0.31331
-0.05233 0.16609 0.08733
-0.01711 0.16609 0.01854
-0.10377 0.16609 -0.20736
-0.01366 0.16609 0.02435
-0.09463 0.16609 0.33725
-0.12180 0.16609 0.33044
-0.09752 0.16609 -0.08946
-0.16153 0.16609 0.05207
0.02363 0.16609 0.11656
-0.05893 0.16609 0.35372
-0.03345 0.16609 0.38323
-0.15198 0.16609 0.05389
-0.01888 0.16609 0.25553
0.08068 0.16609 0.24659
-0.04364 0.16609 0.00169
-0.02967 0.16609 0.17870
-0.13171 0.16609 -0.02297
-0.15228 0.16609 -0.37171
-0.07743 0.16609 0.16437
0.03018 0.16609 0.17631
-0.15656 0.16609 0.16971
-0.00130 0.16609 0.20437
-0.14583 0.16609 -0.13206
-0.13698 0.16609 0.37786
0.01057 0.16609 0.25610
-0.04248 0.16609 0.22808
0.09827 0.16609 0.41689
-0.09554 0.16609 -0.02511
-0.01263 0.16609 -0.02018
-0.00310 0.16609 0.33654
-0.02511 0.16609 0.29888
0.06321 0.16609 0.32809
-0.09545 0.16609 0.17492
-0.04143 0.16609 0.05414
0.00375 0.16609 0.08584
-0.07614 0.16609 0.32752
-0.13627 0.16609 -0.17308
-0.13238 0.16609 0.24540
-0.16208 0.16609 0.37155
-0.13297 0.16609 -0.10507
-0.01622 0.16609 0.16875
-0.03609 0.16609 0.20892
0.02605 0.16609 0.14345
0.03657 0.16609 0.22156
0.05476 0.16609 0.22221
-0.09312 0.16609 -0.22908
0.05219 0.16609 0.30426
-0.09909 0.16609 0.05404
0.11684 0.16609 0.41613
-0.01944 0.16609 0.29760
-0.06453 0.16609 0.21608
0.01654 0.16609 0.38650
-0.10563 0.16609 0.16686
-0.14736 0.16609 0.17271
-0.03140 0.16609 0.37071
0.03339 0.16609 0.11258
-0.12659 0.16609 0.30678
-0.08584 0.16609 -0.07472
-0.07816 0.16609 0.34872
-0.01853 0.16609 0.37893
-0.15717 0.16609 -0.15880
0.07659 0.16609 0.39999
0.01367 0.16609 0.06570
0.06861 0.16609 0.37381
0.09335 0.16609 0.35813
0.03465 0.16609 0.25510
-0.11983 0.16609 -0.28075
-0.02621 0.16609 0.27022
0.01617 0.16609 0.16235
-0.10416 0.16609 0.23677
-0.00426 0.16609 0.04770
-0.10593 0.16609 -0.03024
-0.11444 0.00120 0.41737
-0.00923 0.09829 -0.42312
-0.01174 0.08799 -0.42312
-0.01060 0.10835 -0.42312
0.00443 0.05985 0.41841
-0.00515 0.11759 -0.42201
-0.00693 -0.16683 -0.42051
-0.01260 -0.16384 -0.41752
-0.10817 0.14089 0.15747
-0.10817 0.15263 0.36679
0.17792 0.17946 0.30278
-0.01223 -0.01441 -0.41725
-0.16247 -0.16918 -0.42286
-0.09002 -0.16835 -0.42203
-0.11679 0.15268 -0.00160
-0.01101 0.07325 0.42223
-0.08420 -0.16183 -0.41737
-0.02037 -0.14589 -0.41737
-0.01893 -0.13593 -0.41737
0.00044 -0.14754 -0.41737
0.04820 -0.13554 -0.41737
-0.11679 0.13966 0.25378
0.01750 0.16999 -0.42104
-0.02160 0.17023 -0.42127
-0.17802 0.17944 -0.23569
-0.04501 0.17187 0.42315
-0.03391 0.17154 0.42283
-0.11011 0.13062 0.40198
-0.05874 0.13898 -0.41737
-0.11679 0.13655 0.13842
-0.11679 0.16219 0.39536
-0.11679 0.16272 0.38320
-0.11679 0.16257 0.24700
-0.11679 0.16392 -0.04992
-0.00400 0.04169 0.41716
0.04517 0.17171 -0.42299
0.03925 0.17411 -0.42539
-0.00722 -0.11322 -0.42312
-0.10817 0.13626 0.41363
-0.11583 0.13300 -0.39249
0.00709 -0.07735 -0.41797
0.17898 -0.01175 -0.42763
-0.17535 0.17674 0.42782
-0.17924 -0.11536 -0.42984
0.12627 -0.17435 -0.42829
-0.11679 0.15168 0.40591
0.02675 0.16415 0.41737
-0.03055 0.15295 0.41737
0.04274 0.15305 0.41737
0.07835 0.15342 0.41737
0.09259 0.15959 0.41737
-0.06248 0.16270 0.41737
0.00443 0.10452 -0.41898
0.16792 0.17623 0.43049
-0.17512 0.11214 0.42377
-0.17783 0.14558 0.42648
-0.01197 -0.10804 0.42185
-0.10817 0.15215 0.03940
-0.10817 0.14297 0.29671
-0.12659 0.16609 -0.30041
-0.12979 0.16609 -0.05911
-0.08425 0.16609 0.21589
-0.09974 0.16609 0.24635
-0.06879 0.16609 0.29398
-0.02797 0.16609 0.24877
-0.02584 0.16609 0.19969
-0.05216 0.16609 -0.08580
-0.10078 0.16609 -0.10010
-0.09870 0.16609 -0.15258
0.01145 0.16609 0.29695
0.04456 0.16609 0.38703
-0.03684 0.16609 0.17549
-0.09849 0.16609 -0.13824
-0.02891 0.16609 0.13997
-0.15649 0.16609 0.40674
-0.16593 0.16609 0.04169
-0.14062 0.16609 0.07115
-0.04752 0.16609 0.38561
-0.12870 0.16609 -0.28141
-0.16417 0.16609 -0.38383
0.04257 0.16609 0.32913
-0.00907 0.16609 0.28722
-0.00631 0.16609 0.21367
-0.01647 0.16609 0.03899
-0.15704 0.16609 0.38846
0.04438 0.16609 0.18863
-0.02767 0.16609 0.21397
-0.15351 0.16609 0.14940
-0.13884 0.16609 -0.04022
-0.02873 0.16609 -0.03971
-0.01179 0.16609 0.25920
0.08222 0.16609 0.23113
-0.06481 0.16609 -0.01161
-0.05243 0.16609 -0.09460
-0.16375 0.16609 -0.12631
-0.14796 0.16609 0.24666
-0.08967 0.16609 0.28280
-0.15575 0.16609 0.28988
-0.12418 0.16609 0.22884
-0.11066 0.16609 0.15846
-0.04544 0.16609 0.12380
-0.01096 0.16609 -0.00893
-0.16453 0.16609 -0.10255
-0.05861 0.16609 0.28552
0.08653 0.16609 0.34178
-0.16616 0.16609 0.06813
0.11361 0.16609 0.28972
-0.09991 0.16609 0.21760
-0.10679 0.16609 -0.18663
0.01498 0.16609 0.15238
-0.09130 0.16609 0.05108
-0.12619 0.16609 0.33687
-0.13863 0.16609 0.23929
-0.04437 0.16609 0.07077
0.00996 0.16609 0.38729
-0.08069 0.16609 -0.17995
0.00698 0.16609 0.27494
-0.13447 0.16609 -0.19670
0.00038 0.16609 0.35033
-0.16432 0.16609 0.02428
-0.10439 0.16609 0.41244
-0.01926 0.16609 -0.02962
-0.15935 0.16609 -0.00247
0.13646 0.16609 0.39247
-0.11639 0.16609 0.18980
-0.12513 0.16609 -0.01524
0.06413 0.16609 0.27766
-0.07447 0.16609 0.03422
-0.11064 0.16609 0.40163
-0.06840 0.16609 -0.14967
-0.11319 0.16609 0.12121
-0.05575 0.16609 0.36368
-0.04770 0.16609 0.19973
0.01763 0.16609 0.18155
0.05922 0.16609 0.33458
0.00525 0.16609 0.20322
-0.03788 0.16609 0.18666
-0.02559 0.16609 -0.00543
-0.07281 0.16609 -0.17014
-0.01559 0.16609 0.39677
-0.14618 0.16609 -0.07949
-0.06245 0.16609 0.36006
0.04254 0.16609 0.39630
-0.03438 0.16609 0.39217
0.00258 0.16609 0.04935
0.03446 0.16609 0.18966
-0.09883 0.16609 0.33053
-0.11494 0.16609 0.18165
-0.14003 0.16609 0.00333
-0.06695 0.16609 0.33614
-0.11378 0.16609 -0.26157
0.04819 0.16609 0.23359
-0.15434 0.16609 0.09235
-0.11812 0.16609 -0.03725
-0.10372 0.16609 0.27928
-0.13608 0.16609 0.09937
-0.04938 0.16609 -0.06808
-0.15137 0.16609 -0.14151
-0.10046 0.16609 0.34943
-0.02811 0.16609 0.00656
0.11530 0.16609 0.35312
0.11757 0.16609 0.36184
0.02406 0.16609 0.30646
0.08127 0.16609 0.36509
0.06676 0.16609 0.25965
-0.13993 0.16609 -0.16527
-0.15626 0.16609 0.06280
-0.07237 0.16609 0.07458
-0.05468 0.16609 0.03369
-0.16739 0.16609 -0.08582
-0.03227 0.16609 0.09418
-0.06973 0.16609 0.18809
-0.08721 0.16609 -0.21007
-0.16400 0.16609 -0.37374
0.01320 0.16609 0.21136
-0.01574 0.16609 0.33443
-0.16555 0.16609 -0.22155
-0.10502 0.16609 -0.17598
-0.10715 0.16609 0.31260
0.09553 0.16609 0.24330
-0.05125 0.16609 0.41490
-0.13323 0.16609 0.23277
-0.13747 0.16609 0.30589
-0.05850 0.16609 0.08091
0.10175 0.13781 0.41737
0.05930 0.05538 0.41737
0.09223 0.10412 0.41737
0.16418 0.00372 0.41737
0.03445 0.11476 0.41737
0.14812 -0.01779 0.41737
0.09336 0.12367 0.41737
0.09611 0.02970 0.41737
0.09265 -0.00405 0.41737
0.12998 0.00787 0.41737
0.14518 -0.08300 0.41737
0.10997 0.11527 0.41737
0.12769 0.08348 0.41737
0.10118 0.05450 0.41737
0.09253 0.06201 0.41737
0.11151 0.04066 0.41737
0.12728 0.07336 0.41737
0.09629 0.12948 0.41737
0.14846 0.03959 0.41737
0.14655 0.11240 0.41737
0.16150 -0.01560 0.41737
0.13853 0.02655 0.41737
-0.00819 -0.12387 -0.42312
-0.01173 -0.00912 -0.42048
0.01197 -0.05702 -0.42001
-0.11679 0.15586 0.22463
-0.11679 0.12706 -0.41025
-0.11539 0.13262 0.40475
-0.14840 0.17949 0.30322
-0.06456 0.17949 -0.14988
0.07262 0.17949 -0.28105
-0.13916 0.17949 -0.40480
-0.14029 0.17949 0.00735
-0.13013 0.17949 0.17582
-0.00488 0.17949 -0.36945
-0.09492 0.17949 0.15619
-0.07625 0.17949 -0.25831
-0.10521 0.17949 -0.05166
-0.01728 0.17949 -0.16608
-0.04474 0.17949 -0.22415
-0.05200 0.17949 0.04626
-0.07985 0.17949 -0.40509
-0.15051 0.17949 0.08334
-0.16908 0.17949 -0.12510
-0.10079 0.17949 -0.29630
-0.03767 0.17949 0.02213
-0.15094 0.17949 -0.26053
-0.09925 0.17949 -0.32657
-0.16714 0.17949 0.02901
-0.11794 0.17949 0.19113
-0.09248 0.17949 -0.38487
-0.10200 0.17949 -0.30201
-0.02620 0.17949 -0.11700
-0.14241 0.17949 0.13325
0.00500 0.17949 -0.29284
-0.15124 0.17949 0.20911
-0.15872 0.17949 -0.19420
-0.04577 0.17949 -0.34653
0.08548 0.17949 -0.23567
-0.09793 0.17949 -0.13633
0.01943 0.17949 -0.30075
-0.17211 0.17949 0.14259
0.07723 0.17949 -0.32210
0.02584 0.17949 -0.32874
-0.07146 0.17949 -0.07250
0.08470 0.17949 -0.36615
-0.08200 0.17949 -0.09214
-0.12404 0.17949 0.22221
-0.12663 0.17949 -0.18206
-0.09971 0.17949 0.02871
0.00382 0.17949 -0.34388
-0.04579 0.17949 -0.07287
-0.17206 0.17949 -0.16569
-0.00794 0.17949 -0.07073
-0.03446 0.17949 0.04228
-0.06820 0.17949 -0.31750
-0.13629 0.17949 0.12804
-0.13353 0.17949 -0.21135
0.02244 0.17949 -0.40701
-0.02709 0.17949 -0.19721
-0.02258 0.17949 -0.14586
-0.04593 0.17949 -0.19735
-0.15071 0.17949 -0.22874
0.13509 0.17949 -0.42206
-0.06446 0.17949 -0.38025
-0.12288 0.17949 0.19478
-0.15721 0.17949 -0.15040
-0.02774 0.17949 0.04813
-0.06111 0.17949 -0.05855
-0.16256 0.17949 -0.19906
-0.01081 0.17949 0.01768
-0.06802 0.17949 -0.00611
-0.00353 0.17949 -0.27649
-0.14469 0.17949 0.31315
-0.06564 0.17949 0.11059
-0.07050 0.17949 -0.23621
-0.12080 0.17949 -0.34671
-0.17255 0.17949 -0.37192
-0.16741 0.17949 0.09525
-0.04466 0.17949 -0.20401
-0.03653 0.17949 -0.05682
-0.01365 0.17949 -0.33106
0.06401 0.17949 -0.20792
-0.00504 0.17949 -0.08096
-0.16297 0.17949 0.05806
-0.07088 0.17949 -0.12398
0.07085 0.17949 -0.24287
0.13390 0.17949 -0.35576
-0.05703 0.17949 0.05644
0.10856 0.17949 -0.29889
-0.01000 0.17949 -0.17791
-0.04234 0.17949 -0.34116
-0.13686 0.17949 0.14017
-0.10236 0.17949 -0.03780
-0.07942 0.17949 -0.14532
-0.15739 0.17949 -0.16740
-0.13353 0.17949 -0.23207
0.06602 0.17949 -0.23261
0.02582 0.17949 -0.19536
-0.06817 0.17949 0.10183
0.03239 0.17949 -0.15023
-0.12205 0.17949 -0.40557
0.12895 0.17949 -0.36627
-0.14407 0.17949 -0.05373
-0.08085 0.17949 -0.18068
-0.08380 0.17949 -0.13447
-0.07310 0.17949 -0.18953
0.15859 0.17949 -0.40218
-0.04446 0.17949 -0.03094
0.08969 0.17949 -0.23163
-0.02664 0.17949 -0.16918
0.04697 0.17949 -0.18734
-0.14891 0.17949 0.19401
-0.17385 0.17949 -0.34109
-0.13270 0.17949 0.21422
-0.16684 0.17949 -0.06684
0.08802 0.17949 -0.25729
-0.09192 0.17949 0.08455
0.01310 0.17949 -0.39027
-0.08175 0.17949 -0.22318
-0.16878 0.17949 -0.21226
-0.07802 0.17949 -0.27427
-0.07560 0.17949 -0.24156
-0.12778 0.17949 -0.14529
-0.17489 0.17949 -0.24258
-0.04169 0.17949 -0.23108
-0.06678 0.17949 -0.06503
-0.14298 0.17949 -0.36736
0.03385 0.17949 -0.28635
-0.08801 0.17949 0.07848
-0.05300 0.17949 -0.28834
-0.10272 0.17949 -0.35349
-0.13591 0.17949 -0.07128
0.15428 0.17949 -0.42549
-0.15400 0.17949 0.34394
0.04960 0.17949 -0.41090
0.05123 0.17949 -0.37291
-0.00651 0.17949 -0.21981
0.04171 0.17949 -0.31488
-0.15649 0.17949 -0.41179
-0.15619 0.17949 -0.22140
-0.16969 0.06098 -0.41834
-0.17019 -0.08290 -0.41885
-0.00570 0.17225 0.42330
-0.07367 0.17375 0.42480
0.04051 0.17571 0.42675
-0.10817 0.15278 0.25017
0.10257 0.07585 0.41737
0.16048 0.13389 0.41737
0.16629 0.06511 0.41737
0.08713 0.00165 0.41737
0.13265 0.03446 0.41737
0.10319 -0.02144 0.41737
0.15360 -0.05465 0.41737
0.16058 0.02409 0.41737
0.11920 0.07016 0.41737
0.10867 -0.03418 0.41737
0.15899 -0.06013 0.41737
0.04938 0.10634 0.41737
0.16327 0.09063 0.41737
0.06686 0.02882 0.41737
0.11918 0.06277 0.41737
0.15429 -0.09796 0.41737
0.02088 0.12868 0.41737
0.11698 0.14471 0.41737
0.16260 0.14216 0.41737
0.16810 0.04237 0.41737
0.08049 0.06545 0.41737
0.14221 -0.06403 0.41737
0.11622 0.09142 0.41737
-0.00738 0.11897 0.41727
0.01197 -0.08621 0.42176
-0.16076 0.11900 -0.41737
-0.15856 -0.04909 -0.41737
-0.15404 0.07010 -0.41737
-0.07784 -0.09810 -0.41737
-0.14801 -0.10369 -0.41737
-0.12590 -0.09186 -0.41737
-0.09391 -0.04403 -0.41737
-0.14478 -0.14191 -0.41737
-0.02757 -0.10561 -0.41737
-0.09605 -0.00977 -0.41737
-0.08124 -0.05055 -0.41737
-0.05462 -0.04755 -0.41737
-0.15384 -0.12493 -0.41737
-0.15263 -0.02231 -0.41737
-0.11328 -0.12623 -0.41737
-0.16586 -0.09041 -0.41737
-0.12927 0.08413 -0.41737
-0.11396 0.05994 -0.41737
-0.12997 -0.12869 -0.41737
-0.10263 -0.01163 -0.41737
-0.12981 0.05924 -0.41737
-0.14439 0.09733 -0.41737
-0.02490 -0.11271 -0.41737
-0.05760 -0.10151 -0.41737
-0.08374 -0.08725 -0.41737
-0.11286 0.15452 -0.38530
0.15492 0.17399 0.42503
-0.10817 0.14679 0.09129
-0.10817 0.14397 -0.25309
0.10571 0.17705 -0.42925
-0.10817 0.14789 0.27142
0.06381 -0.02884 -0.43078
0.02671 -0.07070 -0.43078
0.10580 -0.07275 -0.43078
0.09335 -0.05157 -0.43078
0.11762 0.08428 -0.43078
0.06281 -0.00125 -0.43078
0.10004 -0.11538 -0.43078
-0.00966 -0.08447 -0.43078
0.07594 0.04728 -0.43078
0.06795 0.00926 -0.43078
0.12684 -0.07970 -0.43078
0.10638 0.10085 -0.43078
-0.08955 -0.15306 -0.43078
-0.02552 -0.12394 -0.43078
-0.03446 -0.09851 -0.43078
0.04475 -0.04608 -0.43078
0.10377 -0.09993 -0.43078
0.10933 -0.02859 -0.43078
0.10949 -0.01302 -0.43078
-0.00108 -0.13061 -0.43078
-0.02003 -0.03259 -0.43078
-0.00151 -0.16671 -0.43078
-0.07672 -0.16142 -0.43078
-0.10263 -0.17062 -0.43078
0.12270 -0.00547 -0.43078
0.14869 0.05255 -0.43078
0.17510 0.11715 -0.43078
0.16444 0.00183 -0.43078
-0.03002 -0.11736 -0.43078
0.16605 0.11191 -0.43078
0.01674 -0.10562 -0.43078
0.12585 0.05289 -0.43078
-0.03829 -0.04242 -0.43078
0.06950 -0.14684 -0.43078
0.05778 -0.11607 -0.43078
0.04883 -0.15060 -0.43078
0.13927 -0.04905 -0.43078
0.14459 0.02871 -0.43078
-0.06412 -0.12637 -0.43078
-0.04811 -0.08295 -0.43078
0.12870 0.01483 -0.43078
0.04423 -0.10547 -0.43078
-0.00012 -0.14466 -0.43078
0.01989 -0.00937 -0.43078
0.04817 -0.03638 -0.43078
0.13075 -0.11668 -0.43078
-0.06569 -0.07276 -0.43078
0.04008 -0.09503 -0.43078
0.13613 -0.02788 -0.43078
0.03174 -0.15002 -0.43078
0.17040 -0.00352 -0.43078
0.08217 -0.06893 -0.43078
0.07796 0.06491 -0.43078
0.14676 -0.01860 -0.43078
0.03724 -0.14807 -0.43078
-0.13160 -0.16419 -0.43078
0.00058 0.11324 0.41743
-0.03857 0.13598 -0.41737
0.14181 -0.17886 0.42533
0.17020 0.16757 -0.35755
0.17270 0.17007 -0.02685
0.17447 0.17184 -0.17644
0.17572 0.17309 -0.31543
0.17041 0.16777 -0.18630
0.17372 0.17109 -0.20209
-0.01173 0.05020 0.41764
-0.11264 0.12781 0.39323
0.17893 0.13487 -0.42758
0.17166 -0.15367 -0.42031
0.07767 0.17755 -0.42813
0.05408 -0.05548 0.41737
0.12541 -0.10878 0.41737
0.08420 -0.04915 0.41737
0.05777 -0.05040 0.41737
0.09217 -0.05233 0.41737
0.09214 -0.12649 0.41737
0.04308 -0.09739 0.41737
0.03279 0.05618 0.41737
0.02622 -0.07480 0.41737
0.01430 -0.10863 0.41737
0.04942 -0.03173 0.41737
0.06866 -0.07554 0.41737
0.06198 0.01170 0.41737
0.01505 -0.04993 0.41737
0.07439 -0.08061 0.41737
0.03472 0.06398 0.41737
0.10279 -0.06460 0.41737
0.00997 0.12720 -0.42149
0.17685 -0.05379 -0.42551
0.17686 -0.16503 -0.42551
0.01101 0.10006 0.41846
0.17104 0.11589 0.41970
0.17133 0.07057 0.41998
-0.13221 0.17886 -0.42767
-0.11071 -0.00144 0.26349
-0.10859 -0.00144 -0.07021
-0.11096 -0.00144 -0.07859
-0.10817 0.12801 0.20378
-0.01173 0.01757 0.42156
0.01173 0.00245 0.41826
-0.00443 -0.00851 0.41863
0.00515 -0.01710 0.42178
0.00515 -0.02541 0.42237
-0.10817 0.15427 0.09659
-0.03241 -0.15808 -0.43078
0.01172 -0.02888 -0.43078
0.16467 -0.09708 -0.43078
0.09470 0.01736 -0.43078
0.12096 0.09072 -0.43078
0.05124 -0.09762 -0.43078
0.14658 -0.05667 -0.43078
0.13284 0.01064 -0.43078
-0.06654 -0.14648 -0.43078
0.11667 -0.11478 -0.43078
0.13648 -0.09905 -0.43078
0.12571 -0.08836 -0.43078
0.00843 -0.13457 -0.43078
0.11041 -0.13722 -0.43078
0.14728 0.06047 -0.43078
-0.03710 -0.07546 -0.43078
0.12366 0.08559 -0.43078
0.15643 0.04552 -0.43078
-0.02289 -0.04264 -0.43078
0.10496 0.07093 -0.43078
0.16415 0.10408 -0.43078
-0.08961 -0.15936 -0.43078
0.15794 0.14578 -0.43078
-0.12885 -0.15730 -0.43078
-0.12448 -0.13053 -0.43078
-0.01652 -0.10030 -0.43078
0.07582 0.00219 -0.43078
0.00990 -0.10449 -0.43078
0.12070 -0.10407 -0.43078
-0.11305 -0.16248 -0.43078
0.02070 -0.16259 -0.43078
0.00870 0.00022 -0.43078
-0.05004 -0.15852 -0.43078
0.01055 -0.02121 -0.43078
0.17078 0.07690 -0.43078
0.10596 0.06417 -0.43078
0.05630 -0.15861 -0.43078
0.06615 0.05778 -0.43078
0.15341 0.08440 -0.43078
0.15147 -0.09982 -0.43078
0.09583 0.02851 -0.43078
-0.07474 -0.14686 -0.43078
0.11787 -0.14846 -0.43078
0.17041 -0.16425 -0.43078
-0.10116 -0.10511 -0.43078
-0.09486 -0.12954 -0.43078
-0.04286 -0.10215 -0.43078
0.13991 -0.11249 -0.43078
0.13596 0.04438 -0.43078
0.09377 -0.11413 -0.43078
0.17471 0.07259 -0.43078
0.09128 -0.12086 -0.43078
0.15807 0.12418 -0.43078
-0.14599 -0.16000 -0.43078
0.13745 -0.00135 -0.43078
-0.04644 -0.17190 -0.43078
0.17841 0.05354 0.43060
0.01244 -0.09436 -0.41754
-0.00995 -0.09877 -0.42240
-0.04478 0.13173 -0.41737
-0.00443 -0.06325 0.42144
-0.00618 0.03625 0.42312
0.00442 0.07581 0.42312
-0.00758 -0.12744 0.42075
-0.11544 0.07389 0.41737
-0.10817 0.12983 0.00837
-0.10817 0.13586 0.27552
-0.17925 0.04290 0.42801
-0.00515 0.00789 0.41953
0.10913 -0.05488 0.41737
-0.11679 0.12786 -0.23947
-0.00637 -0.02978 -0.41801
0.08305 0.06632 -0.41737
0.12441 0.05069 -0.41737
0.15999 0.05030 -0.41737
0.10557 0.14078 -0.41737
0.09092 0.06444 -0.41737
0.15748 -0.09208 -0.41737
0.09029 0.04831 -0.41737
0.08505 -0.00262 -0.41737
0.16641 -0.07842 -0.41737
0.16070 -0.10863 -0.41737
0.16338 0.00770 -0.41737
0.14621 0.04502 -0.41737
0.13430 -0.04967 -0.41737
0.02959 0.12473 -0.41737
0.11872 -0.03482 -0.41737
0.09870 0.10276 -0.41737
0.03835 0.07766 -0.41737
0.13731 -0.02646 -0.41737
0.07833 0.11547 -0.41737
0.08161 0.00475 -0.41737
0.13217 0.13536 -0.41737
0.13080 -0.06152 -0.41737
0.15418 0.06606 -0.41737
0.10830 0.05244 -0.41737
0.14254 0.00038 -0.41737
-0.17915 0.17657 0.36960
-0.11679 0.15516 0.15009
-0.01197 0.05738 -0.42253
-0.11727 0.13764 -0.39927
0.00319 -0.01237 -0.41721
-0.11117 0.13365 0.38250
0.00674 0.05097 -0.42312
-0.14617 -0.15335 -0.41737
-0.10035 0.04030 -0.41737
-0.05370 -0.07445 -0.41737
-0.11149 -0.08319 -0.41737
-0.13760 0.00061 -0.41737
-0.03216 -0.11243 -0.41737
-0.06283 -0.09507 -0.41737
-0.16861 -0.07243 -0.41737
-0.14773 -0.07612 -0.41737
-0.12771 -0.06671 -0.41737
-0.08687 -0.09936 -0.41737
-0.12485 -0.08565 -0.41737
-0.14052 0.04299 -0.41737
-0.09127 -0.05612 -0.41737
-0.09672 -0.06709 -0.41737
-0.12147 -0.02030 -0.41737
-0.15915 0.02469 -0.41737
-0.09954 -0.04185 -0.41737
-0.14813 -0.09201 -0.41737
-0.13759 -0.12412 -0.41737
-0.11839 -0.02630 -0.41737
-0.13144 0.01276 -0.41737
-0.15779 -0.09680 -0.41737
-0.10071 -0.10184 -0.41737
-0.00515 -0.00264 0.41863
0.00099 0.07151 -0.42312
-0.10817 0.12915 -0.14533
0.00627 -0.00234 -0.41720
-0.11679 0.14812 0.17883
-0.10817 0.13037 -0.01711
0.00594 -0.06804 0.42240
0.01160 -0.05696 0.42312
0.00467 0.01297 0.42312
0.00927 -0.00718 0.42312
0.05171 -0.17064 0.42432
0.14328 -0.17116 0.42483
0.08089 -0.16798 0.42166
-0.01042 0.12462 -0.42023
-0.10817 0.14130 -0.03674
0.00593 0.11484 -0.41804
-0.10817 0.15193 -0.09573
-0.11679 0.14757 -0.22433
0.05237 0.13997 -0.41737
-0.17752 -0.01319 0.42617
-0.17780 0.01058 0.42646
-0.17052 -0.14112 0.41917
0.04998 0.12288 0.43078
0.08038 0.10171 0.43078
0.05837 0.11676 0.43078
-0.12167 0.15634 0.43078
0.13027 -0.03900 0.43078
-0.05752 0.16379 0.43078
0.06875 -0.04504 0.43078
0.08000 -0.01758 0.43078
0.12356 0.15374 0.43078
0.02231 -0.01496 0.43078
0.00718 0.16453 0.43078
0.09729 0.16497 0.43078
0.05472 0.01222 0.43078
-0.00179 0.11812 0.43078
0.12715 0.11360 0.43078
0.13170 0.00726 0.43078
0.16892 -0.00771 0.43078
0.07069 0.03362 0.43078
0.13102 0.03640 0.43078
0.16605 -0.03059 0.43078
0.01202 0.14571 0.43078
0.17097 -0.13943 0.43078
0.02112 0.06309 0.43078
0.04428 0.09807 0.43078
0.08074 -0.03293 0.43078
0.17173 -0.01804 0.43078
0.13001 -0.00726 0.43078
0.12043 0.16971 0.43078
0.10678 0.13337 0.43078
0.08556 0.15385 0.43078
-0.07661 0.15850 0.43078
-0.08815 0.17222 0.43078
0.03900 0.02854 0.43078
0.11486 -0.10232 0.43078
0.02860 0.03572 0.43078
0.00341 0.03716 0.43078
0.04333 0.14211 0.43078
-0.04065 0.06981 0.43078
-0.02680 0.09779 0.43078
0.09353 0.03175 0.43078
-0.00981 0.05069 0.43078
0.13698 -0.05133 0.43078
-0.00355 0.05595 0.43078
-0.03626 0.06489 0.43078
0.05820 0.05000 0.43078
-0.02441 0.12181 0.43078
-0.00347 0.10144 0.43078
0.12467 0.08251 0.43078
0.10239 0.14094 0.43078
0.02003 0.12067 0.43078
-0.03180 0.07579 0.43078
0.14243 -0.11293 0.43078
-0.15246 0.16006 0.43078
0.15908 0.11464 0.43078
-0.06340 0.14270 0.43078
-0.09080 0.11804 0.43078
0.09588 0.14968 0.43078
0.04063 0.08445 0.43078
0.14147 -0.12562 0.43078
-0.11679 0.02304 -0.13216
-0.11679 0.07712 0.19357
-0.11679 0.04488 -0.08872
-0.11679 0.03587 0.22024
-0.11679 0.08202 0.21991
-0.11679 0.00855 -0.30636
-0.11679 0.02320 0.04828
-0.11679 0.06633 0.34981
-0.11679 0.04535 0.02025
-0.11679 0.04926 0.03295
-0.11679 0.01472 -0.17923
-0.11679 0.06901 0.09114
-0.11679 0.04630 0.04367
-0.11679 0.03021 -0.02860
-0.11679 0.08573 0.23138
-0.11679 0.09715 0.30738
-0.11679 0.05156 -0.02254
-0.11679 0.10043 0.31626
-0.11679 0.09007 0.30193
-0.11679 0.02149 0.24912
-0.11679 0.00217 0.07718
-0.11679 0.01285 -0.03751
-0.11679 0.03817 0.14642
-0.11679 0.03669 0.05836
-0.11679 0.06835 0.21546
-0.11679 0.02403 0.23881
-0.11679 0.05841 0.29151
-0.11679 0.02481 -0.07561
-0.11679 0.07666 0.15765
-0.11679 0.05744 0.07758
-0.11679 0.02253 0.16849
-0.11679 0.00278 -0.16783
-0.11679 0.01045 0.08688
-0.11679 -0.00048 0.05396
-0.11679 0.00762 0.37923
-0.11679 0.00026 -0.08344
-0.11679 0.00977 0.20717
-0.11679 0.05037 0.30412
-0.11679 0.01524 0.26197
-0.11679 0.07066 0.14002
-0.11679 0.01762 0.29259
-0.11679 0.03474 -0.11896
-0.11679 0.01706 -0.29627
-0.11679 0.08834 0.35355
-0.11679 0.04540 0.22168
-0.11679 0.00081 0.17387
-0.11679 0.01956 0.20309
-0.11679 0.00470 0.23390
-0.11679 0.06112 0.08859
-0.11679 0.10942 0.35928
0.01173 -0.02316 -0.41936
0.01173 -0.07748 0.42270
-0.11679 0.14907 -0.19766
-0.06046 0.17554 -0.43075
-0.16665 0.17307 -0.42435
0.06278 0.16663 -0.41791
-0.11442 0.15463 -0.40048
-0.10765 -0.07925 -0.43078
-0.04703 0.05998 -0.43078
0.00590 0.16876 -0.43078
-0.15452 -0.05944 -0.43078
-0.07491 0.04650 -0.43078
-0.00594 0.12043 -0.43078
-0.15335 -0.04093 -0.43078
-0.14777 0.16283 -0.43078
0.12658 0.13582 -0.43078
-0.06055 -0.02583 -0.43078
0.01459 0.03456 -0.43078
0.09729 0.16412 -0.43078
0.05728 0.07988 -0.43078
-0.09370 0.05556 -0.43078
-0.14299 -0.06160 -0.43078
-0.12387 -0.07509 -0.43078
-0.04826 -0.03058 -0.43078
-0.14390 -0.07773 -0.43078
-0.06002 -0.00600 -0.43078
0.01667 0.14422 -0.43078
-0.01865 -0.01278 -0.43078
-0.09367 0.02557 -0.43078
0.10234 0.14640 -0.43078
0.02248 0.08513 -0.43078
-0.03718 -0.01535 -0.43078
0.02518 0.11643 -0.43078
-0.10934 -0.04309 -0.43078
-0.03985 0.05880 -0.43078
-0.12462 0.07636 -0.43078
-0.10017 0.09343 -0.43078
0.05750 0.10675 -0.43078
-0.16590 0.02600 -0.43078
-0.02943 0.07216 -0.43078
-0.14254 0.03114 -0.43078
-0.12137 0.00424 -0.43078
-0.14185 0.07647 -0.43078
0.10000 0.11810 -0.43078
-0.09367 -0.05211 -0.43078
-0.08361 -0.02339 -0.43078
-0.17739 -0.10409 -0.43078
-0.08397 0.05174 -0.43078
-0.17200 0.08886 -0.43078
-0.00732 0.05064 -0.43078
-0.12010 0.04112 -0.43078
0.05473 0.13277 -0.43078
-0.11119 0.15111 -0.43078
-0.04017 0.17308 -0.43078
-0.16128 0.04065 -0.43078
-0.10205 0.12161 -0.43078
0.07506 0.13721 -0.43078
-0.04048 -0.00165 -0.43078
-0.13021 0.09635 -0.43078
0.03568 0.13801 -0.43078
-0.14647 -0.01691 -0.43078
0.03804 0.05017 -0.43078
-0.13626 0.07493 -0.43078
-0.17356 0.02388 -0.43078
-0.00443 -0.08257 -0.42226
0.00543 0.03784 -0.42312
0.01665 -0.13016 -0.41737
-0.01197 0.00465 0.41813
-0.07134 -0.13798 -0.41737
-0.11679 0.13786 -0.10480
0.00712 -0.10676 -0.42312
0.00562 -0.07469 -0.42312
-0.17196 0.16932 0.18966
-0.17198 0.16935 0.36382
-0.17228 0.16965 0.13122
-0.17785 0.17522 -0.14245
-0.17659 0.17396 -0.18112
-0.17464 0.17201 0.23620
-0.00559 0.17707 -0.42873
-0.01233 0.17520 -0.42625
0.12649 0.16835 -0.41940
-0.06438 -0.14085 0.41737
0.01173 0.05774 0.42261
-0.05445 -0.13197 -0.41737
0.10369 -0.16685 -0.42053
-0.00298 -0.07022 -0.42312
-0.10817 0.14998 -0.14165
-0.06805 -0.13494 0.41737
0.02142 0.11461 -0.41737
0.11178 -0.05575 -0.41737
0.11703 0.14437 -0.41737
0.05405 0.09439 -0.41737
0.16436 0.08000 -0.41737
0.11389 0.08721 -0.41737
0.11795 -0.05285 -0.41737
0.12594 -0.03490 -0.41737
0.12295 -0.01047 -0.41737
0.15366 0.08263 -0.41737
0.14742 0.15467 -0.41737
0.09255 -0.00391 -0.41737
0.11108 0.00189 -0.41737
0.14968 -0.12328 -0.41737
0.05359 0.05742 -0.41737
0.13755 0.06448 -0.41737
0.12257 -0.06276 -0.41737
0.15063 -0.05214 -0.41737
0.08047 0.02698 -0.41737
0.15875 0.09650 -0.41737
0.13226 -0.00441 -0.41737
0.04421 0.09153 -0.41737
0.15521 0.14930 -0.41737
-0.17631 0.03661 0.42496
-0.17719 0.06779 0.42584
-0.00128 0.00362 -0.42312
0.01779 -0.12989 0.41737
-0.01101 0.02449 -0.41851
0.17946 0.05245 -0.42914
-0.10817 0.16148 -0.32749
-0.10817 0.15944 -0.37517
-0.10817 0.16062 -0.22206
-0.10784 0.15680 -0.39580
0.01101 -0.03186 -0.42112
-0.11679 0.15105 0.09792
-0.01244 -0.10055 0.41751
0.00515 0.01877 -0.42126
0.00770 -0.08864 -0.41729
-0.10817 0.13482 0.06958
-0.00784 0.02883 -0.42240
-0.07724 0.02198 -0.41737
-0.01868 0.07599 -0.41737
-0.03208 0.08051 -0.41737
-0.04097 -0.06373 -0.41737
-0.09042 0.06987 -0.41737
-0.02820 0.07587 -0.41737
-0.06496 -0.00141 -0.41737
-0.03585 0.00235 -0.41737
-0.15432 0.15301 -0.41737
-0.04156 0.01507 -0.41737
-0.14606 0.15935 -0.41737
-0.07008 0.06014 -0.41737
-0.03420 0.05104 -0.41737
-0.10085 0.08516 -0.41737
-0.02246 0.11370 -0.41737
-0.04344 -0.05354 -0.41737
0.17355 0.17092 -0.38084
0.17189 0.16926 0.08661
0.17689 0.17426 -0.34886
0.17137 0.16874 -0.34334
0.17008 0.16745 -0.19659
-0.00899 -0.08531 -0.41784
-0.11679 0.15156 -0.32938
-0.11679 0.04803 0.41601
0.01710 -0.09976 0.43078
-0.04129 -0.15217 0.43078
-0.09266 -0.09097 0.43078
-0.11522 -0.02009 0.43078
0.01364 -0.11374 0.43078
-0.04190 -0.04554 0.43078
-0.02131 -0.12694 0.43078
0.12262 -0.16409 0.43078
-0.09494 0.02398 0.43078
-0.07263 -0.13897 0.43078
0.13771 -0.16268 0.43078
-0.11375 0.02015 0.43078
0.04951 -0.13170 0.43078
-0.04090 -0.11271 0.43078
-0.04873 -0.00299 0.43078
-0.07551 0.06548 0.43078
-0.12700 0.00049 0.43078
-0.01251 -0.06288 0.43078
-0.14051 -0.00329 0.43078
-0.03082 0.03083 0.43078
-0.02865 -0.01140 0.43078
-0.16254 -0.09850 0.43078
-0.07417 -0.17223 0.43078
-0.04986 -0.04177 0.43078
-0.00112 -0.02423 0.43078
0.02100 -0.06736 0.43078
-0.12950 -0.16566 0.43078
-0.02399 -0.08018 0.43078
0.04471 -0.11628 0.43078
-0.08084 0.04063 0.43078
-0.06516 -0.10970 0.43078
-0.02282 -0.05978 0.43078
-0.10867 -0.15469 0.43078
-0.16517 -0.05610 0.43078
-0.13878 0.05954 0.43078
-0.12366 -0.10583 0.43078
0.00522 -0.15531 0.43078
-0.03440 -0.04658 0.43078
-0.00625 -0.05485 0.43078
0.12271 -0.14524 0.43078
-0.13604 -0.13312 0.43078
-0.04954 -0.01146 0.43078
0.11134 -0.15685 0.43078
0.07632 -0.10678 0.43078
-0.10798 0.09504 0.43078
-0.11822 -0.12094 0.43078
0.09489 -0.10143 0.43078
-0.01864 -0.15529 0.43078
-0.16888 -0.06470 0.43078
0.04812 -0.08159 0.43078
-0.00068 -0.11928 0.43078
-0.05499 -0.03296 0.43078
0.05995 -0.12209 0.43078
-0.10468 -0.06460 0.43078
0.12077 -0.15360 0.43078
0.00339 -0.08431 -0.41720
-0.00963 -0.05062 0.42240
-0.00114 -0.13058 -0.41736
-0.10817 0.04979 -0.21180
-0.10817 0.02310 -0.16597
-0.10817 0.04638 -0.05173
-0.10817 0.00244 -0.15617
-0.10817 0.03392 -0.04031
-0.10817 0.07923 -0.14072
-0.10817 0.02777 -0.28442
-0.10817 -0.00034 0.05746
-0.10817 0.00720 -0.22396
-0.10817 0.04162 -0.06041
-0.10817 0.01363 -0.19329
-0.10817 0.02689 0.16074
-0.10817 0.11320 -0.33692
-0.10817 0.02755 0.08167
-0.10817 0.05559 -0.28107
-0.10817 0.07220 -0.29659
-0.10817 0.00006 -0.17603
-0.10817 0.08812 -0.19243
-0.10817 0.01317 0.04177
-0.10817 0.00357 -0.21362
-0.10817 0.00657 -0.19413
-0.10817 0.02073 -0.09147
-0.10817 0.02443 -0.40812
-0.10817 0.03201 -0.13698
-0.10817 0.01038 0.03443
-0.10817 0.03898 0.00370
-0.10817 0.02181 -0.07708
-0.10817 0.02913 -0.34687
-0.10817 0.11482 -0.35257
-0.10817 0.01960 -0.01854
-0.10817 0.03516 -0.32792
-0.10817 0.10866 -0.28147
-0.10817 0.02699 -0.21857
-0.10817 0.03131 -0.06262
-0.10817 0.04681 0.02989
-0.10817 0.03434 -0.30523
-0.10817 0.02321 -0.06339
-0.10817 0.08987 -0.34381
-0.10817 0.06436 -0.25141
-0.10817 0.02143 -0.15694
-0.10817 0.01934 -0.28891
-0.10817 0.09579 -0.39091
-0.10817 0.05758 -0.09405
-0.10817 0.01477 -0.41137
-0.10817 0.00967 0.14122
-0.10817 0.02694 0.17318
-0.10817 0.02136 0.15530
-0.10817 0.02681 -0.04659
-0.10817 0.03112 -0.12947
-0.10817 0.03170 -0.29655
-0.10817 0.03264 -0.38418
0.00466 0.05345 -0.41713
-0.00515 0.01178 -0.41845
-0.02596 0.06910 0.43078
-0.10450 0.14971 0.43078
0.16683 -0.06069 0.43078
0.03439 -0.02652 0.43078
-0.02298 0.15594 0.43078
-0.10254 0.15804 0.43078
-0.01643 0.11372 0.43078
0.05832 0.10562 0.43078
0.09039 0.04246 0.43078
0.06062 0.03945 0.43078
-0.03406 0.08236 0.43078
0.14049 0.00163 0.43078
0.17362 -0.02818 0.43078
0.17019 0.12485 0.43078
0.00905 0.10839 0.43078
-0.12241 0.16554 0.43078
0.01580 0.10791 0.43078
0.08847 0.14037 0.43078
-0.04364 0.14273 0.43078
0.07544 0.14870 0.43078
0.06619 0.08959 0.43078
0.07350 -0.05292 0.43078
0.02614 0.13499 0.43078
0.09941 0.04888 0.43078
-0.11834 0.14744 0.43078
0.13468 0.02426 0.43078
0.13260 0.15040 0.43078
0.09932 -0.09544 0.43078
0.14599 -0.04985 0.43078
0.10464 0.12363 0.43078
0.07744 -0.04555 0.43078
-0.11442 0.13027 0.43078
0.01034 0.03913 0.43078
0.14668 -0.00503 0.43078
0.14256 -0.09792 0.43078
-0.06542 0.17090 0.43078
0.07285 -0.06647 0.43078
0.14608 0.01908 0.43078
0.14373 -0.07480 0.43078
0.10514 0.16031 0.43078
0.17267 0.06182 0.43078
0.05939 0.06409 0.43078
0.09117 0.00030 0.43078
0.06234 -0.03708 0.43078
0.17165 -0.13336 0.43078
0.04256 0.06464 0.43078
0.15572 -0.03840 0.43078
-0.05594 0.10314 0.43078
0.09987 -0.00752 0.43078
0.02200 0.09882 0.43078
0.14313 0.16671 0.43078
0.15281 -0.14660 0.43078
0.00359 0.06581 0.42240
0.17769 0.17949 0.13541
-0.10969 0.16742 0.41870
-0.10817 0.13252 -0.20390
0.00834 0.02845 0.42240
-0.17855 0.17592 0.13096
-0.17627 0.17364 0.41287
-0.17201 0.16938 0.27775
-0.17824 0.17561 -0.24936
-0.17769 0.17506 0.34316
-0.17627 0.17363 0.18289
-0.17555 0.17292 -0.12661
-0.10817 0.16027 -0.24160
-0.10817 0.15706 -0.30337
-0.10817 0.15942 -0.29781
-0.10817 0.16277 -0.40479
-0.10817 0.13097 0.34436
-0.11583 0.13166 -0.40063
0.00120 0.02753 0.42312
-0.10817 0.14888 0.15372
-0.11679 0.14431 -0.37736
0.00688 -0.12927 -0.41737
-0.17713 0.06279 -0.42578
-0.17312 -0.08809 -0.42178
-0.17054 0.16791 0.15871
-0.17581 0.17317 -0.42264
-0.16933 0.16670 -0.41653
-0.17185 0.16922 -0.32597
-0.16886 0.16623 0.31442
-0.16908 0.16645 -0.20939
-0.16995 0.16732 -0.28110
-0.17414 0.17151 -0.29474
-0.16902 0.16639 0.24049
-0.16886 0.16623 -0.16085
0.01137 0.02538 0.41725
0.14508 0.17949 -0.10013
0.08803 0.17949 0.22948
0.00521 0.17949 0.04593
0.11905 0.17949 0.41160
0.05732 0.17949 0.13834
-0.00389 0.17949 0.39542
0.02115 0.17949 0.06668
0.03795 0.17949 0.20491
0.14686 0.17949 -0.27504
0.06958 0.17949 -0.16051
0.03615 0.17949 -0.07893
-0.02045 0.17949 0.22260
0.07996 0.17949 0.37682
0.03842 0.17949 0.24773
0.17496 0.17949 -0.20692
0.11285 0.17949 -0.25587
-0.02270 0.17949 0.29217
0.16537 0.17949 -0.07056
0.04809 0.17949 0.02108
-0.05706 0.17949 0.25935
0.03718 0.17949 0.04904
0.16579 0.17949 -0.29754
0.10827 0.17949 -0.06707
0.16588 0.17949 -0.06390
-0.05141 0.17949 0.20737
-0.00267 0.17949 0.23645
0.06789 0.17949 -0.08812
0.06077 0.17949 -0.04771
-0.10006 0.17949 0.33111
0.13065 0.17949 0.21660
0.17433 0.17949 -0.13269
0.12315 0.17949 -0.03470
0.08693 0.17949 0.31287
0.04964 0.17949 -0.03756
0.10265 0.17949 0.32416
0.13262 0.17949 0.22328
0.00374 0.17949 0.25556
0.10729 0.17949 0.02271
0.14024 0.17949 -0.24397
-0.00069 0.17949 0.07821
-0.06789 0.17949 0.20555
0.16915 0.17949 -0.35730
0.16966 0.17949 0.31446
-0.04761 0.17949 0.22038
0.15191 0.17949 -0.16871
0.14520 0.17949 0.22076
-0.05850 0.17949 0.24056
-0.00993 0.17949 0.02396
0.01764 0.17949 0.38908
0.10577 0.17949 -0.17908
-0.12330 0.17949 0.37312
0.08025 0.17949 0.14781
0.07808 0.17949 0.24573
0.17084 0.17949 -0.13767
0.17349 0.17949 0.41891
0.01467 0.17949 -0.02505
0.11774 0.17949 0.08267
-0.07520 0.17949 0.36459
-0.00154 0.17949 0.30577
-0.07790 0.17949 0.34886
0.05147 0.17949 -0.00138
0.12547 0.17949 0.39604
-0.05180 0.17949 0.29262
0.15581 0.17949 0.19769
0.08623 0.17949 0.09773
0.00202 0.17949 0.33742
0.08846 0.17949 -0.01262
-0.03062 0.17949 0.33585
0.00312 0.17949 0.07063
-0.09065 0.17949 0.27885
0.03215 0.17949 -0.04724
-0.05651 0.17949 0.31980
-0.12157 0.17949 0.40087
0.12049 0.17949 -0.26573
0.11315 0.17949 0.36454
0.14027 0.17949 -0.03869
0.09064 0.17949 -0.10924
0.08727 0.17949 0.42127
0.10830 0.17949 0.29661
-0.04977 0.17949 0.22669
0.14935 0.17949 -0.04893
0.08438 0.17949 0.35197
0.17480 0.17949 -0.26140
0.10295 0.17949 -0.02178
0.17101 0.17949 -0.25355
0.04947 0.17949 -0.05227
-0.10105 0.17949 0.39946
-0.02653 0.17949 0.23754
0.16914 0.17949 0.21050
-0.11291 0.17949 0.29642
0.11690 0.17949 -0.24270
0.15111 0.17949 0.23140
0.08055 0.17949 0.23738
0.10909 0.17949 0.27309
0.14339 0.17949 0.33095
0.10607 0.17949 0.28109
0.11255 0.17949 -0.18341
0.13392 0.17949 -0.21355
0.07553 0.17949 -0.07220
0.04541 0.17949 0.18954
-0.09209 0.17949 0.23343
0.04280 0.17949 0.12875
0.11829 0.17949 0.33303
0.06633 0.17949 0.10711
0.01083 0.17949 0.20450
0.04990 0.17949 -0.08953
0.16013 0.17949 -0.14806
0.14345 0.17949 0.27265
0.12978 0.17949 -0.27608
-0.04316 0.17949 0.32835
0.00998 0.17949 0.39591
0.13931 0.17949 -0.15855
0.02884 0.17949 0.10675
0.06502 0.17949 0.24487
0.10494 0.17949 -0.19641
0.08023 0.17949 0.26717
0.17178 0.17949 -0.26754
-0.11693 0.17949 0.36541
0.09231 0.17949 0.34937
0.03533 0.17949 0.22508
0.09510 0.17949 0.42456
0.03250 0.17949 -0.01439
-0.08941 0.17949 0.26119
0.16328 0.17949 0.08455
0.08095 0.17949 0.38702
0.13485 0.17949 0.37241
0.03329 0.17949 0.00408
-0.02578 0.17949 0.31162
-0.10923 0.17949 0.30800
0.05747 0.17949 0.13026
-0.03279 0.17949 0.20767
-0.12519 0.17949 0.42068
0.10770 0.17949 0.40909
0.01128 0.17949 -0.01673
-0.00954 0.17949 0.16821
0.16605 0.17949 0.03725
0.17434 0.17949 -0.07820
0.13265 0.17949 -0.10572
0.07430 0.17949 0.34321
-0.09893 0.17949 0.30430
0.08820 0.17949 -0.10173
-0.10817 0.06624 -0.41138
-0.07423 -0.17445 -0.42884
-0.10817 0.13595 -0.12138
-0.00178 -0.08902 -0.41730
-0.11679 0.14493 0.10813
-0.00669 -0.05720 0.42240
-0.10817 0.14584 -0.11835
-0.01173 0.10157 -0.41914
0.17600 0.17336 0.39200
0.17723 0.17460 0.32463
0.17498 0.17235 0.40080
0.17359 0.17096 0.16213
0.17850 0.17587 0.16633
0.09257 0.16609 0.16893
0.13091 0.16609 -0.06694
0.11674 0.16609 -0.34339
0.03244 0.16609 -0.02591
0.01211 0.16609 0.01808
0.15175 0.16609 0.16863
-0.11728 0.16609 -0.29234
0.08091 0.16609 0.12072
0.08726 0.16609 0.14078
0.10318 0.16609 0.25509
0.00848 0.16609 -0.35589
-0.03771 0.16609 -0.41637
0.04745 0.16609 -0.00887
0.08327 0.16609 0.00537
0.03384 0.16609 -0.09259
0.01133 0.16609 -0.19532
0.04577 0.16609 0.05686
0.09670 0.16609 -0.16783
0.16701 0.16609 0.35860
0.02847 0.16609 -0.37605
0.12773 0.16609 -0.24542
-0.07953 0.16609 -0.19908
0.03432 0.16609 -0.41224
0.03071 0.16609 -0.08190
0.15401 0.16609 0.33780
0.02692 0.16609 -0.40445
0.14428 0.16609 -0.09810
0.11340 0.16609 -0.10914
0.10047 0.16609 -0.19931
-0.05594 0.16609 -0.27689
0.06486 0.16609 -0.30076
0.02515 0.16609 -0.00890
-0.05140 0.16609 -0.39138
-0.02402 0.16609 -0.16898
0.15380 0.16609 0.23370
0.09267 0.16609 -0.19500
0.12012 0.16609 -0.08736
-0.06059 0.16609 -0.17820
0.12716 0.16609 0.31412
0.13782 0.16609 -0.34860
0.01372 0.16609 0.00074
0.01214 0.16609 -0.25696
0.12038 0.16609 0.09673
0.13156 0.16609 0.13161
-0.01033 0.16609 -0.16387
0.02561 0.16609 -0.17332
0.03629 0.16609 0.00247
0.14562 0.16609 -0.31480
0.01717 0.16609 -0.21469
-0.08243 0.16609 -0.25369
0.13787 0.16609 0.21905
0.03317 0.16609 -0.00450
0.08619 0.16609 -0.32037
0.09014 0.16609 0.05743
0.01182 0.16609 -0.27150
0.16160 0.16609 0.33525
0.07091 0.16609 -0.26095
0.09940 0.16609 0.15869
-0.04006 0.16609 -0.19707
0.03086 0.16609 -0.25578
0.14066 0.16609 -0.23200
0.12757 0.16609 -0.03163
-0.07976 0.16609 -0.34811
0.08837 0.16609 0.14961
0.13718 0.16609 0.23864
0.00013 0.16609 -0.21706
0.10082 0.16609 -0.24386
0.13107 0.16609 -0.08485
0.09457 0.16609 -0.09887
0.04305 0.16609 -0.21433
0.09802 0.16609 0.10199
0.14242 0.16609 -0.05609
0.15627 0.16609 0.34925
0.06711 0.16609 -0.36776
-0.03650 0.16609 -0.11116
0.12582 0.16609 -0.10420
0.03429 0.16609 0.01647
0.06100 0.16609 -0.04289
0.03872 0.16609 -0.30641
0.14270 0.16609 -0.19474
0.10304 0.16609 0.13954
0.15142 0.16609 -0.05329
0.16005 0.16609 0.18768
-0.01137 0.16609 -0.24702
0.11364 0.16609 0.12848
0.12699 0.16609 0.22368
-0.11972 0.16609 -0.40078
0.08544 0.16609 -0.09597
-0.05174 0.16609 -0.35717
0.13170 0.16609 0.01685
0.13431 0.16609 -0.07957
0.14915 0.16609 -0.27778
0.05735 0.16609 -0.27542
0.11899 0.16609 0.19839
-0.08666 0.16609 -0.29596
0.11170 0.16609 0.17878
-0.03027 0.16609 -0.23657
0.05292 0.16609 -0.14702
0.08321 0.16609 -0.01731
0.13498 0.16609 -0.36245
0.00183 0.16609 -0.19465
0.02068 0.16609 -0.10259
-0.04362 0.16609 -0.28108
0.13007 0.16609 -0.35175
0.10430 0.16609 0.08203
-0.02217 0.16609 -0.39115
0.09199 0.16609 0.11746
-0.07325 0.16609 -0.36847
0.02871 0.16609 -0.36266
0.12535 0.16609 -0.01417
-0.03522 0.16609 -0.18788
-0.00741 0.16609 -0.05734
0.12479 0.16609 -0.22831
-0.11161 0.16609 -0.30865
-0.03588 0.16609 -0.22781
0.14016 0.16609 0.08132
0.09310 0.16609 -0.34628
0.08323 0.16609 -0.12285
0.00740 0.16609 -0.02523
0.08249 0.16609 0.18207
0.13897 0.16609 -0.38797
0.06181 0.16609 -0.22560
0.05040 0.16609 -0.08867
0.03225 0.16609 -0.23073
-0.07693 0.16609 -0.41446
0.10225 0.16609 -0.33420
0.13017 0.16609 0.05081
0.07609 0.16609 0.00134
0.07789 0.16609 0.15664
0.11262 0.16609 0.10540
0.12356 0.16609 0.27959
0.16640 0.16609 0.17697
0.04207 0.16609 0.06467
0.01101 -0.05039 -0.42007
-0.13139 -0.17006 0.42374
-0.01041 -0.16843 0.42211
-0.11679 0.14119 -0.31991
-0.00095 -0.01763 -0.41787
-0.11679 0.16227 0.30884
-0.11679 0.16341 0.20140
-0.11679 0.15974 0.28008
0.00700 -0.07404 0.42312
-0.00092 -0.08326 0.42312
-0.10817 0.14615 -0.07220
0.00440 0.04488 -0.41809
-0.01342 0.12544 -0.43078
-0.12989 0.12884 -0.43078
-0.02172 0.05640 -0.43078
0.00945 0.13012 -0.43078
-0.09932 -0.00231 -0.43078
-0.14731 0.01191 -0.43078
-0.10346 0.15870 -0.43078
-0.16562 -0.12244 -0.43078
-0.07778 -0.03857 -0.43078
-0.03288 0.02325 -0.43078
-0.07976 -0.07477 -0.43078
0.01231 0.05400 -0.43078
-0.02462 0.16288 -0.43078
0.00122 0.06640 -0.43078
-0.04946 0.09573 -0.43078
-0.13450 0.04824 -0.43078
-0.16064 0.07752 -0.43078
-0.16603 -0.05097 -0.43078
-0.09676 0.06972 -0.43078
-0.08371 0.09032 -0.43078
-0.12573 -0.00957 -0.43078
-0.12535 -0.09396 -0.43078
-0.14308 0.08434 -0.43078
0.01298 0.09353 -0.43078
-0.13340 -0.10402 -0.43078
-0.01129 0.04033 -0.43078
-0.17055 -0.10748 -0.43078
-0.03477 -0.02862 -0.43078
0.03392 0.06493 -0.43078
0.00030 0.04811 -0.43078
-0.03703 0.07494 -0.43078
-0.11519 0.08803 -0.43078
0.11419 0.16580 -0.43078
-0.07293 0.12978 -0.43078
-0.01050 0.00729 -0.43078
-0.08715 -0.06941 -0.43078
-0.15649 0.10769 -0.43078
-0.00781 0.13133 -0.43078
0.04964 0.06536 -0.43078
-0.15523 0.16750 -0.43078
0.01007 0.08642 -0.43078
-0.11059 0.02541 -0.43078
0.04258 0.15194 -0.43078
0.08416 0.14854 -0.43078
-0.05939 0.07795 -0.43078
-0.04793 0.04228 -0.43078
-0.14673 -0.09867 -0.43078
0.08271 0.16581 -0.43078
-0.05967 0.11870 -0.43078
0.14899 0.15546 -0.43078
0.02424 0.12972 -0.43078
-0.01101 0.09437 -0.41809
-0.08639 -0.00403 0.41737
-0.12403 -0.00156 0.41737
-0.13750 -0.07772 0.41737
-0.05504 -0.04632 0.41737
-0.09455 -0.03272 0.41737
-0.13261 0.06860 0.41737
-0.09635 -0.00947 0.41737
-0.04412 -0.08672 0.41737
-0.15546 0.12633 0.41737
-0.12284 -0.07967 0.41737
-0.13320 -0.15173 0.41737
-0.15360 -0.05562 0.41737
-0.11103 -0.06048 0.41737
-0.02673 -0.10884 0.41737
-0.12240 0.02553 0.41737
-0.15679 -0.13217 0.41737
-0.14824 -0.01210 0.41737
-0.11347 -0.10818 0.41737
-0.16842 0.04964 0.41737
-0.13230 0.09488 0.41737
-0.15080 0.04817 0.41737
-0.12044 0.06024 0.41737
-0.04755 0.14071 -0.41737
0.00805 -0.11532 0.41791
-0.10817 0.16269 0.24531
-0.10817 0.16173 0.17967
