0.22926 0.04280 0.02470
-0.15214 0.25330 -0.23813
0.23857 0.04660 0.03320
0.23756 -0.23882 0.03255
-0.22281 -0.25887 0.25607
-0.16970 0.10383 -0.28427
-0.16933 -0.07835 -0.28393
-0.22129 -0.25887 0.24123
-0.13073 0.23519 0.20695
0.11360 0.25330 0.17135
0.07992 0.23103 -0.16259
-0.18266 -0.15556 0.29049
-0.04174 0.22170 -0.19834
-0.17381 -0.16409 -0.23207
-0.22713 0.21990 0.23906
-0.22445 0.23592 -0.22899
-0.21975 -0.08979 0.23595
-0.22335 0.25032 0.29556
-0.22200 -0.01321 -0.27523
-0.22249 -0.06896 -0.27415
-0.15233 0.22743 0.25173
-0.12411 0.21990 0.20692
-0.15887 0.23275 0.28220
-0.21073 -0.11784 -0.23191
0.04673 0.22169 0.24086
-0.18395 -0.00594 -0.22749
-0.18359 0.09852 -0.22760
0.27841 -0.22757 -0.02004
0.27834 0.20217 -0.02010
0.18186 0.24703 0.12089
-0.24968 0.25330 0.12678
0.08314 0.25330 -0.19758
-0.21781 0.23511 -0.18631
-0.19829 0.25330 -0.22424
-0.20573 0.23184 0.30343
-0.16771 0.03572 -0.28227
-0.16735 0.05568 -0.28186
-0.21768 0.09462 -0.28157
-0.17422 0.10430 -0.28781
-0.25981 0.25330 -0.00833
-0.17061 0.25330 -0.21870
-0.17103 -0.10709 0.23945
-0.15992 -0.12541 -0.26762
-0.15943 0.19835 -0.26518
-0.29959 0.23111 0.02326
0.14985 0.22850 0.05036
-0.18171 0.20854 0.23073
-0.14783 0.24263 -0.25867
-0.28991 0.22924 -0.07017
0.13336 0.23103 0.10152
0.17620 0.25330 0.06216
0.22534 -0.15989 0.01780
0.22502 0.03418 0.01698
0.24204 -0.05263 0.03508
0.24131 -0.21720 0.03471
0.23760 0.04164 -0.02298
0.23926 -0.00130 -0.02405
-0.11035 0.25330 0.23124
0.24829 0.16467 0.03725
0.24602 -0.00418 0.03664
-0.29456 0.24197 -0.05337
-0.23392 0.24453 -0.24392
0.17941 0.25330 -0.07669
0.17942 0.25330 -0.01775
0.00923 0.21990 0.23556
0.15924 0.25330 0.15296
0.28594 0.25330 -0.00032
-0.17713 -0.13035 0.28718
-0.17661 0.20434 0.28677
-0.07047 0.23716 -0.25274
0.26756 -0.09262 0.03612
-0.26563 0.24514 0.02634
-0.19240 -0.25887 0.23319
-0.18923 0.25196 -0.16729
0.19304 0.25330 -0.03998
0.19487 0.25330 -0.02202
0.23113 -0.07048 -0.01740
0.23061 -0.13374 -0.01676
-0.06762 0.23103 0.20343
0.28110 -0.25887 0.00741
-0.00078 0.23371 0.25399
0.20599 0.22769 0.05454
-0.18636 -0.04188 -0.22699
-0.17377 0.07949 0.23643
-0.17202 0.21500 0.23821
-0.20294 -0.11821 0.22753
-0.07570 0.24694 0.25604
0.01231 0.25330 -0.07102
0.01949 0.25330 0.08584
0.01715 0.25330 -0.04548
0.01945 0.25330 -0.01570
0.02479 0.25330 -0.20063
0.01911 0.25330 -0.08120
0.01916 0.25330 0.12319
0.01661 0.25330 0.11219
-0.18269 -0.22340 0.23022
-0.18308 0.00492 0.23002
0.15879 0.23103 -0.07672
-0.17168 -0.13762 -0.28598
-0.17630 -0.22771 -0.28905
-0.17636 -0.08083 -0.28908
-0.13874 0.21990 -0.18907
-0.21981 0.21990 -0.15825
-0.24130 0.24551 -0.10168
0.24618 0.25330 -0.02992
-0.15943 -0.21337 -0.26516
0.26088 -0.25887 0.02152
0.27949 -0.17616 0.02856
0.27955 -0.10854 0.02850
0.05459 0.24222 -0.19725
0.23004 -0.07694 0.02565
0.00571 0.25330 0.25096
-0.10215 0.24860 0.21681
-0.03607 0.21990 0.20319
0.27443 0.04346 -0.02306
0.27519 -0.01019 -0.02256
-0.14647 0.21990 -0.19077
-0.21682 0.23103 0.12742
-0.14847 0.23361 -0.26693
0.17494 0.21990 0.08234
0.16901 0.21990 -0.06561
0.17472 0.21990 -0.09081
0.17201 0.21990 -0.11381
-0.16766 -0.14916 0.24448
0.17704 0.23877 0.13014
0.08401 0.23103 0.16561
0.22313 -0.14197 -0.00041
0.22338 -0.15000 -0.00201
-0.16095 -0.21325 -0.24861
-0.16095 0.02852 -0.24861
-0.22199 0.21926 -0.27525
-0.23278 0.22508 0.28594
-0.23674 0.21990 -0.07669
-0.13260 0.23103 -0.18812
0.08853 0.23137 0.18016
-0.00811 0.23103 0.20370
-0.22393 -0.17920 -0.27063
-0.22412 -0.14144 -0.27004
-0.21158 -0.12818 0.29040
0.27421 0.25330 0.03011
-0.28293 0.24025 0.09458
0.00556 0.21990 -0.24753
-0.15252 0.21990 -0.24237
-0.06924 0.21990 -0.19727
-0.06906 0.21990 -0.23821
-0.22312 0.03061 0.28114
-0.03173 0.23373 0.25738
-0.20930 0.09643 0.29139
-0.15917 -0.06209 -0.26294
0.23744 -0.13198 -0.02287
0.23700 -0.22072 -0.02259
-0.16542 0.25330 0.00944
-0.15977 0.25330 -0.13537
-0.15664 0.25330 -0.06426
-0.15708 0.25330 -0.18813
-0.15559 0.25330 -0.07468
-0.15732 0.25330 0.04738
-0.15991 0.25330 -0.03664
0.11726 0.25315 -0.15061
-0.16891 -0.03969 0.24240
-0.16845 -0.19105 0.24313
-0.10847 0.21990 -0.18887
-0.15915 0.04110 -0.25674
-0.19470 0.25330 0.22549
-0.18272 0.16852 0.29052
0.03071 0.22606 0.18761
-0.08721 0.22123 -0.25025
-0.22333 -0.20618 -0.24734
-0.22368 0.08215 -0.24816
-0.17368 0.23006 0.29757
0.11594 0.25330 0.03449
0.12163 0.25330 -0.11266
0.11707 0.25330 -0.08117
0.12051 0.25330 -0.08571
0.25443 0.25330 0.00722
-0.16379 -0.25220 0.25699
-0.16411 -0.23531 0.25484
-0.16017 0.00488 -0.25098
-0.24008 0.22972 0.04482
0.24905 0.03384 0.03745
-0.01952 0.24250 -0.25272
-0.21833 0.08254 -0.23880
-0.21699 -0.10555 -0.23728
-0.16604 0.21553 0.24796
-0.20533 -0.01402 0.29268
-0.20453 -0.14085 0.29291
-0.19664 0.05185 0.22698
-0.19634 -0.20739 0.22700
-0.17863 0.12646 -0.22940
-0.18059 0.15456 -0.22856
0.06672 0.25330 -0.06621
0.06382 0.25330 -0.02065
0.05901 0.25330 -0.00759
0.06031 0.25330 0.05421
0.06486 0.25330 -0.09643
0.05540 0.25330 -0.10247
-0.10239 0.22324 0.25131
-0.15794 0.23103 0.17086
-0.20545 0.12474 -0.22910
-0.20566 0.17257 -0.22920
0.00875 0.21990 -0.20109
-0.16623 -0.13688 0.24744
-0.16625 -0.06992 0.24739
0.28588 -0.12174 0.01977
-0.22238 0.14025 -0.24515
0.12058 0.25034 0.19740
-0.02001 0.25055 0.25686
0.19837 0.25104 -0.07858
0.22353 -0.21046 0.01221
0.22362 -0.19529 0.01255
-0.00793 0.25330 -0.22764
-0.20291 -0.25887 0.27837
-0.22574 -0.17321 -0.25886
0.28310 0.21990 0.03349
-0.16368 0.17632 0.26178
-0.16395 -0.09045 0.25593
-0.16414 -0.18787 0.25462
-0.16333 0.11710 -0.27621
-0.16284 0.19993 -0.27533
-0.22496 0.11719 -0.25265
-0.22482 0.13939 -0.25196
0.19813 0.23903 0.08372
0.18082 0.24027 -0.11921
-0.16526 -0.00216 0.25005
-0.16531 0.00672 0.24993
-0.16886 0.21990 -0.19110
-0.16473 0.21990 -0.21680
-0.06019 0.24165 -0.22007
-0.17125 0.12832 -0.23395
-0.19462 -0.25857 -0.29310
-0.19709 0.04932 -0.29286
0.27278 0.13825 0.03372
0.27519 0.15882 0.03216
0.00569 0.25330 0.04637
0.01232 0.25330 0.16670
0.01499 0.25330 0.20380
0.00951 0.25330 0.18861
0.00097 0.25330 0.15409
0.01018 0.25330 0.12395
0.00179 0.25330 0.08384
-0.17928 0.24427 0.30059
-0.21094 0.21990 0.17361
0.22303 -0.01426 0.00022
-0.21995 -0.17713 0.23614
-0.22145 -0.10364 0.23762
-0.16146 0.02579 -0.27235
-0.16149 -0.14694 -0.27242
-0.17969 -0.02602 0.28889
0.14402 0.21990 -0.06665
-0.23241 0.22951 0.23431
-0.17181 -0.09801 0.28225
-0.17056 -0.17813 0.28073
0.27668 0.12834 0.03103
0.27594 -0.06392 0.03164
-0.22970 -0.06135 0.25361
-0.14573 0.24914 -0.25061
0.02101 0.21990 -0.19502
-0.27645 0.25330 0.09945
-0.27224 0.25330 0.07665
-0.21333 0.23901 -0.22033
-0.18352 -0.01413 -0.29200
0.03850 0.25330 0.19639
0.02531 0.25330 0.01496
0.02424 0.25330 0.06967
0.02899 0.25330 0.08747
0.03038 0.25330 0.04364
0.03289 0.25330 0.20005
0.02999 0.25330 0.06803
0.03152 0.25330 -0.00871
0.02840 0.25330 0.19620
-0.17395 0.23103 0.16541
0.25024 -0.25117 -0.02805
0.25124 -0.12676 -0.02821
0.26537 0.10630 -0.02724
-0.23420 0.22678 -0.27499
-0.18034 0.00834 -0.22867
-0.04235 0.25330 0.23793
0.26376 -0.16608 0.03727
-0.18921 0.16420 -0.29302
-0.18772 -0.03405 -0.29284
-0.18335 0.17913 -0.22767
-0.22129 -0.13329 -0.24317
-0.22189 -0.19549 -0.24424
0.16942 0.23103 0.03161
-0.23608 0.23168 0.11499
0.28809 -0.00315 -0.00459
0.28797 0.08651 -0.00507
-0.27361 0.21994 -0.11184
-0.16860 0.15151 0.24289
-0.16888 0.13428 0.24244
0.25796 0.04817 -0.02851
0.19894 0.24494 -0.07706
-0.16372 -0.22709 0.25821
-0.16367 -0.05417 0.25929
0.23001 -0.02064 -0.01603
0.04817 0.21990 0.19635
-0.24961 0.25080 -0.15133
0.25639 0.15714 0.03818
0.25824 0.18671 0.03809
-0.10343 0.25330 0.18686
-0.10711 0.25330 0.01606
-0.10948 0.25330 -0.10317
-0.11243 0.25330 0.00104
-0.09943 0.25330 0.16355
-0.10298 0.25330 0.09791
-0.10859 0.25330 0.07597
-0.21581 0.21990 0.22372
-0.21349 0.22288 -0.19038
0.16108 0.25330 0.05334
0.15799 0.25330 0.08616
-0.21610 -0.18248 0.23298
-0.21555 0.01552 0.23263
0.25194 0.01020 -0.02832
0.25235 -0.02083 -0.02839
0.26036 -0.11737 0.03789
0.09277 0.21990 0.16479
-0.17675 0.25330 -0.25093
-0.17572 0.25330 -0.22234
-0.16910 -0.01417 0.27864
-0.16856 0.16145 0.27783
0.18980 0.21990 -0.01898
0.19112 0.21990 -0.08031
0.24319 -0.25887 -0.00219
-0.19524 -0.25887 0.24541
-0.21716 -0.19783 0.23378
-0.21893 -0.02248 0.23519
-0.17315 -0.23430 0.28369
-0.17270 0.12448 0.28325
-0.23675 0.21990 0.15180
-0.23815 0.21990 0.09344
0.23228 -0.00080 -0.01859
-0.14679 0.23103 -0.17485
-0.10463 0.25330 -0.22239
0.04653 0.23356 0.24093
0.28946 -0.09101 0.00518
0.28351 0.15771 0.02379
0.27818 -0.23605 -0.02022
-0.21745 0.25330 0.15462
-0.16554 0.09466 -0.23999
-0.16614 0.12525 -0.23918
-0.03448 0.22261 -0.25365
0.05143 0.25330 -0.23510
0.14319 0.25330 -0.14000
0.01166 0.25330 -0.03160
0.00001 0.25330 0.10027
0.00788 0.25330 -0.05637
0.00808 0.25330 0.05463
-0.00011 0.25330 0.16508
0.00677 0.25330 -0.08954
0.00077 0.25330 0.13460
0.01541 0.25330 0.21472
0.24256 -0.03488 -0.02575
0.14096 0.23103 0.10158
-0.28100 0.21990 -0.08473
-0.28083 0.21990 0.04834
0.22277 0.10410 0.00660
-0.18249 -0.10210 -0.22794
-0.13731 0.24909 -0.20018
0.23430 0.23095 -0.03404
0.22312 -0.21841 0.00995
0.22319 -0.09094 0.01039
-0.27354 0.24475 -0.11197
-0.10420 0.24552 -0.21240
0.28369 -0.22555 -0.01392
-0.20827 0.21990 -0.13768
-0.21147 0.24540 -0.29998
-0.20302 -0.17520 0.29319
-0.20137 -0.20670 0.29347
-0.21850 -0.14950 0.28589
-0.24109 0.21990 0.08172
0.22839 0.00677 -0.01381
0.22838 -0.11410 -0.01380
-0.24327 0.23103 -0.09198
0.07241 0.25330 -0.19861
0.08882 0.21990 -0.20032
0.05384 0.23103 0.19901
0.28924 0.00414 0.00863
-0.20124 -0.14908 0.29349
-0.20197 -0.06351 0.29336
0.22665 0.20582 0.02053
0.28222 0.01660 0.02551
0.28265 0.08869 0.02498
-0.16928 0.10988 0.27892
-0.16883 0.10325 0.27824
-0.23317 0.23103 -0.08807
-0.16820 0.25330 0.15386
-0.17133 0.25330 -0.12427
-0.16236 0.25330 0.16079
-0.17450 0.25330 0.16261
-0.17398 0.25330 -0.00670
-0.16567 0.25330 0.07675
-0.19229 0.25651 0.24909
-0.11349 0.24148 0.24822
-0.11847 0.25330 0.17318
-0.11939 0.25330 0.02591
-0.11093 0.25330 -0.18691
-0.11423 0.25330 -0.05170
-0.12001 0.25330 -0.00294
-0.11707 0.25330 0.04880
-0.12562 0.25330 -0.18959
-0.11498 0.25330 -0.06937
-0.22770 0.23725 0.22898
0.05091 0.23448 0.20281
0.15109 0.23372 -0.10440
-0.22717 -0.24511 0.24607
-0.22602 -0.15296 0.24387
-0.21226 -0.25887 0.28573
-0.16821 0.03552 0.27729
-0.16822 -0.19139 0.27730
0.22401 -0.05328 0.01402
-0.22713 0.01163 0.24600
0.28188 0.02992 0.02593
0.28229 0.19187 0.02543
-0.18712 -0.12916 0.22850
0.28045 -0.25887 0.01857
-0.16766 -0.19223 -0.23740
-0.07525 0.21990 0.23670
-0.18815 0.24629 0.17174
-0.17701 -0.25711 0.23363
0.11272 0.21990 0.19261
-0.18482 0.21990 0.21897
-0.22102 0.21990 -0.14537
0.09635 0.25330 -0.19088
0.17153 0.24976 0.05546
0.26773 0.14420 0.03605
0.26976 -0.00823 0.03526
0.26976 0.04764 0.03526
0.14686 0.23432 0.11554
0.03532 0.23410 0.20957
-0.16656 -0.18627 0.24669
-0.16675 0.04644 0.24630
0.14138 0.21990 0.08266
-0.16601 -0.02116 0.27270
-0.16593 -0.24509 0.27249
0.03221 0.25330 -0.08385
0.02858 0.25330 0.16204
0.02860 0.25330 -0.12479
0.03317 0.25330 0.14503
0.03093 0.25330 -0.08949
0.02910 0.25330 -0.13933
0.02913 0.25330 0.13117
0.02522 0.25330 0.02121
-0.16427 -0.00255 -0.24180
-0.16385 -0.03736 -0.24251
-0.23799 0.23250 0.27614
-0.06920 0.23164 0.22309
-0.22595 0.21990 -0.08789
0.03350 0.25330 0.21421
-0.21937 0.25190 -0.13573
-0.17375 -0.25199 0.23645
-0.17391 -0.18513 0.23629
-0.27058 0.23440 0.12173
0.16824 0.24489 -0.06343
-0.22281 -0.19617 0.28153
0.28953 0.21990 -0.01748
0.28633 -0.02061 -0.00929
-0.01223 0.23621 0.25570
-0.24078 0.23103 -0.04576
0.01468 0.21990 -0.20053
0.22676 0.16552 -0.01114
0.22600 0.18250 -0.00966
0.09751 0.25330 0.19847
0.16559 0.25330 -0.07152
-0.16731 -0.12048 -0.28181
-0.20947 -0.25887 0.26799
-0.15427 0.23480 -0.28276
0.03889 0.23103 0.18956
0.01680 0.21990 0.24924
-0.20011 -0.19093 0.22712
0.20616 0.25330 0.00380
-0.17258 -0.05947 -0.28665
0.25078 0.06490 0.03773
0.25066 0.20417 0.03771
-0.19075 -0.03009 -0.22645
-0.17648 0.19952 -0.28916
-0.17407 -0.11383 -0.28773
-0.18169 -0.00514 -0.29140
-0.18008 -0.14896 -0.29086
0.16844 0.23103 0.06425
-0.22394 -0.19523 -0.27059
-0.14398 0.23103 0.19477
-0.26667 0.24971 0.01366
0.17999 0.22670 -0.12087
-0.20357 -0.25887 -0.28945
-0.17744 -0.22665 0.28743
0.12071 0.23583 0.15091
0.28354 -0.07531 0.02375
0.28358 -0.21587 0.02368
0.03505 0.21990 0.23242
0.03326 0.21990 0.21367
-0.23539 0.23407 -0.11262
-0.22249 0.25330 0.10556
-0.21873 0.25330 0.08010
-0.22090 0.25330 -0.10390
-0.16559 0.21990 0.22447
-0.01753 0.21990 -0.24420
0.13401 0.23103 -0.09139
-0.20264 0.04695 0.29325
-0.20362 -0.03854 0.29309
-0.15901 0.04575 -0.26036
-0.15902 0.11414 -0.25967
0.16119 0.23392 0.08640
-0.25503 0.23007 0.14751
-0.22234 0.05525 0.23866
-0.22299 -0.23563 0.23944
-0.22872 -0.01689 0.27080
-0.22886 0.18466 0.27044
-0.19551 0.25330 -0.27849
0.24061 -0.19332 -0.02476
0.02377 0.22060 -0.24449
-0.03311 0.25329 0.22410
-0.22164 0.07043 -0.24378
0.02385 0.23012 0.24842
0.25861 0.02464 0.03807
-0.21423 -0.01206 0.28898
0.16964 0.25330 0.11822
-0.20613 0.21990 0.15248
-0.16282 0.23478 0.28792
-0.16986 -0.17219 -0.28442
-0.19132 0.23103 -0.14470
0.19734 0.25330 0.03764
0.07987 0.23630 -0.18237
-0.19331 -0.16410 0.22718
-0.17955 0.12589 -0.29062
0.23262 0.00368 0.02852
0.23353 0.17838 0.02943
0.14170 0.24468 0.17750
0.09213 0.22998 0.14818
-0.24466 0.23103 -0.03941
0.04745 0.21990 0.20388
-0.25101 0.24839 0.08503
0.13740 0.24446 -0.12627
-0.21103 0.25330 0.22664
0.16087 0.25330 -0.01415
-0.21532 -0.17690 -0.28405
-0.21334 -0.23814 -0.28579
0.05120 0.25096 0.23919
0.04098 0.21990 0.18805
0.27860 -0.13310 0.02945
0.27886 0.10301 0.02919
0.16351 0.25330 0.10514
-0.26622 0.25330 -0.02273
-0.22064 -0.16423 0.23683
-0.22026 -0.15830 0.23645
-0.19306 0.21209 -0.22645
-0.19384 0.14963 -0.22646
-0.03678 0.23079 0.20196
-0.22526 0.08387 -0.25414
0.20098 0.25330 -0.06325
-0.20231 -0.25887 0.27205
-0.19326 0.23103 0.14105
-0.16815 0.03753 0.24359
-0.21768 0.25330 0.27663
0.28376 0.10918 -0.01382
-0.19325 -0.25887 0.27063
-0.26087 0.21990 -0.04427
-0.26028 0.21990 -0.02667
-0.26011 0.21990 -0.06973
-0.25761 0.21990 -0.07930
0.23860 -0.11007 0.03323
0.23834 -0.13847 0.03305
-0.01218 0.21990 0.23141
-0.08484 0.23789 0.22065
-0.21079 -0.08881 0.29080
-0.21038 0.17666 0.29096
-0.26232 0.23474 0.04747
0.16718 0.22445 0.14542
-0.23032 0.07716 0.26217
-0.23033 0.16984 0.26210
-0.22107 0.25330 -0.16918
0.04991 0.25330 0.22530
0.23214 0.08257 -0.01844
-0.25878 0.25330 0.05101
-0.11249 0.21990 0.21173
0.23538 -0.18449 -0.02136
0.23406 0.14684 -0.02029
0.06895 0.25330 0.01740
0.06994 0.25330 0.18350
0.07707 0.25330 0.06085
0.06819 0.25330 0.03491
0.07597 0.25330 0.09772
0.07861 0.25330 0.15016
0.06979 0.25330 0.16198
-0.18005 0.25879 -0.25992
0.09771 0.24297 -0.16900
-0.20860 -0.18978 0.22909
-0.20898 -0.21424 0.22924
0.21019 0.23074 -0.03937
-0.22090 -0.11108 0.28365
0.09561 0.21990 -0.21072
0.10017 0.21990 -0.17037
0.08736 0.21990 -0.15293
0.01489 0.25330 -0.21720
-0.24151 0.24687 0.16513
-0.20202 0.25330 0.28399
-0.15978 -0.08062 -0.26689
-0.19128 -0.04180 -0.29315
-0.19159 0.05187 -0.29315
0.24136 0.10456 0.03474
0.24020 0.14980 0.03415
-0.02542 0.22227 -0.19731
0.28662 0.00336 -0.00870
0.17537 0.24837 -0.03137
0.03693 0.25221 0.24451
0.04797 0.21990 -0.20317
-0.22765 0.15398 0.27367
-0.16290 0.21990 -0.22253
-0.23138 0.21990 0.27617
-0.20838 -0.07336 -0.28907
-0.17509 0.25330 -0.24358
0.16651 0.25330 0.12300
-0.16336 0.21990 0.24232
-0.17541 0.22920 -0.14979
0.27576 0.11305 -0.02218
0.27634 -0.13698 -0.02171
-0.22539 0.21990 0.08982
-0.24799 0.25330 0.07614
-0.24739 0.25330 0.05623
0.06550 0.21990 0.23033
0.05974 0.21990 0.22678
0.24696 0.09093 -0.02729
0.24901 -0.08107 -0.02784
-0.12816 0.23594 -0.24062
-0.22773 0.19971 0.24734
-0.21193 -0.25887 -0.25385
-0.16682 0.25330 -0.29428
-0.12609 0.25330 -0.20568
-0.27059 0.25330 0.08616
-0.27746 0.25330 -0.01807
-0.26896 0.25330 0.11852
-0.13123 0.25330 0.21062
-0.05001 0.21990 0.20901
-0.17356 0.23103 0.17871
0.28705 -0.05892 0.01718
-0.04338 0.24700 -0.25406
0.28892 -0.00990 -0.00107
0.21659 0.25330 -0.01317
-0.26601 0.23861 -0.01832
0.19898 0.22750 0.08079
-0.23233 0.25330 -0.09416
-0.22674 0.25330 -0.03818
-0.03173 0.22552 -0.19779
0.15570 0.25330 0.10460
-0.19616 0.12250 -0.22666
-0.22168 0.25330 0.26096
-0.16362 0.01719 0.26050
0.20104 0.25330 0.03299
-0.20569 -0.01523 0.22816
-0.20543 -0.05446 0.22810
0.15465 0.22082 0.02211
0.21836 0.23908 0.04061
-0.23031 -0.06621 0.25839
0.10472 0.25330 -0.19254
-0.18181 0.25330 0.11288
-0.19192 0.25330 0.14439
-0.18930 0.25330 0.12610
-0.18771 0.25330 0.05175
-0.18983 0.25330 -0.14805
-0.18776 0.25330 -0.02649
0.27992 -0.21404 -0.01853
0.27936 -0.08803 -0.01909
0.23239 -0.00663 -0.01869
0.12831 0.23103 0.13549
-0.20760 0.25624 0.27116
-0.16731 -0.11628 0.24518
-0.22198 -0.13473 -0.27528
-0.22271 -0.10429 -0.27367
0.26689 0.06007 0.03638
0.06346 0.21990 -0.19160
-0.20943 0.23103 0.12773
0.12139 0.25330 -0.18518
0.15212 0.24378 0.16545
-0.21402 0.22499 -0.29871
-0.22552 -0.05603 -0.26358
-0.16592 0.18663 0.27245
-0.16603 0.02023 0.27274
-0.22660 -0.05631 0.27578
0.22977 0.08842 0.02532
-0.21589 -0.03561 -0.28352
-0.17549 0.15541 -0.23103
-0.20567 0.25330 0.07909
-0.20918 0.25330 0.00360
-0.20842 0.25330 0.06379
-0.20909 0.25330 0.10641
0.07279 0.24309 0.22922
-0.24204 0.22224 -0.03060
0.09924 0.23599 0.17191
-0.05874 0.21990 -0.25307
0.26756 0.25330 -0.03680
-0.21849 0.00211 0.28590
-0.17273 -0.25887 -0.24399
-0.20037 0.21990 0.13182
-0.18365 0.25330 0.20833
-0.21051 0.03808 -0.28784
-0.07874 0.23103 0.20902
-0.20461 0.21990 -0.20932
-0.06665 0.25330 -0.15019
-0.08385 0.25330 -0.16372
-0.07266 0.25330 0.06050
-0.06430 0.25330 -0.20706
-0.07673 0.25330 -0.09991
-0.06873 0.25330 -0.16931
-0.08244 0.25330 -0.18351
0.12776 0.25330 0.05112
0.12468 0.25330 0.13390
0.12399 0.25330 -0.09130
0.12346 0.25330 0.04042
0.12558 0.25330 -0.06308
-0.17608 -0.20698 -0.28892
-0.17457 -0.23632 -0.28803
0.15757 0.23041 -0.15477
0.06812 0.23751 -0.18994
0.28881 -0.00962 0.01133
0.28882 0.08496 0.01129
0.10322 0.23885 -0.20692
-0.21191 -0.05977 -0.28684
-0.11442 0.23103 0.20906
-0.09000 0.21990 0.22284
-0.21674 0.25330 -0.23970
-0.27694 0.24074 -0.10546
-0.02865 0.25330 -0.25264
0.02873 0.23068 -0.18432
-0.00345 0.25330 0.17774
-0.00866 0.25330 -0.02683
-0.00220 0.25330 0.02414
-0.00514 0.25330 -0.08231
0.00422 0.25330 -0.18081
0.00414 0.25330 -0.21166
-0.01181 0.25330 -0.16321
-0.00220 0.25330 0.10771
-0.00779 0.25330 -0.10156
-0.17998 0.21990 -0.22879
-0.21743 0.06128 0.23399
-0.18221 0.01852 -0.29158
-0.18264 -0.20190 -0.29172
0.24881 0.05304 0.03739
0.28016 0.10139 -0.01829
-0.18134 -0.03211 -0.22830
-0.18289 -0.16703 -0.22782
-0.17831 -0.25887 -0.25308
-0.23162 0.25266 -0.11843
-0.25338 0.25330 -0.06442
0.06619 0.23103 0.19242
-0.06230 0.24892 -0.25325
-0.22677 0.25138 0.12978
-0.25587 0.24671 -0.14208
-0.23767 0.25130 0.24381
-0.22550 -0.15380 -0.25580
-0.22334 0.23103 0.09212
0.28865 -0.22176 -0.00250
-0.18755 -0.23470 -0.22675
-0.04284 0.24728 0.25785
0.07680 0.22093 -0.15753
-0.16381 -0.06714 0.26401
-0.16376 -0.01864 0.26314
0.08178 0.25330 -0.15153
0.08319 0.25330 -0.08299
0.08240 0.25330 0.00290
0.08346 0.25330 -0.01997
0.07579 0.25330 -0.17628
0.07593 0.25330 -0.04561
-0.21702 -0.17968 0.28711
0.13754 0.21990 0.17299
0.13408 0.21990 0.17889
-0.19660 -0.23873 0.29374
-0.19476 -0.15696 0.29367
-0.14803 0.25330 -0.21435
-0.19135 -0.13571 -0.29315
0.13246 0.22170 -0.09183
-0.22553 -0.17853 -0.25610
-0.21646 -0.08410 0.28750
-0.21654 0.11836 0.28745
0.06918 0.22992 -0.22716
-0.26966 0.24689 0.12357
0.26005 -0.08785 0.03794
0.26253 0.18030 0.03755
-0.24556 0.23103 0.07961
0.02800 0.21990 -0.19054
0.16061 0.21990 -0.06967
0.18574 0.25330 -0.00921
0.18680 0.25330 -0.10620
0.18863 0.25330 0.06368
-0.20346 -0.23059 -0.29129
-0.20382 -0.05886 -0.29117
0.27488 0.08928 0.03236
0.27532 0.20544 0.03208
0.14684 0.23103 -0.09000
-0.03291 0.21990 0.25437
-0.02783 0.21990 0.20866
0.18533 0.25330 0.03187
0.18800 0.25330 -0.06490
-0.26604 0.25330 0.10087
-0.16500 -0.16551 -0.27886
-0.14543 0.21990 0.20742
-0.15099 0.23103 0.17737
-0.14139 0.23787 0.20239
0.10880 0.23915 -0.15949
0.24083 -0.15629 -0.02487
-0.20474 0.07747 0.29285
-0.20538 -0.07399 0.29267
-0.18236 0.19211 0.29034
-0.18368 -0.10414 0.29100
-0.16390 -0.18160 0.26463
-0.15950 -0.10463 -0.26553
0.24605 0.23002 0.04817
-0.18565 -0.25887 0.27112
-0.03318 0.21990 0.23065
-0.22007 0.24339 -0.29460
-0.13431 0.25330 0.00949
-0.12570 0.25330 0.02831
-0.12868 0.25330 0.09319
-0.12844 0.25330 0.07986
-0.13075 0.25330 -0.16798
-0.12782 0.25330 0.11857
-0.13787 0.25330 0.17553
-0.13564 0.25330 0.11447
-0.01090 0.25330 -0.22240
0.01596 0.21990 -0.23058
0.01440 0.21990 -0.23679
0.16749 0.25330 -0.02918
0.18495 0.25330 0.08128
-0.17941 -0.20246 0.28871
-0.23657 0.24574 -0.26521
0.07420 0.23103 0.16988
0.24525 -0.00352 -0.02678
0.24561 -0.23076 -0.02691
0.28940 -0.13499 0.00629
0.28932 0.10928 0.00781
0.28556 0.03052 -0.01081
0.28583 0.05197 -0.01028
-0.28688 0.25330 -0.05243
-0.28759 0.25330 -0.00982
-0.28230 0.25330 0.06017
-0.19762 -0.17802 0.29376
-0.20589 0.24207 -0.20652
-0.18464 0.25330 0.29211
-0.10737 0.21990 -0.19665
0.22812 -0.20047 -0.01340
0.22768 -0.17441 -0.01273
0.08643 0.23103 -0.15463
0.22382 -0.08272 -0.00372
-0.28024 0.24989 -0.09743
-0.20552 0.00102 -0.29046
-0.20430 -0.10354 -0.29099
-0.14133 0.22898 -0.24507
-0.10913 0.22418 -0.24549
0.29897 0.23413 0.01656
0.07646 0.21990 -0.19344
0.08213 0.25330 0.19468
-0.16442 -0.25646 0.25317
0.17249 0.23103 -0.02820
-0.26416 0.22208 -0.12958
0.25680 0.25330 0.04563
0.28583 0.15596 -0.01028
-0.21348 -0.04933 0.28941
-0.21354 0.20683 0.28937
-0.22286 0.20637 -0.27336
-0.22307 -0.01973 -0.27289
-0.16495 -0.06079 0.25110
-0.17779 -0.19709 0.23309
-0.17977 -0.15999 0.23178
-0.18122 0.25330 0.10346
-0.17919 0.25330 0.00448
-0.17980 0.25330 0.06123
-0.18066 0.25330 0.08326
-0.18491 0.25330 -0.07303
-0.00479 0.22002 -0.19423
-0.21625 0.25330 -0.18744
-0.18905 0.21990 0.21377
-0.15312 0.23465 0.25925
0.13919 0.24681 -0.17595
-0.30042 0.23218 0.00397
-0.18615 -0.18617 -0.29259
-0.18692 0.19717 -0.22687
0.11030 0.23701 0.16159
0.28801 0.04801 0.01450
0.01529 0.25330 -0.20161
0.00758 0.25330 -0.19901
0.01082 0.25330 -0.16717
0.02337 0.25330 -0.00556
0.02544 0.25330 -0.05896
0.01479 0.25330 -0.08587
0.01906 0.25330 0.16419
-0.22573 0.02441 -0.26072
-0.22571 -0.16756 -0.26181
0.25135 -0.10337 0.03782
0.30032 0.22710 0.00986
-0.21471 0.22003 -0.22126
0.03978 0.21990 -0.21330
-0.14189 0.21990 0.18285
-0.17092 -0.06975 0.28116
-0.18779 0.23103 0.16271
-0.13014 0.21990 -0.20156
0.23670 -0.06459 -0.02239
-0.22868 -0.23939 0.24977
-0.22909 -0.08269 0.25123
-0.16709 0.01861 0.24563
-0.16694 0.11063 0.24593
-0.20703 -0.05088 0.29221
-0.20694 -0.15167 0.29224
-0.23604 0.23232 -0.25106
-0.22989 0.02459 0.25478
-0.20167 0.12312 0.29342
-0.20306 0.18820 0.29318
-0.16350 -0.09881 -0.27650
0.27070 0.25330 0.00969
-0.25817 0.25330 0.07469
-0.14212 0.25330 -0.22228
-0.20819 0.22911 -0.19639
-0.19630 0.03095 -0.22668
-0.20277 0.21990 0.29707
0.15269 0.25330 0.07285
0.14679 0.25330 0.06923
-0.23034 -0.09305 0.26172
-0.23036 -0.02414 0.26126
0.23522 -0.19748 -0.02124
0.18354 0.22816 0.11767
-0.17916 0.21990 -0.21352
-0.18583 0.21990 -0.14228
-0.22689 -0.03403 0.27520
0.14427 0.25330 -0.03367
0.14521 0.25330 0.07814
0.28853 0.05551 0.01257
0.28839 0.14624 0.01309
-0.22836 0.22940 -0.07726
-0.01455 0.25330 0.07236
-0.02295 0.25330 0.17602
-0.00968 0.25330 0.03477
-0.01506 0.25330 -0.09204
-0.02543 0.25330 0.18854
-0.01050 0.25330 0.14489
-0.00878 0.25330 0.12305
-0.01550 0.25330 0.21415
-0.01826 0.25330 0.00566
-0.01590 0.25330 0.19149
-0.22085 0.10769 -0.27718
-0.22155 -0.04256 -0.27599
-0.16439 0.17689 0.26750
-0.16416 -0.14252 0.26616
-0.09331 0.25330 0.20167
-0.08102 0.25330 0.05299
-0.09254 0.25330 0.13305
-0.09052 0.25330 0.08914
-0.09257 0.25330 0.17472
-0.07816 0.25330 0.11560
-0.08788 0.25330 0.16058
-0.08608 0.25330 0.00902
-0.08249 0.25330 0.14708
0.22283 -0.22350 0.00187
0.25268 -0.15928 -0.02843
-0.24811 0.21990 -0.12776
0.22338 0.01824 -0.00200
0.22330 -0.09173 -0.00147
-0.21197 0.06841 -0.23280
-0.21207 0.20786 -0.23288
-0.18770 0.19986 -0.29284
-0.18699 -0.10701 -0.29276
-0.17961 -0.03652 -0.29065
-0.17921 -0.02564 -0.29046
0.07458 0.23103 0.17649
-0.17271 0.23752 0.18370
0.03650 0.23650 -0.24095
0.23261 -0.18629 0.02851
0.09760 0.21990 0.17186
0.08787 0.21990 0.21692
0.10117 0.21990 0.19887
-0.05431 0.24744 0.25757
0.28499 0.01382 -0.01193
0.28456 -0.06340 -0.01259
-0.22181 0.21990 0.09859
-0.23756 0.24025 0.11260
-0.19092 0.25330 -0.12597
-0.19628 0.25330 -0.08667
-0.20335 0.25330 -0.04676
-0.19420 0.25330 -0.13903
-0.19945 0.25330 -0.09173
-0.22166 -0.03196 -0.24383
-0.22190 0.08653 -0.24425
0.04336 0.24841 -0.20234
0.11442 0.25330 -0.18785
-0.22670 0.23263 -0.17759
0.09405 0.25330 0.14683
0.08691 0.25330 0.11881
0.08642 0.25330 0.00900
0.08346 0.25330 0.13560
0.08630 0.25330 0.05142
-0.29715 0.24116 0.04182
0.00227 0.25330 -0.23120
-0.20702 -0.13009 -0.28981
-0.20695 0.17447 -0.28984
-0.28110 0.25330 -0.08937
-0.22552 0.21749 -0.26359
-0.28144 0.25330 -0.06285
-0.28083 0.25330 -0.02494
-0.14915 0.21990 0.19928
-0.18527 0.05214 -0.22721
-0.18638 -0.11671 -0.22698
-0.22379 0.17701 0.24041
-0.22197 0.18886 0.23821
0.00551 0.23040 -0.19194
-0.22777 0.14970 0.24746
0.16179 0.25330 -0.14363
-0.19310 0.25330 0.29899
0.22504 -0.01476 -0.00743
0.22547 -0.23988 -0.00854
0.20031 0.25330 0.04837
-0.13515 0.22245 0.24157
-0.20068 0.23103 -0.13931
0.04726 0.22590 -0.17594
-0.22048 0.25086 0.13796
0.23492 0.03177 -0.02099
-0.21750 -0.18556 -0.28176
-0.04261 0.25330 0.25420
-0.20514 0.24796 -0.15218
-0.21013 -0.09358 0.22967
-0.21870 -0.22150 -0.23925
0.27639 0.22745 0.04437
-0.20594 0.17287 0.29251
0.24380 0.25788 0.00362
-0.19913 0.12127 -0.29247
-0.07000 0.21990 0.21150
-0.20582 -0.03987 0.22820
-0.20642 0.02613 0.22835
0.15944 0.25330 -0.06934
0.15796 0.25330 -0.04589
0.02901 0.23515 0.24709
0.17781 0.23132 -0.00224
0.15858 0.23103 0.00814
-0.16008 0.11186 -0.25136
-0.15904 -0.17269 -0.25824
0.15709 0.23897 0.09634
-0.23040 -0.16288 0.25990
-0.22162 0.12346 -0.24376
-0.22196 0.17377 -0.24436
0.27803 0.17979 0.02994
-0.25062 0.24786 0.15367
-0.26654 0.23381 0.01833
-0.29113 0.25330 -0.06051
-0.17360 0.21990 -0.22134
-0.16320 0.05419 -0.24360
-0.16282 -0.15687 -0.24425
-0.26355 0.22603 0.13412
-0.27628 0.21990 0.01378
-0.16586 0.10958 0.27231
0.18636 0.21990 0.08131
0.18320 0.21990 0.05466
-0.19629 -0.04817 -0.22668
-0.22280 -0.16275 0.28153
-0.22280 -0.17124 0.28153
0.03265 0.25166 -0.20676
0.00291 0.23103 -0.20436
-0.16262 -0.12458 -0.24466
0.22289 0.01312 0.00109
0.22300 0.06078 0.00042
0.00070 0.24384 -0.21584
-0.24766 0.21990 0.11381
-0.21415 0.25330 -0.27724
-0.21348 0.00437 -0.23393
-0.04697 0.21990 0.25637
0.23068 -0.12006 -0.01685
0.26780 -0.25887 -0.02299
-0.22402 -0.15448 -0.24922
-0.22525 0.25201 -0.12772
-0.15352 0.25330 0.06345
-0.14974 0.25330 0.01017
-0.15372 0.25330 0.17760
-0.15358 0.25330 0.15734
-0.14826 0.25330 0.08572
-0.14678 0.25330 0.19202
-0.15086 0.25330 0.15190
-0.21763 0.22709 -0.22318
0.15277 0.25330 -0.14807
-0.22233 -0.21568 0.23865
0.22400 -0.15320 0.01399
0.22350 -0.22422 0.01211
0.12394 0.23103 -0.12278
0.16832 0.21990 0.02391
0.16642 0.21990 -0.00636
0.25249 0.21990 -0.03748
-0.26834 0.25330 -0.00164
0.22438 -0.12071 -0.00572
0.22487 0.01224 -0.00697
-0.20054 0.25330 0.22584
-0.02318 0.23103 -0.20628
-0.05978 0.25330 0.22473
-0.24590 0.21990 0.01527
-0.22054 -0.25887 0.27141
0.15419 0.23103 0.03144
-0.18615 0.24153 -0.16967
-0.17212 0.15886 0.23811
0.22317 -0.02783 0.01029
0.22306 0.06127 0.00955
-0.16388 0.14315 0.26450
-0.16182 -0.13647 -0.24641
0.23577 0.00792 0.03128
0.23557 -0.15929 0.03112
-0.07572 0.21990 0.22113
-0.09349 0.25330 -0.24561
-0.20719 -0.22629 0.22857
-0.20081 0.02816 0.22722
-0.20282 0.19969 0.22751
0.00686 0.21990 0.19615
-0.16052 0.15910 -0.26969
-0.16098 0.07165 -0.27116
-0.23000 0.09876 0.26534
-0.22981 -0.06945 0.26662
0.12824 0.25330 -0.16159
-0.22942 -0.16971 0.25242
-0.22922 -0.22948 0.25171
-0.20966 0.24333 0.21301
0.27927 0.25330 -0.02140
-0.23089 0.21990 -0.07587
0.28851 0.18316 -0.00306
-0.15461 0.21990 -0.28033
0.25725 0.10548 -0.02854
0.28245 0.15381 -0.01564
0.28091 -0.00278 -0.01753
0.20405 0.23099 -0.05824
-0.17984 -0.07758 0.23174
-0.17954 -0.13428 0.23193
-0.24322 0.25330 -0.13275
-0.22907 0.25330 -0.15563
-0.19872 -0.24618 0.29369
-0.22551 0.21990 0.13985
-0.22515 0.21990 0.16367
0.04057 0.25330 -0.22586
-0.19011 -0.02235 0.29304
-0.20344 -0.19559 -0.22833
-0.20244 -0.02085 -0.22799
0.10909 0.25330 0.11357
0.10971 0.25330 -0.10044
0.10962 0.25330 0.12737
0.10598 0.25330 0.13955
0.10802 0.25330 0.15216
-0.17343 -0.25887 0.25598
-0.23026 -0.00480 0.26350
0.25173 0.25887 0.01622
-0.27018 0.25330 -0.07407
0.26763 0.13995 -0.02650
0.15262 0.25330 -0.12697
-0.21749 0.25330 0.26670
0.23414 0.02036 0.02996
0.23624 0.20524 0.03166
-0.20632 0.07046 -0.22950
-0.20759 0.14813 -0.23008
0.16497 0.23734 -0.14516
0.10683 0.21990 -0.13660
0.09899 0.21990 -0.17822
-0.23056 0.25330 -0.05785
-0.22458 0.25330 -0.08356
-0.23017 0.25330 -0.10253
-0.29129 0.21990 -0.00932
-0.19436 -0.25424 -0.22646
-0.18003 0.21990 0.19892
-0.22909 0.04430 0.25123
-0.00937 0.25330 0.08685
-0.00711 0.25330 0.18335
-0.01438 0.25330 -0.10849
-0.01438 0.25330 0.12382
-0.02220 0.25330 0.20040
-0.01415 0.25330 -0.05854
-0.02419 0.25330 0.16547
-0.00968 0.25330 0.05281
-0.01996 0.25330 0.02406
-0.00943 0.25330 0.20671
-0.20986 0.22966 0.19935
-0.21582 0.16950 -0.23604
-0.04966 0.21990 -0.24897
0.24508 0.06533 0.03631
-0.20823 0.07628 -0.28916
-0.20789 -0.03709 -0.28935
-0.26094 0.24721 -0.05038
-0.24207 0.22154 -0.16046
-0.29561 0.24826 -0.04709
-0.16952 -0.06952 0.24144
-0.15971 0.12643 -0.25304
-0.15971 -0.08230 -0.25302
-0.16999 -0.11066 -0.23507
-0.22905 0.23081 0.08004
-0.22441 -0.16876 -0.26918
-0.21168 0.23103 0.11441
0.17873 0.25330 -0.04525
0.22696 -0.09454 0.02114
0.22692 0.12194 0.02105
-0.06291 0.21990 0.22262
-0.16515 -0.06953 -0.27907
-0.29945 0.22706 -0.01919
0.17077 0.22317 -0.13606
-0.26517 0.23960 -0.02778
0.04454 0.22728 -0.23782
-0.22278 0.10773 0.23919
0.27614 0.23018 -0.03490
-0.16471 -0.17209 0.26872
-0.16482 -0.20763 0.26911
-0.17071 0.21990 0.20313
-0.29564 0.21990 0.03122
-0.22925 -0.25887 0.26036
-0.18634 0.09734 0.22873
-0.16414 0.19108 0.25462
-0.20877 -0.00597 0.29159
-0.22648 -0.24253 0.27604
-0.22674 -0.17707 0.27551
0.07845 0.24050 -0.22233
0.28924 0.00213 0.00097
-0.23002 0.01324 0.25550
-0.21232 0.25330 0.07884
-0.21615 0.25330 0.04244
-0.21744 0.25330 -0.07924
-0.21407 0.25330 0.05152
-0.21669 0.25330 -0.09670
-0.20628 0.15069 -0.29013
-0.24105 0.21990 -0.11967
-0.23577 0.21990 -0.13704
0.06570 0.21990 0.18483
0.22436 0.05190 -0.00566
0.19380 0.21990 -0.07151
0.17734 0.25330 -0.11405
-0.19803 0.21990 -0.14615
-0.19458 0.21990 -0.18390
-0.11196 0.24427 -0.21009
-0.22572 0.17533 -0.26143
-0.22574 0.13134 -0.25890
0.26992 0.00549 -0.02559
-0.12961 0.23273 -0.20381
-0.28489 0.22720 0.08933
0.22482 0.23670 0.03998
-0.24795 0.21990 0.09589
0.12829 0.22490 -0.09907
0.29624 0.23643 -0.01432
-0.16982 0.25330 -0.27239
0.28923 0.01992 0.00872
0.28921 0.09208 0.00882
-0.20758 -0.13874 0.22872
0.22346 -0.17173 -0.00238
0.22364 0.00415 -0.00304
0.17770 0.24915 -0.00639
-0.05459 0.25330 0.24632
0.12497 0.22625 -0.10448
-0.20783 -0.20582 -0.28939
0.04869 0.23419 -0.20015
0.23532 0.20269 -0.02132
0.23600 -0.01703 -0.02187
-0.05066 0.23103 0.20753
-0.06727 0.22580 0.20094
0.28779 -0.10047 -0.00567
0.11182 0.22762 -0.12303
-0.20020 0.25330 -0.21852
0.28462 -0.23494 0.02209
0.19085 0.23688 0.10215
0.17124 0.25330 -0.09542
-0.16400 -0.06614 -0.24226
-0.16428 -0.10205 -0.24178
0.14547 0.21990 0.09787
-0.07348 0.25330 -0.25049
-0.09164 0.23103 -0.21124
-0.11486 0.23103 -0.19325
-0.27514 0.21990 -0.06220
-0.26960 0.21990 -0.06889
-0.27098 0.22473 -0.11689
0.28935 -0.12787 0.00244
0.22922 -0.25887 0.01167
0.26789 -0.13844 0.03599
0.26875 -0.21097 0.03566
0.22464 -0.18334 0.01600
0.22454 -0.08185 0.01572
-0.17513 0.24106 0.29849
-0.29848 0.24245 0.03288
-0.20821 0.03288 0.29182
-0.20824 -0.25886 0.29180
-0.21221 0.25330 -0.25916
-0.20623 -0.04404 -0.29015
0.26348 0.25371 0.01834
-0.23791 0.25330 -0.14148
0.01950 0.23103 -0.19055
0.00349 0.23117 -0.21533
-0.21524 0.23003 -0.10298
0.18339 0.23063 -0.11404
0.10476 0.21990 0.15098
-0.28911 0.22492 0.07768
0.24384 -0.15721 0.03583
0.24489 0.00483 0.03624
-0.16441 0.17127 0.25323
-0.16509 -0.01858 0.25060
-0.16557 0.22427 0.29104
-0.15961 0.21808 -0.25349
-0.16228 0.22534 0.16390
-0.21781 0.17482 -0.23821
-0.25675 0.23848 -0.06462
0.17614 0.24823 0.03150
-0.17435 0.25330 -0.20598
-0.23033 0.08192 0.25873
-0.16620 -0.00726 -0.23911
-0.16559 -0.25463 -0.23993
0.00680 0.25330 0.23258
0.25647 0.09321 -0.02858
0.13926 0.25133 0.17989
-0.13622 0.24669 -0.24196
0.22763 -0.13095 0.02224
0.22751 0.10829 0.02206
-0.16334 0.01451 -0.27622
-0.22165 0.04372 -0.27583
-0.22071 0.17441 -0.27743
0.08103 0.22417 -0.22098
0.27844 0.05217 -0.02000
-0.22770 -0.22851 0.27354
-0.13151 0.21990 0.22549
-0.22972 -0.01161 0.26712
-0.22959 0.12718 0.26763
-0.21783 -0.11442 0.23431
-0.21863 -0.12917 0.23495
-0.22111 -0.25887 -0.27504
-0.17069 -0.08628 -0.28518
0.26870 0.21990 -0.02725
0.24934 0.25330 0.02971
-0.00056 0.25148 0.22011
0.22267 -0.00842 0.00476
0.22280 0.13720 0.00242
-0.26652 0.21990 -0.10139
-0.26704 0.21990 -0.01587
-0.26543 0.21990 -0.10839
0.22406 0.21011 0.01421
0.07032 0.22412 0.16611
-0.19953 0.25330 0.23383
-0.20147 0.25330 0.18271
-0.18564 -0.02163 -0.22713
-0.22863 0.21990 0.28492
-0.25708 0.21990 0.07112
-0.26692 0.21990 0.12586
-0.26276 0.21990 0.10892
-0.22187 0.24489 0.22418
-0.17774 -0.14664 0.23313
-0.03859 0.25330 0.17245
-0.03690 0.25330 0.13055
-0.03434 0.25330 -0.04005
-0.03736 0.25330 0.01908
-0.03879 0.25330 0.07363
-0.04798 0.25330 0.14727
-0.04081 0.25330 -0.10376
-0.04057 0.25330 0.12229
0.25217 -0.23439 -0.02836
-0.22055 0.25330 0.09170
-0.21565 0.25330 0.10281
-0.14271 0.25330 -0.23727
0.13374 0.21990 0.10068
-0.20382 0.09989 0.22768
0.28877 0.17962 0.01159
-0.03650 0.25330 0.25463
-0.23234 0.21990 0.09068
0.12649 0.22472 0.19243
-0.22502 -0.00885 -0.26666
-0.22515 0.13941 -0.26611
-0.00960 0.21990 0.20014
0.16684 0.23103 -0.02961
-0.23828 0.25330 0.04508
-0.23272 0.25330 0.07451
0.11367 0.24469 0.15838
0.22295 -0.16364 0.00891
-0.03353 0.25330 -0.22084
-0.19617 -0.25887 0.25505
0.05652 0.25330 0.20592
-0.16997 0.25330 0.20185
-0.19709 0.21990 -0.19130
-0.16498 0.19844 0.26970
-0.19927 0.25330 -0.28662
0.20261 0.21990 -0.00428
-0.17317 -0.25776 -0.28709
0.28373 0.21990 -0.02064
0.25157 -0.09077 0.03786
0.14311 0.25330 -0.16811
-0.09041 0.21990 -0.22950
-0.22307 0.24466 0.29577
-0.05251 0.21990 -0.21928
-0.22121 0.17512 0.28334
-0.22086 0.02447 0.28369
0.14034 0.25330 0.03374
0.13877 0.25330 0.01696
0.13919 0.25330 0.10068
0.28382 0.21990 -0.01452
-0.18389 0.17339 -0.29209
-0.23226 0.25276 0.17578
-0.23044 0.21990 -0.25623
0.26891 -0.06003 -0.02600
0.24572 0.25830 -0.00170
-0.29960 0.24523 0.02312
0.23930 -0.25887 0.00481
-0.03793 0.25330 -0.19375
-0.03504 0.25330 -0.21488
-0.02569 0.25330 0.10819
-0.03240 0.25330 -0.10654
-0.01942 0.25330 -0.11276
-0.02175 0.25330 -0.17784
-0.02624 0.25330 -0.02955
-0.02977 0.25330 0.09632
-0.02303 0.25330 -0.18616
-0.02818 0.25330 0.13243
-0.10908 0.25330 0.18748
-0.09939 0.25330 0.15024
-0.10125 0.25330 0.12404
-0.10413 0.25330 0.11102
-0.10099 0.25330 0.13100
-0.11275 0.25330 0.02851
-0.10815 0.25330 -0.11352
-0.11453 0.25330 0.16084
-0.10786 0.25330 -0.01786
-0.06254 0.25330 0.19690
-0.06444 0.25330 0.01099
-0.05809 0.25330 0.20931
-0.05584 0.25330 0.02614
-0.05557 0.25330 0.10767
-0.05033 0.25330 0.21988
-0.06099 0.25330 0.14753
-0.06518 0.25330 0.09436
-0.06069 0.25330 0.04124
-0.05888 0.25330 0.08703
-0.22768 0.03187 0.24722
-0.23682 0.23624 -0.25814
0.23227 0.03953 -0.01857
0.23313 -0.05401 -0.01943
-0.19928 0.10823 0.29365
-0.19115 -0.25887 -0.23605
-0.22557 0.23481 -0.12727
-0.15924 0.04934 -0.25597
-0.15915 -0.02911 -0.25675
0.25291 0.06518 -0.02844
0.28997 0.22111 -0.02403
-0.19063 0.25330 -0.03474
-0.18880 0.25330 0.10611
-0.19647 0.25330 0.12742
-0.18969 0.25330 0.00336
-0.19496 0.25330 0.11031
-0.18702 -0.16483 0.29225
-0.20374 0.25609 -0.26967
-0.24818 0.23103 0.04131
-0.19425 0.25330 -0.20182
-0.19106 0.25330 -0.19000
-0.22400 -0.00205 -0.24916
0.12671 0.23103 -0.13330
0.02488 0.23103 0.19757
-0.20182 0.25330 -0.17499
-0.25000 0.21990 0.07042
-0.25203 0.21990 0.03685
0.28247 -0.12915 -0.01561
0.28242 -0.23252 -0.01567
0.02738 0.25330 -0.23585
-0.21965 0.23103 0.13820
-0.16106 -0.01601 -0.24829
-0.23038 0.02252 0.26081
-0.23041 -0.03079 0.26011
0.11606 0.23103 0.12452
-0.08540 0.23485 -0.21694
0.12775 0.23103 -0.10998
-0.19256 -0.22411 0.22730
-0.22565 0.09834 -0.25736
-0.22463 0.23103 -0.08577
-0.15859 0.25330 -0.25894
-0.21745 0.10216 -0.28181
-0.18800 0.21990 -0.20436
0.13256 0.21990 -0.16739
0.13292 0.21990 -0.15558
0.26475 0.02803 0.03701
0.26374 -0.04581 0.03728
0.03473 0.21990 -0.23295
0.14976 0.21990 -0.07022
0.24573 -0.23764 -0.02696
0.24357 0.12644 -0.02613
-0.22504 0.01368 -0.25302
0.10273 0.25330 0.07339
0.09604 0.25330 -0.14085
0.10615 0.25330 -0.15170
0.09817 0.25330 -0.05047
-0.22955 0.10013 0.25290
0.05168 0.25330 -0.18976
0.05735 0.25330 -0.14962
0.06114 0.25330 -0.11842
0.06249 0.25330 -0.15725
0.06772 0.25330 -0.18299
-0.23946 0.21990 0.25139
-0.20851 -0.06219 -0.23059
0.28308 -0.24332 -0.01486
0.28298 -0.03468 -0.01497
0.18585 0.25068 0.11324
-0.21379 0.14915 -0.28539
-0.21356 0.10541 -0.28559
0.11999 0.21990 -0.11934
0.11374 0.21990 -0.18108
-0.03228 0.23103 -0.20878
0.19591 0.22286 0.08935
0.21197 0.24945 -0.03722
0.28677 -0.11503 0.01791
0.17686 0.23991 0.02327
-0.22812 -0.11833 0.27244
0.07859 0.21990 0.15980
-0.21202 0.21990 -0.15449
-0.22925 -0.13472 0.26894
-0.16450 -0.09823 0.25288
-0.01046 0.24852 0.22176
0.00557 0.23970 -0.24895
0.10317 0.25330 0.18740
0.29422 0.22340 -0.01811
-0.16868 -0.23365 -0.23629
0.21885 0.21990 -0.01919
-0.12545 0.25330 -0.22030
0.19236 0.21990 0.07885
0.19741 0.21990 0.07366
-0.03778 0.23103 -0.19928
0.03125 0.25330 0.23378
-0.18812 -0.08284 -0.29289
-0.23510 0.24197 -0.16890
0.14560 0.22323 -0.16941
-0.09125 0.25330 0.22313
-0.21146 -0.04185 0.23031
-0.12708 0.25330 -0.13647
-0.11826 0.25330 -0.17010
-0.12504 0.25330 -0.19670
-0.11700 0.25330 0.07996
-0.11989 0.25330 -0.09235
-0.11547 0.25330 -0.14583
-0.11096 0.25330 -0.20709
0.30057 0.24827 0.00443
-0.09755 0.25330 -0.00986
-0.10195 0.25330 -0.17392
-0.09078 0.25330 -0.18269
-0.09140 0.25330 0.00092
-0.09570 0.25330 0.05721
-0.09961 0.25330 -0.01509
-0.19838 0.19204 0.22705
-0.16912 0.25330 0.24970
0.04021 0.25330 -0.18502
0.03930 0.25330 0.06109
0.04386 0.25330 0.04178
0.04015 0.25330 -0.08039
0.04093 0.25330 0.12689
0.04516 0.25330 -0.09353
0.04469 0.25330 -0.02954
-0.12497 0.23103 -0.19062
-0.21705 0.16878 0.23369
-0.02016 0.25330 -0.23486
-0.24942 0.25330 -0.04194
0.08186 0.24669 -0.22055
-0.06137 0.24998 0.25714
0.14999 0.23880 0.16803
-0.19408 -0.17678 -0.29315
-0.19386 0.08209 -0.29317
-0.17097 0.03159 0.23953
-0.18183 0.23603 -0.17299
-0.05334 0.25330 -0.21781
-0.05607 0.25330 -0.05688
-0.05126 0.25330 0.13124
-0.05132 0.25330 0.15987
-0.05781 0.25330 -0.06865
-0.04922 0.25330 -0.00591
-0.04595 0.25330 -0.17513
-0.04657 0.25330 -0.06173
-0.04463 0.25330 -0.14229
0.12710 0.21990 0.11477
0.13759 0.23103 -0.08682
0.28119 -0.25887 0.02650
0.09444 0.23103 0.17157
-0.10262 0.21990 -0.20542
-0.22334 0.09274 -0.24738
-0.22307 -0.24624 -0.24675
-0.19671 0.07204 0.29375
-0.19545 0.08950 0.29369
0.07248 0.23103 -0.17937
0.12751 0.24625 0.14291
-0.21374 0.04950 0.23148
-0.26708 0.23532 -0.00434
0.04909 0.25330 0.02085
0.05771 0.25330 0.08661
0.04968 0.25330 0.00322
0.04432 0.25330 0.15196
0.06090 0.25330 0.16142
0.05234 0.25330 0.09401
0.05360 0.25330 -0.08503
0.05976 0.25330 0.17368
0.27966 0.16116 0.02838
0.28046 -0.04038 0.02759
-0.16412 0.23103 -0.17334
-0.18824 -0.22910 -0.29290
-0.19125 -0.25887 -0.25248
-0.26488 0.25330 -0.05717
-0.29563 0.24132 0.05209
-0.18648 -0.24948 0.22868
-0.23026 -0.14672 0.25755
-0.23022 -0.04993 0.25697
0.26482 0.04579 -0.02739
0.26476 0.02203 -0.02741
-0.20425 -0.25887 -0.28124
-0.03926 0.23974 0.22427
-0.15901 -0.20521 -0.26021
0.28554 -0.16717 0.02044
-0.23025 -0.16863 0.26366
-0.22992 -0.24989 0.26585
-0.17730 -0.01513 0.23342
-0.18785 0.25330 -0.23900
0.17486 0.21990 0.09103
0.17028 0.21990 -0.13031
-0.22401 0.04505 0.24074
0.11658 0.25330 0.15227
0.10674 0.25330 -0.00468
0.10054 0.25330 0.16576
0.10421 0.25330 0.03929
0.24092 0.25330 0.01929
-0.22907 -0.06276 0.26965
0.18269 0.25330 0.06210
0.25663 -0.25121 -0.02858
0.25746 -0.17397 -0.02853
-0.21887 -0.05639 -0.28008
-0.18411 0.21679 0.22960
-0.18465 -0.02940 0.22939
0.06221 0.23103 -0.18070
0.13357 0.23034 -0.18167
-0.22266 -0.04878 -0.24579
-0.22294 0.10634 -0.24645
-0.16947 -0.17266 0.27920
-0.18274 0.02023 0.23019
0.27275 -0.16280 -0.02414
0.27216 -0.09448 -0.02444
-0.09789 0.21990 -0.21888
0.28939 0.08131 0.00649
0.13227 0.25330 0.04562
0.12483 0.25330 -0.13916
0.13437 0.25330 -0.07527
-0.27825 0.22015 -0.10248
-0.21440 0.08459 -0.23474
-0.21410 -0.25168 -0.23446
-0.18420 0.25330 0.22643
-0.30054 0.24067 -0.00154
-0.21494 0.15721 -0.23524
-0.21581 -0.13837 -0.23604
-0.19667 0.23174 0.30430
-0.05504 0.22836 -0.25356
0.09233 0.23842 -0.17357
0.22531 0.06832 -0.00814
0.28155 0.05876 0.02634
0.01263 0.25330 0.22465
-0.16611 -0.23093 -0.28043
0.24667 0.01380 0.03681
0.24358 0.21990 -0.02756
-0.17479 0.09054 0.28530
-0.17422 -0.08698 0.28475
-0.19880 0.19763 -0.22706
0.27087 0.02111 0.03470
0.26973 0.03374 0.03528
0.27790 -0.14956 0.03004
0.27806 -0.08066 0.02992
-0.00731 0.24608 -0.25111
-0.16762 -0.13945 0.27616
-0.16761 -0.02917 0.27614
0.11018 0.24925 -0.15804
-0.17244 0.25330 0.19012
-0.17050 0.25330 0.23209
-0.14983 0.21990 -0.26350
0.23977 0.07257 0.03393
-0.22006 -0.17243 -0.27848
-0.21986 0.03584 -0.27874
0.05680 0.25330 0.04181
0.05177 0.25330 0.07716
0.05340 0.25330 0.16312
0.05274 0.25330 -0.04133
0.04864 0.25330 0.11980
0.05225 0.25330 0.17066
0.05548 0.25330 -0.03518
0.04522 0.25330 0.18446
0.25008 -0.11081 0.03762
-0.21504 -0.00750 -0.28430
0.17797 0.24853 0.00335
0.20665 0.25330 -0.02341
-0.24354 0.21990 0.15902
0.07158 0.25330 -0.21039
-0.17076 -0.17722 0.23979
-0.09449 0.22574 -0.19187
-0.06298 0.25330 0.06850
-0.06116 0.25330 -0.13740
-0.06415 0.25330 -0.06470
-0.06427 0.25330 0.03451
-0.05429 0.25330 0.21528
-0.06784 0.25330 0.12925
0.02087 0.23462 -0.24530
0.28193 0.03179 -0.01627
-0.21592 -0.15859 0.23287
-0.21479 -0.17199 0.23215
-0.25337 0.25330 0.06100
0.28920 -0.25642 0.00069
0.28900 -0.07756 -0.00056
-0.14239 0.21990 -0.23189
-0.28935 0.23199 0.07674
0.22807 -0.20110 0.02292
0.22737 -0.13690 0.02184
-0.27533 0.22196 0.11219
0.22277 0.19477 0.00294
0.22270 -0.06298 0.00428
0.19166 0.25330 -0.01660
-0.18434 -0.14434 0.22951
-0.18500 -0.08340 0.22925
0.02304 0.21990 0.20793
-0.16733 0.13056 -0.23776
0.22898 0.25330 0.03851
-0.10629 0.22944 -0.24622
-0.00910 0.25330 -0.05558
-0.00934 0.25330 -0.00351
-0.00618 0.25330 0.10265
-0.00331 0.25330 0.03659
-0.01144 0.25330 -0.14893
-0.00842 0.25330 0.01252
-0.00340 0.25330 -0.12105
0.26610 -0.23858 0.03665
0.26491 -0.19247 0.03697
-0.25377 0.25330 0.00834
-0.19066 0.03060 0.29315
0.16755 0.24084 0.06898
-0.07953 0.25330 0.09981
-0.08089 0.25330 0.14132
-0.08711 0.25330 0.06208
-0.08537 0.25330 0.04540
-0.08631 0.25330 -0.05432
-0.08777 0.25330 -0.02124
-0.19305 0.12805 0.22722
-0.19861 -0.20051 0.22706
-0.19994 -0.15657 0.22711
-0.07230 0.25330 -0.17938
-0.06961 0.25330 0.06566
-0.07179 0.25330 -0.06758
-0.07348 0.25330 0.07393
-0.07311 0.25330 0.19346
-0.07565 0.25330 -0.12349
-0.08457 0.25330 -0.19941
-0.18069 0.10303 0.28951
-0.18181 -0.16698 0.29007
-0.16539 -0.04763 -0.24019
0.26325 0.21990 0.03817
-0.09647 0.21990 0.21530
-0.06627 0.25320 -0.21949
0.26159 -0.00847 -0.02810
0.26214 -0.12267 -0.02802
0.26402 0.15444 0.03720
0.15532 0.23103 -0.04144
0.28122 0.24332 0.04152
-0.20389 0.21990 0.20935
-0.16833 -0.11128 -0.28296
-0.16702 0.09712 -0.28148
-0.22558 0.25330 -0.26485
-0.25927 0.21990 0.01022
-0.26595 0.21990 0.01439
-0.25804 0.21990 0.13221
0.17590 0.23245 0.03279
-0.25817 0.25330 -0.05663
0.23356 -0.03065 0.02946
0.01609 0.23103 0.20695
-0.11159 0.23251 0.21403
0.09593 0.21990 -0.14691
0.00783 0.22460 0.25255
0.23020 0.02940 0.02586
0.22921 0.18605 0.02463
-0.24289 0.25330 0.13416
0.24712 -0.20071 -0.02734
0.24631 -0.15375 -0.02712
-0.20582 -0.25771 -0.22927
-0.20509 0.06296 -0.22894
-0.19977 0.21990 -0.17562
-0.22898 0.21261 0.26997
0.13697 0.23536 0.18215
-0.16398 0.06463 0.25575
-0.16401 0.03146 0.25551
0.15939 0.21990 -0.03296
0.17220 0.23836 0.13785
-0.17693 -0.24800 0.23370
-0.17706 -0.21017 0.23359
0.28710 -0.09320 -0.00745
0.28764 -0.19736 -0.00604
0.15170 0.22519 -0.16216
0.17804 0.23109 0.00588
-0.19166 0.21990 -0.20904
-0.19461 0.21990 -0.16447
-0.21479 -0.23927 -0.23510
0.27148 0.18506 -0.02479
0.27111 0.08570 -0.02498
-0.23667 0.22870 -0.26403
-0.22271 0.24180 -0.22722
0.23647 -0.04794 0.03184
0.15425 0.25330 -0.04060
0.15641 0.25330 0.02068
-0.17340 0.21990 -0.18748
-0.08852 0.21990 -0.24486
-0.05038 0.25330 0.23349
0.09506 0.22545 0.21625
-0.20038 -0.24879 0.22715
-0.21396 -0.25100 0.28916
0.14614 0.25330 0.15987
0.00189 0.21990 0.22789
0.00348 0.21990 0.20583
0.27682 -0.16230 0.03093
-0.21541 0.08990 0.28820
-0.21849 0.21990 -0.09934
0.16654 0.21990 -0.05799
0.16509 0.21990 -0.00043
-0.23301 0.22203 0.06928
0.12958 0.21990 0.17036
-0.17332 0.03502 -0.23243
-0.17196 -0.25121 0.28243
0.24412 0.08211 0.03594
0.24352 -0.07753 0.03571
-0.19881 0.06185 -0.22706
-0.19857 -0.07748 -0.22701
-0.18742 0.21990 0.16300
0.18286 0.21990 0.03484
0.18270 0.21990 -0.00324
0.17810 0.21990 0.11834
-0.05225 0.25330 -0.22460
-0.23123 0.23103 -0.07052
0.24434 0.04358 0.03602
-0.26277 0.24192 0.04558
0.28860 -0.00322 0.01231
-0.24400 0.25330 0.01938
-0.24345 0.25330 0.01058
-0.19085 0.25292 -0.30427
0.19804 0.21990 0.04710
0.26527 0.25629 0.01256
-0.22946 0.25330 0.28826
0.13507 0.23787 -0.12930
-0.16143 -0.00770 -0.24725
0.29745 0.24260 0.02111
-0.03622 0.22866 -0.25376
-0.20928 0.02449 -0.23104
0.15803 0.23103 0.03794
0.28778 -0.20349 0.01530
-0.22170 -0.21388 0.28284
-0.24789 0.23103 -0.02960
-0.17186 -0.07830 0.23840
-0.17195 0.03805 0.23830
-0.23932 0.25330 -0.15627
0.26054 0.25887 -0.00407
-0.22470 0.21990 0.11864
-0.19915 -0.12039 -0.22714
0.07718 0.21990 0.18290
0.07323 0.21990 0.17088
-0.20985 -0.15009 -0.28824
-0.02725 0.22962 0.20156
-0.23225 0.21990 -0.16145
0.23730 -0.02014 0.03238
-0.19464 0.11210 -0.22648
-0.15936 -0.01378 -0.25491
-0.15939 -0.10765 -0.25467
-0.21901 -0.24713 -0.27989
-0.06107 0.25330 -0.17203
-0.05816 0.25330 -0.08864
-0.04821 0.25330 -0.02742
-0.04498 0.25330 -0.01867
-0.04920 0.25330 0.09909
-0.05022 0.25330 -0.16635
-0.05091 0.25330 -0.18567
-0.04606 0.25330 -0.08802
-0.04757 0.25330 -0.10626
-0.21102 0.25330 -0.00340
-0.20845 0.25330 -0.07691
-0.21755 0.25330 -0.01863
0.10573 0.22331 0.20919
-0.01612 0.21990 0.24283
-0.00482 0.21990 0.23663
-0.19130 -0.16888 -0.29315
-0.19239 -0.15217 -0.29316
-0.21165 0.25318 0.30180
0.28942 -0.05984 0.00371
-0.21247 0.14097 -0.28644
-0.21170 0.01542 -0.28700
0.10395 0.24961 -0.20644
0.22678 -0.10156 -0.01118
-0.20259 -0.08917 -0.22804
0.24772 0.25330 0.01262
0.27335 -0.18752 -0.02375
-0.17426 0.25330 0.21967
-0.17299 -0.14203 0.28354
-0.17418 -0.24421 0.28470
0.11696 0.23972 0.20027
-0.22047 -0.08339 -0.24175
-0.22039 -0.18868 -0.27797
-0.22070 -0.22908 -0.27744
-0.16381 0.07555 0.26391
-0.18890 0.04159 -0.22663
-0.19094 -0.23244 0.29320
-0.17020 -0.10471 0.28030
-0.18092 -0.18421 -0.29114
-0.21114 0.21990 -0.16146
-0.15918 0.15257 -0.26310
-0.22975 0.25330 0.25044
-0.11223 0.22680 -0.18639
-0.12641 0.21990 -0.21250
-0.20516 -0.25887 -0.26555
-0.22525 0.06522 -0.26567
0.08981 0.22520 -0.21581
-0.04028 0.23953 -0.22063
-0.16618 -0.15253 0.27313
-0.20615 -0.13252 -0.22942
-0.20511 -0.07660 -0.22895
