-0.27757 0.17900 0.23607
-0.00431 0.17900 0.23590
-0.05475 0.17900 0.04959
0.16444 0.17900 0.24206
-0.11951 0.17900 0.24255
0.05611 0.17900 0.18376
-0.21217 0.17900 0.20478
-0.01163 0.17900 0.06186
0.00584 0.17900 -0.00274
-0.00726 0.17900 0.23263
0.11499 0.17900 0.05138
0.11944 0.17900 -0.03103
0.03510 0.17900 -0.01000
0.14759 0.17900 0.13549
0.08215 0.17900 0.01635
-0.01419 0.17900 0.15976
0.02160 0.17900 0.22609
0.14054 0.17900 0.06870
0.15653 0.17900 0.19882
-0.30099 0.17900 0.26158
0.05703 0.17900 -0.06345
0.03210 0.17900 0.16583
0.18818 0.17900 0.05864
0.27540 0.17900 0.15998
0.11584 0.17900 0.17335
0.05776 0.17900 0.07499
0.28094 0.17900 0.22032
0.08468 0.17900 0.20041
0.13799 0.17900 0.25408
-0.07423 0.17900 0.21087
0.10375 0.17900 0.12385
0.30135 0.17900 0.17647
-0.01156 0.17900 0.22295
-0.16077 0.17900 0.15694
-0.14064 0.17900 0.10379
0.09529 0.17900 0.15730
-0.20598 0.17900 0.15541
0.04352 0.17900 0.03516
0.20474 0.17900 0.18038
0.19279 0.17900 0.15837
0.05160 0.17900 0.01748
0.17738 0.17900 0.22862
0.33606 0.17900 0.23474
-0.11417 0.17900 0.21599
0.16090 0.17900 0.02493
-0.08965 0.17900 0.09565
0.11444 0.17900 0.01475
-0.30319 0.17900 0.24575
0.20732 0.17900 0.24343
0.10565 0.17900 0.13897
-0.00840 0.17900 0.15426
0.33292 0.17900 0.22694
0.27963 0.17900 0.17832
0.15869 0.17900 0.20495
0.13656 0.17900 0.24768
-0.16510 0.17900 0.13066
0.17373 0.17900 0.19917
0.21327 0.17900 0.09683
-0.11304 0.17900 0.08441
-0.02959 0.17900 0.24725
0.13632 0.17900 0.22161
0.08056 0.17900 0.24370
0.25842 0.17900 0.22495
-0.14070 0.17900 0.15811
-0.22891 0.17900 0.18443
0.03747 0.17900 0.00511
0.23813 0.17900 0.14573
0.17617 0.17900 0.18586
-0.05019 0.17900 0.01739
0.07730 0.17900 0.06815
-0.26891 0.17900 0.24791
-0.02899 0.17900 0.15699
-0.12716 0.17900 0.12177
-0.15301 0.17900 0.14259
0.16916 0.17900 0.17644
0.20154 0.17900 0.25405
-0.26431 0.17900 0.24564
-0.21556 0.17900 0.21826
0.03084 0.17900 0.01111
-0.23541 0.17900 0.21505
-0.07247 0.17900 0.14356
0.19463 0.17900 0.10555
0.04707 0.17900 0.16927
0.09809 0.17900 0.07482
0.13782 0.17900 0.23588
0.13282 0.17900 0.11941
-0.00063 0.17900 -0.01545
0.08850 0.17900 0.09403
0.13958 0.17900 0.22838
0.13037 0.17900 0.13764
0.01440 0.17900 0.08270
-0.18142 0.17900 0.16306
-0.03048 0.17900 0.21657
0.14972 0.17900 0.12072
0.03653 0.17900 0.17486
-0.10013 0.17900 0.25126
-0.12962 0.17900 0.24602
0.14241 0.17900 0.01907
-0.02517 0.17900 0.08129
-0.03888 0.17900 0.07345
-0.16977 0.17900 0.16421
-0.09663 0.17900 0.09939
0.14676 0.17900 0.06849
-0.11335 0.17900 0.09312
-0.05554 0.17900 0.24846
-0.17916 0.17900 0.21435
-0.05037 0.17900 0.16668
-0.08922 0.17900 0.14505
0.06756 0.17900 0.20039
0.01353 0.17900 0.25111
0.32765 0.17900 0.22244
0.35374 0.17900 0.25480
0.30860 0.17900 0.20826
-0.08198 0.17900 0.08727
-0.04401 0.17900 0.10848
-0.04354 0.17900 0.25516
0.03989 0.17900 0.10280
0.24982 0.17900 0.12720
0.11052 0.17900 0.05609
-0.23315 -0.15900 -0.25625
-0.30879 -0.16467 -0.24485
-0.26210 -0.16117 -0.25475
-0.24333 -0.15976 -0.25628
0.35958 -0.07020 0.08710
0.33838 -0.05498 0.09288
0.33886 -0.15835 0.06508
-0.21654 -0.16073 -0.23488
0.35267 -0.12110 0.08081
-0.19702 -0.02477 -0.25620
-0.19042 0.06953 -0.24661
-0.20366 -0.01243 -0.25697
0.34094 0.01178 0.09868
-0.21099 -0.11617 -0.24015
0.34637 0.17005 0.09638
-0.22730 0.17900 0.07213
-0.25452 0.17900 0.12282
-0.08551 0.17900 -0.16125
-0.06586 0.17900 -0.18892
-0.26700 0.17900 0.14398
-0.07664 0.17900 -0.18953
-0.22792 0.17900 0.08024
-0.30935 0.17900 0.22024
-0.08343 0.17900 -0.19066
-0.15629 0.17900 -0.03447
-0.18224 0.17900 0.00119
-0.12205 0.17900 -0.11246
-0.15846 -0.16020 -0.23488
0.34149 -0.01425 0.09938
-0.04582 -0.17833 -0.25725
-0.04478 -0.17177 -0.25725
0.35794 0.09848 0.08439
0.33819 -0.17004 -0.00902
0.33819 -0.16349 0.02304
0.35671 -0.02409 0.08310
-0.19454 -0.04191 -0.25467
0.34740 -0.03815 0.08053
-0.10486 0.17005 -0.09764
-0.13164 0.17005 -0.05305
-0.18683 0.17005 0.04380
-0.27097 0.17005 0.16368
-0.13836 0.17005 -0.03555
-0.13654 0.17005 -0.06641
-0.08049 0.17005 -0.12469
-0.06557 0.17005 -0.14328
-0.08532 0.17005 -0.10614
-0.14255 0.17005 -0.02149
-0.07429 0.17005 -0.16877
-0.25943 0.17005 0.14304
-0.17232 0.17005 -0.00210
-0.12650 0.17005 -0.05013
-0.25265 0.17005 0.14237
-0.20127 -0.10143 -0.23491
-0.08198 -0.16534 -0.23694
-0.20756 -0.08174 -0.25542
-0.20438 -0.12009 -0.25688
0.34109 0.11980 0.09888
-0.04925 0.17900 -0.10396
-0.21713 0.17900 0.09928
-0.08042 0.17900 -0.08210
-0.08273 0.17900 -0.10636
-0.17956 0.17900 0.04442
-0.10194 0.17900 -0.07111
-0.09481 0.17900 -0.04633
-0.10871 0.17900 -0.03553
-0.29855 0.17900 0.21393
-0.12567 0.17900 -0.01025
-0.21795 0.17900 0.09399
-0.18481 0.17900 0.04636
-0.10123 0.17900 -0.04230
-0.17154 0.17900 0.05410
-0.13285 0.17900 -0.03338
-0.17214 0.17900 0.03461
-0.04602 0.17900 -0.11254
-0.07378 0.17900 -0.07604
0.35294 0.07446 0.08092
-0.17742 0.17900 0.08861
-0.02799 0.17900 -0.10444
-0.04402 0.17900 -0.10535
-0.03506 0.17900 -0.07554
-0.02927 0.17900 -0.12072
-0.15465 0.17900 0.05286
-0.04036 0.17900 -0.08220
-0.12813 0.17900 0.01270
-0.18138 0.17900 0.06838
-0.05633 0.17900 -0.06287
-0.01991 0.17900 -0.12290
-0.09332 0.17900 -0.03910
-0.26854 0.17900 0.18160
-0.16719 0.17900 0.07099
-0.05300 0.17900 -0.08121
-0.17141 0.17900 0.07519
0.35450 0.09193 0.08157
-0.21217 0.00153 -0.24275
-0.24022 0.17005 0.24802
0.20148 0.17005 0.08989
0.25349 0.17005 0.24846
0.02261 0.17005 0.13789
0.36936 0.17005 0.13975
0.23572 0.17005 -0.01418
0.01629 0.17005 0.13121
0.08249 0.17005 0.19143
-0.18377 0.17005 0.25076
-0.08574 0.17005 0.23363
0.31487 0.17005 0.16812
0.29175 0.17005 0.13491
-0.05123 0.17005 0.17136
0.25214 0.17005 0.20324
0.30131 0.17005 0.20863
0.18760 0.17005 0.23485
0.33954 0.17005 0.11712
0.31081 0.17005 0.25812
0.05104 0.17005 0.22276
0.23834 0.17005 0.06002
0.37273 0.17005 0.14692
0.33099 0.17005 0.26335
0.36658 0.17005 0.07025
0.28858 0.17005 0.09497
0.20403 0.17005 0.00356
0.33288 0.17005 0.19981
0.34916 0.17005 0.18792
-0.03589 0.17005 0.15016
0.23747 0.17005 0.12969
0.25359 0.17005 0.22767
0.34151 0.17005 0.15730
-0.07633 0.17005 0.18866
0.30486 0.17005 0.14627
-0.15152 0.17005 0.19305
0.19231 0.17005 0.07563
0.15015 0.17005 0.15424
0.37364 0.17005 -0.00371
0.26168 0.17005 0.06511
0.23236 0.17005 0.03251
0.12880 0.17005 0.26178
0.18981 0.17005 0.19034
0.06046 0.17005 0.25995
-0.11768 0.17005 0.26336
0.28044 0.17005 -0.00805
-0.19199 0.17005 0.26042
-0.11153 0.17005 0.26363
0.37624 0.17005 0.09048
0.15408 0.17005 0.02268
0.29946 0.17005 -0.00541
-0.08295 0.17005 0.16448
-0.21162 0.17005 0.21175
0.06920 0.17005 0.24162
0.24148 0.17005 0.24407
0.23006 0.17005 0.13140
0.32395 0.17005 0.13498
0.01471 0.17005 0.21182
0.06640 0.17005 0.09729
-0.08247 0.17005 0.18615
0.31216 0.17005 0.21592
0.14892 0.17005 0.17085
-0.09285 0.17005 0.25301
0.28724 0.17005 -0.00957
0.32146 0.17005 0.24255
-0.02582 0.17005 0.12947
0.21056 0.17005 0.19575
0.12256 0.17005 0.10585
0.19052 0.17005 0.25235
0.20760 0.17005 0.16047
0.12201 0.17005 0.15793
-0.13095 0.17005 0.18357
-0.25925 0.17005 0.26126
0.12633 0.17005 0.24715
0.21341 0.17005 0.19951
0.26876 0.17005 0.22367
0.13092 0.17005 0.05521
-0.32148 0.17005 0.26522
0.23905 0.17005 0.11890
-0.04549 0.17005 0.14468
0.12587 0.17005 0.15282
0.13711 0.17005 0.08689
0.29149 0.17005 0.17411
0.35145 0.17005 0.14502
0.23724 0.17005 0.23765
0.21770 0.17005 0.13862
0.24815 0.17005 0.01235
0.23611 0.17005 0.20067
0.17903 0.17005 0.13708
0.34673 0.17005 0.05837
0.08387 0.17005 0.15858
0.35667 0.17005 0.06761
-0.07583 0.17005 0.19792
0.14398 0.17005 0.04208
0.13104 0.17005 0.16648
0.08819 0.17005 0.10668
0.34115 0.17005 0.18305
0.22596 0.17005 0.23309
0.09970 0.17005 0.05676
0.18617 0.17005 0.16472
0.27687 0.17005 0.11132
0.04232 0.17005 0.15849
0.31980 0.17005 0.09037
0.31373 0.17005 0.15777
0.32283 0.17005 0.00825
0.24980 0.17005 0.24109
0.22982 0.17005 0.19217
-0.10071 0.17005 0.26101
0.36692 0.17005 0.10574
0.34515 0.17005 0.04026
0.29018 0.17005 0.12417
-0.13643 0.17005 0.20431
-0.07442 0.17005 0.24420
0.18231 0.17005 0.08569
0.10989 0.17005 0.16346
-0.22431 0.17005 0.26545
-0.00339 0.17005 0.22234
0.24362 0.17005 -0.02067
0.09866 0.17005 0.10847
0.25064 0.17005 0.10251
-0.01781 0.17005 0.17263
0.35359 0.17005 0.23614
0.19702 0.17005 0.01790
0.21622 0.17005 0.03657
0.02621 0.17005 0.22932
0.24513 0.17005 0.15640
0.16040 0.17005 0.09197
0.10334 0.17005 0.20500
0.32806 0.17005 -0.03343
-0.15463 0.17005 0.20024
0.36937 0.17005 0.07995
-0.11060 0.17005 0.16631
-0.14828 0.17005 0.18749
0.31882 0.17005 0.12653
0.27934 0.17005 -0.01772
0.04814 0.17005 0.26432
-0.18289 0.17005 0.23150
0.25974 0.17005 -0.03050
0.06175 0.17005 0.12168
-0.00010 0.17005 0.10440
0.36657 0.17005 0.09013
0.14848 0.17005 0.24003
0.09297 0.17005 0.07367
0.35825 0.17005 0.08481
0.28297 0.17005 0.06897
0.29487 0.17005 0.04687
-0.20450 0.17005 0.24514
0.34037 0.17005 0.09831
0.02448 0.17005 0.26497
0.11786 0.17005 0.12244
0.18605 0.17005 0.12158
-0.13045 0.17005 0.23928
0.34626 0.17005 0.03002
0.31065 0.17005 -0.01016
-0.19417 0.17005 0.20750
0.23609 0.17005 0.14360
-0.07162 0.17005 0.16356
0.28132 0.17005 0.06116
0.28415 0.17005 0.26401
0.08584 0.17005 0.12527
0.37512 0.17005 0.18716
0.21943 0.17005 0.05206
-0.03321 0.17005 0.21075
0.16502 0.17005 0.22379
0.02295 0.17005 0.21486
0.19501 0.17005 0.26133
0.08292 0.17005 0.10462
0.20515 0.17005 0.09720
-0.02006 0.17005 0.22151
0.07119 0.17005 0.13192
0.07806 0.17005 0.12567
0.25987 0.17005 0.15753
0.33964 0.17005 0.19556
0.37748 0.17005 0.20377
0.33947 0.17005 -0.04424
0.36419 0.17005 0.18277
-0.22698 0.17005 0.25242
0.30461 0.17005 -0.02159
0.29573 0.17005 0.08816
0.16095 0.17005 0.18130
0.09831 0.17005 0.15342
0.37552 0.17005 0.15264
0.25313 0.17005 0.14584
0.35657 0.17005 0.15233
0.26398 0.17005 0.12653
-0.01081 0.17005 0.16634
0.17287 0.17005 0.07250
-0.07864 0.17005 0.23399
0.32156 0.17005 0.18660
-0.11978 0.17005 0.22913
0.12226 0.17005 0.18754
0.18373 0.17005 0.03225
0.28620 0.17005 0.24297
0.27255 0.17005 0.13184
0.15904 0.17005 0.14343
0.10004 0.17005 0.18745
0.31123 0.17005 0.17650
-0.07201 0.17005 0.21987
0.09211 0.17005 0.24623
-0.16133 0.17005 0.23275
0.35663 0.17005 0.22581
0.36329 0.17005 0.19504
-0.10255 0.17005 0.23541
0.11542 0.17005 0.07496
-0.00243 0.17005 0.26433
0.29622 0.17005 -0.02954
0.09923 0.17005 0.19377
-0.07360 0.17005 0.16979
0.15445 0.17005 0.26016
0.07778 0.17005 0.09640
0.04917 0.17005 0.20229
0.29224 0.17005 0.02828
0.35456 0.17005 0.22193
0.07857 0.17005 0.07430
0.37670 0.17005 0.24699
0.21331 0.17005 0.25781
0.30002 0.17005 0.09284
-0.15292 0.17005 0.25347
0.06784 0.17005 0.21957
-0.18839 0.17005 0.19933
0.31006 0.17005 0.01859
-0.06554 0.17005 0.25161
0.17073 0.17005 0.01929
-0.04231 0.17005 0.22962
-0.02426 0.17005 0.25837
0.12780 0.17005 0.07331
0.18673 0.17005 0.18104
-0.07904 0.17005 0.13909
-0.13489 0.17005 0.25969
0.33091 0.17005 0.24633
0.17389 0.17005 0.14795
0.34492 0.17005 -0.00531
0.21824 0.17005 0.19237
0.18018 0.17005 0.05539
0.07364 0.17005 0.22113
0.11645 0.17005 0.13011
0.04402 0.17005 0.13274
-0.01834 0.17005 0.14073
0.04690 0.17005 0.19756
-0.07286 0.17005 0.24855
0.30992 0.17005 0.04744
0.24344 0.17005 0.16647
0.16957 0.17005 0.12957
0.16367 0.17005 0.20990
0.36996 0.17005 0.22909
0.38054 0.17023 0.20962
0.38054 0.17155 0.22796
0.38054 0.17580 0.16282
-0.20426 -0.00136 -0.23524
-0.30246 -0.17343 -0.24328
-0.25008 -0.16819 -0.23855
-0.35384 -0.17857 -0.24222
0.35751 -0.12276 0.08383
0.35924 -0.03815 0.09663
-0.21833 -0.15708 -0.24527
-0.19846 0.02068 -0.23533
0.35342 -0.16988 0.02603
0.35631 -0.17595 -0.03466
0.35692 -0.17453 -0.02042
-0.19872 0.04361 -0.23525
-0.19073 -0.03788 -0.24895
-0.20735 -0.16265 -0.25725
0.35540 -0.00118 0.08209
-0.33546 0.17878 0.23228
-0.33546 0.17414 0.05561
-0.33546 0.17705 0.04697
-0.33546 0.17560 0.24444
-0.19181 -0.01366 -0.25155
-0.21250 -0.05685 -0.24780
-0.19662 -0.11039 -0.25603
0.34054 -0.16699 -0.04921
0.34737 -0.07023 0.10238
0.35763 0.15096 0.08399
-0.18311 0.17900 0.10068
-0.01696 0.17900 -0.05722
-0.20260 0.17900 0.12963
-0.25789 0.17900 0.18194
-0.14195 0.17900 0.06175
-0.16923 0.17900 0.08858
-0.03878 0.17900 -0.05695
-0.10283 0.17900 0.00943
-0.02141 0.17900 -0.06781
-0.07695 0.17900 0.01038
-0.19341 0.17900 0.11531
-0.03039 0.17900 -0.07460
-0.00494 0.17900 -0.09424
-0.02621 0.17900 -0.05502
-0.15917 0.17900 0.08720
0.33825 0.13305 0.09103
0.35069 -0.03196 0.10247
-0.19981 0.17751 0.26654
0.03918 0.17772 0.26654
-0.12263 0.17585 0.26654
0.23298 0.17816 0.26654
-0.31959 0.17769 0.26654
-0.27745 0.17178 0.26654
0.16511 0.17811 0.26654
-0.19393 0.01815 -0.25421
-0.19046 -0.10796 -0.24684
-0.19564 -0.06036 -0.23661
-0.36851 -0.17900 -0.23651
-0.19090 -0.07997 -0.24937
0.34184 0.06474 0.08326
-0.21227 0.16540 -0.24914
0.33919 0.16291 0.08708
-0.26931 -0.16258 -0.25725
-0.33505 -0.16946 -0.25725
0.35418 -0.15646 0.10147
0.33831 0.10507 0.09236
0.35822 -0.14959 0.09815
-0.19053 -0.04713 -0.24474
-0.26587 -0.16903 -0.25725
0.33819 -0.16463 0.03644
0.34021 -0.17377 0.19581
0.34827 -0.17065 0.16454
0.34320 -0.17100 0.16806
0.34491 0.11972 0.08130
-0.06792 -0.17670 -0.24133
-0.05412 -0.17808 -0.23854
-0.12974 -0.17052 -0.25300
0.34328 -0.12542 0.10076
0.26645 0.17900 0.08841
0.18603 0.17900 -0.00790
0.33232 0.17900 0.07933
0.26700 0.17900 -0.08788
0.33426 0.17900 -0.08525
0.16543 0.17900 -0.05405
0.19540 0.17900 0.01019
0.22588 0.17900 0.00669
0.27754 0.17900 0.00876
0.33702 0.17900 0.02152
0.37443 0.17900 0.19984
0.23671 0.17900 0.08738
0.27488 0.17900 0.04361
0.20610 0.17900 -0.08059
0.27000 0.17900 0.09478
0.29230 0.17900 0.14939
0.36187 0.17900 0.06365
0.14732 0.17900 -0.05392
0.30715 0.17900 0.10179
0.34716 0.17900 0.10013
0.21677 0.17900 0.06278
0.18486 0.17900 0.01495
0.27420 0.17900 -0.01025
0.35263 0.17900 0.01461
0.33883 0.17900 0.13043
0.28844 0.17900 -0.00418
0.27551 0.17900 -0.07980
0.31941 0.17900 0.15315
0.35188 0.17900 0.08136
0.32235 0.17900 0.14571
0.31793 0.17900 -0.03079
0.30604 0.17900 0.00885
0.27012 0.17900 -0.05080
0.20003 0.17900 -0.08785
0.26787 0.17900 -0.01181
0.38026 0.17900 -0.07359
0.23986 0.17900 -0.04595
0.10686 0.17900 -0.09000
0.33120 0.17900 0.01936
0.38022 0.17900 0.05156
0.31324 0.17900 0.04300
0.28238 0.17900 -0.07515
0.27465 0.17900 0.00423
0.31462 0.17900 0.03115
0.37251 0.17900 0.01357
0.36497 0.17900 0.18548
0.30205 0.17900 0.04374
0.32368 0.17900 -0.05239
0.22834 0.17900 -0.00499
0.19182 0.17900 -0.03573
0.12097 0.17900 -0.05313
0.23677 0.17900 0.07514
0.29223 0.17900 0.01825
0.21865 0.17900 0.04239
0.32983 0.17900 0.19953
0.29672 0.17900 -0.04269
0.36578 0.17900 0.17078
0.19071 0.17900 -0.08216
0.34414 0.17900 0.02739
0.27168 0.17900 0.04935
0.33601 0.17900 0.16723
0.37521 0.17900 0.16195
0.18930 0.17900 -0.04876
0.36727 0.17900 0.00513
0.13642 0.17900 -0.05527
0.26726 0.17900 0.01126
0.33971 0.17900 -0.05216
0.11205 0.17900 -0.05978
0.35333 0.17900 0.18354
0.25892 0.17900 0.03076
0.28982 0.17900 0.06347
0.25967 0.17900 -0.02710
0.34727 0.17900 -0.04957
0.25433 0.17900 0.05174
0.34314 0.17900 0.00916
0.35927 0.17900 0.01079
0.33641 0.17900 0.20956
0.12639 0.17900 -0.07286
0.21232 0.17900 -0.04220
0.37335 0.17900 0.11042
0.21400 0.17900 -0.03414
0.24943 0.17900 0.05654
0.24482 0.17900 -0.02181
0.28597 0.17900 0.07173
0.27770 0.17900 0.06503
0.27224 0.17900 -0.06443
0.13828 0.17900 -0.07182
0.35435 0.17900 -0.05055
0.37539 0.17900 0.00920
0.24227 0.17900 -0.06087
0.13745 0.17900 -0.04083
0.15916 0.17900 -0.04801
0.32472 0.17900 0.10437
0.32389 0.17900 0.08109
0.21075 0.17900 0.01576
0.28794 0.17900 0.13015
0.34842 0.17900 0.02976
0.23627 0.17900 -0.04316
0.28959 0.17900 0.04625
0.23418 0.17900 0.09889
0.26632 0.17900 0.13298
0.31455 0.17900 -0.07167
0.33204 0.17900 0.00700
0.26558 0.17900 0.07189
0.31401 0.17900 0.00582
0.23152 0.17900 -0.07535
0.12948 0.17900 -0.02690
0.31055 0.17900 0.06980
0.24645 0.17900 0.01207
0.06407 0.17900 0.23445
0.08505 0.17900 -0.05778
-0.14014 0.17900 0.09666
0.02562 0.17900 0.11909
-0.16583 0.17900 0.22453
0.01882 0.17900 0.00252
0.01164 0.17900 0.14438
0.06245 0.17900 -0.05946
0.10691 0.17900 0.19341
-0.08701 0.17900 0.18098
-0.05026 0.17900 0.02454
-0.06002 0.17900 0.09646
0.11243 0.17900 -0.00898
0.17790 0.17900 0.14039
0.03984 0.17900 0.12297
0.16475 0.17900 0.10469
0.13069 0.17900 0.04755
0.06063 0.17900 -0.04384
0.00807 0.17900 -0.00829
-0.26300 0.17900 0.23044
0.28668 0.17900 0.21218
0.07655 0.17900 -0.07131
0.09443 0.17900 0.25719
0.19877 0.17900 0.23357
-0.05745 0.17900 0.11415
0.22255 0.17900 0.18825
0.02078 0.17900 0.03348
0.10229 0.17900 0.02740
-0.24669 0.17900 0.22964
-0.02573 0.17900 0.11551
-0.17036 0.17900 0.22062
0.06672 0.17900 0.23802
0.21918 0.17900 0.21700
0.04170 0.17900 0.01491
0.09566 0.17900 0.06434
0.03149 0.17900 0.04503
-0.09100 0.17900 0.15989
0.08001 0.17900 -0.06722
0.12818 0.17900 0.18604
-0.10863 0.17900 0.17243
-0.11376 0.17900 0.14862
-0.08740 0.17900 0.23491
0.17274 0.17900 0.12685
-0.09916 0.17900 0.11869
0.17818 0.17900 0.21377
0.16155 0.17900 0.04841
0.11167 0.17900 0.12891
0.03566 0.17900 0.13111
-0.25765 0.17900 0.21127
-0.00014 0.17900 0.08442
-0.20513 0.17900 0.20712
0.05715 0.17900 -0.03788
-0.01063 0.17900 0.20327
0.00109 0.17900 0.02477
-0.00437 0.17900 0.25099
0.05006 0.17900 0.20316
-0.04504 0.17900 0.16916
0.09904 0.17900 -0.03114
-0.06203 0.17900 0.14178
0.02506 0.17900 0.23011
0.02241 0.17900 0.26045
-0.20152 0.17900 0.25712
0.04218 0.17900 -0.00871
0.24624 0.17900 0.20854
-0.24079 0.17900 0.22119
0.37362 0.17900 0.25906
-0.02084 0.17900 0.11939
0.11071 0.17900 -0.03862
0.12454 0.17900 0.03412
0.23261 0.17900 0.13578
-0.16073 0.17900 0.14924
0.00455 0.17900 0.16614
0.12801 0.17900 0.11816
-0.23253 0.17900 0.24024
0.29470 0.17900 0.23845
0.24681 0.17900 0.17509
-0.05409 0.17900 0.18981
-0.13281 0.17900 0.11090
0.04631 0.17900 0.03152
-0.02475 0.17900 0.02723
0.02958 0.17900 0.20537
0.21821 0.17900 0.23756
0.12287 0.17900 0.22094
-0.00207 0.17900 0.22692
-0.30824 0.17900 0.25164
0.09166 0.17900 -0.02479
-0.10361 0.17900 0.24027
-0.13095 0.17900 0.14005
-0.04980 0.17900 0.15967
0.20180 0.17900 0.06281
0.22498 0.17900 0.22826
-0.13859 0.17900 0.10961
0.05958 0.17900 -0.07183
0.22072 0.17900 0.21227
0.13681 0.17900 0.04841
0.03926 0.17900 0.20404
0.23613 0.17900 0.25792
-0.05346 0.17900 0.10113
0.10901 0.17900 0.15252
0.11573 0.17900 0.08191
0.13849 0.17900 0.08012
-0.15844 0.17900 0.17965
0.18040 0.17900 0.17587
0.05263 0.17900 0.11989
-0.08411 0.17900 0.05572
0.09653 0.17900 0.26606
-0.09464 0.17900 0.20462
-0.04009 0.17900 0.23898
0.15319 0.17900 0.13718
0.15515 0.17900 0.07557
-0.00255 0.17900 0.05176
0.16449 0.17900 0.14563
0.34003 0.17900 0.25386
0.01374 0.17900 0.09000
-0.08381 0.17900 0.26615
-0.02880 0.17900 0.20250
-0.22955 0.17900 0.25910
0.19554 0.17900 0.20102
-0.21562 0.17900 0.19882
0.06038 0.17900 -0.08217
0.20633 0.17900 0.15292
-0.13552 0.17900 0.09866
-0.21695 0.17900 0.17611
0.22515 0.17900 0.14398
0.15651 0.17900 0.18056
-0.13244 0.17900 0.21558
0.20370 0.17900 0.14697
0.26979 0.17900 0.16731
0.12717 0.17900 -0.00626
-0.12512 0.17900 0.26305
-0.22898 0.17900 0.22962
0.19910 0.17900 0.18144
-0.04287 0.17900 0.01808
0.13767 0.17900 0.14274
-0.10880 0.17900 0.15768
-0.18896 0.17900 0.25981
-0.07921 0.17900 0.26246
0.27075 0.17900 0.16075
0.06386 0.17900 -0.02868
0.30140 0.17900 0.26529
0.23854 0.17900 0.26305
0.07289 0.17900 -0.06646
0.05929 0.17900 0.23426
0.08576 0.17900 0.15530
-0.07525 0.17900 0.04780
0.12636 0.17900 0.07467
0.06941 0.17900 0.22023
-0.20239 0.17900 0.19525
-0.07788 0.17900 0.13699
0.16327 0.17900 0.15784
0.02601 0.17900 0.21575
-0.19060 0.17900 0.15443
0.21598 0.17900 0.13510
0.01165 0.17900 0.12013
0.21747 0.17900 0.20770
0.06836 0.17900 0.00284
-0.30326 0.17900 0.25531
-0.19445 0.17900 0.25599
0.09647 0.17900 0.14077
-0.16800 0.17900 0.20606
0.04934 0.17900 0.15693
0.20143 0.17900 0.11013
-0.15966 0.17900 0.22006
-0.28681 0.17900 0.22912
0.18290 0.17900 0.21670
-0.02661 0.17900 0.22877
-0.00488 0.17900 0.03498
-0.07287 0.17900 0.16246
-0.05713 0.17900 0.18623
0.12138 0.17900 0.12793
0.02421 0.17900 -0.01646
0.01317 0.17900 0.24434
0.00383 0.17900 0.17543
-0.17636 0.17900 0.19231
0.31704 0.17900 0.26080
-0.08030 0.17900 0.04294
-0.09695 0.17900 0.08908
-0.01691 0.17900 0.21679
0.01708 0.17900 0.20117
0.16811 0.17900 0.18752
-0.04375 0.17900 0.06503
0.14423 0.17900 0.23749
0.17619 0.17900 0.08903
0.20056 0.17900 0.14261
0.13504 0.17900 0.08593
0.13112 0.17900 0.17207
0.06550 0.17900 0.22784
-0.16219 0.17900 0.21311
0.00827 0.17900 0.00173
-0.00249 0.17900 0.00120
0.27782 0.17900 0.21029
-0.28371 0.17900 0.23500
0.26344 0.17900 0.19082
-0.04612 0.17900 0.26496
0.09592 0.17900 0.11673
-0.18154 0.17900 0.15813
0.15368 0.17900 0.04406
-0.22764 0.17900 0.24259
0.10312 0.17900 0.05503
0.07179 0.17900 -0.07175
-0.29277 0.17900 0.24381
-0.01817 0.17900 0.06129
0.14530 0.17900 0.18434
0.21539 0.17900 0.11031
0.14185 0.17900 0.10776
-0.08714 0.17900 0.19852
0.06182 0.17900 0.14265
0.24328 0.17900 0.22830
0.17516 0.17900 0.04646
0.08495 0.17900 0.16721
0.29172 0.17900 0.22487
-0.11855 0.17900 0.12380
0.06326 0.17900 0.15287
0.10083 0.17900 -0.05267
0.03376 0.17900 -0.02744
0.34075 -0.01294 0.08449
-0.15617 -0.15938 -0.24166
-0.20486 0.15696 -0.23543
-0.19664 -0.06588 -0.23609
0.33970 -0.17900 -0.06788
-0.21056 0.15180 -0.23960
0.34781 0.04647 0.08048
-0.20722 0.07061 -0.25569
0.35059 -0.04403 0.08043
0.35671 -0.16890 0.03579
0.35566 -0.17136 0.01127
0.35781 -0.17015 0.02337
-0.06985 -0.17651 -0.25123
-0.11710 -0.17178 -0.25112
-0.06399 -0.17709 -0.25295
-0.08456 -0.17504 -0.24937
0.34571 -0.16558 0.06985
-0.21238 0.16685 -0.24341
-0.19440 0.16650 -0.25457
-0.10959 -0.16339 -0.24567
-0.21224 -0.02031 -0.24922
0.27769 0.17821 -0.09146
0.30008 0.17473 -0.09146
0.34971 0.15001 0.10260
-0.26835 -0.17002 -0.25110
-0.25981 -0.16917 -0.24524
-0.34161 -0.17735 -0.25489
-0.20992 -0.14488 -0.25336
0.35904 -0.07732 0.09709
0.34902 0.01520 0.10260
0.36049 0.15818 0.09207
0.35856 0.07366 0.09771
-0.07113 0.17486 -0.27046
-0.10113 0.17876 -0.27046
-0.20649 -0.09063 -0.25602
-0.12369 -0.16948 -0.23488
-0.15255 -0.16822 -0.23488
-0.33608 -0.17679 -0.25200
-0.27914 -0.17110 -0.24065
-0.31788 -0.17497 -0.24434
0.34190 0.03408 0.09969
-0.20857 0.07934 -0.23748
-0.19031 -0.16476 -0.23488
-0.20202 0.15178 -0.23494
0.33819 -0.16925 -0.03431
0.33819 -0.16930 -0.01847
-0.20477 0.10207 -0.23540
0.35409 -0.15709 0.10716
-0.15800 -0.15924 -0.24621
0.35865 -0.06005 0.08532
0.33921 0.07620 0.08703
0.36042 -0.05363 0.09033
0.33981 -0.17900 0.27008
0.38054 0.17701 -0.02087
0.38054 0.17746 -0.08922
-0.00644 0.17356 -0.11451
0.13689 0.17005 -0.02174
-0.11220 0.17005 0.09172
0.21024 0.17005 -0.08095
0.02388 0.17005 0.01366
0.21065 0.17005 -0.06387
0.01329 0.17005 -0.00616
-0.11850 0.17005 0.09539
-0.24465 0.17005 0.19253
0.11922 0.17005 0.00837
-0.03870 0.17005 0.00626
0.28569 0.17005 -0.07536
-0.21586 0.17005 0.18218
0.08241 0.17005 0.02659
0.11418 0.17005 -0.03117
0.01951 0.17005 0.05756
0.25986 0.17005 -0.05250
-0.05151 0.17005 0.04326
0.03907 0.17005 -0.04917
0.07501 0.17005 -0.07611
-0.07418 0.17005 0.05344
0.16438 0.17005 -0.05539
0.05859 0.17005 -0.01922
0.00181 0.17005 -0.00596
-0.05104 0.17005 0.12270
-0.06038 0.17005 0.07660
-0.26754 0.17005 0.22604
-0.17802 0.17005 0.15030
-0.13041 0.17005 0.09907
0.19857 0.17005 -0.00609
-0.11492 0.17005 0.14236
-0.20962 0.17005 0.16978
0.16926 0.17005 -0.05620
0.16846 0.17005 0.01047
-0.06596 0.17005 0.03240
-0.02524 0.17005 0.08450
-0.25845 0.17005 0.20093
-0.04118 0.17005 0.04978
-0.15750 0.17005 0.16077
-0.03677 0.17005 0.10373
-0.19448 0.17005 0.15345
-0.14174 0.17005 0.14315
-0.13217 0.17005 0.16153
0.10451 0.17005 -0.01532
-0.12003 0.17005 0.11444
0.06606 0.17005 0.04352
0.02168 0.17005 -0.03993
0.03262 0.17005 0.01169
-0.06063 0.17005 0.03826
-0.19372 0.17005 0.18698
0.15912 0.17005 -0.08922
-0.28276 0.17005 0.23353
0.06567 0.17005 -0.00976
0.07500 0.17005 -0.02613
0.09444 0.17005 -0.07453
0.04175 0.17005 0.04822
0.14983 0.17005 -0.05386
-0.01964 0.17005 0.02060
0.06528 0.17005 -0.05726
-0.02244 0.17005 0.09940
-0.02456 0.17005 0.09342
-0.03047 0.17005 0.07815
0.13138 0.17005 -0.05497
-0.21147 0.17005 0.20063
0.11801 0.17005 -0.06796
0.10367 0.17005 -0.07724
0.18857 0.17005 -0.00861
-0.10096 0.17005 0.12441
0.02884 0.17005 0.01662
0.00934 0.17005 0.03807
0.09090 0.17005 0.02911
0.13384 0.17005 -0.02794
-0.04526 0.17005 0.08098
0.07951 0.17005 -0.06502
-0.05319 0.17005 0.03107
0.18446 0.17005 -0.09061
0.14334 0.17005 -0.04571
0.18793 0.17005 -0.08157
0.21938 0.17005 -0.02491
-0.00640 0.17005 -0.00961
0.26018 0.17005 -0.07231
0.28229 0.17005 -0.09027
0.11774 0.17005 -0.04495
0.24404 0.17005 -0.06655
0.07238 0.17005 0.03071
-0.24113 0.17005 0.20666
0.06252 0.17005 -0.02855
0.16849 0.17005 -0.07816
-0.03399 0.17005 0.00656
0.14321 0.17005 -0.08579
0.09221 0.17005 0.05238
-0.00318 0.17005 0.01227
0.16983 0.17005 -0.02826
0.09824 0.17005 -0.00726
0.22461 0.17005 -0.08710
0.14777 0.17005 0.01672
0.09270 0.17005 0.04719
-0.14248 0.17005 0.09617
0.29891 0.17005 -0.07817
0.16448 0.17005 0.00521
-0.09370 0.17005 0.11231
0.09256 0.17005 -0.08964
0.05968 0.17005 -0.06869
0.13698 0.17005 -0.01150
0.08362 0.17005 -0.03095
-0.19301 0.17005 0.17877
0.08783 0.17005 0.03659
-0.17473 0.17005 0.13620
0.00813 0.17005 0.09260
-0.23459 0.17005 0.19254
0.18305 0.17005 -0.07946
0.35952 -0.00307 0.09595
-0.19115 0.13736 -0.24997
-0.33546 0.17338 -0.26085
-0.33546 0.17728 -0.24391
-0.33546 0.17465 -0.01754
-0.33546 0.17591 -0.12454
-0.21248 -0.09523 -0.24794
0.35984 0.13697 0.09518
-0.20794 0.03646 -0.23699
-0.20935 -0.02856 -0.23807
0.35361 0.01134 0.10171
-0.37356 -0.17900 -0.25546
-0.20710 0.04482 -0.23636
0.00300 0.17396 -0.10827
-0.19137 -0.14122 -0.24163
0.34994 -0.10224 0.10257
0.35651 -0.16548 -0.02652
0.36023 -0.16097 0.03359
0.35318 -0.16117 0.03084
0.35194 -0.16871 -0.06972
0.33864 0.17005 0.08954
0.23606 0.17900 0.04686
0.35264 0.17900 0.19509
0.34416 0.17900 0.00321
0.37884 0.17900 -0.04435
0.20982 0.17900 0.00107
0.28121 0.17900 0.02724
0.37508 0.17900 -0.05401
0.27343 0.17900 0.03934
0.31872 0.17900 -0.07340
0.36969 0.17900 0.23216
0.36902 0.17900 -0.00096
0.25977 0.17900 0.00828
0.09271 0.17900 -0.06643
0.20757 0.17900 -0.04559
0.17959 0.17900 0.00226
0.09776 0.17900 -0.07100
0.25455 0.17900 -0.02943
0.35607 0.17900 0.17545
0.24433 0.17900 0.08485
0.31646 0.17900 0.18570
0.37462 0.17900 0.03202
0.19981 0.17900 0.05133
0.21384 0.17900 0.00850
0.26751 0.17900 0.05476
0.34175 0.17900 0.10900
0.30992 0.17900 0.00079
0.19371 0.17900 0.03534
0.29012 0.17900 -0.02724
0.15006 0.17900 0.00128
0.37582 0.17900 0.15746
0.33747 0.17900 0.17520
0.22147 0.17900 0.01853
0.28226 0.17900 0.13093
0.20638 0.17900 0.01549
0.28408 0.17900 0.11359
0.32123 0.17900 0.12713
0.18599 0.17900 -0.07526
0.26336 0.17900 -0.07731
0.14882 0.17900 -0.09132
0.33701 0.17900 0.14449
0.34077 0.17900 0.13763
0.21618 0.17900 -0.06882
0.30111 0.17900 -0.06896
0.26398 0.17900 0.01714
0.16867 0.17900 0.01170
0.32084 0.17900 -0.06194
0.34788 0.17900 -0.07055
0.16870 0.17900 0.00323
0.33025 0.17900 0.04673
0.26216 0.17900 -0.03383
0.36664 0.17900 -0.03417
0.36661 0.17900 0.24896
0.36011 0.17900 0.01848
0.30136 0.17900 0.15960
0.25540 0.17900 0.11156
0.33555 0.17900 0.15934
0.30408 0.17900 -0.05102
0.24148 0.17900 -0.03013
0.21918 0.17900 0.00553
0.36203 0.17900 0.20784
0.37676 0.17900 0.02124
0.35203 0.17900 0.07213
0.29606 0.17900 0.13407
0.17686 0.17900 0.03156
0.27097 0.17900 0.12828
0.10648 0.17900 -0.08545
0.31634 0.17900 -0.04776
0.25931 0.17900 0.07084
0.15585 0.17900 -0.05515
0.32458 0.17900 0.15919
0.29711 0.17900 0.09571
0.28741 0.17900 -0.05609
0.33197 0.17900 -0.08067
0.37083 0.17900 0.07098
0.27743 0.17900 -0.03304
0.34417 0.17900 0.16184
0.31483 0.17900 0.10898
0.37674 0.17900 0.16996
0.27011 0.17900 0.13670
0.35561 0.17900 -0.07576
0.34499 0.17900 0.17998
0.20478 0.17900 -0.01071
0.26012 0.17900 -0.06330
0.31294 0.17900 0.14742
0.35439 0.17900 -0.02229
0.36321 0.17900 -0.05490
0.21421 0.17900 -0.05253
0.33993 0.17900 0.04126
0.30238 0.17900 -0.03219
0.34840 0.17900 -0.07959
0.32711 0.17900 0.01476
0.22236 0.17900 -0.05743
0.36057 -0.17520 -0.07920
-0.21028 -0.16558 -0.24627
0.01477 0.17005 -0.05989
-0.00511 0.17005 -0.04526
0.03351 0.17005 -0.09473
-0.12156 0.17005 0.07466
-0.10044 0.17005 0.05757
0.02636 0.17005 -0.06297
-0.15020 0.17005 0.09093
0.00735 0.17005 -0.04022
-0.26838 0.17005 0.20549
-0.01254 0.17005 -0.05039
0.31838 0.17677 -0.09146
0.34424 0.17186 -0.09146
0.15571 0.17777 -0.09146
-0.03912 -0.16879 -0.24349
-0.05379 -0.16767 -0.25183
-0.15561 -0.15991 -0.25616
-0.19351 -0.08558 -0.25383
-0.21235 0.14861 -0.24318
-0.20245 0.17005 -0.24135
0.33988 -0.00257 0.09729
-0.19182 0.05348 -0.25160
-0.35718 -0.17072 -0.23488
-0.34652 -0.17397 -0.23488
0.35334 -0.16628 0.12087
0.34152 -0.17218 0.17987
0.33922 -0.17818 0.23985
-0.20832 -0.12434 -0.23728
-0.07705 0.17629 -0.27046
-0.12059 0.17488 -0.27046
-0.20462 -0.15219 -0.25680
-0.10178 -0.17030 -0.25725
-0.09180 -0.17029 -0.25725
0.33819 -0.16485 0.12021
-0.10849 -0.17071 -0.23488
-0.16472 -0.16641 -0.23488
-0.20953 0.13141 -0.23825
0.36031 -0.13491 0.08952
-0.19041 0.14389 -0.24647
-0.30166 0.17005 -0.14224
-0.30252 0.17005 0.16925
-0.18347 0.17005 -0.18700
-0.12331 0.17005 -0.23952
-0.17235 0.17005 -0.15650
-0.33104 0.17005 0.17932
-0.30730 0.17005 -0.18606
-0.27483 0.17005 0.08612
-0.18158 0.17005 -0.26566
-0.22778 0.17005 -0.17165
-0.30344 0.17005 0.09328
-0.23651 0.17005 -0.13130
-0.33369 0.17005 0.20763
-0.26482 0.17005 -0.02890
-0.14574 0.17005 -0.25329
-0.11693 0.17005 -0.23811
-0.26040 0.17005 -0.14029
-0.15247 0.17005 -0.25542
-0.26877 0.17005 -0.25241
-0.20200 0.17005 -0.19446
-0.32319 0.17005 0.08516
-0.22400 0.17005 -0.26658
-0.19775 0.17005 -0.12098
-0.16992 0.17005 -0.07807
-0.32544 0.17005 -0.04535
-0.26107 0.17005 0.08967
-0.09386 0.17005 -0.22928
-0.24837 0.17005 -0.21923
-0.28999 0.17005 -0.10707
-0.16430 0.17005 -0.26910
-0.28836 0.17005 -0.05798
-0.17694 0.17005 -0.14133
-0.32305 0.17005 -0.05778
-0.31976 0.17005 -0.22835
-0.30406 0.17005 0.03235
-0.30189 0.17005 -0.07910
-0.28442 0.17005 -0.24056
-0.29294 0.17005 -0.15080
-0.22773 0.17005 -0.03697
-0.27116 0.17005 0.02707
-0.28639 0.17005 -0.17677
-0.22421 0.17005 -0.19843
-0.27696 0.17005 -0.21785
-0.21065 0.17005 -0.16614
-0.32627 0.17005 -0.20924
-0.20889 0.17005 -0.13884
-0.33484 0.17005 -0.09026
-0.19528 0.17005 -0.15776
-0.14734 0.17005 -0.17853
-0.31590 0.17005 -0.07398
-0.23433 0.17005 -0.08924
-0.24810 0.17005 -0.25636
-0.30828 0.17005 0.02016
-0.23170 0.17005 -0.02622
-0.31640 0.17005 -0.18565
-0.29896 0.17005 0.07987
-0.26667 0.17005 0.02548
-0.25525 0.17005 -0.18471
-0.30526 0.17005 -0.04891
-0.32493 0.17005 -0.17399
-0.25324 0.17005 0.03052
-0.20106 0.17005 -0.03706
-0.12880 0.17005 -0.24788
-0.33437 0.17005 -0.16978
-0.29606 0.17005 -0.08932
-0.27602 0.17005 0.02945
-0.29432 0.17005 0.13983
-0.33298 0.17005 0.09281
-0.15719 0.17005 -0.21564
-0.27072 0.17005 -0.14032
-0.28895 0.17005 0.06200
-0.33404 0.17005 -0.13452
-0.29280 0.17005 0.06683
-0.31295 0.17005 -0.24515
-0.27080 0.17005 -0.12977
-0.16671 0.17005 -0.20297
-0.28806 0.17005 -0.08615
-0.18826 0.17005 -0.06176
-0.20588 0.17005 -0.15873
-0.25554 0.17005 -0.12362
-0.18447 0.17005 -0.12360
-0.27418 0.17005 0.04932
-0.30670 0.17005 -0.01397
-0.29856 0.17005 -0.17783
-0.32119 0.17005 0.15760
-0.32794 0.17005 -0.18439
-0.32433 0.17005 -0.26392
-0.33335 0.17005 0.01429
-0.12579 0.17005 -0.19105
-0.24320 0.17005 -0.12876
-0.25715 0.17005 -0.02225
-0.27766 0.17005 -0.14241
-0.28303 0.17005 0.15319
-0.24413 0.17005 -0.20709
-0.25528 0.17005 -0.20576
-0.28767 0.17005 -0.15508
-0.32332 0.17005 0.12524
-0.29550 0.17005 -0.01935
-0.29180 0.17005 -0.03849
-0.28051 0.17005 -0.06807
-0.30830 0.17005 -0.12715
-0.25641 0.17005 -0.23056
-0.23055 0.17005 0.03119
-0.11609 0.17005 -0.18217
-0.33529 0.17005 0.10268
-0.32824 0.17005 -0.01129
-0.28305 0.17005 0.14702
-0.17535 0.17005 -0.05413
-0.24531 0.17005 -0.08641
-0.17880 0.17005 -0.23898
-0.20871 0.17005 -0.00810
-0.25238 0.17005 -0.02295
-0.25218 0.17005 0.02187
-0.21694 0.17005 -0.08244
-0.23059 0.17005 -0.14326
-0.27353 0.17005 0.10499
-0.30703 0.17005 0.14312
-0.11733 0.17005 -0.26091
-0.31715 0.17005 -0.10132
-0.10867 0.17005 -0.26278
-0.21159 0.10624 -0.24135
-0.20972 0.17005 0.04942
-0.23916 0.17005 0.10098
-0.11067 0.17005 -0.12144
-0.24446 0.17005 0.10349
-0.12534 0.17005 -0.11743
-0.09245 0.17005 -0.14432
-0.09075 0.17005 -0.17553
-0.19782 0.17005 0.01426
-0.20100 0.17005 0.03149
-0.23366 0.17005 0.08288
-0.21023 -0.06732 -0.25296
0.36057 -0.17564 0.22993
-0.09433 -0.17406 -0.23804
-0.16532 -0.16696 -0.25256
-0.09894 -0.17360 -0.24068
-0.05084 0.17005 -0.09355
-0.30286 0.17005 0.22543
-0.18635 0.17005 0.09645
-0.06216 0.17005 -0.05716
-0.07700 0.17005 -0.06151
-0.22087 0.17005 0.13771
-0.22879 0.17005 0.13568
-0.05395 0.17005 -0.05439
-0.18651 0.17005 0.07458
-0.10467 0.17005 -0.01271
-0.28491 0.17005 0.20376
-0.03881 0.17005 -0.10268
-0.12801 0.17005 0.03019
-0.21546 0.17005 0.12873
-0.21963 0.17005 0.12083
-0.15937 0.17005 0.06376
-0.02628 0.17005 -0.10546
-0.04240 0.17005 -0.09068
0.33899 0.09716 0.09535
0.34315 -0.16558 0.08728
0.30673 0.17005 0.02451
0.19188 0.17005 0.10151
0.12928 0.17005 0.06571
0.13192 0.17005 0.25371
0.31848 0.17005 -0.02360
-0.07358 0.17005 0.13994
0.30456 0.17005 0.16570
0.20674 0.17005 0.11891
0.37541 0.17005 0.06636
0.04295 0.17005 0.25999
-0.19443 0.17005 0.21309
0.31058 0.17005 0.12248
0.06105 0.17005 0.13051
0.01525 0.17005 0.24362
0.03955 0.17005 0.20220
0.37536 0.17005 -0.06009
0.15318 0.17005 0.10637
0.25554 0.17005 0.15867
0.37048 0.17005 0.24790
0.33944 0.17005 0.00756
0.03602 0.17005 0.25048
0.13444 0.17005 0.13210
0.30449 0.17005 0.06766
-0.09861 0.17005 0.25111
0.30068 0.17005 -0.04893
0.25125 0.17005 0.00097
0.31366 0.17005 0.01372
0.29385 0.17005 -0.01901
0.28752 0.17005 0.19109
0.15348 0.17005 0.16134
-0.07373 0.17005 0.25404
0.03671 0.17005 0.16276
0.31953 0.17005 0.18141
0.29591 0.17005 0.19960
0.25833 0.17005 0.24175
0.03686 0.17005 0.19543
0.08228 0.17005 0.24738
0.35670 0.17005 0.19683
0.22228 0.17005 0.24674
0.37156 0.17005 -0.06993
0.27380 0.17005 0.22684
-0.11741 0.17005 0.19532
-0.01102 0.17005 0.21568
0.15005 0.17005 0.22661
0.25768 0.17005 0.04139
0.24290 0.17005 0.02947
-0.13521 0.17005 0.22973
0.26822 0.17005 0.17650
0.21207 0.17005 0.23738
0.01799 0.17005 0.11457
0.27479 0.17005 0.00743
0.15577 0.17005 0.19619
-0.01689 0.17005 0.19997
-0.11197 0.17005 0.23194
0.06585 0.17005 0.25927
0.15759 0.17005 0.06669
0.15376 0.17005 0.11285
0.16725 0.17005 0.10169
0.08096 0.17005 0.16643
-0.00762 0.17005 0.18524
-0.04242 0.17005 0.26118
0.28317 0.17005 0.16733
0.18310 0.17005 0.23186
0.30291 0.17005 0.06003
0.14049 0.17005 0.20679
-0.21002 0.17005 0.23221
0.21944 0.17005 0.26216
0.19723 0.17005 0.25125
-0.08645 0.17005 0.21974
0.09568 0.17005 0.09499
-0.26402 0.17005 0.26653
0.02446 0.17005 0.25168
0.14178 0.17005 0.21990
0.11862 0.17005 0.25707
0.08905 0.17005 0.18800
-0.04050 0.17005 0.13493
-0.22373 0.17005 0.21368
-0.25139 0.17005 0.23626
0.23614 0.17005 0.05380
0.36978 0.17005 -0.05302
-0.10818 0.17005 0.16075
0.09902 0.17005 0.07155
0.37062 0.17005 0.01658
0.22452 0.17005 0.10619
0.38039 0.17005 0.07395
-0.01137 0.17005 0.26364
-0.14255 0.17005 0.21054
0.02401 0.17005 0.18633
-0.07470 0.17005 0.18240
-0.14804 0.17005 0.22504
0.29485 0.17005 0.09681
-0.11908 0.17005 0.20707
0.37898 0.17005 0.25736
0.36702 0.17005 -0.07973
-0.22655 0.17005 0.25793
-0.12404 0.17005 0.16247
0.10958 0.17005 0.26045
0.10503 0.17005 0.24530
0.36141 0.17005 -0.07581
0.35291 0.17005 0.11454
0.07307 0.17005 0.20053
-0.30984 0.17005 0.25658
-0.25334 0.17005 0.24221
0.18022 0.17005 0.05991
0.10345 0.17005 0.17438
0.02312 0.17005 0.16972
0.18021 0.17005 0.15920
-0.11806 0.17005 0.25412
0.29242 0.17005 0.05293
0.23346 0.17005 0.09025
0.29045 0.17005 0.21196
0.14558 0.17005 0.21087
0.10236 0.17005 0.09173
-0.04490 0.17005 0.21508
-0.04482 0.17005 0.13296
0.21095 0.17005 0.03723
0.30815 0.17005 0.19429
0.00481 0.17005 0.14127
-0.14270 0.17005 0.17758
-0.01142 0.17005 0.19154
-0.06901 0.17005 0.26049
0.10535 0.17005 0.06894
0.29583 0.17005 0.24122
0.26579 0.17005 0.00495
0.36974 0.17005 0.25477
0.33044 0.17005 0.21871
0.31572 0.17005 -0.05253
0.33948 0.17005 0.17636
0.23895 0.17005 0.10570
0.36219 0.17005 0.12161
0.25391 0.17005 0.25536
0.05202 0.17005 0.21529
0.29698 0.17005 0.11899
-0.02442 0.17005 0.13591
0.33352 0.17005 -0.04351
0.32494 0.17005 0.25237
-0.06070 0.17005 0.16147
-0.12734 0.17005 0.26042
-0.11439 0.17005 0.22286
-0.03694 0.17005 0.25099
0.12344 0.17005 0.04997
0.29057 0.17005 0.17904
0.37385 0.17005 0.10169
0.35336 0.17005 0.18475
0.15902 0.17005 0.24055
0.06148 0.17005 0.23908
0.13084 0.17005 0.21169
0.27276 0.17005 0.24205
0.29758 0.17005 0.01539
0.01760 0.17005 0.23787
0.32834 0.17005 0.22919
0.16369 0.17005 0.07230
0.20634 0.17005 0.26605
0.35031 0.17005 0.02106
0.26824 0.17005 0.19380
0.19557 0.17005 0.20182
0.17045 0.17005 0.18497
-0.03307 0.17005 0.14035
0.25305 0.17005 0.23312
-0.14772 0.17005 0.21968
-0.07001 0.17005 0.22760
0.20258 0.17005 0.10630
0.07789 0.17005 0.19168
-0.00725 0.17005 0.20495
0.16067 0.17005 0.10479
0.08462 0.17005 0.19592
-0.03467 0.17005 0.20619
0.05418 0.17005 0.20221
0.04278 0.17005 0.11496
0.09667 0.17005 0.21218
0.12467 0.17005 0.04276
0.35948 0.17005 0.14054
0.06076 0.17005 0.19124
0.33710 0.17005 0.18840
0.28284 0.17005 -0.02324
-0.10243 0.17005 0.24345
0.24652 0.17005 0.17907
-0.08137 0.17005 0.19756
0.30935 0.17005 0.20702
0.18061 0.17005 0.10570
-0.31779 0.17005 0.25998
-0.04472 0.17005 0.12675
0.21375 0.17005 0.06953
-0.09615 0.17005 0.21824
0.26937 0.17005 0.24837
0.15428 0.17005 0.13082
0.31292 0.17005 0.08658
0.30785 0.17005 0.22724
0.15873 0.17005 0.03184
-0.11570 0.17005 0.18051
0.29680 0.17005 0.11428
0.27458 0.17005 0.06939
-0.00998 0.17005 0.14981
-0.05148 0.17005 0.22325
0.17518 0.17005 0.21028
0.06998 0.17005 0.15619
0.08132 0.17005 0.06545
-0.17263 0.17005 0.20658
-0.14000 0.17005 0.25354
0.35263 0.17005 0.07838
0.33107 0.17005 0.10394
0.14995 0.17005 0.09074
0.20209 0.17005 0.14257
0.14884 0.17005 0.19020
0.05232 0.17005 0.23967
0.18887 0.17005 0.15954
-0.09648 0.17005 0.15316
-0.17812 0.17005 0.23396
-0.03607 0.17005 0.24161
0.19295 0.17005 0.00740
0.22176 0.17005 0.01608
0.12049 0.17005 0.17421
0.34565 0.17005 -0.03592
0.33364 0.17005 0.14972
0.30883 0.17005 0.18129
0.12234 0.17005 0.19807
0.08424 0.17005 0.26055
-0.03703 0.17005 0.23652
-0.26803 0.17005 0.25383
0.15019 0.17005 0.03552
0.16429 0.17005 0.15723
-0.06141 0.17005 0.21516
0.27191 0.17005 -0.00761
0.20439 0.17005 0.14768
0.25657 0.17005 0.26152
-0.20946 -0.01267 -0.25396
0.38054 0.17386 0.14526
0.38054 0.17324 0.09723
0.38054 0.17364 0.08936
-0.08509 -0.16528 -0.25002
-0.06637 -0.16671 -0.24664
-0.11959 -0.16265 -0.24979
-0.16228 0.17900 0.03690
-0.11841 0.17900 -0.02107
-0.04452 0.17900 -0.12827
-0.04998 0.17900 -0.12712
-0.11192 0.17900 -0.02456
-0.16185 0.17900 0.01646
-0.10723 0.17900 -0.05634
-0.20071 0.17900 0.08663
-0.22413 0.17900 0.10896
-0.09374 0.17900 -0.06324
-0.14975 0.17900 0.02285
-0.13980 0.17900 0.00067
-0.11117 0.17900 -0.04412
-0.04244 0.17900 -0.13860
-0.28266 0.17900 0.19577
-0.27175 -0.16143 -0.23831
-0.36213 -0.17285 -0.25725
-0.34762 -0.17306 -0.25725
-0.28253 0.17900 -0.03256
-0.33190 0.17900 -0.12179
-0.20716 0.17900 -0.22268
-0.25821 0.17900 0.00825
-0.29908 0.17900 -0.04131
-0.32914 0.17900 -0.17715
-0.21921 0.17900 -0.08818
-0.28069 0.17900 -0.07837
-0.33163 0.17900 -0.22424
-0.31169 0.17900 -0.13115
-0.23505 0.17900 -0.21457
-0.31748 0.17900 0.15807
-0.29182 0.17900 0.06547
-0.11779 0.17900 -0.18170
-0.27070 0.17900 -0.20167
-0.24299 0.17900 -0.05086
-0.21305 0.17900 -0.24561
-0.21769 0.17900 -0.14610
-0.18419 0.17900 -0.17220
-0.31267 0.17900 -0.24682
-0.11053 0.17900 -0.21332
-0.25717 0.17900 -0.05266
-0.22884 0.17900 -0.03902
-0.21293 0.17900 -0.12914
-0.31258 0.17900 -0.18250
-0.28646 0.17900 -0.13636
-0.33085 0.17900 -0.10952
-0.29152 0.17900 -0.21791
-0.22676 0.17900 -0.22654
-0.16854 0.17900 -0.04765
-0.30118 0.17900 0.14420
-0.28403 0.17900 -0.00105
-0.11306 0.17900 -0.19881
-0.17556 0.17900 -0.07011
-0.19905 0.17900 0.00236
-0.12595 0.17900 -0.15295
-0.25289 0.17900 0.08773
-0.30890 0.17900 -0.24241
-0.25312 0.17900 -0.20248
-0.25526 0.17900 -0.04466
-0.27183 0.17900 0.08755
-0.23542 0.17900 -0.05843
-0.31646 0.17900 0.23136
-0.28542 0.17900 -0.21433
-0.29730 0.17900 -0.19944
-0.31910 0.17900 -0.26066
-0.23588 0.17900 -0.20797
-0.31925 0.17900 -0.11453
-0.30212 0.17900 -0.12620
-0.20013 0.17900 -0.12655
-0.28669 0.17900 0.10831
-0.19179 0.17900 -0.20956
-0.24079 0.17900 0.05853
-0.32145 0.17900 -0.18973
-0.20863 0.17900 -0.15008
-0.29911 0.17900 -0.25907
-0.29970 0.17900 -0.00948
-0.19973 0.17900 -0.21371
-0.24249 0.17900 -0.21951
-0.32960 0.17900 -0.13051
-0.19085 0.17900 -0.01902
-0.27886 0.17900 -0.12360
-0.24334 0.17900 -0.10706
-0.29625 0.17900 -0.07251
-0.28741 0.17900 -0.07192
-0.32679 0.17900 -0.19411
-0.32414 0.17900 -0.10819
-0.30415 0.17900 -0.15817
-0.32767 0.17900 0.18953
-0.24564 0.17900 -0.19398
-0.28544 0.17900 0.12423
-0.27672 0.17900 -0.16812
-0.27957 0.17900 0.11740
-0.18690 0.17900 -0.17717
-0.24900 0.17900 -0.11862
-0.24705 0.17900 -0.14163
-0.30693 0.17900 0.05286
-0.22422 0.17900 -0.10906
-0.27264 0.17900 0.14806
-0.13654 0.17900 -0.17828
-0.31144 0.17900 0.11903
-0.17414 0.17900 -0.04028
-0.31493 0.17900 0.18814
-0.33389 0.17900 0.06434
-0.32785 0.17900 0.12554
-0.25171 0.17900 -0.23047
-0.17356 0.17900 -0.14104
-0.17628 0.17900 -0.04759
-0.32494 0.17900 -0.05159
-0.12860 0.17900 -0.14488
-0.19056 0.17900 -0.05924
-0.09517 0.17900 -0.20133
-0.32617 0.17900 -0.25936
-0.32217 0.17900 -0.11821
-0.33012 0.17900 -0.17187
-0.24053 0.17900 -0.23505
-0.18008 0.17900 -0.11923
-0.17807 0.17900 -0.06298
-0.26331 0.17900 0.10921
-0.27090 0.17900 0.04194
-0.28329 0.17900 -0.22260
-0.16656 0.17900 -0.13204
-0.16257 0.17900 -0.05288
-0.29105 0.17900 -0.06138
-0.32639 0.17900 -0.21254
-0.26634 0.17900 -0.13618
-0.14042 0.17900 -0.11701
-0.20757 0.17900 -0.05768
-0.20037 0.17900 -0.08022
-0.07382 0.17900 -0.21322
-0.13194 0.17900 -0.15749
-0.12795 0.17900 -0.12006
-0.31924 0.17900 -0.07310
-0.22519 0.17900 -0.00238
-0.30855 0.17900 0.06473
-0.20749 0.17900 -0.16988
-0.21398 0.17900 -0.07283
-0.22324 0.17900 -0.23545
-0.29884 0.17900 -0.13546
-0.19240 0.17900 -0.10130
-0.20231 0.17900 -0.13133
-0.33428 0.17900 0.17101
-0.32336 0.17900 -0.01060
-0.30070 0.17900 -0.06389
-0.22995 0.17900 -0.15998
-0.25572 0.17900 -0.01501
-0.22480 0.17900 -0.13415
-0.29176 0.17900 -0.25091
-0.28173 0.17900 -0.16754
-0.19511 0.17900 -0.05145
-0.16921 0.17900 -0.19727
-0.25778 0.17900 -0.03121
-0.22770 0.17900 0.02917
-0.30103 0.17900 0.19014
-0.18387 0.17900 -0.07348
-0.19104 0.17900 -0.24281
-0.16625 0.17900 -0.17425
-0.22672 0.17900 -0.04871
0.36009 -0.00859 0.09458
-0.02463 0.17059 0.26654
-0.25193 0.17084 0.26654
0.15791 0.17241 0.26654
-0.20534 0.11078 -0.25650
0.34696 -0.02780 0.10233
-0.06696 0.17628 -0.25845
-0.22500 -0.16568 -0.24773
-0.28152 -0.17134 -0.24564
0.35415 -0.13826 0.10149
-0.20058 -0.08329 -0.25712
0.34448 0.10781 0.10143
-0.02791 -0.17900 -0.24257
-0.21155 0.16012 -0.25088
-0.24894 0.17900 0.10891
-0.14567 0.17900 -0.07234
-0.20942 0.17900 0.03586
-0.07560 0.17900 -0.17175
-0.32343 0.17900 0.24488
-0.09006 0.17900 -0.16724
-0.12183 0.17900 -0.09252
-0.09564 0.17900 -0.15071
-0.23394 0.17900 0.08202
-0.17712 0.17900 -0.02203
-0.14161 0.17900 -0.06262
-0.28590 0.17900 0.18105
0.34285 -0.17251 -0.00029
0.33852 -0.17293 -0.00446
0.35054 -0.17340 -0.00915
0.34935 -0.01675 0.08027
-0.19479 0.10388 -0.23727
-0.20962 0.05054 -0.25376
-0.20421 0.16650 -0.23523
-0.18918 0.17084 -0.27046
-0.13707 0.17090 -0.27046
0.34913 -0.17900 -0.07258
0.34374 -0.15665 0.08150
-0.19047 -0.04140 -0.24516
0.33860 0.02048 0.09441
-0.19107 -0.16558 -0.24332
0.34036 -0.16600 -0.03662
0.34219 0.06981 0.08299
-0.22136 0.17005 0.07792
-0.07352 0.17005 -0.12807
-0.08989 0.17005 -0.09983
-0.07326 0.17005 -0.13834
-0.07787 0.17005 -0.16187
-0.14800 0.17005 -0.03182
-0.14439 0.17005 -0.04820
-0.11591 0.17005 -0.07016
-0.08215 0.17005 -0.11577
-0.10103 0.17005 -0.11381
-0.06222 0.17005 -0.16901
-0.11310 0.17005 -0.10068
-0.12928 -0.16163 -0.24611
0.34028 -0.02112 0.08510
-0.19120 0.03972 -0.24204
0.33922 -0.07668 0.08701
-0.19155 -0.00495 -0.24120
0.33827 -0.10437 0.09203
-0.18685 -0.16558 -0.24630
-0.13640 0.17900 0.06783
-0.17104 0.17900 0.09978
-0.00354 0.17900 -0.07655
-0.01249 0.17900 -0.07996
-0.12673 0.17900 0.03422
-0.23730 0.17900 0.16568
-0.10381 0.17900 0.03022
-0.16779 0.17900 0.08265
-0.07124 0.17900 -0.01443
-0.19064 0.17900 0.10913
-0.11818 0.17900 0.03629
0.01988 0.17900 -0.08718
-0.11457 0.17900 0.03902
-0.20704 0.17900 0.05579
-0.11050 0.17900 -0.09728
-0.08324 0.17900 -0.11623
-0.23680 0.17900 0.11672
-0.27072 0.17900 0.16727
-0.10302 0.17900 -0.12260
-0.07118 0.17900 -0.16683
-0.16291 0.17900 0.00384
-0.15089 0.17900 -0.01286
-0.10623 0.17900 -0.09349
-0.08752 0.17900 -0.12979
-0.24556 0.17900 0.11797
-0.29245 0.17900 0.19730
-0.18309 0.17900 0.02090
-0.17225 0.17900 0.02374
-0.22600 0.17900 0.10070
0.36057 -0.16492 0.01786
-0.38038 -0.17137 -0.23488
0.34823 -0.16558 0.09451
0.04334 0.17218 -0.09461
-0.05733 0.17122 -0.17876
0.36054 -0.11945 0.09167
-0.38054 -0.17233 -0.24945
0.33819 -0.16387 0.18162
-0.14933 -0.15993 -0.24511
0.34372 -0.14185 0.10110
0.36057 -0.16173 0.11414
0.36057 -0.16607 0.19281
-0.19960 0.01448 -0.25700
-0.12897 0.17005 0.05760
-0.11330 0.17005 0.04504
-0.01274 0.17005 -0.07885
-0.19247 0.17005 0.12304
-0.05000 0.17005 -0.02401
0.01145 0.17005 -0.09989
-0.05432 0.17005 -0.03312
-0.06643 0.17005 -0.02927
-0.21762 0.17005 0.14973
-0.03349 0.17005 -0.05885
-0.16046 0.17005 0.08285
-0.15374 0.17005 0.08650
0.00112 0.17005 -0.06855
-0.10090 0.17005 0.02642
-0.03088 0.17005 -0.04475
0.34966 -0.00711 0.08031
0.35482 0.15736 0.10121
0.35621 -0.14620 0.08272
-0.18550 -0.16558 -0.23611
-0.31003 0.17900 -0.26931
-0.28395 0.17900 -0.26658
-0.13095 0.17900 -0.25863
-0.26190 0.17900 -0.26922
-0.13122 0.17900 -0.24690
-0.09758 0.17900 -0.26680
-0.19929 0.17900 -0.26451
-0.19345 0.17900 -0.25681
-0.27742 0.17900 -0.26749
-0.09970 0.17900 -0.24204
-0.14985 0.17005 -0.09219
-0.22097 0.17005 0.04374
-0.12589 0.17005 -0.14993
-0.19667 0.17005 0.00257
-0.18586 0.17005 -0.01998
-0.17422 0.17005 -0.04953
-0.08002 0.17005 -0.21310
-0.27482 0.17005 0.14757
-0.20912 -0.01906 -0.25423
0.34431 0.03205 0.08155
0.34131 0.04756 0.08375
-0.03329 -0.17900 -0.23701
0.33819 -0.16719 0.16373
0.34625 -0.07741 0.10217
-0.24669 -0.16186 -0.23488
-0.27975 0.17900 -0.10585
-0.16279 0.17900 -0.09577
-0.29039 0.17900 0.05957
-0.23472 0.17900 -0.06912
-0.15413 0.17900 -0.11359
-0.32908 0.17900 0.21913
-0.28876 0.17900 -0.09664
-0.33240 0.17900 -0.16439
-0.13914 0.17900 -0.09456
-0.10305 0.17900 -0.18654
-0.14642 0.17900 -0.09527
-0.32401 0.17900 -0.10342
-0.22969 0.17900 -0.00971
-0.23809 0.17900 -0.14557
-0.29791 0.17900 0.03691
-0.18721 0.17900 -0.20007
-0.29802 0.17900 0.04923
-0.28741 0.17900 -0.20460
-0.17664 0.17900 -0.10201
-0.31700 0.17900 -0.14288
-0.24163 0.17900 -0.04026
-0.17575 0.17900 -0.14625
-0.12624 0.17900 -0.13618
-0.21666 0.17900 -0.19455
-0.18673 0.17900 -0.09196
-0.22671 0.17900 -0.11829
-0.13240 0.17900 -0.23014
-0.29091 0.17900 -0.18566
-0.24216 0.17900 -0.11952
-0.24647 0.17900 0.08534
-0.27459 0.17900 -0.24889
-0.18707 0.17900 -0.08749
-0.24486 0.17900 -0.03126
-0.33167 0.17900 0.11275
-0.33418 0.17900 0.02543
-0.22392 0.17900 0.01580
-0.23120 0.17900 0.06483
-0.12122 0.17900 -0.22198
-0.33075 0.17900 -0.02187
-0.15889 0.17900 -0.05789
-0.33544 0.17900 0.15908
-0.14998 0.17900 -0.10812
-0.21490 0.17900 -0.10099
-0.32009 0.17900 -0.12434
-0.30974 0.17900 0.10724
-0.31747 0.17900 0.02618
-0.27024 0.17900 -0.22857
-0.24697 0.17900 -0.20563
-0.25844 0.17900 -0.05919
-0.33390 0.17900 0.19878
-0.32476 0.17900 -0.18169
-0.24943 0.17900 -0.17825
-0.18083 0.17900 -0.15191
-0.26781 0.17900 0.06505
-0.14048 0.17900 -0.22411
-0.30131 0.17900 0.04433
