0.26021 -0.01065 0.07931
0.19399 0.22427 0.12335
-0.15902 0.22427 -0.23557
-0.26859 0.20506 -0.08507
0.04512 0.21374 0.29607
-0.26723 0.04287 0.08062
-0.13426 0.22427 0.05329
-0.07929 0.21374 0.10874
-0.24131 -0.19327 0.09569
-0.25044 0.04533 0.06845
-0.24011 0.05661 0.09445
0.00028 0.22427 0.24149
-0.29883 0.22427 0.25104
-0.08049 -0.13464 -0.25438
0.01100 0.21374 0.22721
-0.23683 -0.04572 0.08865
-0.13628 0.22427 -0.11952
-0.16329 0.22427 0.07209
0.10066 0.21374 0.18330
-0.04872 0.21374 -0.22779
0.15519 0.22427 0.19270
-0.14577 0.22427 0.03986
-0.10697 0.22427 -0.27554
-0.10226 0.22427 0.14161
-0.21604 0.21374 -0.06728
0.16200 0.19794 0.26999
0.10507 0.19794 0.28185
-0.14570 0.21374 -0.28796
0.00326 0.19794 0.28009
0.26300 -0.18539 0.07413
-0.07930 0.18310 -0.24579
-0.00995 0.22427 0.31185
-0.30698 0.21374 -0.06559
0.28363 0.21374 0.00329
-0.24423 0.22427 -0.27224
-0.09453 -0.21812 0.24348
-0.26767 0.21374 0.07290
-0.24035 0.20740 -0.26859
-0.18383 0.21374 -0.29132
0.05162 0.22427 0.20419
-0.08991 0.21374 -0.10341
-0.07542 -0.12689 0.23303
0.06819 0.22427 0.09902
-0.03240 0.21374 0.18970
0.26178 0.22427 0.21732
-0.07534 -0.15862 -0.26395
0.23262 -0.09553 0.06587
0.01486 0.22427 0.16975
0.06260 0.21374 0.25064
-0.31143 0.22427 0.04652
-0.10574 0.22427 0.22798
-0.13038 0.22427 0.23095
0.23876 0.14602 0.05688
-0.25912 0.22427 -0.18934
-0.15408 0.22427 -0.04807
-0.04785 0.22427 -0.03325
-0.12261 0.22427 0.11622
-0.13873 0.21374 -0.04037
-0.12794 0.21374 0.11141
0.23196 0.22427 0.04662
-0.05472 0.22427 -0.25542
0.03369 0.22427 0.10404
-0.07326 0.21374 -0.02906
0.26365 -0.00406 0.06906
-0.17932 0.22427 0.27120
-0.24339 0.21374 0.24384
-0.05246 -0.05801 -0.24274
-0.06826 0.06966 0.24413
-0.25272 0.22427 -0.00716
0.14297 0.22427 0.22999
-0.05548 0.21374 0.15112
-0.08752 0.22427 0.08234
-0.11403 0.19794 0.27162
-0.26859 0.21231 -0.00946
-0.31599 0.21959 0.05973
0.26339 -0.18057 0.06703
-0.02201 0.22427 -0.29590
-0.25092 0.22427 0.31038
-0.04962 -0.11996 -0.25548
-0.25438 0.22427 0.20089
-0.05032 -0.13209 -0.24661
-0.00502 0.19794 0.28136
-0.06483 0.22427 -0.30636
-0.22689 0.21374 0.22982
-0.12527 0.22427 -0.14936
-0.05685 -0.00263 -0.23865
-0.19212 0.22427 -0.23600
-0.23630 -0.21161 0.08241
0.25479 0.22427 0.14646
0.30643 0.22427 0.03762
0.28395 0.21374 0.23648
-0.29457 0.22383 -0.31599
0.00511 0.22427 0.24065
-0.02420 0.21374 -0.30816
-0.10992 0.21374 -0.15044
0.10768 0.22427 0.10757
0.11946 0.21374 0.16100
0.26265 0.03178 0.06421
-0.11251 0.22427 -0.11853
-0.19677 0.22427 -0.05534
-0.07283 -0.20119 -0.26586
-0.25642 0.21374 -0.29119
-0.26437 -0.16372 0.09351
0.14779 0.21374 0.15945
-0.23768 0.22427 0.06098
-0.08226 0.20032 0.23077
-0.01335 0.21374 -0.13729
0.07382 0.21374 0.15525
-0.12731 0.21374 -0.11121
-0.03153 0.22427 -0.29774
0.23935 0.17646 0.05643
-0.09788 -0.20070 0.25324
0.30978 0.22427 0.03304
0.17740 0.21374 0.29285
-0.20537 0.22427 0.16907
0.01011 0.19794 0.03827
-0.26286 0.22427 0.19641
-0.22740 0.22427 0.07779
-0.07973 -0.20657 0.23110
-0.17221 0.20632 0.26859
0.15135 0.22427 0.09305
-0.12541 0.22427 0.12234
-0.08349 0.17697 0.26213
-0.09494 0.22427 -0.30154
0.02272 0.22427 0.15346
-0.03908 0.22427 0.05685
-0.29853 0.22427 0.23956
-0.19913 0.21374 -0.11352
-0.23123 0.22427 0.05992
-0.29075 0.22427 -0.04176
0.27652 0.19794 0.17492
-0.27725 0.21374 -0.15913
0.26320 0.17542 0.07358
0.05622 0.21243 0.26859
0.09023 0.22427 0.00938
-0.26301 0.22427 -0.24547
-0.28910 0.22427 0.28286
-0.13517 0.21374 0.19593
0.24879 0.21374 0.00085
-0.17259 0.21374 0.23006
0.11970 0.21207 0.03160
0.27302 0.21374 0.03106
-0.04372 0.22427 -0.17926
-0.07364 0.22427 -0.27235
0.08035 0.21374 0.07332
-0.28952 0.22427 0.29116
0.03894 0.21374 0.13286
0.04638 0.21374 -0.01607
-0.23688 0.21374 0.04970
-0.31599 0.21899 0.11349
-0.02687 0.21374 -0.31423
-0.07119 0.22427 0.23132
-0.16895 0.22427 -0.30796
-0.25842 0.22427 0.06803
0.24923 -0.16071 0.05397
0.20752 0.21374 0.16852
-0.01399 0.21374 -0.29747
0.16676 0.22427 0.06930
-0.09577 0.22427 -0.21245
0.21718 0.22427 0.04920
0.25434 0.22427 0.09583
-0.23176 0.21374 -0.09622
0.19166 0.22427 0.19339
-0.15666 0.22427 -0.07187
0.04139 0.21374 0.02787
-0.30063 0.22427 -0.23909
0.15416 0.21374 0.29713
-0.29112 0.21374 0.18982
0.22719 0.21374 0.30168
0.27413 0.19951 0.28439
-0.11248 0.22427 0.13880
-0.24872 0.22427 -0.17124
-0.17580 0.22427 0.12008
-0.22650 0.22427 0.11202
-0.29428 0.21374 -0.27562
-0.06057 0.22427 0.18512
0.21674 0.21374 0.15709
-0.18704 0.22427 0.27277
-0.04049 0.21374 -0.10543
-0.17986 0.21374 -0.14763
-0.30095 0.21374 0.26413
0.28442 0.21374 0.10527
-0.30350 0.22427 0.03340
0.00372 0.21374 0.27151
0.10129 0.21374 0.28373
0.28492 0.22427 0.19682
-0.02544 0.21374 0.06441
0.07738 0.20364 0.26859
0.02263 0.22427 0.07438
0.30869 0.22427 0.02727
0.24615 -0.05806 0.08516
-0.29843 0.21374 -0.03782
-0.07659 -0.21723 -0.26276
-0.00199 0.21374 -0.28175
-0.10317 0.22427 -0.31191
-0.07162 -0.02854 0.23647
0.23966 0.21374 0.17786
-0.15517 0.22427 -0.27211
0.25115 0.21374 0.28949
-0.26679 -0.21342 0.07913
-0.08711 0.15554 0.23101
-0.00590 0.22427 -0.09623
-0.08751 0.22427 -0.28756
-0.06813 0.22427 -0.18689
-0.25887 0.21374 -0.23320
-0.04617 0.19794 -0.22382
-0.05181 0.21374 -0.12763
0.20756 0.21374 0.22794
0.01212 0.21374 -0.00334
-0.03855 0.22427 -0.23037
-0.17352 0.21374 -0.05707
0.30522 0.22427 0.30210
0.24579 0.21374 0.14534
0.28653 0.21374 0.24200
-0.07724 0.22427 -0.30421
0.29907 0.21374 0.19007
-0.30123 0.21374 -0.20937
-0.13649 0.21374 -0.11766
-0.26360 0.00967 0.09452
0.06295 0.21297 0.04740
-0.06963 0.13275 0.25316
-0.20624 0.20604 0.26859
-0.31039 0.22427 -0.27563
-0.20786 0.22427 -0.00377
-0.02968 0.21374 0.22993
0.22254 0.21374 0.31445
-0.08525 0.22427 0.21042
-0.04926 0.22427 -0.01719
-0.18412 0.21374 0.09132
-0.03440 0.19794 -0.04871
-0.11252 0.22427 0.26702
-0.06059 0.21374 0.11463
-0.23823 0.22427 -0.02803
-0.22992 0.22427 0.29383
-0.11334 0.21374 -0.16916
-0.26373 0.22427 0.08863
-0.08882 0.22427 0.31295
-0.25620 0.21482 -0.31599
0.14719 0.22387 0.31599
-0.30102 0.22427 0.19074
-0.14877 0.21374 0.18215
-0.07641 0.02221 -0.26299
-0.28075 0.21374 0.28892
0.20697 0.22427 0.15504
0.08366 0.22427 0.06870
0.17059 0.21374 0.09247
-0.17947 0.22427 0.20010
0.16750 0.20834 0.26859
-0.12181 0.21374 0.13186
0.23247 -0.17614 0.07222
0.16687 0.21374 0.12997
0.08900 0.22427 0.27951
0.08645 0.21374 0.03358
-0.10775 0.21374 0.25409
-0.07657 -0.10559 0.26034
-0.23218 0.22427 -0.28526
0.29829 0.21374 0.16904
-0.06904 0.22427 0.00837
-0.30353 0.21374 0.14177
0.19035 0.19798 0.03160
-0.06862 -0.07168 0.24200
-0.07162 -0.09432 0.25627
-0.31141 0.21374 0.13955
0.01504 0.22427 0.04641
0.28439 0.21075 0.03720
0.23222 0.22427 0.17832
-0.12511 0.20700 0.28439
-0.08097 0.14552 0.23094
0.00961 0.22427 0.20740
-0.06178 0.22427 -0.19368
0.31599 0.22349 0.11851
-0.08887 0.16430 0.26121
0.01662 0.21374 0.06720
0.01832 0.21051 0.04740
-0.08043 0.21374 -0.15861
0.22826 0.22427 0.02148
0.25183 -0.09965 0.08488
-0.09352 0.11130 0.23411
-0.28642 0.21374 -0.18567
-0.15456 0.21374 0.27252
-0.06125 -0.03959 -0.23685
-0.08163 -0.11876 0.26189
-0.07449 -0.03891 0.23375
-0.29666 0.22427 -0.16821
-0.02042 0.21374 0.16834
0.18570 0.22427 0.30250
-0.11438 0.22427 0.09603
-0.28680 0.21374 -0.26555
0.06554 0.21374 0.20443
-0.23936 0.22427 0.25554
-0.17758 0.21280 -0.26859
-0.08943 0.16045 0.23176
-0.07251 -0.14259 -0.26599
0.21403 0.21374 0.31474
-0.16131 0.22427 -0.13518
-0.20527 0.22427 0.01508
-0.25701 0.21374 0.15567
-0.03157 0.21374 -0.18840
-0.03526 0.19794 0.04701
0.23349 0.22427 0.22024
-0.31107 0.21374 0.11233
0.06174 0.21374 0.31172
-0.08316 0.21374 0.02870
-0.04977 -0.13244 -0.25638
0.00090 0.21374 0.14272
-0.25054 0.21076 -0.26859
0.31599 0.21628 0.21269
-0.23630 0.01342 0.08241
0.14790 0.22427 0.26257
0.04675 0.21374 0.05313
-0.07174 0.09087 -0.23800
-0.20111 0.19794 0.27432
0.23775 -0.10954 0.05766
0.02913 0.21374 0.25089
-0.23682 0.22427 0.04535
0.29445 0.22427 0.14143
-0.08971 0.21374 -0.21663
-0.31599 0.22056 0.31495
-0.08617 -0.21812 0.23453
-0.08179 0.21374 0.09480
-0.25037 0.21374 0.30896
0.00306 0.22427 0.12474
0.15479 0.20261 0.04740
0.07728 0.22427 0.02806
-0.03160 0.20556 0.00640
-0.01630 0.22427 0.17059
-0.28003 0.22427 -0.19961
-0.03137 0.21374 0.22514
-0.21046 0.22427 -0.07132
0.26201 0.22427 0.01367
0.01097 0.21374 -0.01922
0.25366 0.21374 0.01510
-0.04996 0.21374 -0.01320
-0.27587 0.21374 -0.31036
0.03762 0.21793 0.31599
-0.20408 0.21374 -0.21146
-0.25595 0.13498 0.06879
-0.17935 0.21374 0.26724
0.17361 0.21374 0.20274
-0.13345 0.21374 -0.02663
-0.06059 0.16945 -0.26729
-0.05545 0.20614 0.28439
-0.17801 0.21374 -0.20967
0.23412 0.01488 0.06199
-0.14392 0.19794 0.27298
0.27039 0.22427 0.14645
0.29595 0.21374 0.09378
0.08854 0.21374 0.12010
-0.26236 0.05542 0.07236
-0.31598 0.21374 0.29635
0.21593 0.21374 0.06498
-0.20609 0.22427 0.14720
-0.21649 0.21374 0.25679
-0.28098 0.21374 -0.03592
0.28397 0.21504 0.31599
0.19709 0.22427 0.27501
-0.04323 0.21374 0.27914
0.23473 0.22427 0.08444
0.26057 0.21374 0.28365
0.22507 0.19794 0.03662
-0.30627 0.21374 0.27447
0.05853 0.22427 -0.00672
0.10336 0.19794 0.04705
-0.30146 0.21374 -0.18017
-0.05418 0.22427 0.01631
-0.19396 0.22427 -0.04343
0.13445 0.21374 0.25807
-0.28910 0.22427 -0.16860
-0.05871 0.12354 -0.23780
0.11140 0.21374 0.15479
0.25424 0.21374 0.31488
-0.09183 0.10716 0.23281
-0.07377 0.21374 -0.00485
-0.22878 0.22427 -0.01083
-0.08033 -0.08401 0.23102
-0.22262 0.22427 -0.09657
0.31104 0.21924 0.00000
0.20902 0.19794 0.03798
-0.07881 0.15319 0.26127
-0.29866 0.21374 -0.13404
-0.30310 0.22427 0.18120
0.29772 0.22427 0.03145
0.07040 0.22427 0.09276
-0.13628 0.19794 0.27245
0.29391 0.22427 0.31415
-0.24612 0.18277 0.06949
-0.01204 0.21374 0.02246
-0.28255 0.21374 -0.14499
-0.25997 0.21374 -0.00854
-0.26754 -0.19161 0.08510
0.11852 0.22427 0.25621
-0.08476 -0.21812 0.24309
-0.04740 0.19814 -0.06747
0.26994 0.20456 0.28439
-0.10870 0.22427 -0.04252
0.19364 0.21374 0.05954
-0.20663 0.21374 0.19794
-0.24168 0.11800 0.07214
0.25202 -0.06124 0.08486
-0.12554 0.21374 -0.09411
-0.05539 -0.10396 -0.23977
0.18325 0.21374 0.10186
0.27016 0.19794 0.07065
0.04767 0.22427 0.07361
0.02442 0.22427 0.10094
-0.26314 -0.22427 0.08338
-0.19562 0.22427 0.07538
-0.07711 -0.15279 -0.24223
-0.18777 0.21854 -0.31599
0.25853 -0.04297 0.05799
-0.09090 0.21374 0.00728
-0.01215 0.21374 -0.11451
-0.04320 0.19794 -0.04732
-0.10400 0.21374 0.30548
0.21143 0.21374 0.30689
-0.27324 0.22427 -0.10829
-0.13778 0.21374 0.20708
-0.05333 -0.01440 -0.24160
-0.29945 0.21374 -0.19251
-0.20780 0.21374 -0.01852
-0.11369 0.21374 -0.05788
0.09862 0.21374 0.02800
-0.10457 0.21374 -0.29894
0.25873 -0.18016 0.08105
0.26194 0.01470 0.06249
-0.00954 0.22427 0.26948
-0.26927 0.22427 0.30446
-0.03160 0.19966 -0.14755
-0.10990 0.21374 -0.01800
-0.05262 0.17756 -0.26178
0.19662 0.21374 0.02625
0.24544 0.22427 0.16598
-0.04475 0.19794 -0.09397
0.16840 0.22427 0.13252
0.13795 0.21374 0.25363
-0.23732 -0.21258 0.08985
-0.15906 0.22427 0.09279
0.00014 0.21743 -0.10313
-0.06969 0.21374 -0.01792
-0.07957 -0.05183 -0.24645
0.26061 -0.09143 0.07880
0.27253 0.22427 0.07311
-0.26735 -0.12068 0.08156
-0.05845 0.21374 0.09726
-0.17641 0.22427 -0.17257
0.00934 0.22427 0.12278
-0.13905 0.22427 -0.23574
-0.04740 0.21217 -0.07797
-0.24730 0.21374 -0.21570
0.29155 0.21374 0.29615
-0.02841 0.22427 -0.12836
-0.06229 0.20017 0.26859
-0.10533 0.21374 -0.09494
0.21693 0.21374 0.25133
-0.26466 0.14942 0.07498
0.25041 0.22427 0.29041
-0.17038 0.22427 0.21568
-0.31305 0.21374 -0.24548
-0.08377 -0.20700 0.26217
-0.06837 0.10474 0.24939
-0.30199 0.21374 -0.12859
0.24207 -0.20759 0.05507
-0.19702 0.22427 0.25157
-0.18646 0.21374 -0.06695
0.18424 0.22427 0.13442
-0.06306 0.21374 -0.30623
-0.31599 0.22381 0.06891
-0.04665 0.19794 -0.01065
0.23263 -0.10066 0.06575
0.19595 0.22427 0.14291
-0.26859 0.21011 0.26283
-0.23575 0.21374 -0.16363
-0.06979 0.02125 0.23919
0.13487 0.20891 0.04740
0.15738 0.22427 0.09089
-0.05209 0.21044 -0.26109
-0.23769 0.21374 -0.11680
0.11081 0.21374 0.04059
0.12785 0.22427 0.20441
-0.08964 0.11416 0.23185
-0.14617 0.21374 -0.08888
-0.07938 0.21374 0.28300
0.21592 0.21374 0.13305
-0.06000 0.22427 0.07225
-0.20012 0.22427 0.12147
0.16544 0.22427 0.23455
-0.24037 0.22427 0.14888
0.01874 0.19794 0.27566
0.24541 0.22427 0.07846
-0.24374 -0.22427 0.08059
0.00660 0.22427 0.13087
-0.07205 0.15159 0.25683
0.31599 0.22217 0.13115
-0.07800 -0.06934 0.26093
-0.05398 0.21374 -0.26596
-0.00008 0.22427 0.27984
-0.27859 0.21374 -0.09126
-0.24091 0.21374 0.26569
-0.24649 0.04098 0.09878
-0.11966 0.22427 -0.30864
-0.04320 0.21374 0.00939
-0.07764 0.21374 -0.20684
-0.16356 0.22427 -0.03444
-0.20787 0.21374 -0.23285
0.25410 0.21374 0.24813
0.23697 0.22427 0.20269
-0.31599 0.22360 -0.12438
0.28562 0.21979 0.31599
-0.07078 0.21374 -0.28307
0.21420 0.21374 0.16926
0.22531 0.21374 0.07045
-0.17558 0.21374 0.09675
-0.19470 0.22427 -0.00296
0.04290 0.22427 0.03142
0.01670 0.20218 0.04740
-0.30845 0.21374 0.14401
-0.26859 0.20130 -0.14635
-0.12874 0.21374 0.23494
-0.30888 0.21374 -0.07434
0.14315 0.21374 0.31504
-0.20964 0.21374 0.25459
-0.23306 0.21374 0.19367
-0.24399 0.03288 0.07037
0.29776 0.21396 0.31599
0.23524 -0.07954 0.06040
0.05467 0.21090 0.04740
-0.26986 0.21374 -0.30100
-0.28296 0.22427 0.23236
-0.12967 0.21374 0.08872
-0.25933 0.22427 -0.25575
-0.06358 0.22427 0.14555
0.23579 -0.15279 0.07952
-0.06104 0.19237 -0.26744
-0.05409 0.21374 0.24166
0.25225 0.18065 0.05443
-0.05701 0.22427 -0.12640
-0.21719 0.20841 0.28439
-0.04935 0.21124 -0.25348
-0.00519 0.21374 -0.29218
-0.11306 0.21374 0.08186
-0.26521 0.11062 0.07570
-0.02413 0.21374 0.29063
-0.07362 0.21374 0.30390
-0.20836 0.21374 0.20374
0.19928 0.22427 0.00099
-0.14877 0.21374 0.09438
-0.07242 -0.19463 0.23542
0.20155 0.22427 0.04333
-0.10152 0.22427 -0.18835
-0.09405 0.20492 0.25822
-0.03666 0.21374 -0.15795
-0.23170 0.21374 0.31339
-0.06122 -0.06890 -0.23685
-0.29161 0.22427 -0.19852
0.22429 0.22427 0.09312
0.11863 0.21374 0.01575
-0.30722 0.22427 -0.29452
-0.16742 0.22427 0.25518
0.18206 0.21374 0.27272
-0.17484 0.22427 -0.13375
-0.23839 -0.15652 0.09221
-0.26560 -0.09936 0.09186
-0.22701 0.21374 -0.30000
-0.16225 0.21374 0.09504
-0.02579 0.21374 0.26294
0.14879 0.22427 0.11148
-0.06264 0.22427 0.15200
-0.15824 0.22427 -0.07661
0.23243 0.15458 0.06726
-0.06408 -0.21812 -0.25989
-0.14712 0.21374 -0.05447
-0.21927 0.21374 0.26448
-0.20778 0.22427 -0.21611
0.07031 0.21374 0.12210
-0.01867 0.21374 -0.12933
-0.24917 0.21374 -0.19427
-0.21252 0.22427 0.31426
-0.02586 0.22427 -0.08848
-0.14074 0.21374 -0.14136
-0.15225 0.22427 -0.22130
-0.08237 0.15126 0.23075
-0.15139 0.21374 -0.15874
-0.03374 0.21374 -0.16295
-0.30427 0.21374 -0.27582
-0.16385 0.21374 0.11102
-0.09635 -0.00979 0.23703
0.17193 0.22427 0.12893
-0.08204 0.21374 -0.28745
0.14248 0.21374 0.04880
-0.07897 0.22427 0.14405
0.05575 0.21374 0.23391
-0.25231 0.22427 -0.19428
-0.28182 0.22427 -0.26989
-0.00329 0.21374 0.27047
-0.13402 0.21374 0.05785
-0.11384 0.21374 -0.14134
-0.21651 0.22427 0.00553
-0.07253 0.07450 -0.23833
-0.15828 0.21374 -0.18328
-0.04853 0.21133 0.28439
0.07860 0.21374 0.10553
-0.08619 0.14123 0.23089
-0.02560 0.22427 -0.01452
-0.05850 0.21374 -0.16513
0.07423 0.21374 0.29039
0.28187 0.22427 0.04367
0.10502 0.22427 0.17015
0.18422 0.21374 0.01953
-0.04988 -0.19737 -0.24767
0.08931 0.21374 0.21215
-0.00303 0.22427 -0.14356
-0.04263 0.22427 -0.24698
-0.06851 -0.03707 0.25044
-0.15209 0.22427 -0.11358
-0.12820 0.21374 0.02670
-0.14210 0.21374 -0.14957
-0.31231 0.21374 0.08872
-0.25798 0.22427 0.23609
0.24305 -0.15056 0.05466
-0.18630 0.21374 0.10848
-0.05734 0.22427 -0.21631
-0.09543 0.14845 0.25690
-0.06615 0.22427 -0.20703
0.14949 0.22427 0.10375
-0.16443 0.22427 0.14030
-0.30270 0.22427 -0.24577
-0.18343 0.20567 -0.26859
0.24067 0.12873 0.05565
0.01450 0.22367 -0.05209
0.00650 0.21374 0.17910
0.07103 0.22427 0.14502
0.11323 0.21374 0.12502
-0.16765 0.21374 -0.25652
-0.09856 0.22427 -0.27358
0.19366 0.22427 0.13116
0.28722 0.22427 0.14424
-0.25806 0.02257 0.09845
0.23054 0.19794 0.28081
-0.03848 0.22427 -0.05486
0.20069 0.19794 0.04125
0.23288 0.21374 0.19259
-0.18588 0.21374 0.30301
-0.16023 0.22427 -0.00111
-0.18090 0.20804 0.26859
0.09068 0.22427 0.25312
-0.21643 0.21374 -0.28637
-0.08696 0.21425 -0.31599
0.23379 0.20586 0.28439
-0.31356 0.22427 -0.02221
-0.31599 0.21934 -0.23331
-0.22367 0.21374 -0.27523
0.07200 0.21374 0.06264
0.21686 0.21374 0.04373
0.09902 0.19794 0.04057
0.20188 0.19853 0.28439
-0.00125 0.22427 -0.08364
-0.06244 0.06839 -0.26762
-0.10472 0.21374 -0.14571
0.14952 0.21374 0.18637
0.30088 0.21374 0.08078
-0.29715 0.21374 -0.29516
0.06847 0.22427 0.11672
0.14822 0.21374 0.09196
-0.28368 0.22427 0.28949
0.01057 0.21374 -0.05005
-0.14595 0.21374 -0.12769
0.28531 0.22427 0.03995
0.19562 0.21374 0.13543
0.08499 0.21374 0.11126
0.16397 0.21374 0.03072
-0.04322 0.19794 -0.24391
-0.24383 0.21374 -0.08165
-0.29920 0.21374 -0.21755
0.27556 0.21374 0.08027
-0.07834 0.07200 -0.24384
-0.22089 0.22427 0.03286
0.14495 0.21374 0.18977
-0.03862 0.19794 -0.14076
0.11935 0.22324 0.00000
-0.30185 0.21374 0.00161
0.26215 0.21374 0.02381
0.17308 0.21374 0.30435
-0.03469 0.19794 -0.21752
0.15770 0.21374 0.18596
-0.26859 0.20451 -0.00927
-0.07072 0.00550 0.25510
-0.09611 0.21374 0.21689
-0.22756 0.21374 0.24457
0.13203 0.22427 0.13415
-0.16054 0.21374 0.23158
0.24812 0.19794 0.03623
-0.19281 0.22427 -0.19334
-0.12174 0.21374 -0.10433
-0.26743 0.12126 0.08594
-0.31433 0.22427 -0.23226
-0.25265 0.21374 0.12149
0.15249 0.20042 0.28439
-0.29850 0.22427 -0.21243
-0.06741 0.19395 -0.26764
0.31599 0.21663 0.15099
-0.13976 0.21374 0.25173
0.25055 0.21374 0.26329
-0.03299 0.22427 0.01263
-0.09394 0.22427 -0.28783
-0.31599 0.22027 -0.00773
-0.21014 0.22427 0.15930
0.09569 0.22427 0.15210
-0.08776 0.20397 0.26164
0.16076 0.22427 0.20314
0.12312 0.22427 0.08622
-0.11926 0.21374 0.11351
0.09778 0.20732 0.03160
0.20961 0.20506 0.28439
-0.15996 0.20523 -0.26859
0.24739 0.06695 0.08533
0.18262 0.22427 0.11398
0.28439 0.20632 0.25768
-0.26113 0.08413 0.07141
0.02704 0.20071 0.04740
-0.26169 0.22427 0.21410
-0.04855 0.22427 0.03478
-0.11525 0.22038 0.31599
-0.22382 0.21374 0.21227
-0.27955 0.22427 0.03425
-0.20568 0.21374 -0.23912
0.06885 0.21374 0.16785
0.01323 0.21374 0.26303
-0.07430 0.05732 -0.26475
0.25530 -0.00508 0.05570
0.16168 0.22427 0.26062
0.30775 0.22427 0.20705
0.15716 0.21374 0.08143
-0.07932 0.03208 -0.25847
-0.22083 0.22427 -0.11188
-0.00000 0.22327 -0.17191
-0.16739 0.20674 -0.26859
0.23897 -0.03125 0.08247
0.23922 -0.19935 0.08266
0.31599 0.21492 0.24326
0.27967 0.19794 0.08713
0.04915 0.22427 0.24020
-0.15631 0.21374 -0.06284
-0.14727 0.21374 -0.31523
-0.04182 0.21374 0.06080
-0.09095 -0.14292 0.26035
0.23622 0.22427 0.12483
-0.08693 0.22427 -0.10064
-0.17844 0.22427 0.22947
0.23972 0.13502 0.08305
-0.03059 0.22427 -0.10291
-0.03160 0.20596 -0.27647
-0.20791 0.22427 0.21871
-0.19253 0.21374 0.27677
-0.22506 0.22427 0.23944
-0.12545 0.21374 0.15858
-0.24958 0.19463 0.06856
0.16049 0.22427 0.17298
-0.22415 0.21374 -0.03595
-0.12613 0.22427 0.27402
0.15141 0.22427 0.13754
-0.08906 0.21374 -0.23826
0.26293 -0.14000 0.07431
0.08514 0.22427 0.24709
0.27032 0.19794 0.07580
0.12342 0.21374 0.21788
-0.02966 0.22427 0.00674
0.12427 0.21374 0.00316
-0.18607 0.21374 -0.10667
-0.24686 0.21374 -0.02413
-0.07181 0.18044 -0.23803
-0.12981 0.22427 -0.04956
-0.26859 0.20478 -0.05418
0.06843 0.21374 0.15887
-0.04206 0.22427 0.26385
-0.09888 0.22427 0.16753
0.23958 0.06314 0.05625
-0.26859 0.21220 -0.23665
0.17148 0.21374 0.08493
0.21040 0.21374 0.12018
0.05215 0.22427 0.22440
-0.20341 0.22427 0.09276
-0.18016 0.21374 0.29728
-0.11899 0.21374 0.18808
0.20984 0.22427 0.03909
0.30879 0.22427 0.08663
-0.04764 0.21374 0.08868
-0.27001 0.22427 0.21744
0.13741 0.21374 0.30856
0.18568 0.19794 0.04104
0.02090 0.22427 0.00932
0.24831 -0.11324 0.05385
-0.10579 0.22427 0.16518
-0.20000 0.22427 -0.22055
0.26414 0.20467 0.28439
0.02502 0.22427 0.26943
-0.18818 0.22427 -0.09494
-0.04270 0.21374 -0.20570
-0.16250 0.22427 0.24586
-0.23520 0.22427 0.31400
-0.21768 0.21374 0.13456
0.08767 0.22427 0.02527
0.24998 -0.20857 0.08513
0.23631 0.02801 0.08020
-0.00508 0.22427 -0.04097
-0.18983 0.22427 -0.00855
-0.05340 -0.01445 -0.26280
-0.27124 0.22427 -0.02282
-0.07745 -0.11795 0.23203
-0.01360 0.21374 0.11181
-0.21697 0.21374 0.15771
0.06241 0.22427 0.07429
-0.16251 0.22427 -0.02356
-0.09905 -0.06549 0.25030
0.24794 0.20107 0.03160
-0.27798 0.21374 0.18298
-0.12248 0.21374 -0.23551
-0.06729 0.22427 -0.01565
-0.26473 0.22427 -0.17763
-0.05078 -0.15241 -0.25882
-0.06877 0.22427 0.25041
-0.02120 0.22427 0.29896
-0.05195 0.22427 0.28460
-0.14817 0.20804 0.26859
0.07787 0.22427 0.17742
-0.26610 0.22427 -0.03191
-0.28053 0.21374 -0.22636
-0.04910 0.22427 0.11982
-0.20590 0.22427 0.13192
-0.30979 0.22427 0.09420
0.24355 -0.04720 0.08474
-0.20705 0.22427 -0.23850
-0.01642 0.22427 0.29448
0.08906 0.22427 0.27480
-0.27842 0.22427 0.16262
0.25767 0.21374 0.09659
-0.26859 0.21084 0.12000
-0.21172 0.22427 0.12408
0.04241 0.21374 0.00187
-0.00559 0.21374 0.16295
-0.26679 -0.15858 0.08900
0.26859 0.20876 0.22116
0.23578 -0.20710 0.05969
0.04216 0.21374 0.25689
-0.14176 0.22427 -0.06605
-0.29790 0.22427 0.16581
-0.17270 0.22427 0.04691
-0.06154 0.21374 0.27850
0.26310 -0.10561 0.06529
-0.17320 0.22427 -0.16748
-0.26146 -0.13034 0.07167
0.23168 0.22427 0.07078
-0.20688 0.21374 0.01253
-0.09746 0.14685 0.23848
0.03335 0.21374 0.17347
0.22087 0.21374 0.21014
-0.09620 0.21374 -0.20056
0.25718 -0.05348 0.08224
-0.04740 0.20784 -0.26119
-0.24053 0.21374 0.08511
-0.09563 0.09165 0.25664
-0.17647 0.22427 -0.22403
-0.28014 0.21374 0.08413
-0.04236 0.21374 -0.15729
-0.28345 0.21374 0.31351
-0.26469 0.22427 -0.27747
-0.26297 0.21374 0.28397
-0.26583 0.21374 -0.06282
-0.06071 0.22427 -0.12275
0.01150 0.21374 0.20997
-0.08667 -0.06794 0.26179
-0.09098 0.21374 -0.02199
-0.04970 0.21374 -0.11272
-0.01433 0.21374 0.17639
-0.12493 0.21374 -0.12070
0.25365 0.21374 0.22615
-0.21357 0.22427 -0.00762
0.23225 0.21374 0.02397
-0.30658 0.22427 0.16366
-0.01223 0.21374 -0.15180
-0.03444 0.19794 -0.07983
0.24697 -0.13608 0.08527
0.12411 0.22427 0.21395
0.13162 0.21374 0.30144
0.21641 0.22427 0.09597
-0.17850 0.21374 0.31278
0.23696 0.16401 0.08093
0.24921 -0.17347 0.08523
0.11084 0.22427 0.11921
0.23251 -0.02450 0.07249
-0.04243 0.22427 0.23317
-0.23238 0.22427 -0.14423
0.13199 0.20452 0.04740
0.11462 0.21374 0.31427
0.02670 0.21374 0.28733
0.16846 0.20074 0.28439
-0.19169 0.22427 0.21169
-0.26653 0.21374 -0.14770
0.25372 0.19799 0.28439
-0.30323 0.22427 -0.20776
-0.07969 -0.09153 0.26163
-0.08075 0.22427 0.03396
-0.10660 0.22427 0.24431
-0.07316 0.15970 0.25798
-0.05642 0.17028 -0.26533
0.23281 0.05325 0.06516
-0.30816 0.21556 -0.31599
-0.12895 0.21374 -0.02952
-0.02110 0.21374 -0.11754
-0.21233 0.21374 -0.03296
0.03946 0.20827 0.03160
-0.25459 0.13812 0.09950
0.25185 -0.01087 0.08488
-0.31599 0.21931 0.14471
0.07401 0.20849 0.26859
0.03976 0.21188 0.04740
0.25728 0.09509 0.05703
0.23319 0.02792 0.07497
-0.02369 0.21374 0.30090
-0.19084 0.21374 0.21747
-0.04921 0.05547 -0.25239
0.30726 0.21374 0.03370
0.25489 -0.14798 0.08367
-0.10012 0.21374 -0.27925
0.18540 0.22427 0.26863
-0.19325 0.21374 -0.22838
0.00647 0.22427 0.08969
-0.21283 0.22427 0.01885
0.29218 0.22427 0.20434
-0.24748 -0.03302 0.09919
-0.09821 0.22427 -0.14009
-0.06179 0.21374 -0.18071
-0.03236 0.22269 0.31599
0.25509 -0.01957 0.08358
0.10856 0.22427 0.17424
-0.04740 0.20238 -0.24130
-0.07911 0.22427 -0.12750
0.09318 0.22427 0.00022
-0.26876 0.22427 0.02678
-0.26384 0.21374 -0.25951
-0.11876 0.22427 0.28712
0.27688 0.22427 0.10833
-0.26450 -0.11007 0.09335
-0.08061 0.15885 -0.25341
-0.15783 0.21374 -0.29182
0.24418 -0.17592 0.05429
0.05977 0.21374 0.23959
-0.00968 0.21374 -0.23349
0.13913 0.21374 0.07580
-0.21656 0.21374 0.07608
-0.04535 0.22427 0.15920
-0.23081 0.21374 0.08128
-0.04425 0.22427 -0.16116
-0.17494 0.21374 -0.19847
-0.26531 0.08814 0.09228
-0.10912 0.22427 0.21256
0.21050 0.22427 0.22344
-0.28434 0.21374 -0.10600
-0.18468 0.20000 -0.26859
-0.03160 0.20058 -0.11383
0.19380 0.21374 0.21802
0.19043 0.19851 0.28439
-0.08328 0.21374 -0.03834
0.21429 0.22427 0.24483
-0.31599 0.21584 0.01685
-0.29585 0.21374 0.20170
0.16585 0.21374 0.08976
0.00062 0.21374 -0.00779
-0.06976 0.14941 -0.23718
-0.02452 0.22427 -0.30000
0.00344 0.22427 0.01720
-0.16310 0.21374 0.27318
-0.30591 0.22427 -0.14705
-0.06114 0.22427 -0.17429
0.27264 0.19794 0.27259
0.26188 0.20202 0.07684
0.00073 0.22427 0.11431
-0.00160 0.21374 -0.26466
0.07128 0.21374 0.05454
0.17945 0.22427 0.17622
-0.27887 0.22427 -0.08564
-0.31599 0.22045 -0.24383
-0.26859 0.21266 -0.13018
0.04440 0.22427 0.06749
-0.00625 0.22427 -0.14970
0.07764 0.21374 0.03269
-0.08032 -0.14387 -0.24867
-0.08685 -0.10299 0.26176
0.18708 0.22218 0.00000
-0.16527 0.21374 -0.07317
0.10084 0.21374 0.16334
-0.24489 0.21374 0.30719
0.20844 0.22427 0.02225
-0.09499 0.10901 0.25748
0.19241 0.22427 0.23182
0.22950 0.22427 0.14304
0.06142 0.21374 0.07090
-0.13062 0.21374 -0.15081
-0.23873 0.21374 -0.10310
-0.26381 0.22427 -0.15103
-0.28524 0.21374 -0.16713
-0.10372 0.22427 -0.19518
0.05273 0.21374 0.06170
-0.07990 0.08369 -0.24725
-0.13471 0.22427 0.18019
-0.24649 0.22427 -0.11907
-0.25776 0.21374 -0.24844
-0.17844 0.21374 -0.14154
-0.31468 0.22427 -0.04072
-0.25710 0.22427 -0.14778
-0.04740 0.20705 -0.10267
0.23827 -0.01528 0.05726
0.18824 0.21374 0.02658
0.07563 0.19794 0.03552
0.26426 0.22427 0.03561
-0.06580 0.11381 -0.23646
0.29158 0.21374 0.16861
-0.03665 0.22427 0.25101
-0.17019 0.22427 0.26763
-0.01499 0.22427 -0.27003
-0.15437 0.21374 -0.25471
-0.26982 0.22427 -0.10256
-0.07988 0.21374 0.06506
-0.19203 0.21374 0.12493
-0.11224 0.22427 -0.30568
-0.26829 0.21374 0.04668
-0.10091 0.21093 0.28439
-0.26481 0.13479 0.09293
0.14289 0.20824 0.04740
-0.09893 -0.15936 0.24203
-0.30645 0.22427 0.12089
0.06968 0.22427 0.28985
-0.04142 0.21374 -0.08611
0.28389 0.21374 0.22827
-0.01097 0.22427 0.07229
-0.07514 -0.17173 0.23324
-0.25213 0.22427 0.03889
-0.23629 0.18680 0.08567
-0.03927 0.21374 0.09955
-0.05740 0.21374 0.02003
-0.18957 0.22427 -0.27816
0.16349 0.21374 0.15476
0.01793 0.22427 0.19944
-0.09714 0.18972 0.23806
0.00906 0.21374 -0.05677
0.28413 0.19794 0.16653
-0.26625 -0.22089 0.07781
0.26889 0.21374 0.27074
-0.22613 0.22427 0.28802
0.10102 0.20732 0.28439
-0.02158 0.21374 0.20925
-0.01150 0.22427 0.04344
-0.29775 0.21374 0.16284
-0.25205 0.18234 0.09983
-0.13418 0.22427 -0.05643
-0.31359 0.21374 -0.21221
0.02095 0.22427 -0.01219
-0.23645 0.21374 0.07008
-0.22889 0.22427 0.09813
-0.02640 0.21374 -0.27448
-0.06673 0.12714 -0.26772
-0.26635 0.22427 0.12010
-0.28756 0.22427 -0.27695
0.15809 0.21374 0.19994
0.09901 0.21374 0.10366
-0.22775 0.21374 -0.06764
0.23223 0.02556 0.07037
-0.19563 0.21374 0.10735
-0.05063 0.12100 -0.25845
-0.22926 0.22427 -0.06401
-0.00270 0.21374 -0.24281
0.16798 0.21374 0.19265
-0.09217 0.21222 -0.26859
-0.19102 0.22427 -0.28653
0.07322 0.21374 0.27964
0.04830 0.21875 0.31599
0.28117 0.19794 0.11864
-0.06883 -0.17833 0.24150
-0.23500 0.22427 0.10032
-0.13079 0.22092 0.31599
-0.23754 0.04521 0.09037
-0.25967 0.21374 0.14955
-0.16386 0.22427 -0.13075
-0.06110 0.22427 -0.31564
-0.06733 0.21374 0.18532
-0.21572 0.22427 0.14042
-0.29945 0.21374 0.11585
-0.25253 -0.04480 0.06834
0.27040 0.22427 0.30587
-0.04740 0.20498 -0.11145
-0.14605 0.22427 -0.02424
-0.28353 0.21374 0.12791
0.21731 0.21374 0.07396
-0.30424 0.21374 0.03506
-0.24459 0.22427 0.31590
0.23362 -0.04993 0.07599
-0.00000 0.21929 -0.24545
0.15388 0.21374 0.16771
-0.11239 0.22427 -0.19843
0.15858 0.22427 0.21773
-0.07991 -0.21072 -0.25705
-0.17881 0.21477 -0.31599
0.11086 0.21374 0.01450
-0.23805 0.22427 0.03518
-0.26208 0.10830 0.09597
-0.31567 0.22427 0.19481
0.02173 0.21374 0.26592
0.23672 0.21374 0.06142
-0.07191 -0.21344 0.23609
-0.31599 0.21453 0.11712
0.05575 0.22427 0.19402
-0.09234 0.22427 0.23195
-0.08793 0.14959 0.26160
-0.03370 0.21374 0.13676
-0.22516 0.22427 0.09029
-0.11865 0.21374 0.25709
0.13319 0.21374 0.13321
-0.24169 0.21374 -0.20760
-0.11168 0.21374 0.16952
0.31007 0.21374 0.18571
-0.26674 -0.00975 0.08911
-0.10459 0.21374 -0.12833
-0.21270 0.22427 -0.26630
0.00543 0.21374 0.25190
-0.12395 0.22427 0.22290
-0.22161 0.22427 -0.24553
0.24061 0.20646 0.26859
-0.08682 0.13799 0.26177
0.11387 0.22427 0.17799
-0.14102 0.21374 0.18391
-0.09946 -0.18804 0.24552
0.17951 0.21374 0.14738
-0.22277 0.22427 0.04001
-0.18755 0.21374 -0.14742
-0.09954 -0.10354 0.24615
-0.14418 0.22427 -0.11233
-0.10930 0.22427 0.20536
-0.11486 0.22427 0.07427
-0.12812 0.21374 -0.27493
0.18625 0.22427 0.05708
0.23999 0.21374 0.23430
-0.30355 0.22427 0.00829
-0.16295 0.22427 0.17758
-0.06522 0.16083 -0.26792
-0.05917 0.13329 -0.23761
0.28439 0.20478 0.09709
-0.01327 0.19794 0.28156
0.15000 0.22427 0.14389
-0.09655 0.22427 0.07373
0.28016 0.22427 0.28286
-0.08265 0.20236 0.26202
-0.27755 0.22427 -0.05537
-0.08799 -0.08835 0.23116
-0.19685 0.21374 -0.30528
0.18916 0.20539 0.04740
0.16932 0.21772 0.00000
0.06388 0.21374 0.03664
-0.29709 0.21374 -0.01235
-0.16082 0.21374 0.18196
0.08151 0.22427 0.05245
-0.02602 0.22427 0.09721
-0.06760 0.21374 0.08087
-0.03160 0.21054 -0.20139
-0.06802 -0.06875 0.24599
0.28821 0.22427 0.12125
0.28517 0.21374 0.00889
-0.15172 0.22427 -0.03937
-0.27699 0.22427 -0.25198
-0.25877 0.20759 0.07094
-0.07763 -0.15439 0.23196
-0.04960 0.13469 -0.24894
-0.21579 0.22427 -0.25414
-0.07965 0.14803 -0.25768
0.04879 0.20044 0.28439
-0.07442 0.03086 -0.26465
-0.31530 0.22427 -0.09186
-0.08958 -0.09759 0.26092
-0.15507 0.22427 -0.23077
0.08548 0.21374 0.19676
-0.16564 0.22427 0.19494
-0.26859 0.21186 0.19507
-0.07615 0.15778 -0.26333
-0.07210 -0.21401 -0.26616
0.11186 0.22427 0.23806
-0.26356 0.15007 0.09456
0.23890 0.10005 0.05678
-0.02767 0.21374 0.13467
-0.05183 0.21374 -0.17711
-0.06897 0.21374 0.19440
0.02557 0.22427 0.31162
-0.14732 0.21374 0.06978
0.08511 0.19899 0.03160
-0.23680 0.21374 0.16577
-0.09540 -0.09401 0.23579
-0.09342 0.00650 0.25871
-0.23715 0.22427 0.17538
-0.17690 0.22427 -0.09217
0.28439 0.20478 0.13773
0.13056 0.21374 0.12103
-0.11706 0.22285 -0.31599
-0.04927 0.16428 -0.25283
0.13106 0.22427 0.03619
0.14273 0.21374 0.30145
-0.01992 0.21374 0.04763
0.28998 0.21374 0.25091
0.09998 0.21374 0.09689
-0.04937 -0.03882 -0.25074
-0.07708 0.19838 -0.26212
-0.15613 0.21374 0.18550
-0.03212 0.19794 -0.05678
-0.08735 0.21374 0.09484
-0.02557 0.21374 -0.00715
0.28439 0.20563 0.21671
0.25834 -0.11006 0.05784
0.25659 0.20397 0.08269
-0.10150 0.22427 0.30372
0.18030 0.22427 0.03009
0.08118 0.21374 0.16913
0.25864 -0.16998 0.08112
-0.22064 0.21374 0.29838
-0.15053 0.21374 -0.11490
0.17549 0.22427 0.20463
-0.04740 0.20238 -0.06513
-0.25057 0.12320 0.09969
0.24472 -0.19017 0.05422
-0.24163 0.21374 0.03220
-0.05541 0.22427 0.18361
-0.05094 -0.15054 -0.24511
0.24308 0.08602 0.08454
-0.05841 0.04451 -0.26639
0.17571 0.21374 0.25426
-0.22758 0.21566 0.31599
-0.08332 0.21374 0.24538
0.20171 0.21374 0.23925
0.30418 0.22427 0.04549
0.27645 0.21374 0.06197
-0.20631 0.22427 -0.12957
0.24935 0.21161 0.03160
0.17358 0.21374 0.26271
-0.28659 0.22427 -0.22688
0.14189 0.21374 0.01981
-0.00378 0.22427 0.25471
-0.03222 0.19794 0.00868
-0.26760 -0.03356 0.08349
-0.04687 0.21374 -0.13374
-0.20461 0.21374 0.06376
-0.13073 0.22427 0.07754
-0.00128 0.22427 0.02788
0.09625 0.22427 0.11194
-0.06894 0.22427 -0.05037
0.23966 0.04750 0.08300
-0.15112 0.21374 0.23487
-0.18134 0.22427 -0.01532
0.23301 -0.00332 0.07454
0.04251 0.21374 0.11718
0.23379 -0.13486 0.07641
-0.05999 0.22427 0.16174
-0.07420 0.14432 0.23397
0.13688 0.21374 0.20202
0.23240 -0.07871 0.07170
-0.08713 0.21374 -0.16126
-0.10403 0.21374 0.04488
0.02229 0.21374 0.24136
0.30905 0.21374 0.23511
0.20174 0.22427 0.12742
-0.21026 0.21374 0.29932
-0.19259 0.22427 -0.17206
-0.09488 0.22427 0.24581
-0.14352 0.22427 0.08020
-0.26859 0.19948 0.08570
-0.26179 -0.00487 0.07192
-0.04546 0.22427 -0.27123
-0.27392 0.22427 0.06543
-0.31599 0.21846 -0.09571
-0.01481 0.22427 -0.15007
0.25891 -0.00299 0.08091
0.22796 0.22427 0.18167
0.05680 0.21374 0.11829
0.07025 0.21374 0.10314
-0.08098 0.22427 -0.24453
-0.01123 0.21374 -0.27456
0.17334 0.21374 0.17932
-0.11005 0.22427 -0.05502
0.13493 0.22427 0.11426
-0.06853 0.22427 -0.04144
0.28439 0.21002 0.09052
-0.10882 0.22427 -0.13576
0.12404 0.22427 0.29892
-0.20605 0.21374 -0.06332
0.13353 0.22427 0.07397
-0.06851 0.22427 -0.07503
-0.23344 0.19794 0.27603
0.25545 0.22427 0.31192
-0.30698 0.21374 0.13050
-0.14010 0.22427 0.14490
-0.05330 0.11559 -0.26266
0.26248 0.21374 0.10430
-0.12271 0.22427 0.23410
-0.01086 0.22427 0.25437
0.18525 0.21430 0.31599
-0.14126 0.22427 0.08708
-0.28429 0.21374 -0.08244
-0.05581 0.21374 -0.00094
0.26116 0.09272 0.06112
0.05331 0.21374 0.23925
-0.23818 0.02279 0.07619
-0.05442 -0.09181 -0.26380
-0.16555 0.21374 0.24152
-0.01217 0.22427 0.09973
0.24140 0.22427 0.27128
0.15463 0.22427 0.20780
-0.20440 0.21374 -0.01199
-0.26768 0.21374 0.16904
0.29377 0.22427 0.16549
0.01203 0.22427 0.20059
-0.07702 -0.08674 -0.24212
-0.01134 0.21374 0.09737
-0.29151 0.21374 0.03022
-0.03497 0.21374 -0.14318
-0.07830 0.22427 -0.07945
-0.23015 0.21374 0.29858
-0.05891 0.21374 0.07062
-0.25889 0.17987 0.07001
-0.23575 0.21374 -0.27046
-0.08661 -0.03811 0.23094
-0.09542 0.22427 0.05209
-0.13170 0.21374 0.07642
-0.18997 0.19794 0.27105
-0.09182 0.07907 0.23280
0.17435 0.21374 0.02110
0.26573 0.22427 0.27300
-0.24988 0.22427 0.03075
0.05247 0.22427 0.12748
-0.21338 0.22427 -0.27513
0.09440 0.19794 0.04532
-0.31599 0.21494 -0.10655
0.13563 0.22427 0.04787
-0.08766 0.01334 0.26166
0.28618 0.22427 0.04776
0.28591 0.21374 0.01353
-0.14611 0.22427 -0.19649
-0.13082 0.21374 -0.12231
-0.08180 0.21374 0.04068
-0.22914 0.22427 0.14432
-0.09857 -0.12224 0.25158
-0.17144 0.22427 0.09597
-0.06327 0.21374 -0.00225
-0.09830 0.11709 0.24051
-0.15563 0.21374 -0.28010
0.29745 0.21374 0.03869
0.26322 0.19894 0.07342
-0.12682 0.21374 0.02061
-0.02817 0.22427 0.12788
-0.27584 0.22427 -0.02589
-0.20710 0.21374 -0.12935
-0.09663 -0.03748 0.25534
0.28475 0.22427 0.16098
-0.05874 0.22427 0.22027
-0.09528 0.22427 0.03675
-0.17394 0.20478 0.28439
-0.24099 0.22427 0.23565
-0.26859 0.20195 0.12568
-0.09412 0.07959 0.25817
0.03572 0.21374 -0.01599
0.22226 0.21374 0.16290
0.18280 0.21374 0.21026
-0.07319 0.01781 -0.23871
-0.22812 0.22427 0.04555
0.27733 0.22427 0.12889
0.22299 0.21374 0.12284
-0.07580 0.21374 -0.29390
-0.03160 0.21077 -0.12839
-0.04171 0.22427 0.11021
-0.22959 0.22427 0.16439
-0.27978 0.22427 -0.27491
-0.28743 0.22427 -0.00462
-0.27207 0.22427 -0.29821
-0.22307 0.22427 -0.22187
-0.09228 0.03388 0.25958
-0.04680 0.19794 -0.15816
0.20312 0.21374 0.05542
-0.09434 0.15421 0.25800
-0.11797 0.22427 0.22943
-0.26859 0.20535 0.16124
0.14850 0.20185 0.03160
0.15180 0.22427 0.12089
-0.12297 0.21374 0.23331
-0.24645 -0.10947 0.09876
-0.25265 0.22427 -0.05194
-0.25616 0.22427 0.15368
-0.21101 0.21374 0.13387
-0.09477 0.21107 0.25767
0.15715 0.21374 0.24204
0.22785 0.21374 0.19671
-0.04703 0.19794 0.28322
-0.08215 0.03823 0.23078
-0.03205 0.21374 -0.07517
-0.06167 0.22427 -0.28712
0.28439 0.21080 0.11043
-0.07868 0.22427 -0.17209
0.22555 0.21374 0.25076
-0.24157 0.13323 0.07222
0.08835 0.20032 0.04740
-0.24532 -0.14421 0.06982
-0.05960 0.03605 -0.23743
0.25477 0.21215 0.05548
0.24643 0.22427 0.31343
0.23654 0.22427 0.27695
0.16224 0.21374 0.12746
0.28439 0.20086 0.10199
0.23440 0.20584 0.06149
-0.25441 0.21374 -0.15149
-0.00413 0.22427 -0.23292
-0.18514 0.21133 0.26859
-0.23353 0.21374 0.25550
-0.05460 0.10869 -0.24038
0.10254 0.21374 0.19943
0.26859 0.20422 0.13219
-0.03729 0.22427 -0.11600
0.17477 0.22427 0.01737
-0.13769 0.22427 -0.27083
-0.23533 0.21374 0.23598
0.06836 0.21374 0.20055
-0.29639 0.21374 -0.26701
-0.20448 0.22427 -0.31322
-0.07331 0.05002 0.25809
-0.09260 0.22427 0.00276
0.14738 0.22427 0.07243
-0.04923 -0.17946 -0.25173
0.23943 0.21374 0.02438
-0.06834 -0.13266 0.24353
0.15284 0.21374 0.03281
0.02485 0.21374 0.14134
0.00546 0.21374 0.09575
0.31541 0.22427 0.24462
-0.23867 0.18098 0.07554
0.24460 0.21374 0.28699
-0.30536 0.21374 0.23372
-0.07352 -0.12654 0.25825
-0.12371 0.22427 0.02925
0.00949 0.22427 0.13792
-0.07347 -0.08514 0.23453
-0.30518 0.22427 0.11567
-0.04750 0.21374 0.16709
0.27624 0.19794 0.07408
-0.06541 0.22427 -0.23020
-0.20510 0.21374 -0.00284
-0.24018 0.08730 0.07357
-0.00000 0.21721 -0.17743
0.24869 0.15531 0.08530
-0.31599 0.22211 0.11896
-0.07985 0.22103 -0.31599
-0.05900 0.15981 -0.26664
-0.02641 0.21374 0.28649
-0.24845 0.11943 0.06871
-0.08060 0.06451 -0.25082
-0.20623 0.21374 -0.20591
0.08559 0.21374 0.17874
0.25627 0.22427 0.09000
0.00400 0.20902 0.26859
-0.05699 -0.16229 -0.26577
-0.28902 0.22427 0.15947
-0.17184 0.21374 0.11946
-0.25522 0.21374 -0.07641
-0.06104 0.10503 -0.26744
-0.25636 -0.12993 0.06896
-0.09925 0.08753 0.24392
-0.24965 0.21374 -0.06008
-0.15271 0.22427 -0.29957
0.26859 0.20978 0.24617
-0.15719 0.21374 0.08603
-0.07997 0.21374 0.22299
0.01614 0.22427 0.20616
-0.19967 0.22427 0.11374
0.23454 -0.02710 0.07788
0.29595 0.22427 0.15882
-0.25817 0.05349 0.06971
-0.31211 0.21374 0.26931
-0.25480 0.03633 0.09947
-0.25688 -0.20734 0.06917
-0.09481 0.22427 0.01930
-0.04988 -0.05059 -0.25663
-0.04391 0.21374 0.24644
0.26019 0.02482 0.05984
-0.18460 0.22427 -0.00375
-0.02564 0.21374 0.20003
-0.25291 0.21374 -0.23280
-0.10259 0.22427 -0.17642
-0.00880 0.20972 0.03160
0.03689 0.22427 0.23325
0.23296 -0.11324 0.06479
-0.25256 0.21374 -0.11332
-0.09067 -0.01135 0.26047
-0.06956 0.19139 0.25299
-0.21490 0.22427 0.22305
-0.18932 0.21374 0.01073
-0.09391 -0.10310 0.23440
-0.05441 -0.05679 -0.26379
0.26859 0.21336 0.16768
-0.00000 0.22211 -0.23889
0.25023 -0.21812 0.08501
-0.28406 0.22427 -0.16407
-0.07072 0.21374 0.10526
-0.13039 0.22427 0.30013
-0.30645 0.22427 0.07694
-0.27855 0.22427 -0.09244
-0.15041 0.22427 -0.01847
-0.31599 0.21461 0.14806
-0.23478 0.21374 0.20505
-0.08026 0.15330 -0.25606
-0.27198 0.22427 -0.09723
0.14977 0.22427 0.15545
-0.06014 0.21374 0.23046
0.22285 0.22427 0.06918
-0.05799 0.22427 -0.29795
-0.06879 0.14695 0.25115
-0.00030 0.22427 -0.05331
-0.05893 0.21374 -0.22319
-0.26859 0.20630 -0.02760
-0.13275 0.22427 -0.16800
0.10879 0.21374 0.00179
-0.17139 0.21374 0.05805
-0.30956 0.22427 0.29599
0.25783 0.03309 0.05745
-0.21514 0.22427 0.25333
-0.06802 -0.01581 0.24678
-0.23344 0.22427 -0.20790
-0.02512 0.21374 0.00088
-0.13034 0.22427 -0.27299
0.26859 0.21295 0.11716
-0.12172 0.22427 -0.11364
0.12233 0.22427 0.26634
0.15712 0.21374 0.27349
-0.18140 0.21374 -0.13061
-0.07971 -0.21675 -0.25753
-0.29302 0.22427 -0.25972
0.26327 -0.15848 0.06616
0.16676 0.21374 0.21545
-0.20561 0.21374 -0.14986
-0.24035 0.21374 0.18297
-0.04740 0.20168 -0.16766
0.05253 0.19794 0.03976
-0.09821 0.21374 -0.16219
0.05367 0.22427 0.31384
-0.08035 -0.19686 -0.25541
-0.11785 0.21374 0.01482
-0.11844 0.21374 0.06609
-0.18149 0.21374 0.18524
0.14364 0.22427 0.04763
0.24280 0.22427 0.29895
-0.17380 0.22427 0.17355
-0.00099 0.22427 -0.27302
-0.27941 0.22427 -0.00661
-0.02700 0.22427 0.20544
0.06645 0.21145 0.28439
0.19897 0.22427 0.08863
-0.24976 0.21374 0.08443
-0.12919 0.21374 -0.18076
-0.14467 0.22427 -0.26268
-0.16193 0.22427 -0.30050
-0.18817 0.22427 -0.21957
-0.11360 0.21374 -0.08093
-0.02620 0.21374 0.21520
-0.04947 0.06627 -0.24993
-0.18563 0.20994 0.28439
-0.12923 0.22427 0.04399
0.25110 0.22427 0.19374
-0.00000 0.21517 -0.14506
-0.20153 0.19812 0.26859
-0.16637 0.21374 0.09804
-0.21812 0.21374 -0.15310
-0.04968 0.02708 -0.25599
-0.22066 0.22427 -0.14958
0.15536 0.22427 0.17685
0.01220 0.21374 0.01959
-0.31013 0.21374 -0.13159
-0.12832 0.21374 -0.07711
0.18727 0.21374 0.08667
-0.30108 0.22427 -0.02285
-0.05320 0.22427 0.23852
0.15046 0.22427 0.00426
-0.08954 0.21374 0.27000
-0.06673 -0.18009 -0.23659
0.00600 0.22427 -0.03798
-0.06087 0.22427 0.02516
-0.27119 0.21374 -0.19235
-0.09199 0.21374 0.20953
0.09184 0.21374 0.09669
-0.18084 0.21374 0.17045
-0.17968 0.21374 0.21526
-0.26276 -0.10065 0.07266
-0.17592 0.22427 -0.30215
-0.08794 0.21374 -0.12186
-0.07298 0.22427 -0.10516
0.10722 0.21374 0.14131
-0.29172 0.22427 -0.12909
-0.23815 0.21374 0.05875
-0.23136 0.22427 -0.29649
-0.02559 0.22427 0.06436
0.19030 0.21948 0.31599
-0.06415 0.21374 0.30795
-0.03088 0.20939 0.03160
0.25854 -0.02337 0.08120
0.00168 0.21374 -0.05999
0.23302 0.14415 0.06464
-0.30240 0.21374 0.22432
0.01631 0.21374 -0.04401
-0.24916 0.21374 -0.08741
-0.17631 0.22427 -0.25801
0.23274 -0.05125 0.06532
0.10587 0.19794 0.27229
-0.22455 0.22427 0.21232
-0.03403 0.22427 -0.26300
-0.05072 -0.02367 -0.24565
-0.24438 0.22427 -0.02588
0.27546 0.22427 0.25778
0.09738 0.22427 0.13125
-0.09598 0.21374 -0.02125
0.26270 -0.07245 0.07486
-0.30000 0.22427 -0.22126
-0.26658 0.22427 -0.18719
-0.09880 0.21374 0.17550
0.08997 0.21374 0.24549
-0.07861 -0.14022 -0.24419
0.13955 0.22427 0.22685
-0.27960 0.22427 -0.02147
-0.05620 0.19703 -0.26517
-0.17485 0.21374 0.27556
-0.08744 0.21374 -0.18328
-0.23699 -0.17241 0.07908
0.23142 0.20023 0.04740
0.25511 -0.10402 0.08357
-0.03160 0.21259 -0.22958
-0.06714 0.21374 -0.28858
0.31226 0.22427 0.28971
0.03671 0.21374 0.21836
-0.09929 0.18318 0.24846
-0.05944 -0.19137 -0.26682
-0.10452 0.21374 -0.08082
-0.09215 -0.16530 0.25968
-0.06872 0.11646 0.25096
0.19408 0.22427 0.25425
-0.08795 -0.13813 0.23114
0.01206 0.22427 0.15798
-0.09701 0.22427 -0.14487
-0.23835 -0.10413 0.09216
-0.20136 0.22427 -0.27290
0.02310 0.21374 0.20641
-0.27284 0.22427 0.07106
0.18764 0.22427 0.07756
0.28541 0.21374 0.08401
-0.16579 0.22427 0.13082
-0.10671 0.21321 0.28439
-0.26859 0.20484 -0.13031
-0.13799 0.22427 -0.26144
-0.09000 -0.02000 0.26074
-0.30508 0.21374 0.14751
-0.23631 -0.14985 0.08228
0.16432 0.22427 0.15142
-0.02048 0.22427 0.07357
-0.18519 0.22427 0.04776
0.30956 0.22427 0.18045
0.29142 0.22427 0.05261
0.21982 0.20364 0.03160
-0.03953 0.21374 0.04153
-0.09632 0.22427 -0.05894
0.22044 0.21374 0.23368
-0.29039 0.22427 -0.28720
-0.03160 0.20478 -0.14607
-0.24657 0.22427 -0.21028
-0.13213 0.21374 -0.11320
-0.29895 0.22427 -0.27266
-0.26484 0.21374 0.03800
0.26348 -0.13127 0.07148
0.12656 0.21374 0.14803
-0.31599 0.21761 -0.08018
0.31351 0.21374 0.07068
0.30656 0.21374 0.22530
-0.26748 -0.22199 0.08258
0.10296 0.22427 0.18776
-0.11365 0.22427 0.31191
-0.00132 0.21374 -0.09726
-0.26748 0.21374 -0.27201
-0.12641 0.21374 0.19179
-0.09740 -0.12915 0.23840
0.02060 0.22427 0.05496
0.31599 0.21528 0.16745
0.16575 0.21757 0.31599
-0.18233 0.21374 0.26354
0.08043 0.22427 0.30612
0.24657 0.16305 0.08522
0.00007 0.22427 0.26066
-0.21003 0.22427 -0.22961
-0.11543 0.21374 0.09164
-0.06825 0.21374 -0.22881
-0.06605 0.21374 -0.27829
-0.18066 0.21374 -0.25277
-0.21118 0.21374 -0.21086
-0.28285 0.21374 0.09827
-0.05449 0.22427 -0.24114
0.12802 0.22427 0.22181
-0.00597 0.22427 -0.01410
0.04208 0.21374 0.18019
-0.05965 0.21374 0.09011
0.09796 0.19794 0.28297
0.26859 0.20548 0.08421
-0.11128 0.21374 -0.03204
0.13325 0.21374 0.24069
-0.07539 0.20891 -0.24040
-0.03160 0.20975 -0.00575
-0.23699 0.21374 -0.12349
-0.00000 0.21972 -0.18904
-0.17206 0.22427 0.19356
-0.00595 0.22427 -0.21174
-0.27123 0.19794 0.27659
-0.25832 0.21374 -0.27129
-0.09645 0.22427 -0.12052
-0.09596 0.20132 -0.26859
-0.07888 0.21374 0.22756
0.11472 0.22427 0.30807
0.21019 0.19794 0.28158
0.03648 0.22427 0.16877
-0.02989 0.19794 0.03373
-0.21136 0.22427 -0.14855
-0.09725 0.21374 -0.19080
0.13236 0.21374 0.12681
0.12401 0.21374 0.11192
-0.04740 0.20095 -0.19180
0.19344 0.21374 0.16191
0.08168 0.22427 0.19475
0.31599 0.21799 0.19416
0.06079 0.22427 0.01010
0.21277 0.22427 0.19854
-0.07254 -0.09932 0.25746
-0.08035 -0.11354 -0.24888
-0.20952 0.21374 0.07008
0.23884 0.21374 0.19395
-0.25477 -0.09761 0.06864
-0.22371 0.22427 -0.29477
-0.20422 0.22427 -0.20744
-0.16580 0.22427 0.02308
-0.29831 0.22427 0.31316
-0.09735 0.22427 -0.12810
-0.26727 -0.16388 0.08095
-0.15147 0.22427 -0.16159
0.31375 0.21374 0.05422
-0.03876 0.22427 -0.19572
-0.26859 0.21105 0.05570
-0.09330 0.21374 0.19578
-0.09772 0.03731 0.25363
-0.13928 0.21374 -0.06602
-0.26907 0.21374 0.09371
0.05814 0.22427 0.14598
-0.16125 0.22427 0.05143
-0.03942 0.21632 -0.31599
0.27952 0.22427 0.02488
-0.11764 0.22427 0.01380
-0.14664 0.22427 -0.29871
-0.14488 0.21374 0.20112
-0.05207 0.22427 -0.17925
-0.23660 0.21374 -0.17411
0.22454 0.21374 0.15163
0.12756 0.21374 0.27342
-0.07508 0.22427 0.00042
-0.17975 0.22427 0.05975
0.14289 0.22427 0.20255
-0.19456 0.22427 -0.26112
0.31459 0.22427 0.01891
-0.07857 0.00573 0.23157
0.25165 0.06649 0.05429
-0.29785 0.21374 0.06875
0.05806 0.22427 0.08448
-0.13572 0.21374 -0.26714
0.01068 0.21374 -0.02978
-0.24551 0.22427 0.13447
-0.06985 -0.21812 -0.25415
-0.24584 0.21374 0.27029
0.17731 0.21374 0.13425
0.23429 0.21374 0.04061
-0.19281 0.21374 -0.21240
-0.06798 0.01863 -0.26756
-0.02479 0.21374 -0.17319
0.25989 0.01939 0.07974
-0.00000 0.21715 -0.27671
-0.29099 0.22427 -0.29892
0.00099 0.21374 -0.08730
-0.28466 0.21374 0.07215
0.04178 0.21374 0.22440
-0.09916 0.18655 0.24329
-0.15129 0.21374 -0.04856
-0.07957 -0.16734 -0.25787
0.28439 0.20578 0.19961
-0.29806 0.21374 -0.07084
0.06320 0.22427 0.16117
-0.10858 0.21374 -0.19750
-0.03795 0.22427 -0.14049
-0.03446 0.22427 0.12267
0.17247 0.21374 0.21852
-0.07667 -0.07461 0.26038
0.02935 0.22427 0.28660
0.26753 0.22427 0.29315
-0.18642 0.21374 -0.26555
-0.02550 0.20851 0.04740
-0.07404 0.22427 0.16497
-0.09034 0.14181 0.26060
-0.27094 0.22427 -0.26892
0.27194 0.21374 0.22283
0.01985 0.22427 0.28716
-0.06964 0.12838 0.23954
-0.15708 0.21374 -0.30049
0.22217 0.20850 0.28439
-0.23735 0.21374 -0.04695
-0.27129 0.21374 -0.01397
-0.06881 -0.14234 0.25119
0.26081 -0.18365 0.06066
-0.07597 0.04722 -0.24084
-0.31462 0.21374 -0.30076
0.13624 0.22427 0.12298
0.30644 0.22427 0.09703
-0.08717 0.22427 0.20452
-0.07497 0.22427 0.25794
-0.01945 0.21374 -0.23780
0.07945 0.22427 0.29894
0.11533 0.21374 0.08071
0.00829 0.21084 0.26859
0.22441 0.21374 0.12941
-0.06718 0.04064 -0.23665
-0.23633 -0.01481 0.08214
0.14272 0.22427 0.01638
0.11407 0.22427 0.07648
-0.22635 0.22427 0.05346
0.01052 0.22427 0.12748
-0.05862 0.22427 -0.20291
-0.18974 0.22427 0.29172
-0.21124 0.21414 -0.31599
0.30101 0.21374 0.22485
-0.24765 -0.19819 0.09926
0.23231 -0.15550 0.06823
-0.24510 0.03621 0.09820
0.01633 0.21374 0.11608
0.18679 0.19794 0.28059
