-0.15370 0.19705 0.03725
-0.15370 0.19411 0.21787
-0.15370 0.20937 0.17658
-0.15370 0.19460 -0.01836
-0.15370 0.19206 0.04669
0.13041 0.20235 0.24139
-0.03476 -0.21204 0.25078
0.02887 -0.21204 0.24540
0.13198 0.15309 0.25626
0.13705 -0.00878 0.25626
0.13714 0.27381 0.25626
0.13859 0.05535 0.25626
0.13150 -0.21529 0.25626
0.13855 0.26855 0.25626
0.13426 -0.18629 0.25626
0.13455 0.09980 0.25626
0.13981 0.00867 0.25626
-0.13041 -0.23325 -0.22372
-0.12690 0.37016 -0.27791
0.15539 -0.06552 0.25626
0.15404 -0.00641 0.25626
0.15605 -0.13917 0.25626
0.15499 -0.00162 0.25626
0.14779 -0.32872 0.25626
0.15824 -0.29914 0.25626
0.15377 -0.04115 0.25626
-0.02870 0.25850 -0.24210
-0.00149 0.25725 -0.24210
-0.07996 0.30162 -0.24210
-0.02063 0.26439 -0.24210
-0.06463 0.27041 -0.24210
-0.00575 0.24476 -0.24210
-0.12288 0.22252 -0.24210
-0.06668 0.27830 -0.24210
0.05792 0.22875 -0.24210
-0.07123 0.23138 -0.24210
-0.08814 0.25049 -0.24210
-0.02874 0.22718 -0.24210
-0.10421 0.22418 -0.24210
0.15033 0.18852 0.19459
0.14465 0.18852 0.21994
0.13813 0.18852 0.10349
0.14387 0.18852 0.12050
-0.03452 0.35619 -0.22523
-0.16823 0.35619 -0.22701
0.11122 0.35619 -0.21941
-0.11528 0.35619 -0.22135
-0.17316 0.35619 -0.21994
-0.13804 -0.29454 -0.21882
-0.13962 -0.18829 -0.21882
-0.13910 -0.00570 -0.21882
-0.13226 -0.06247 -0.21882
-0.14381 -0.36643 -0.21882
-0.13803 0.02894 -0.21882
-0.13611 0.08693 -0.21882
-0.14463 -0.17382 -0.21882
-0.13349 -0.34503 -0.21882
-0.13041 0.30331 0.25054
-0.03857 0.37016 0.01955
-0.09306 0.37016 0.02299
0.07033 0.37016 0.17006
-0.18366 0.37016 -0.00519
-0.16670 0.37016 0.18263
0.08935 0.37016 0.24458
-0.01131 0.37016 0.19820
0.02979 0.37016 0.09802
0.10075 0.37016 0.15663
-0.01659 0.37016 0.12921
-0.17081 0.37016 0.22839
0.01264 0.37016 0.25377
-0.17394 0.37016 0.14251
-0.07721 0.37016 0.08122
0.00142 0.37016 0.18973
0.05613 0.37016 0.23881
-0.06566 0.37016 -0.08893
0.10279 0.37016 0.23964
-0.06667 0.37016 0.20948
0.02908 0.37016 0.20858
-0.11892 0.37016 0.25388
0.11035 0.37016 0.16457
0.03526 0.37016 0.18303
-0.08254 0.37016 0.10591
0.03333 0.37016 0.25878
-0.06858 0.37016 0.24344
-0.16013 0.37016 0.09113
-0.08492 0.37016 -0.01739
-0.05537 0.37016 0.02062
-0.11343 0.37016 -0.02098
0.02019 0.37016 0.04409
0.05017 0.37016 0.12278
-0.16148 0.37016 -0.01625
-0.01862 0.37016 0.13889
-0.15614 0.37016 0.00223
-0.07659 0.37016 0.10657
-0.10168 0.37016 -0.06417
-0.14550 0.37016 0.21149
-0.13281 0.37016 0.25276
-0.02849 0.37016 0.11748
-0.06679 0.37016 0.08263
-0.14122 0.37016 0.18330
-0.11990 0.37016 -0.02722
0.05360 0.37016 0.25079
-0.13602 0.37016 0.13882
0.04850 0.37016 0.20557
0.08252 0.37016 0.25353
-0.17681 0.37016 -0.04468
0.05626 0.37016 0.18433
-0.06243 0.37016 0.11297
0.01377 0.37016 0.15319
0.17505 0.37016 0.25821
0.08217 0.37016 0.16933
-0.02326 0.37016 0.21566
-0.06927 0.37016 0.17984
-0.03357 0.37016 0.24395
0.02701 0.37016 0.18452
-0.15674 0.37016 0.05997
-0.09349 0.37016 -0.12080
-0.10250 0.37016 0.11475
-0.05666 0.37016 0.04294
0.08525 0.37016 0.22103
0.05425 0.37016 0.11557
-0.13913 0.37016 0.17547
-0.09621 0.37016 -0.09001
0.15369 0.37016 0.24778
-0.11144 0.37016 -0.02625
-0.09299 0.37016 0.23995
-0.03459 0.37016 0.21352
-0.14298 0.37016 0.02780
0.02142 0.37016 0.10786
0.02096 0.37016 0.25773
-0.16031 0.37016 -0.12173
-0.11015 0.37016 -0.08844
0.00422 0.37016 0.21848
-0.18602 0.37016 -0.02792
-0.00973 0.37016 0.02542
-0.09938 0.37016 -0.00024
-0.07675 0.37016 0.17125
-0.16031 0.37016 0.15701
-0.08864 0.37016 -0.00508
-0.13002 0.37016 0.11199
0.03623 0.37016 0.12173
-0.11884 0.37016 0.20210
0.10158 0.37016 0.22495
-0.14033 0.11832 -0.21882
-0.13514 0.32062 -0.21882
-0.15589 -0.11741 -0.21882
-0.14064 0.21178 -0.21882
-0.15399 -0.15598 -0.21882
-0.15733 0.27193 -0.21882
-0.13770 0.24282 -0.21882
-0.15468 0.24062 -0.21882
-0.14924 0.31848 -0.21882
-0.07594 0.21180 -0.18155
-0.04950 0.21180 -0.16664
-0.09675 0.21180 -0.12058
0.06273 0.21180 -0.19537
-0.10493 0.21180 -0.17473
-0.02776 0.21180 -0.12102
0.02326 0.21180 -0.17232
0.09992 0.21180 -0.21808
-0.01250 0.21180 -0.10559
-0.08824 0.21180 0.03734
-0.01876 0.21180 0.02519
-0.05627 0.21180 -0.19864
-0.02159 0.21180 -0.02492
-0.14295 0.21180 -0.20283
-0.13523 0.21180 -0.00322
0.01555 0.21180 -0.05064
-0.01896 0.21180 -0.18507
-0.03748 0.21180 -0.01431
-0.00632 0.21180 -0.06289
0.04236 0.21180 -0.12305
-0.01752 0.21180 -0.01254
0.00487 0.21180 -0.22328
-0.00144 0.21180 -0.06368
-0.09025 0.21180 -0.15399
-0.04555 0.21180 0.03877
-0.08545 0.21180 0.01765
-0.08890 0.21180 0.07994
-0.08294 0.21180 0.00265
-0.05662 0.21180 0.02309
-0.14039 0.21180 0.00466
-0.05886 0.21180 -0.07209
-0.02005 0.21180 -0.13278
-0.07729 0.21180 0.08663
-0.09330 0.21180 -0.16449
-0.05449 0.21180 -0.05242
-0.02598 0.21180 -0.03893
-0.13249 0.21180 0.01335
-0.02980 0.21180 -0.13319
-0.03770 0.21180 0.01363
-0.13295 0.21180 0.13186
-0.08398 0.21180 0.07904
-0.09659 0.21180 0.04881
-0.03303 0.21180 0.01243
-0.06082 0.21180 -0.13620
-0.11932 0.21180 -0.15749
0.02778 0.21180 -0.14033
-0.00715 0.21180 -0.13496
-0.00542 0.21180 -0.18500
0.06039 0.21180 -0.17308
-0.11282 0.21180 0.15561
-0.06755 0.21180 -0.22056
-0.00175 0.21180 -0.04112
-0.06601 0.21180 -0.06812
-0.04159 0.21180 -0.17091
-0.05160 0.21180 -0.00196
-0.07146 0.21180 -0.20582
0.02700 0.21180 -0.22151
0.03213 0.21180 -0.22867
-0.11325 0.21180 0.04970
0.00806 0.21180 -0.13684
-0.18630 0.35219 0.25824
-0.18630 0.36862 0.24102
-0.18630 0.36288 0.15943
0.05384 -0.23640 -0.22347
0.04296 -0.23871 -0.22347
0.09421 -0.22656 -0.22347
0.04475 0.35481 -0.22020
-0.07911 0.35438 -0.22063
-0.15386 0.03270 -0.24676
-0.14542 -0.18476 -0.24676
-0.15757 0.10524 -0.24676
-0.15494 -0.02980 -0.24676
-0.14193 -0.31789 -0.24676
-0.15249 0.00131 -0.24676
-0.14047 0.19760 -0.21882
0.10002 0.18940 0.23297
-0.00908 0.19370 0.23297
-0.08975 0.19185 0.23297
-0.01461 -0.23998 0.25081
0.10970 -0.23998 0.24641
-0.07466 0.32825 0.23336
0.00435 0.32825 0.23532
0.03207 0.32825 0.23193
-0.12396 0.32825 0.25063
-0.16911 0.35153 0.23184
0.09919 -0.23998 0.24352
0.08735 -0.23998 0.24209
0.10043 0.33382 -0.24676
-0.08468 0.34865 -0.24676
0.02988 0.34413 -0.24676
0.10779 0.34926 -0.24676
0.15332 0.18852 -0.18792
0.14885 0.18852 -0.02533
0.14712 0.18852 0.03751
0.15836 -0.11578 -0.24060
0.15836 -0.16788 -0.24640
0.15836 -0.12596 -0.24666
0.15836 -0.02878 -0.24586
0.15836 0.00489 -0.23313
0.15836 0.15569 -0.24486
0.15836 -0.03317 -0.23474
0.15836 0.16693 -0.23078
0.15836 0.13732 -0.22687
-0.14617 0.21646 -0.09555
-0.03720 0.35153 -0.27687
-0.07663 0.35535 0.22916
0.09997 -0.21204 0.24846
0.09832 -0.21204 0.24365
-0.13992 -0.18629 0.22832
-0.15254 -0.03332 0.22832
-0.15098 -0.13697 0.22832
-0.14853 -0.22247 0.22832
-0.14430 -0.08129 0.22832
-0.15248 -0.18812 0.22832
-0.15108 -0.31120 0.22832
-0.09601 0.34079 0.22832
-0.06008 0.21646 0.15529
0.02286 0.21646 0.14992
-0.01097 0.21646 0.20296
-0.11157 0.21646 -0.06865
-0.06513 0.21646 0.00011
0.13020 0.21646 0.22976
0.01608 0.21646 0.06796
-0.02927 0.21646 0.10429
-0.02635 0.21646 0.01455
-0.10427 0.21646 -0.03008
0.05422 0.21646 0.20849
-0.05075 0.21646 -0.06811
-0.04390 0.21646 -0.00807
-0.08254 0.21646 -0.09469
-0.02722 0.21646 0.18726
-0.12213 0.21646 -0.05804
0.08948 0.21646 0.22539
0.08906 0.21646 0.17018
0.04681 0.21646 0.13634
-0.08135 0.21646 0.19229
0.03256 0.21646 0.18973
-0.08292 0.21646 0.18157
-0.12665 0.21646 0.15329
-0.11751 0.21646 -0.00194
-0.07499 0.21646 0.06819
-0.12867 0.21646 0.04356
-0.01458 0.21646 0.04380
-0.13866 0.21646 -0.11788
0.02190 0.21646 0.15766
-0.14303 0.21646 -0.02750
-0.09526 0.21646 0.22347
-0.06943 0.21646 0.13065
-0.13760 0.21646 0.07138
-0.11652 0.21646 0.17397
0.01106 0.21646 0.14517
0.09840 0.21646 0.21247
-0.08367 0.21646 0.02831
-0.05632 0.21646 -0.05431
0.10659 0.21646 0.19312
-0.03230 0.21646 0.01930
0.04614 0.21646 0.20053
-0.04756 0.21646 0.00123
-0.01749 0.21646 0.21075
0.06082 0.21646 0.11388
0.11342 0.21646 0.20607
-0.14207 0.21646 -0.10910
-0.12283 0.21646 -0.17480
0.10192 0.21646 0.20599
-0.12132 0.21646 -0.01117
-0.13196 0.21646 0.14033
-0.13473 0.21646 0.02858
-0.11846 0.21646 -0.09971
0.05134 0.21646 0.19316
-0.12631 0.21646 0.13968
0.03205 0.21646 0.19575
-0.07805 0.21646 0.11657
0.14913 0.05035 -0.24676
0.14780 0.10323 -0.24676
0.13738 0.30943 -0.24676
0.14665 -0.03743 -0.24676
0.13685 0.30290 -0.24676
0.14427 0.17209 -0.24676
0.14854 -0.09737 -0.24676
0.13836 0.24308 -0.24676
0.14777 0.17873 -0.24676
-0.14802 0.35153 0.11685
-0.02247 0.37040 0.22859
-0.18380 0.35153 -0.04525
-0.16393 0.35153 0.15161
-0.17912 0.35153 0.21910
-0.16709 0.35153 0.10551
-0.18002 0.35153 0.16075
-0.17965 0.35153 0.10902
0.13858 0.32825 0.25555
0.13041 0.22621 -0.22060
0.13041 -0.14597 -0.22725
0.13041 -0.28156 -0.21917
0.13041 0.08188 -0.22406
0.13041 0.30314 -0.23971
0.13041 -0.13179 -0.21925
0.13041 0.27541 -0.24449
0.13041 0.20029 -0.22144
0.13041 0.23095 -0.23893
0.01265 0.35153 -0.21946
0.17102 0.33224 -0.21882
0.11378 0.21646 -0.23974
0.06424 0.21646 -0.22821
-0.00519 0.37040 0.23632
-0.13521 0.35282 -0.24339
-0.14094 0.35511 -0.24568
0.18630 0.35992 0.11058
0.14211 -0.31869 0.22832
0.15380 -0.36816 0.22832
0.13153 0.16496 0.22832
0.13088 -0.14203 0.22832
0.15116 -0.33384 0.22832
0.14034 -0.15653 0.22832
0.13522 -0.22315 0.22832
0.13388 -0.00289 0.22832
0.13119 0.07725 0.22832
0.10899 0.35153 -0.22283
-0.07690 0.35153 -0.04637
0.03454 0.35153 0.06118
0.16806 0.35153 0.21641
-0.09967 0.35153 -0.01634
-0.02989 0.35153 0.19642
-0.02755 0.35153 0.04904
-0.17036 0.35153 -0.03318
-0.01086 0.35153 0.17903
-0.07179 0.35153 0.16575
-0.05559 0.35153 0.12826
0.05888 0.35153 0.20193
-0.04572 0.35153 0.16036
-0.04308 0.35153 -0.02802
-0.04430 0.35153 0.21922
-0.14901 0.35153 -0.12019
-0.03534 0.35153 0.13564
-0.11404 0.35153 0.10642
-0.03333 0.35153 0.14835
-0.11097 0.35153 -0.05844
-0.05918 0.35153 0.13345
-0.15653 0.35153 -0.13779
-0.02541 0.35153 0.11758
-0.08391 0.35153 -0.01130
-0.13087 0.35153 0.06588
-0.14484 0.35153 -0.08034
-0.10585 0.35153 0.19964
-0.15485 0.35153 0.22837
0.09225 0.35153 0.12976
-0.10613 0.35153 0.10114
-0.09553 0.35153 -0.03980
0.14506 0.35153 0.21069
-0.10989 0.35153 -0.03326
-0.07999 0.35153 -0.09203
-0.11819 0.35153 -0.13845
-0.15984 0.35153 0.15697
-0.03549 0.35153 0.17758
-0.15172 0.35153 0.07947
0.10240 0.35153 0.18368
-0.05888 0.35153 0.09031
0.05056 0.35153 0.18309
0.01943 0.35153 0.10926
-0.16848 0.35153 -0.09376
-0.06604 0.35153 -0.03743
-0.05073 0.35153 0.15408
0.09515 0.35153 0.14822
-0.04232 0.35153 0.21003
0.00274 0.35153 0.14765
-0.04854 0.35153 0.22318
-0.06830 0.35153 -0.00775
-0.12358 0.35153 0.06555
0.05926 0.35153 0.22914
-0.01073 0.35153 0.07041
-0.07310 0.35153 0.19379
0.16940 0.35153 0.22117
-0.06932 0.35153 0.22111
-0.13641 0.35153 0.13567
-0.14721 0.35153 -0.03595
0.01818 0.35153 0.23020
-0.18336 0.35153 -0.18903
-0.01321 0.35153 0.00530
-0.13731 0.35153 -0.04885
-0.07923 0.35153 -0.05376
-0.09779 0.35153 -0.02532
-0.13409 0.35153 0.03647
-0.06656 0.35153 0.10127
0.12258 0.35153 0.21105
0.02964 0.35153 0.20268
-0.00620 0.21646 0.23547
-0.10552 0.21646 0.23369
0.12174 -0.23113 0.23297
0.04356 -0.21337 0.23297
0.03781 -0.21680 0.23297
0.01600 0.37016 -0.27897
-0.07106 0.32825 0.23756
-0.09090 0.32825 0.24971
-0.06038 0.32825 0.24482
-0.00425 0.32825 0.23668
0.01511 0.35619 -0.22722
0.12237 0.35619 -0.21936
-0.06959 0.35619 -0.23499
0.02189 0.35619 -0.22037
0.13041 -0.22270 -0.22907
-0.08328 0.18852 0.25077
-0.06742 0.18852 0.24815
0.15370 0.20294 -0.18625
0.15370 0.19596 -0.20890
0.15370 0.20279 -0.10218
0.15370 0.19421 -0.15087
0.15370 0.19839 -0.06429
0.15370 0.19775 -0.05455
0.13041 0.23702 0.23941
0.13041 -0.11258 0.25122
0.13041 -0.31240 0.25442
0.13041 0.08196 0.24073
0.13041 0.32234 0.23101
0.13041 -0.14611 0.24806
0.13041 0.27140 0.23777
0.13041 0.25872 0.24338
-0.13041 0.08260 0.24249
-0.13041 -0.29106 0.25519
-0.13041 -0.18046 0.25044
-0.13041 0.09780 0.23807
-0.13041 0.32036 0.23068
-0.13041 -0.06593 0.24877
-0.13041 0.24634 0.25587
-0.13041 0.07278 0.25154
-0.06854 0.21634 -0.24210
0.00377 0.21641 -0.24210
-0.09612 0.20276 -0.24210
0.00232 0.20794 -0.24210
-0.15836 -0.10735 0.15339
-0.15836 -0.10757 -0.14424
-0.15836 -0.10690 0.16315
-0.15836 -0.10540 -0.06279
-0.15836 -0.09504 -0.06138
-0.15836 -0.10902 0.07654
-0.05568 0.36581 -0.27946
-0.15748 0.36276 -0.27946
-0.00348 0.36310 -0.27946
0.13835 0.35596 0.22854
0.13567 -0.13915 0.22832
0.14396 -0.36046 0.22832
0.15068 -0.27110 0.22832
0.13559 -0.25298 0.22832
0.14521 -0.34743 0.22832
0.13330 -0.05029 0.22832
0.14597 -0.08434 0.22832
0.13170 0.11731 0.22832
-0.06954 0.18852 0.23471
0.00670 0.18852 0.23860
0.14352 0.35153 0.26188
-0.03498 0.35153 0.26877
-0.03813 0.35549 -0.21951
0.14602 0.18852 0.02593
0.15287 0.18852 0.03191
0.14977 0.18852 -0.04380
-0.02125 0.37040 -0.06952
-0.15836 0.00914 -0.23874
-0.15836 -0.05337 -0.24472
-0.15836 -0.14141 -0.23833
-0.15836 -0.29086 -0.23624
-0.15836 -0.30573 -0.23674
-0.15836 0.11395 -0.23917
-0.15836 -0.14913 -0.24117
-0.15836 -0.27360 -0.23743
-0.15836 -0.32478 -0.22286
-0.14280 0.21245 -0.23279
-0.14536 0.21646 0.09914
0.00274 0.35153 -0.22214
0.14439 0.21315 0.15732
-0.00187 -0.23998 0.23597
-0.11767 -0.23998 0.23807
-0.02552 -0.23998 0.23774
0.12255 -0.23998 -0.23544
0.04709 -0.23998 -0.22840
0.13041 0.28414 0.25145
0.03405 -0.23569 0.23297
-0.05861 -0.23847 0.23297
-0.09508 -0.22038 0.23297
-0.11257 0.19321 0.23297
-0.01302 0.20457 0.23297
-0.11096 0.19970 0.23297
0.17740 0.35619 -0.23518
0.08939 0.35619 -0.24435
-0.02256 0.35619 -0.24644
0.00378 0.35619 -0.24657
0.11485 0.35619 -0.24615
0.01547 0.21646 0.04301
0.02975 0.21646 0.15833
0.00522 0.21646 0.19873
-0.02844 0.21646 0.15393
0.03237 0.21646 0.07069
-0.05176 0.21646 -0.04358
-0.14435 0.21646 -0.05398
0.02959 0.21646 0.12206
0.11739 0.21646 0.22758
0.05235 0.21646 0.16144
-0.04039 0.21646 -0.02765
-0.08705 0.21646 0.14819
-0.10388 0.21646 -0.06493
0.13451 0.21646 0.22662
-0.11031 0.21646 0.07836
-0.13706 0.21646 -0.07284
0.03558 0.21646 0.12238
-0.06418 0.21646 0.21029
-0.03627 0.21646 0.20796
-0.09980 0.21646 -0.05117
0.04631 0.21646 0.22552
0.05690 0.21646 0.10967
-0.02799 0.21646 0.03558
0.05313 0.21646 0.17564
-0.01561 0.21646 -0.00371
-0.00560 0.21646 0.16019
-0.02887 0.21646 -0.02802
-0.12573 0.21646 0.06131
-0.02078 0.21646 0.01791
-0.11362 0.21646 -0.13192
-0.11428 0.21646 -0.00679
0.01645 0.21646 0.05581
-0.00959 0.21646 0.15643
0.06389 0.21646 0.16828
-0.09811 0.21646 0.15851
0.01000 0.21646 0.22035
-0.12923 0.21646 -0.15756
0.06698 0.21646 0.19461
-0.10418 0.21646 0.21064
-0.14414 0.21646 0.02404
-0.14107 0.21646 -0.04676
-0.08756 0.21646 -0.11288
0.03602 0.21646 0.13665
-0.03312 0.21646 0.13970
-0.01363 0.21646 0.22482
-0.13231 0.21646 0.11586
-0.04738 0.21646 0.09396
-0.05555 0.21646 0.18016
0.00713 0.21646 0.04500
-0.00145 0.21646 0.15346
-0.08462 0.21646 -0.08167
0.15399 -0.37040 0.25039
-0.13833 0.24883 -0.24676
-0.14449 0.32112 -0.24676
-0.13826 -0.11292 -0.24676
-0.13453 0.27581 -0.24676
-0.13548 0.15196 -0.24676
-0.13492 -0.03365 -0.24676
-0.14123 0.18380 -0.24676
-0.13296 0.10158 -0.24676
-0.13105 0.00815 -0.24676
-0.14516 0.18852 -0.07439
-0.14157 0.18852 -0.18443
-0.13656 0.18852 0.09320
-0.14905 0.29985 0.13491
-0.14905 0.24086 0.19966
-0.14905 0.33721 0.01734
-0.14905 0.31185 -0.01004
-0.14905 0.35096 0.06779
-0.14905 0.35002 -0.20468
-0.14905 0.31143 -0.07621
-0.14905 0.30151 0.18024
-0.14905 0.31368 0.22580
-0.14905 0.34906 -0.04378
-0.14905 0.28301 0.05750
-0.14905 0.32636 0.09300
-0.14905 0.29803 0.16688
-0.14905 0.34413 -0.03328
-0.14905 0.34435 -0.19016
-0.14905 0.27984 0.03878
-0.14905 0.33294 0.16765
-0.14905 0.32249 -0.03500
-0.14905 0.25612 0.14354
-0.14905 0.31779 -0.01032
-0.14905 0.31007 0.00809
-0.14905 0.31923 0.05596
-0.14905 0.22311 0.21701
-0.14905 0.32597 -0.05845
-0.14905 0.27429 0.20772
-0.14905 0.28380 0.09165
-0.14905 0.33612 0.03043
-0.14905 0.28009 0.21034
-0.15836 0.17975 -0.24260
-0.15836 -0.36321 -0.23748
-0.15836 0.07424 -0.24140
-0.15836 -0.23442 -0.22765
-0.15836 -0.10322 -0.22977
-0.15836 -0.01173 -0.24200
-0.15836 0.13210 -0.24348
-0.15836 -0.25003 -0.22889
-0.01184 0.37040 -0.09689
0.18630 0.35483 -0.08162
0.08067 0.21646 -0.11403
0.01463 0.21646 -0.16693
0.06371 0.21646 0.07826
0.13502 0.21646 0.19747
-0.07212 0.21646 -0.21287
0.10030 0.21646 -0.00953
-0.11462 0.21646 -0.18826
-0.12951 0.21646 -0.22616
0.01440 0.21646 0.02818
0.11133 0.21646 -0.03202
0.11314 0.21646 0.05343
0.10464 0.21646 -0.17709
-0.03827 0.21646 -0.10330
0.08212 0.21646 -0.06663
0.10289 0.21646 0.04658
0.02800 0.21646 0.00956
0.11426 0.21646 0.17272
0.09376 0.21646 0.13154
0.09082 0.21646 -0.19559
0.10800 0.21646 0.13935
-0.08341 0.21646 -0.16302
0.07234 0.21646 -0.17669
0.00704 0.21646 -0.05184
-0.01005 0.21646 -0.06882
0.05763 0.21646 0.08347
0.04387 0.21646 -0.17167
0.13478 0.21646 0.09255
0.11163 0.21646 -0.21082
0.08177 0.21646 -0.19019
0.09366 0.21646 0.10580
0.08601 0.21646 -0.10863
-0.04024 0.21646 -0.15859
0.06205 0.21646 0.04299
-0.01512 0.21646 -0.13004
0.10062 0.21646 0.11346
0.08682 0.21646 0.10497
0.05957 0.21646 0.02264
-0.00232 0.21646 -0.18315
-0.01987 0.21646 -0.15632
-0.03761 0.21646 -0.07415
0.02170 0.21646 -0.00796
0.10017 0.21646 0.08485
0.04595 0.21646 -0.00261
0.03487 0.21646 -0.04113
0.11524 0.21646 -0.12134
-0.02129 0.21646 -0.14711
0.05292 0.21646 0.07547
0.10590 0.21646 -0.20740
0.13997 0.21646 0.12311
0.13020 0.21646 0.05582
0.00016 0.21646 -0.07617
0.03048 0.21646 0.05477
0.09608 0.21646 -0.01385
0.13394 0.21646 0.07922
0.11172 0.21646 -0.17543
0.01390 0.21646 -0.12117
0.04100 0.21646 -0.06762
0.10582 0.21646 -0.18543
0.08418 0.21646 0.02110
0.02479 0.21646 0.00464
0.13881 0.32825 -0.24441
0.09943 0.35153 0.26012
-0.17679 0.32825 -0.22395
-0.08639 0.21646 0.23947
-0.13136 -0.21220 -0.24676
-0.13141 0.19681 -0.24676
-0.13076 0.12330 -0.24676
-0.14081 0.03434 -0.24676
-0.14785 0.22686 -0.24676
-0.13660 -0.08548 -0.24676
-0.13952 -0.06882 -0.24676
-0.03522 0.37016 0.26593
0.11850 0.18852 -0.23231
0.11170 0.18852 -0.23706
0.08855 0.18852 -0.24165
-0.13674 0.34590 -0.24676
-0.08816 0.33270 -0.24676
-0.04733 0.37016 0.26168
-0.13198 0.35170 -0.22331
0.03878 0.32825 -0.24306
-0.01798 0.32825 -0.24601
0.06240 0.32825 -0.24343
0.01990 0.35619 0.23108
0.14520 0.35619 0.24497
0.10285 0.35619 0.23718
0.04721 0.35619 0.23216
-0.12478 0.35619 0.23080
-0.15370 0.20064 -0.18682
-0.15370 0.20245 -0.21643
-0.15370 0.20208 -0.06154
-0.15370 0.20185 -0.20488
-0.15370 0.19605 -0.18095
-0.15370 0.20251 -0.01100
0.06424 0.32375 -0.23745
-0.12746 0.32351 -0.23745
-0.09561 0.30851 -0.23745
-0.05480 0.27141 -0.23745
0.00992 0.31301 -0.23745
0.00431 0.28962 -0.23745
0.05516 0.32581 -0.23745
-0.10593 0.31537 -0.23745
-0.09375 0.25290 -0.23745
0.09917 0.32338 -0.23745
-0.10265 0.27816 -0.23745
-0.08036 0.28447 -0.23745
-0.11832 0.29527 -0.23745
-0.04465 0.21646 -0.23627
-0.06887 0.21646 -0.23025
-0.15088 -0.08163 0.01337
-0.14803 -0.08163 0.12814
-0.14681 -0.08163 0.10279
-0.13851 -0.08163 0.18945
-0.00017 0.37040 -0.13644
-0.14439 0.21212 -0.19485
-0.13041 -0.20591 0.25199
-0.13041 0.25976 0.23174
-0.13041 0.21180 0.25622
-0.13041 -0.00488 0.25582
-0.13041 -0.10543 0.24864
-0.13041 0.06119 0.25022
-0.13041 0.10668 0.25145
-0.13041 0.09617 0.24811
-0.02920 0.37016 0.27728
0.14750 0.07564 0.25626
0.14758 0.06511 0.25626
0.13868 0.21935 0.25626
0.13885 0.12882 0.25626
0.13669 0.07158 0.25626
0.14403 0.05813 0.25626
0.13402 -0.04503 0.25626
0.13659 0.23441 0.25626
0.13379 0.21437 0.25626
-0.13035 0.37016 0.26390
-0.14701 0.27537 0.25626
-0.14101 0.12652 0.25626
-0.15698 -0.29707 0.25626
-0.14426 0.30042 0.25626
-0.15563 0.10688 0.25626
-0.14605 0.24210 0.25626
-0.14386 0.04410 0.25626
-0.15787 -0.00379 0.25626
-0.15675 -0.19444 0.25626
-0.13548 0.21240 0.24229
0.18630 0.36314 -0.25383
0.09056 -0.22725 -0.24210
-0.02396 -0.21327 -0.24210
-0.07794 -0.21519 -0.24210
-0.02352 -0.22255 -0.24210
0.13041 -0.02613 0.23923
0.13041 0.06829 0.22889
0.13041 -0.21474 0.24730
0.13041 -0.10922 0.23195
0.13041 -0.24612 0.23700
0.13041 0.02270 0.24033
0.13041 -0.17104 0.23516
0.13041 -0.08515 0.24366
0.13041 -0.27502 0.23921
0.16711 0.34636 -0.21882
0.03671 0.32963 -0.21882
0.12058 0.33244 -0.21882
0.13041 -0.33169 -0.22833
0.13041 -0.20107 -0.23564
0.13041 -0.36747 -0.23681
0.13041 -0.06169 -0.24009
0.13041 -0.07012 -0.23379
0.13041 -0.28668 -0.24153
0.13041 -0.27678 -0.24574
0.13041 0.05098 -0.24439
0.13041 0.03741 -0.24270
0.15758 -0.27061 -0.21882
0.14237 -0.09986 -0.21882
0.14008 -0.32905 -0.21882
0.14173 -0.28416 -0.21882
0.15491 -0.33165 -0.21882
0.13996 -0.22862 -0.21882
0.15792 -0.15577 -0.21882
0.15316 -0.15372 -0.21882
0.15546 -0.08720 -0.21882
-0.13419 0.32825 -0.24556
-0.16431 0.37016 -0.26149
-0.02392 -0.21612 0.23297
0.10962 -0.22340 0.23297
0.11241 -0.23207 0.23297
-0.14392 0.21646 -0.19281
-0.15239 0.21646 -0.07653
-0.14900 0.21646 0.02267
-0.15015 0.21646 -0.19359
-0.14439 0.21440 -0.18059
0.07667 0.21646 0.13405
-0.06253 0.21646 -0.09447
-0.11367 0.35153 0.26864
-0.13803 -0.10957 -0.07748
-0.13403 -0.10957 -0.12728
-0.15155 -0.10957 0.13065
-0.13882 -0.10957 0.07694
-0.13233 -0.10957 -0.15471
-0.13110 -0.10957 0.01856
-0.11820 0.35153 -0.24652
-0.02729 0.35153 0.26969
0.06726 0.18852 -0.23224
0.00665 0.18852 -0.23750
-0.13897 -0.02742 0.25626
-0.13571 0.11096 0.25626
-0.13851 -0.26732 0.25626
-0.13603 -0.03326 0.25626
-0.14423 -0.36788 0.25626
-0.14394 -0.07196 0.25626
-0.14359 -0.36258 0.25626
-0.13064 0.12432 0.25626
0.15836 0.29928 -0.24178
0.15836 -0.06071 -0.23893
0.15836 -0.14300 -0.24042
0.15836 0.06316 -0.24299
0.15836 -0.09183 -0.23806
0.15836 0.31218 -0.22442
0.15836 0.18337 -0.22801
0.15836 0.04396 -0.24348
-0.18565 0.34994 0.22832
0.03594 0.35619 0.25587
-0.12619 0.35619 0.24216
-0.00643 0.35619 0.24769
-0.01085 0.32825 0.24954
-0.18630 0.36653 -0.18901
-0.18630 0.36970 0.14583
-0.18630 0.36150 -0.12301
-0.13129 0.35509 0.25516
0.11760 0.35153 -0.27318
-0.10624 0.18852 -0.22529
0.06529 0.18852 -0.22758
0.00910 0.37016 0.26762
-0.14905 0.30886 0.20339
-0.14905 0.28519 0.01461
-0.14905 0.29022 0.19028
-0.14905 0.32027 -0.00536
-0.14905 0.32982 0.00760
-0.14905 0.30700 -0.04722
-0.14905 0.28070 0.16090
-0.14905 0.32191 0.05062
-0.14905 0.30286 0.16820
-0.14905 0.32466 0.18017
-0.14905 0.33966 0.09047
-0.14905 0.30573 -0.05754
-0.14905 0.33988 -0.09311
-0.14905 0.32828 0.13037
-0.14905 0.30215 -0.00617
-0.14905 0.34151 0.00933
-0.14905 0.28419 0.05267
-0.14905 0.34889 -0.11527
-0.14905 0.29123 0.01939
-0.14905 0.32023 0.16066
-0.14905 0.27749 0.15262
-0.14905 0.22931 0.22113
-0.14905 0.34275 0.08673
-0.14905 0.28017 0.19019
0.12847 0.37016 -0.26257
-0.18630 0.35409 -0.00907
-0.18630 0.34907 -0.22161
-0.13041 -0.33315 -0.22226
-0.13041 -0.13892 -0.22802
-0.13041 -0.02733 -0.22580
-0.13041 -0.34784 -0.24383
-0.13041 -0.32482 -0.24132
-0.13041 0.10212 -0.22682
-0.13041 -0.23983 -0.22677
-0.13041 0.00361 -0.22603
0.14785 0.37016 0.09325
0.03650 0.37016 0.00621
-0.10111 0.37016 -0.21475
-0.14141 0.37016 -0.22200
-0.01100 0.37016 -0.23597
-0.07526 0.37016 -0.19565
0.06269 0.37016 -0.02978
0.16289 0.37016 0.07590
0.05391 0.37016 -0.17705
0.15053 0.37016 0.00221
-0.06940 0.37016 -0.15862
0.04038 0.37016 -0.10626
-0.03238 0.37016 -0.08101
0.13204 0.37016 -0.07466
0.17440 0.37016 -0.19329
0.07093 0.37016 0.08330
0.07513 0.37016 -0.10505
0.03458 0.37016 -0.03366
0.08926 0.37016 -0.13305
-0.03923 0.37016 -0.08018
0.00706 0.37016 -0.19930
-0.03823 0.37016 -0.11864
0.12809 0.37016 -0.13963
-0.02625 0.37016 -0.22348
0.03431 0.37016 0.03933
0.07076 0.37016 -0.20240
0.03010 0.37016 -0.04952
-0.14800 0.37016 -0.24554
0.11443 0.37016 -0.18507
0.02987 0.37016 0.02198
0.08612 0.37016 0.09280
0.10562 0.37016 -0.04078
0.09852 0.37016 0.03670
0.05074 0.37016 0.02234
0.14920 0.37016 0.19162
0.09490 0.37016 -0.13666
0.08827 0.37016 -0.21767
-0.04287 0.37016 -0.09309
0.14333 0.37016 0.07727
0.07526 0.37016 -0.11148
0.08471 0.37016 -0.04319
-0.08857 0.37016 -0.16573
0.18308 0.37016 0.14032
0.11455 0.37016 0.08844
-0.09929 0.37016 -0.22841
0.15832 0.37016 -0.08828
0.07064 0.37016 -0.05390
0.17562 0.37016 0.15321
0.15457 0.37016 0.17592
0.06123 0.37016 -0.25158
0.17245 0.37016 0.10721
0.13017 0.37016 0.14901
0.14855 0.37016 -0.07938
0.05945 0.37016 -0.19567
-0.02352 0.37016 -0.05957
0.15778 0.37016 -0.25291
0.14596 0.37016 0.10479
-0.07964 0.37016 -0.16425
-0.08915 0.37016 -0.13210
-0.14952 0.37016 -0.22852
0.13207 0.37016 -0.17295
0.14458 0.37016 0.01191
-0.02647 0.37016 -0.09519
0.16248 0.37016 0.01404
-0.12545 0.37016 -0.23267
0.11819 0.37016 0.11619
-0.02389 0.37016 -0.16582
0.11635 0.37016 0.03294
0.04117 0.37016 -0.17658
0.09076 0.37016 0.08398
-0.03088 0.37016 -0.21618
-0.09209 0.37016 -0.13827
0.16931 0.37016 0.09705
0.04222 0.37016 -0.04874
-0.08598 0.37016 -0.17167
-0.11672 0.37016 -0.20937
0.10892 0.37016 -0.24806
0.01433 0.37016 -0.20684
0.09042 0.37016 -0.10354
0.13419 0.37016 0.06331
0.08425 0.37016 -0.12325
0.00699 0.37016 -0.20663
0.16114 0.37016 -0.07239
0.11242 0.21240 -0.23279
-0.13896 0.18852 0.18018
-0.15256 0.18852 0.09365
-0.15113 0.18852 0.01972
-0.11249 -0.23998 -0.24036
-0.06388 0.35153 -0.24244
0.01478 0.35153 -0.24874
-0.08199 -0.23998 0.24517
-0.08198 -0.23998 0.23687
0.13041 0.30289 0.24887
-0.07380 0.36114 -0.27946
-0.14011 0.36965 -0.27946
0.07391 0.36822 -0.27946
0.14179 0.34054 -0.21882
-0.03081 0.33450 -0.21882
0.15370 0.19986 0.19049
0.15370 0.21319 0.05744
0.15370 0.19339 0.20795
0.15370 0.21147 -0.00938
0.15370 0.20541 0.10636
0.15370 0.20320 0.09443
0.00312 0.37040 -0.13092
0.15836 0.26669 0.23249
0.15836 0.24614 0.24940
0.15836 0.29602 0.24416
0.15836 0.02703 0.24045
0.15836 -0.06236 0.24502
0.15836 0.16187 0.25118
0.15836 0.01065 0.25428
0.15836 0.22901 0.24243
-0.15836 0.16805 0.23940
-0.15836 0.08661 0.24258
-0.15836 0.19133 0.23941
-0.15836 0.14173 0.25305
-0.15836 0.29977 0.25447
-0.15836 0.06512 0.24699
-0.15836 0.17586 0.23482
0.14571 -0.37040 0.23587
0.15551 0.37016 0.04357
-0.09671 0.37016 -0.16951
0.05743 0.37016 -0.07261
-0.01445 0.37016 -0.12363
0.13737 0.37016 0.01387
-0.05544 0.37016 -0.15453
-0.15465 0.37016 -0.25902
0.00391 0.37016 -0.05357
0.17748 0.37016 0.23842
0.11994 0.37016 -0.07532
0.10854 0.37016 -0.04633
-0.01593 0.37016 -0.17381
-0.00609 0.37016 -0.04250
0.15948 0.37016 0.03959
0.00477 0.37016 -0.13875
-0.07824 0.37016 -0.23272
0.04200 0.37016 0.02755
0.06085 0.37016 -0.01688
0.02154 0.37016 -0.16004
-0.06300 0.37016 -0.18095
0.02406 0.37016 -0.21381
0.10092 0.37016 0.05704
0.02209 0.37016 -0.15396
0.16498 0.37016 0.04825
0.02467 0.37016 -0.08590
0.15481 0.37016 -0.02792
0.00982 0.37016 -0.07644
0.08725 0.37016 -0.19130
-0.06804 0.37016 -0.20270
0.17742 0.37016 -0.23428
0.18022 0.37016 0.00861
0.08921 0.37016 -0.06070
0.03298 0.37016 -0.18982
-0.05469 0.37016 -0.19829
0.07736 0.37016 0.02280
0.15361 0.37016 -0.12963
-0.10991 0.37016 -0.25219
-0.04849 0.37016 -0.08545
0.10575 0.37016 -0.20899
0.17654 0.37016 0.11054
0.18449 0.37016 -0.18541
0.03645 0.37016 -0.21174
-0.00567 0.37016 -0.11791
0.09626 0.37016 -0.19363
0.09804 0.37016 0.06262
0.15190 0.37016 -0.09989
0.07797 0.37016 0.10226
0.11517 0.37016 -0.10311
-0.06562 0.37016 -0.15381
0.16825 0.37016 -0.04082
0.16992 0.37016 0.12662
0.08166 0.37016 -0.11524
0.01253 0.37016 -0.21632
0.18602 0.37016 -0.20383
-0.01594 0.37016 -0.06483
-0.07532 0.37016 -0.13837
0.15670 0.37016 0.18053
0.17109 0.37016 -0.13400
-0.14638 0.37016 -0.21944
0.13475 0.37016 0.07681
0.18093 0.37016 0.09629
0.15736 0.37016 0.14523
0.07221 0.37016 -0.24210
0.13077 0.37016 -0.02947
0.17342 0.37016 0.12255
0.08672 0.37016 -0.20201
-0.10559 0.37016 -0.23830
0.15514 0.37016 -0.11767
0.13425 0.37016 -0.02541
0.10111 0.37016 -0.11367
-0.06954 0.37016 -0.12939
0.02250 0.37016 -0.10984
0.16350 0.37016 -0.10849
0.08185 0.37016 -0.17405
-0.07271 0.37016 -0.25238
0.13097 0.37016 0.11608
0.03330 0.37016 -0.14757
0.12737 0.37016 0.12976
0.12199 0.37016 -0.06866
-0.02030 0.37016 -0.16942
0.02130 0.37016 -0.09518
-0.03669 0.37016 -0.21560
0.10138 0.37016 0.11009
0.18245 0.37016 -0.03304
-0.14555 0.21646 0.16793
-0.14439 0.21438 0.19781
-0.11120 0.20336 0.25161
-0.07623 0.19192 0.25161
0.00679 0.20113 0.25161
-0.08758 0.19700 0.25161
0.14692 0.32997 0.22832
-0.17176 0.34690 -0.21882
0.03715 0.35053 -0.21882
-0.15350 0.34915 -0.21882
0.15370 0.20225 -0.13608
0.15370 0.20688 -0.10798
0.15370 0.19027 0.17198
0.15370 0.19526 -0.01759
0.15370 0.20480 -0.09705
0.13507 0.21447 -0.18143
0.13507 0.21625 0.12871
0.13507 0.19516 -0.15312
0.13507 0.21359 -0.08219
0.13507 0.20716 -0.18888
0.13507 0.21074 -0.04580
-0.08484 -0.23318 -0.24210
-0.02231 -0.22976 -0.24210
-0.00566 -0.23629 -0.24210
-0.09606 0.35153 -0.24415
0.07698 -0.23577 0.25160
0.01987 -0.23442 0.25160
-0.05284 -0.23911 0.25160
0.09923 -0.22750 0.25160
0.00060 0.35153 0.25270
-0.01482 0.35153 -0.27476
-0.16546 0.34977 0.22832
-0.07160 0.32941 0.22832
-0.12313 0.35193 0.25200
0.13041 0.21649 0.23581
0.13041 0.31690 0.24758
0.13041 0.31877 0.23692
0.13041 0.17578 0.25434
0.13041 0.00044 0.25148
0.13041 -0.22088 0.25328
0.13041 0.15332 0.24518
0.13041 -0.23701 0.25352
0.01995 -0.23499 -0.24210
0.01385 -0.23199 -0.24210
-0.04893 -0.23482 -0.24210
0.01183 0.21646 0.01567
0.12347 0.21646 -0.04523
0.05845 0.21646 -0.03442
0.12781 0.21646 -0.15821
-0.06907 0.21646 -0.14578
0.00438 0.21646 -0.21938
0.09374 0.21646 0.11977
-0.01388 0.21646 -0.18727
0.13837 0.21646 -0.15764
-0.04889 0.21646 -0.18150
-0.07835 0.21646 -0.22318
-0.05078 0.21646 -0.22962
-0.02861 0.21646 -0.11119
0.02921 0.21646 -0.04823
0.10353 0.21646 0.09086
0.10770 0.21646 -0.12450
-0.01438 0.21646 -0.17824
0.12262 0.21646 0.08285
0.09630 0.21646 -0.22070
0.05720 0.21646 -0.05468
0.12344 0.21646 -0.18248
-0.03672 0.21646 -0.08281
0.03716 0.21646 0.00060
0.12045 0.21646 -0.22036
0.01916 0.21646 -0.15117
-0.05243 0.21646 -0.20889
0.09028 0.21646 -0.08990
0.02980 0.21646 -0.08390
-0.01261 0.21646 -0.14059
0.09918 0.21646 -0.02585
-0.00978 0.21646 -0.23124
0.01462 0.21646 -0.05891
0.04770 0.21646 -0.08676
0.05367 0.21646 -0.06281
-0.00968 0.21646 -0.15199
-0.01366 0.21646 -0.11073
0.14331 0.21646 -0.06251
0.02688 0.21646 -0.06790
0.13786 0.21646 0.17558
0.04005 0.21646 0.01667
0.12138 0.21646 0.14183
0.08628 0.21646 -0.12004
0.08792 0.21646 0.08748
0.04222 0.21646 -0.14762
0.13871 0.21646 0.15662
-0.05632 0.21646 -0.09736
0.09471 0.21646 0.01346
0.02196 0.21646 0.02858
-0.06256 0.21646 -0.23020
-0.00803 0.21646 -0.22281
-0.02668 0.21646 -0.15091
0.10900 0.21646 0.10167
0.07135 0.21646 0.07477
-0.00397 0.21646 -0.12723
0.08683 0.21646 -0.15126
0.09493 0.21646 0.14348
0.05580 0.37016 -0.27914
0.14439 0.21344 -0.19707
0.03364 0.35619 -0.22346
0.05294 0.35619 -0.22608
0.09597 0.35619 -0.22437
-0.17600 0.35619 -0.22808
0.00118 0.35619 -0.23099
0.18630 0.37003 -0.15869
0.18630 0.36756 0.25102
0.18630 0.36221 0.04913
0.14513 0.19727 0.22832
0.09465 0.35153 0.26613
0.00657 0.37040 -0.11832
-0.13041 0.09433 -0.22767
-0.13041 -0.04520 -0.22508
-0.13041 -0.19895 -0.23578
-0.13041 -0.21708 -0.23125
-0.13041 -0.15071 -0.22011
-0.13041 -0.36584 -0.23841
-0.13041 -0.36242 -0.22582
0.05285 0.35619 -0.22125
-0.15353 0.35619 -0.23772
-0.14768 0.35619 -0.24251
-0.09082 0.35619 -0.23555
-0.13041 -0.23662 0.25131
0.03846 0.34780 0.25626
0.08217 0.35130 0.25626
-0.05148 0.34744 0.25626
-0.02692 0.37040 0.18145
-0.06292 0.21180 -0.20425
0.06665 0.21180 -0.20298
0.04969 0.21180 -0.19083
-0.13511 0.21180 -0.05794
-0.12587 0.21180 -0.19461
-0.12901 0.21180 0.21547
-0.04098 0.21180 -0.11047
-0.13693 0.21180 0.01929
-0.10120 0.21180 -0.21776
-0.12370 0.21180 0.09425
0.01809 0.21180 -0.15501
-0.11715 0.21180 0.02748
-0.04670 0.21180 -0.04069
-0.09906 0.21180 -0.19913
0.11026 0.21180 -0.22486
-0.11358 0.21180 -0.16047
-0.00194 0.21180 -0.13215
0.05098 0.21180 -0.11096
0.00058 0.21180 -0.21536
0.02406 0.21180 -0.12813
-0.05776 0.21180 0.00996
-0.13166 0.21180 -0.18627
-0.13633 0.21180 0.05382
-0.10768 0.21180 -0.15249
-0.00246 0.21180 -0.07407
-0.11744 0.21180 -0.08652
-0.09727 0.21180 -0.16887
0.02526 0.21180 -0.13316
-0.04399 0.21180 -0.05906
-0.10467 0.21180 -0.00522
0.00314 0.21180 -0.01992
-0.04024 0.21180 -0.18914
-0.01951 0.21180 -0.16090
-0.13966 0.21180 -0.05450
-0.10275 0.21180 0.08355
0.07901 0.21180 -0.18559
-0.12574 0.21180 -0.13677
0.10429 0.21180 -0.23219
-0.03750 0.21180 -0.08580
-0.05363 0.21180 -0.21163
-0.05743 0.21180 -0.08767
-0.04363 0.21180 -0.22209
0.01247 0.21180 -0.21875
-0.02249 0.21180 -0.10792
-0.12236 0.21180 0.12729
-0.07521 0.21180 0.10738
-0.11321 0.21180 -0.17324
0.04742 0.21180 -0.10281
-0.07449 0.21180 0.02264
-0.07046 0.21180 -0.01976
-0.08096 0.21180 0.12651
-0.06353 0.21180 0.03222
-0.10341 0.21180 0.10471
-0.04051 0.21180 -0.10329
-0.05237 0.21180 0.05190
-0.06120 0.21180 -0.09755
-0.10328 0.37016 -0.26423
-0.13041 -0.08736 0.14409
-0.13041 -0.09948 -0.02987
-0.13041 -0.10434 0.02867
-0.13041 -0.10241 0.13054
-0.13041 -0.09871 0.20861
-0.10351 0.35562 -0.24619
-0.04183 -0.21204 0.23920
-0.06096 -0.21204 0.23486
-0.09331 0.36985 0.27946
0.08704 0.36808 0.27946
0.06124 0.35944 0.27946
0.04317 0.21180 0.07820
-0.03535 0.21180 0.23210
-0.05784 0.21180 0.12549
0.08006 0.21180 -0.11070
0.07654 0.21180 0.10164
0.08957 0.21180 0.15181
0.08056 0.21180 0.03543
0.04050 0.21180 0.23064
0.09615 0.21180 -0.09915
-0.12165 0.21180 0.21751
-0.02129 0.21180 0.08519
0.13454 0.21180 -0.05834
0.04666 0.21180 -0.06602
0.11688 0.21180 0.01722
0.13117 0.21180 -0.19902
-0.02412 0.21180 0.20445
0.13364 0.21180 0.10722
0.11340 0.21180 -0.00080
0.12656 0.21180 -0.16114
0.03996 0.21180 -0.00490
0.13466 0.21180 -0.12680
-0.00750 0.21180 0.08769
0.00370 0.21180 0.09337
-0.04447 0.21180 0.19511
0.11737 0.21180 0.10252
-0.11427 0.21180 0.22881
0.06004 0.21180 0.22346
-0.08961 0.21180 0.16212
0.08450 0.21180 0.01486
0.09541 0.21180 0.04752
0.06335 0.21180 -0.07372
0.04424 0.21180 -0.03183
-0.01203 0.21180 0.17880
0.03808 0.21180 -0.02191
-0.00094 0.21180 0.07377
-0.09405 0.21180 0.23422
0.06345 0.21180 -0.06445
0.04130 0.21180 0.13247
0.09007 0.21180 0.07402
-0.09345 0.21180 0.19496
0.05235 0.21180 0.21172
0.05899 0.21180 -0.02638
0.06532 0.21180 0.23097
0.03696 0.21180 0.12322
0.02941 0.21180 0.23450
0.00599 0.21180 0.12605
-0.02396 0.21180 0.06405
0.09773 0.21180 -0.13673
0.13803 0.21180 0.01758
0.09408 0.21180 0.02197
0.04658 0.21180 0.17304
0.10826 0.21180 -0.00783
0.09414 0.21180 0.21032
0.03551 0.21180 0.09282
0.07358 0.21180 0.16616
0.11803 0.21180 -0.12879
0.10301 0.21180 0.07281
0.14065 0.21180 0.10261
-0.15836 -0.34377 0.23555
-0.15836 -0.20721 0.24261
-0.15836 0.09274 0.22850
-0.15836 -0.32052 0.23200
-0.15836 -0.09064 0.23665
-0.15836 -0.19667 0.23917
-0.15836 0.00386 0.23697
-0.15836 -0.17989 0.23519
-0.15836 0.21064 0.22946
0.14327 0.21646 0.16331
0.14274 0.21646 0.20825
0.14694 0.21646 0.05456
0.15036 0.21646 0.09511
-0.13507 0.20355 0.06927
-0.13507 0.21434 0.03546
-0.13507 0.20777 -0.05108
-0.13507 0.20148 0.22222
-0.13507 0.19896 0.16775
-0.03344 0.19698 0.25161
-0.12879 0.20423 0.25161
-0.07772 0.32825 -0.23917
0.12335 0.35414 0.23037
0.07642 0.18852 -0.22511
-0.12818 0.18852 -0.22747
-0.09570 -0.23998 -0.23664
-0.10442 -0.23998 -0.23335
0.01157 -0.23998 -0.23558
-0.14905 0.24151 -0.01269
-0.14905 0.21661 -0.03248
-0.14905 0.26725 -0.16073
-0.14905 0.24377 -0.02850
-0.14905 0.23781 -0.18829
-0.14905 0.27044 0.00494
-0.14905 0.23259 -0.08763
-0.14905 0.27510 -0.07593
-0.14905 0.22222 -0.05816
-0.14905 0.22628 -0.16628
-0.14905 0.28602 -0.08450
-0.14905 0.25292 0.03108
-0.14905 0.27332 -0.17797
-0.14905 0.23553 0.04816
-0.14905 0.23181 -0.02427
-0.14905 0.23649 -0.02022
-0.14905 0.27621 -0.16973
-0.14905 0.21888 0.06884
-0.14905 0.21874 -0.16222
-0.14905 0.23022 -0.03817
-0.14905 0.25427 -0.15457
-0.14905 0.24508 0.10702
0.11402 0.35153 0.23011
-0.08881 -0.22782 -0.22347
-0.11691 -0.22218 -0.22347
-0.10150 -0.22125 -0.22347
-0.13854 0.21646 0.06257
-0.13708 0.21646 -0.12918
-0.14126 0.21646 0.00911
0.03712 0.19943 -0.22347
0.12854 0.20697 -0.22347
-0.06272 0.35153 0.27852
-0.13738 -0.10957 0.09840
-0.13257 -0.10957 0.16748
-0.13160 -0.10957 0.11363
-0.14436 -0.10957 0.10540
-0.13305 -0.10957 -0.07976
0.18238 0.34805 0.25626
-0.14305 -0.08163 -0.05970
-0.15542 -0.08163 -0.17641
-0.13254 -0.08163 -0.10587
-0.13271 -0.08163 -0.00508
-0.13056 -0.08163 -0.14779
-0.14402 -0.08163 -0.14144
-0.13374 0.32825 0.25238
0.02394 0.30654 0.24695
-0.09524 0.32770 0.24695
0.10762 0.27222 0.24695
-0.02145 0.31814 0.24695
-0.00317 0.29294 0.24695
0.01343 0.26964 0.24695
0.00244 0.27532 0.24695
0.01957 0.27779 0.24695
-0.10166 0.32777 0.24695
0.09275 0.25675 0.24695
0.01911 0.30767 0.24695
0.03215 0.26245 0.24695
0.00273 0.37040 -0.21109
0.15836 0.31574 -0.21895
0.15836 -0.12598 -0.22887
0.15836 -0.35479 -0.24110
0.15836 -0.21037 -0.23404
0.15836 -0.25060 -0.22138
0.15836 -0.06566 -0.23198
0.15836 -0.34742 -0.23637
0.15836 0.04794 -0.22514
0.09426 0.32825 -0.24124
-0.12416 0.21646 -0.24124
-0.14543 0.20368 -0.21882
-0.08491 0.34313 -0.21882
-0.03351 0.34080 -0.21882
-0.03689 0.34841 -0.21882
0.11427 0.35131 -0.21882
0.13041 -0.21626 -0.23436
-0.15836 0.27742 -0.24048
-0.15836 0.25166 -0.22309
-0.15836 0.02061 -0.22059
-0.15836 0.14793 -0.23411
-0.15836 0.26344 -0.23109
-0.15836 0.08349 -0.23200
-0.15836 0.18398 -0.22309
-0.15836 0.30805 -0.22778
-0.15836 -0.21530 -0.22333
-0.15836 -0.10404 -0.01038
-0.15836 -0.08626 -0.15562
-0.15836 -0.10177 -0.21608
-0.15836 -0.09429 -0.02544
-0.15836 -0.10883 0.21203
-0.13797 -0.37040 -0.22128
-0.12004 0.21646 0.23846
0.16840 0.35153 -0.27551
0.13041 0.13065 -0.22150
0.13041 0.14352 -0.22084
0.13041 -0.02024 -0.23028
0.13041 0.07626 -0.22979
0.13041 -0.17050 -0.22037
0.13041 0.05932 -0.22756
0.13041 -0.15952 -0.22560
0.13041 0.15907 -0.23390
0.13041 0.24946 -0.23653
-0.08679 0.35332 -0.22169
0.15229 0.35153 0.25700
0.08887 0.35153 0.27888
0.12173 0.32825 -0.24009
-0.03983 0.32825 -0.22715
0.09093 0.32825 -0.22321
0.12679 0.32825 0.23092
0.00851 0.32825 0.24198
0.00498 0.32825 0.25097
0.16215 0.32825 0.24485
0.15545 0.30990 0.22832
0.15766 -0.17303 0.22832
0.14022 0.31758 0.22832
0.13467 0.29103 0.22832
0.15704 -0.03029 0.22832
0.14746 0.12210 0.22832
0.14773 -0.04418 0.22832
0.14992 0.08524 0.22832
0.13765 0.20386 -0.21882
0.13142 -0.24459 -0.21882
0.13145 -0.15086 -0.21882
0.14405 -0.02712 -0.21882
0.13276 0.20433 -0.21882
0.14813 0.14146 -0.21882
0.14403 0.32587 -0.21882
0.13728 0.10378 -0.21882
-0.12777 0.35153 -0.26583
-0.08333 0.21773 0.24695
-0.09274 0.24852 0.24695
0.01996 0.22170 0.24695
0.05382 0.22975 0.24695
-0.09836 0.29087 0.24695
-0.09520 0.23267 0.24695
-0.10241 0.26620 0.24695
0.00581 0.26432 0.24695
-0.05919 0.25642 0.24695
0.00301 0.26851 0.24695
-0.11872 0.26613 0.24695
-0.05286 0.29490 0.24695
0.00175 0.23446 0.24695
0.14587 0.18852 0.20566
0.13623 0.18852 0.07762
-0.18598 0.35798 0.26412
0.02252 0.21418 0.24229
-0.13881 0.21646 0.19208
-0.14267 0.21646 0.15855
0.13041 0.24477 0.22972
0.13041 -0.33953 0.24932
0.13041 -0.29694 0.25093
0.13041 -0.25218 0.23877
0.13041 -0.27150 0.24538
0.13041 -0.25080 0.24544
0.13041 -0.20476 0.24915
0.13041 0.17378 0.23027
-0.03742 0.24094 0.25161
0.12977 0.32455 0.25161
0.06258 0.23966 0.25161
0.11644 0.27947 0.25161
0.10500 0.22919 0.25161
0.03308 0.28338 0.25161
0.10928 0.25867 0.25161
0.05766 0.24093 0.25161
0.11676 0.31594 0.25161
-0.06657 0.23650 0.25161
0.06174 0.29629 0.25161
-0.09762 0.21944 0.25161
0.11973 0.30492 0.25161
-0.15239 0.06219 0.25626
-0.14183 0.07837 0.25626
-0.15095 0.18626 0.25626
-0.14755 -0.00294 0.25626
-0.14862 0.02654 0.25626
-0.14675 -0.00850 0.25626
-0.15223 0.30279 0.25626
-0.15390 0.08832 0.25626
-0.13706 0.18852 0.07848
-0.14562 0.18852 -0.03504
-0.13817 0.18852 0.14928
-0.09772 0.35153 0.27078
0.11913 0.35619 -0.24179
0.10039 0.35619 -0.22939
0.18068 0.35619 -0.24124
0.06745 0.35619 -0.23497
-0.01524 0.37040 -0.18322
-0.15609 -0.10957 0.11220
-0.15067 -0.10957 -0.18406
-0.14749 -0.10957 0.02811
-0.15551 -0.10957 0.01309
-0.14028 -0.10957 -0.20883
-0.15774 -0.10957 -0.05260
-0.14675 0.32825 0.23539
0.13507 0.21500 -0.10757
0.13507 0.21509 0.06014
0.13507 0.21229 0.09798
0.13507 0.20800 0.03784
0.13507 0.20069 -0.11628
0.06463 0.35619 0.23459
0.15926 0.35619 0.25281
0.04284 0.35619 0.23477
0.07648 0.35619 0.23952
0.09053 0.35619 0.24773
0.00391 0.31688 -0.24210
0.03396 0.30469 -0.24210
0.06611 0.32521 -0.24210
0.12294 0.23022 -0.24210
0.00051 0.30226 -0.24210
0.05527 0.30366 -0.24210
-0.08643 0.31179 -0.24210
0.07766 0.24660 -0.24210
0.12215 0.25698 -0.24210
-0.00798 0.30306 -0.24210
0.12274 0.24931 -0.24210
-0.03051 0.29454 -0.24210
-0.18630 0.36297 -0.06084
-0.18630 0.36632 -0.18363
-0.18630 0.36863 -0.16334
-0.18630 0.36122 -0.15427
0.04988 0.21057 0.25161
-0.05693 0.21103 0.25161
0.11730 0.35192 0.25199
0.00018 0.37040 -0.10114
-0.06925 0.19762 -0.24210
-0.08738 0.20485 -0.24210
-0.04430 0.21560 -0.24210
-0.04025 0.35153 -0.25912
0.17999 0.35153 -0.24611
-0.03954 0.35330 -0.24386
0.14594 0.21646 -0.11302
0.14150 0.21646 -0.19199
0.14247 0.21646 -0.17473
0.14255 0.21646 -0.08157
-0.04274 -0.23162 0.23297
-0.10979 -0.21551 0.23297
-0.10046 -0.21739 0.23297
0.14439 0.21416 0.22875
-0.02460 0.27264 -0.24210
0.04361 0.21812 -0.24210
-0.08226 0.29481 -0.24210
-0.04642 0.28590 -0.24210
0.01107 0.25951 -0.24210
0.05552 0.24841 -0.24210
-0.04126 0.23599 -0.24210
0.09533 0.21925 -0.24210
-0.10811 0.23356 -0.24210
-0.04499 0.29078 -0.24210
0.17292 0.35505 -0.21996
0.13130 0.35251 -0.22250
-0.14439 0.34686 0.11474
-0.14439 0.31492 -0.01120
-0.14439 0.32429 -0.09908
-0.14439 0.26008 0.10718
-0.14439 0.33081 -0.06285
-0.14439 0.26060 0.09298
-0.14439 0.31234 -0.04399
-0.14439 0.28221 0.21490
-0.14439 0.30065 0.21409
-0.14439 0.33243 -0.04502
-0.14439 0.28540 0.01989
-0.14439 0.32129 -0.00177
-0.14439 0.24488 0.18102
-0.14439 0.29426 0.21126
-0.14439 0.30852 0.05694
-0.14439 0.34021 -0.11107
-0.14439 0.23226 0.18356
-0.14439 0.27577 0.04006
-0.14439 0.25264 0.16457
-0.14439 0.25629 0.22633
-0.14439 0.30885 0.01614
-0.14439 0.28935 0.09346
-0.14439 0.34323 0.17752
-0.14439 0.24851 0.18877
-0.14439 0.30922 -0.02177
-0.14439 0.33176 0.20097
-0.14439 0.28755 0.04913
-0.03029 0.35153 0.25559
-0.13041 0.05230 0.23150
-0.13041 0.02846 0.23177
-0.13041 -0.07764 0.23472
-0.13041 -0.34500 0.25007
-0.13041 -0.28571 0.22914
-0.13041 -0.12821 0.23012
-0.13041 -0.26355 0.24958
-0.13041 -0.33452 0.23403
-0.13041 0.11167 0.23599
0.05104 -0.22459 -0.24210
0.06028 -0.22795 -0.24210
0.12178 -0.22557 -0.24210
0.06610 -0.21209 -0.24210
0.18630 0.35811 -0.22937
0.10553 0.35471 -0.24528
-0.13263 -0.37040 0.25272
-0.11410 0.35619 0.23327
-0.07979 0.35619 0.24877
-0.12044 0.35619 0.24154
0.13507 0.20174 0.05192
0.13507 0.20175 0.20835
0.13507 0.21064 0.16756
0.13507 0.19299 -0.01632
0.13507 0.19011 0.14729
0.13507 0.19512 0.22142
0.13484 0.32825 -0.22995
-0.17663 0.32825 0.23192
0.02005 -0.22200 0.25160
-0.03087 -0.21710 0.25160
-0.12765 -0.22768 0.25160
-0.11506 0.35153 0.22998
0.14428 0.35619 -0.23901
0.07925 0.35619 -0.23734
0.12609 0.35186 -0.24243
-0.10251 0.32699 -0.23745
0.00131 0.29705 -0.23745
-0.08846 0.25880 -0.23745
-0.10951 0.24189 -0.23745
-0.09329 0.32273 -0.23745
-0.11480 0.31456 -0.23745
-0.10680 0.30678 -0.23745
-0.04734 0.27499 -0.23745
-0.04854 0.26973 -0.23745
-0.04060 0.29680 -0.23745
0.06654 0.31188 -0.23745
-0.05829 0.27704 -0.23745
0.14463 0.34358 0.25626
0.00628 0.33058 0.25626
0.04768 0.33788 0.25626
0.15836 0.10009 0.23434
0.15836 0.13918 0.23520
0.15836 0.08608 0.23708
0.15836 0.06393 0.22840
0.15836 0.25181 0.22876
0.15836 -0.27180 0.25199
0.15836 -0.27978 0.23712
0.15836 0.04911 0.23500
0.15836 -0.35688 0.23973
-0.02745 0.35233 0.27946
-0.04904 0.36022 0.27946
0.13642 -0.20446 -0.21882
0.13772 -0.01198 -0.21882
0.15104 0.29721 -0.21882
0.13311 -0.06721 -0.21882
0.15092 0.16351 -0.21882
0.13135 0.30984 -0.21882
0.15305 0.20098 -0.21882
0.14213 0.25052 -0.21882
0.00538 0.37016 -0.26671
-0.08126 0.32825 -0.22560
0.02022 0.32825 -0.24325
-0.03751 0.32825 -0.24369
-0.15370 0.21185 -0.05572
-0.15370 0.20945 -0.08974
-0.15370 0.20193 -0.11856
-0.15370 0.20969 -0.15379
-0.15370 0.19913 -0.19945
-0.15370 0.20376 -0.04368
-0.13725 0.16870 0.22832
-0.15035 0.24142 0.22832
-0.14336 0.03739 0.22832
-0.13133 0.25647 0.22832
-0.13956 0.00282 0.22832
-0.13183 -0.33014 0.22832
0.18384 0.35377 -0.27008
-0.15370 0.20924 0.18864
-0.15370 0.19167 0.03296
-0.15370 0.20070 0.06412
-0.15370 0.19597 0.20312
-0.15370 0.20353 0.11102
-0.15370 0.19892 0.17366
-0.14442 -0.08163 -0.14984
-0.13586 -0.08163 0.00335
-0.13537 -0.08163 -0.02329
-0.13385 -0.08163 -0.07256
-0.13903 -0.08163 -0.05102
-0.13728 -0.08163 -0.18008
-0.01259 0.37040 0.24923
0.16780 0.35356 0.23095
0.12629 0.37016 -0.27698
0.13041 -0.22827 0.23447
0.15998 0.35619 0.23067
0.07828 0.35619 0.24567
0.05542 0.20036 -0.24210
0.09064 0.19978 -0.24210
0.11714 0.20611 -0.24210
0.06028 -0.22697 0.25160
0.12133 -0.21523 0.25160
0.07706 -0.22640 0.25160
0.12205 0.35196 -0.22305
0.18630 0.35843 -0.05841
0.18630 0.36701 -0.15279
0.18630 0.35687 0.16770
0.13041 0.19898 0.23474
0.01660 0.20594 0.23297
-0.08831 0.21643 0.23297
0.03684 0.21508 0.23297
0.04403 0.32825 0.24991
0.05199 0.32825 0.24573
0.07960 0.32825 0.23559
-0.14665 -0.09839 0.22832
-0.16728 0.35153 0.16906
-0.17609 0.35153 0.19419
-0.17920 0.35153 0.07798
-0.16392 0.35153 0.18613
-0.18209 0.35153 0.02731
-0.17970 0.35153 0.25238
-0.14459 0.35153 -0.17116
0.00947 -0.21963 -0.22347
-0.04497 -0.22992 -0.22347
-0.08788 -0.21938 -0.22347
-0.00116 0.37040 0.12558
-0.07468 0.33998 -0.24676
-0.04394 0.34014 -0.24676
-0.08241 0.25609 0.24695
-0.11361 0.26084 0.24695
-0.11040 0.27059 0.24695
0.01258 0.22784 0.24695
-0.01800 0.25695 0.24695
-0.12951 0.29715 0.24695
-0.06686 0.25090 0.24695
0.00587 0.21803 0.24695
-0.03880 0.27221 0.24695
-0.03973 0.23067 0.24695
-0.03138 0.27147 0.24695
-0.06420 0.28842 0.24695
-0.04801 0.25347 0.24695
-0.08570 0.22845 0.24695
0.03360 0.35216 0.23235
-0.11320 -0.21204 0.24751
-0.08031 -0.21204 0.23727
-0.15521 0.32825 -0.24179
0.18630 0.35572 0.18379
-0.18630 0.36279 0.01173
-0.18630 0.36278 0.13529
-0.18630 0.35611 -0.20339
0.15836 -0.08461 0.22859
0.15836 0.05991 0.23159
0.15836 -0.01523 0.23074
0.15836 -0.00382 0.24083
0.15836 -0.36664 0.22906
0.15836 -0.20929 0.24214
0.15836 -0.28327 0.24533
0.15836 -0.06465 0.23012
0.15836 -0.25282 0.24013
0.09093 0.18852 0.24207
-0.00221 0.18852 0.23810
-0.00393 0.37040 0.16446
0.06175 0.37016 0.26848
0.12346 0.36232 -0.27946
-0.02505 0.37040 0.16506
-0.07068 0.21640 -0.22347
-0.02779 0.21333 -0.22347
-0.02567 0.20781 -0.22347
-0.02863 0.37040 -0.20455
-0.15520 -0.08163 0.03978
-0.15622 -0.08163 -0.07920
-0.15309 -0.08163 -0.09797
-0.15594 -0.08163 -0.04236
-0.14873 -0.08163 -0.03907
-0.05745 0.19806 -0.22347
-0.02770 0.20034 -0.22347
-0.12415 0.21370 -0.22347
-0.06235 0.18852 0.23869
-0.09816 0.18852 0.23807
0.13565 0.35153 -0.27249
-0.01970 0.37016 0.27887
-0.06846 0.35619 0.23049
-0.01599 0.35619 0.23261
-0.06394 0.35619 0.23508
-0.03494 0.35619 0.23062
0.11106 0.35619 0.24493
0.04994 -0.21204 -0.23970
-0.00927 -0.21204 -0.24021
0.10454 0.30394 -0.24210
0.07956 0.26196 -0.24210
0.04651 0.26344 -0.24210
0.08710 0.24815 -0.24210
0.12603 0.22399 -0.24210
0.05685 0.29557 -0.24210
0.12941 0.26743 -0.24210
0.12614 0.32106 -0.24210
0.08548 0.31890 -0.24210
0.06807 0.29235 -0.24210
0.04173 0.32388 -0.24210
-0.02912 0.37040 0.13536
0.14439 0.21383 -0.10136
-0.02840 0.34931 -0.24676
-0.13840 0.35061 -0.24676
-0.07223 0.35017 -0.24676
0.18200 0.33861 -0.24676
-0.02703 0.32825 0.24835
0.03829 0.35586 0.22865
-0.01847 0.37016 0.26190
0.17608 0.33683 0.25626
-0.13041 -0.18024 -0.24349
-0.13041 -0.07700 -0.24627
-0.13041 0.29098 -0.22435
-0.13041 0.27157 -0.23682
-0.13041 0.28569 -0.22219
-0.13041 -0.09433 -0.24394
-0.01600 0.33811 -0.21882
0.15390 0.35311 -0.27946
0.05074 0.35248 -0.27946
0.08205 0.35751 -0.27946
-0.14275 0.35153 0.26268
0.18630 0.35897 0.21806
0.18630 0.36482 0.02804
0.00547 0.25076 0.25161
-0.04452 0.21750 0.25161
0.05749 0.27575 0.25161
-0.08307 0.23129 0.25161
0.00826 0.25711 0.25161
0.10358 0.25116 0.25161
0.01072 0.21913 0.25161
0.03412 0.26064 0.25161
0.04394 0.23501 0.25161
-0.11863 0.22144 0.25161
