0.10935 0.23252 -0.29734
0.07314 0.23338 -0.29734
0.01485 0.22974 -0.29734
-0.06662 0.21978 -0.29734
-0.10491 0.22075 -0.29734
0.00636 -0.22007 0.23340
0.00146 -0.22194 0.24180
0.00197 -0.19709 0.13000
0.00692 -0.21627 0.21631
-0.00923 -0.20706 0.05439
-0.00923 -0.21719 0.05442
-0.00923 -0.19103 0.08061
-0.00923 -0.21438 0.04059
-0.00923 -0.20944 0.09564
-0.00923 -0.20964 0.08605
-0.00923 -0.19879 0.06629
-0.00923 -0.21508 0.07917
0.01650 -0.00578 0.02462
0.00923 0.20172 -0.10974
0.00923 0.22295 -0.23409
0.00923 0.21447 -0.23395
0.00923 0.20766 -0.13512
0.00923 0.19772 -0.10001
0.00923 0.20568 -0.12457
-0.21490 0.20136 0.00781
-0.14613 0.19754 0.00085
-0.17019 0.19888 0.00546
0.27568 0.24618 -0.11192
0.02344 0.24618 -0.09684
-0.25391 0.24618 -0.27527
0.25130 0.24618 -0.05488
0.20196 0.24618 -0.28427
0.10721 0.24618 -0.20962
0.09974 0.24618 -0.00718
0.18269 0.24618 -0.28349
0.21759 0.24618 0.07652
-0.05663 0.24618 -0.13063
0.23431 0.24618 -0.25838
-0.04068 0.24618 -0.12663
0.01508 0.24618 -0.18696
0.26552 0.24618 0.16006
0.16018 0.24618 -0.13568
-0.07672 0.24618 -0.12068
0.05995 0.24618 0.03139
-0.12417 0.24618 -0.26274
0.22148 0.24618 0.04945
-0.02387 0.24618 -0.07059
0.21018 0.24618 -0.00303
0.21712 0.24618 -0.26167
0.17313 0.24618 0.00593
0.22459 0.24618 0.19295
0.04764 0.24618 -0.08946
0.21929 0.24618 -0.25720
0.15361 0.24618 -0.07671
0.21161 0.24618 -0.20258
-0.14232 0.24618 -0.27325
0.20432 0.24618 0.03814
0.13928 0.24618 0.08959
-0.04793 0.24618 -0.22710
0.26497 0.24618 -0.11991
0.17016 0.24618 0.00020
0.18907 0.24618 0.12804
-0.02997 0.24618 -0.03297
0.04146 0.24618 -0.00081
0.07666 0.24618 0.03822
0.23124 0.24618 0.01102
0.05872 0.24618 -0.24379
0.03997 0.24618 -0.18162
0.24350 0.24618 0.13157
-0.10335 0.24618 -0.24354
0.08501 0.24618 -0.02790
0.14539 0.24618 -0.04170
0.17483 0.24618 0.14009
-0.06382 0.24618 -0.07941
0.09410 0.24618 0.02750
0.10668 0.24618 0.00030
0.21725 0.24618 -0.20750
0.27503 0.24618 -0.26793
0.27282 0.24618 0.05247
-0.10343 0.24618 -0.16206
0.10471 0.24618 -0.23811
0.09088 0.24618 -0.06211
-0.01406 0.24618 -0.19229
-0.02955 0.24618 -0.08825
0.14252 0.24618 0.11500
0.18032 0.24618 0.16233
0.16926 0.24618 0.13597
-0.20020 0.24618 -0.24614
0.19413 0.24618 -0.01873
-0.10234 0.24618 -0.25316
-0.16310 0.24618 -0.18245
-0.07813 0.24618 -0.21125
0.29711 0.24618 -0.26566
0.19073 0.24618 0.11802
0.03872 0.24618 -0.04456
0.28541 0.24618 0.03732
-0.06727 0.24618 -0.17908
0.00255 0.24618 -0.17772
-0.10499 0.24618 -0.23794
0.05790 0.24618 -0.03633
0.03518 0.24618 -0.23626
0.10228 0.24618 -0.23178
0.08927 0.24618 0.05917
-0.05477 0.24618 -0.25269
-0.10488 0.24618 -0.17216
0.27031 0.24618 0.19029
-0.02191 0.24618 -0.24724
0.18546 0.24618 -0.26583
0.28647 0.24618 -0.28924
0.05477 0.24618 -0.00994
0.28449 0.24618 0.02856
0.12711 0.24618 -0.16352
0.04140 0.24618 -0.28623
0.23706 0.24618 -0.24375
0.25672 0.24618 -0.23980
0.16407 0.24618 -0.01749
0.24361 0.24618 0.06365
0.18020 0.24618 -0.01083
0.18172 0.24618 0.12353
0.13942 0.24618 -0.24049
0.26056 0.24618 0.10559
-0.00521 0.24618 -0.13427
0.21689 0.24618 -0.13140
-0.03574 0.24618 -0.04723
-0.09426 0.24618 -0.18123
-0.10755 0.24618 -0.27719
0.23312 0.24618 -0.00292
-0.20433 0.24618 -0.22317
0.19791 0.24618 -0.20468
0.04244 0.24618 -0.23069
-0.01651 0.24618 -0.28969
-0.04780 0.24618 -0.21755
0.26749 0.24618 0.20965
0.29530 0.24618 0.21930
-0.16398 0.24618 -0.19945
0.14339 0.24618 -0.00554
0.01502 0.24618 -0.14261
-0.19468 0.24618 -0.28903
0.12624 0.24618 -0.09394
-0.06428 0.24618 -0.15917
-0.01095 0.24618 -0.17109
0.15411 0.24618 -0.19874
0.09748 0.24618 -0.11473
-0.17480 0.24618 -0.21374
0.02533 0.24618 -0.28360
0.19051 0.24618 -0.15663
0.09576 0.24618 -0.04300
-0.16772 0.24618 -0.28857
0.05357 0.24618 0.05274
-0.02516 0.24618 -0.26458
0.05267 0.24618 -0.02135
0.25473 0.24618 -0.12548
0.24296 0.24618 -0.17348
-0.13076 0.24618 -0.17178
0.17126 0.24618 -0.15970
0.17147 0.24618 -0.20039
0.03025 0.24618 -0.24763
-0.03646 0.24618 -0.14973
0.19757 0.24618 0.15238
0.22246 0.24618 -0.17580
0.17189 0.24618 0.15208
-0.15357 0.24618 -0.24422
0.25418 0.24618 0.13399
-0.01591 0.24618 -0.24359
0.16259 0.24618 -0.22456
-0.03471 0.24618 -0.18958
0.13173 0.24618 0.07920
0.27459 0.24618 0.26733
0.01215 0.24618 -0.27731
0.24783 0.24618 0.07920
0.22263 0.24618 0.00032
0.06550 0.24618 0.02764
-0.04062 0.24618 -0.25607
0.21007 0.24618 -0.26439
0.08945 0.24618 -0.28663
-0.20448 0.24618 -0.28306
-0.13778 0.24618 -0.14171
0.07862 0.24618 0.05437
-0.03245 0.24618 -0.25749
-0.21224 0.24618 -0.26458
0.03600 0.24618 -0.10077
0.23339 0.24618 -0.19935
0.28076 0.24618 0.15527
0.22545 0.24618 -0.15124
0.27178 0.24618 -0.12879
0.02782 0.24618 -0.03361
0.16419 0.24618 -0.20209
-0.00950 0.24618 -0.12755
0.23349 0.24618 -0.13192
0.00996 0.24618 -0.19456
-0.05280 0.24618 -0.10396
0.05916 0.24618 -0.00661
-0.07380 0.24618 -0.23106
0.27235 0.24618 0.18157
-0.06521 0.24618 -0.22043
0.07491 0.24618 -0.29625
0.29584 0.24618 0.14809
-0.13981 0.24618 -0.20717
-0.08756 0.24618 -0.23653
-0.08159 0.24618 -0.11412
0.26239 0.24618 -0.17530
0.06817 0.24618 -0.00159
0.00685 0.24618 -0.05970
-0.00714 0.24618 -0.14659
-0.04473 0.24618 -0.04931
-0.06937 0.24618 -0.09575
-0.04037 0.24618 -0.26572
0.21898 0.24618 -0.03587
0.23581 0.24618 -0.06140
0.00516 0.24618 -0.15337
0.08173 0.24618 0.03800
0.26399 0.24618 0.02236
0.03841 0.24618 0.00623
0.13192 0.24618 0.02872
0.26233 0.24618 -0.18389
0.17678 0.24618 0.03904
0.09235 0.24618 -0.16068
-0.09974 0.24618 -0.28396
0.13751 0.24618 -0.01870
0.09210 0.24618 -0.08376
0.21742 0.24618 -0.01602
-0.16332 0.24618 -0.26366
0.23958 0.24618 0.23516
0.22749 0.24618 0.16896
0.28706 0.24618 -0.29442
-0.02652 0.24618 -0.21812
0.01974 0.24618 -0.10019
-0.21091 0.24618 -0.27811
0.09123 0.24618 -0.29175
0.06237 0.24618 -0.03952
0.14460 0.24618 -0.26390
0.17769 0.24618 -0.07202
0.02860 0.24618 -0.04736
0.04321 0.24618 -0.11615
0.25907 0.24618 -0.06705
-0.26780 0.24618 -0.28552
-0.17269 0.24618 -0.29681
0.16319 0.24618 -0.05512
0.15473 0.24618 -0.25552
0.16051 0.24618 -0.25758
-0.12624 0.24618 -0.28530
0.07463 0.24618 0.01038
0.08282 0.24618 -0.08593
0.22777 0.24618 0.12303
0.03320 0.24618 -0.09496
-0.22158 0.24618 -0.26589
0.15818 0.24618 0.05835
0.23721 0.24618 0.08533
0.06548 0.24618 -0.11532
-0.00711 0.24618 -0.08453
0.11232 0.24618 -0.15782
0.23836 0.24618 -0.15841
0.20806 0.24618 0.08124
0.05795 0.24618 -0.08483
0.05522 0.24618 -0.23160
0.26718 0.24618 -0.17054
-0.24015 0.24618 -0.25749
0.22844 0.24618 0.14104
-0.02987 0.24618 -0.06953
-0.07685 0.24618 -0.25445
0.00456 0.24618 -0.23569
0.25929 0.24618 -0.16699
0.23617 0.24618 0.07648
-0.11650 0.24618 -0.22752
-0.09039 0.24618 -0.24432
0.27135 0.24618 -0.23205
-0.10928 0.24618 -0.24785
0.01499 0.24618 -0.17135
0.27393 0.24618 0.14551
0.02534 0.24618 -0.08346
0.11941 0.24618 -0.18068
0.13457 0.24618 -0.11038
0.07603 0.24618 -0.26749
0.12463 0.24618 0.02235
0.06981 0.24618 -0.17645
0.17472 0.24618 0.01253
0.01794 0.24618 -0.11953
-0.10645 0.24618 -0.19027
0.00026 0.24618 -0.08403
0.02267 0.24618 -0.24073
-0.13191 0.24618 -0.13928
0.13694 0.24618 0.06001
0.28349 0.24618 -0.23452
0.25334 0.24618 -0.26766
0.05559 0.24618 -0.00219
0.18133 0.24618 0.03072
0.25220 0.24618 -0.09309
-0.12370 0.24618 -0.21993
0.18011 0.24618 0.10351
0.29063 0.24618 -0.20008
0.21432 0.24618 -0.25272
-0.07974 0.24618 -0.16085
-0.03950 0.24618 -0.22298
0.13763 0.24618 0.11122
0.11168 0.24618 -0.08773
-0.09019 0.24618 -0.24915
-0.06758 0.24618 -0.26112
0.28115 0.24618 0.18640
0.29003 0.24618 -0.15233
0.27904 0.24618 0.09644
0.22242 0.24618 0.01764
0.00532 0.24618 -0.25011
0.19312 0.24618 0.12320
0.23055 0.24618 0.17703
-0.14344 0.24618 -0.22841
0.27641 0.24618 -0.13903
-0.11161 0.24618 -0.21735
-0.10586 0.24618 -0.10841
0.19410 0.24618 -0.08907
0.20792 0.24618 0.00928
0.28258 0.24618 0.21834
0.04333 0.24618 -0.10189
-0.05159 0.24618 -0.29194
0.27020 0.24618 0.04710
0.00189 0.24618 -0.27929
-0.16250 0.24618 -0.25096
0.23848 0.24618 -0.27546
0.13255 0.24618 0.09121
0.18854 0.24618 0.13543
0.01513 0.24618 -0.12426
-0.02520 0.24618 -0.14875
-0.03751 0.24618 -0.19917
0.02175 0.24618 -0.16094
0.03335 0.24618 -0.04670
0.16977 0.24618 0.10097
-0.19678 0.24618 -0.23509
0.14284 0.24618 -0.18548
0.05608 -0.22581 -0.00083
0.03508 -0.22298 -0.00210
0.03590 -0.22309 0.00683
0.02462 -0.06479 0.01930
0.02462 0.11587 0.01992
0.02462 -0.13895 0.02236
0.02462 0.18799 0.01882
0.02462 0.03410 0.01845
-0.19628 0.21255 0.00923
-0.11332 0.23241 0.00923
-0.13397 0.22148 0.00923
-0.23267 0.23356 0.00923
-0.17941 0.21252 0.00923
-0.23305 0.21567 0.00923
0.02355 0.20719 0.02462
-0.30725 0.21541 0.10936
-0.29924 0.21541 -0.21864
-0.30559 0.21541 -0.15916
-0.30526 0.21541 -0.11853
-0.30628 0.21541 -0.02846
-0.30380 0.21541 -0.10373
0.03741 0.19186 0.00895
0.12431 0.19910 0.00690
-0.20132 -0.24618 -0.00633
-0.20556 -0.24342 0.00308
0.30641 0.24618 -0.05683
0.30753 0.24618 -0.27775
0.30609 0.24618 0.16490
0.30001 0.24618 -0.19282
0.30350 0.24618 -0.15163
0.30707 0.24618 -0.13197
0.06165 0.21541 -0.29889
0.16055 0.21541 -0.29852
-0.16415 0.21541 -0.29856
-0.18303 0.21541 -0.29796
0.00923 -0.22780 0.14238
0.00923 -0.19109 0.05909
0.00923 -0.23518 0.12067
0.00923 -0.21341 0.04713
0.00923 -0.22812 0.14978
0.00923 -0.22987 0.10135
0.00923 -0.20785 0.07248
0.00923 -0.20399 0.08098
0.02462 0.00038 0.01177
0.02462 0.06901 0.01216
0.02462 -0.15772 0.00957
0.02462 -0.03635 0.01150
0.02462 -0.06921 0.00943
-0.00641 -0.22725 -0.24618
0.00923 0.21177 -0.13849
0.00923 0.21593 -0.23903
0.00923 0.20071 -0.19156
0.00923 0.20921 -0.22601
0.00923 0.21282 -0.19015
0.00923 0.23127 -0.23699
0.14976 0.23387 0.00005
0.13727 0.23387 -0.00021
0.20997 -0.24618 -0.00861
-0.00923 -0.21552 -0.03693
-0.00923 -0.19768 -0.07672
-0.00923 -0.20850 -0.04714
-0.00923 -0.17975 -0.03042
-0.00923 -0.19266 -0.06311
-0.00923 -0.21892 -0.09539
-0.00923 -0.20297 -0.03663
-0.00923 -0.19607 -0.03513
-0.06089 -0.18039 0.00086
-0.09928 -0.18892 0.00195
0.20318 0.23085 0.00923
0.19361 0.22164 0.00923
0.10877 0.22705 0.00923
0.13753 0.22371 0.00923
0.22028 0.22374 0.00923
-0.02462 0.10564 -0.00308
-0.02462 0.05605 -0.00047
-0.02462 0.18140 0.00021
-0.02462 0.10053 0.00402
-0.02462 -0.08905 -0.00881
-0.02462 0.00151 -0.00089
-0.30773 0.22268 -0.02607
-0.30773 0.21548 -0.05752
-0.30773 0.22278 -0.20701
-0.30773 0.23993 -0.24787
-0.30773 0.22360 0.02245
-0.30773 0.22345 0.10503
-0.30773 0.21787 -0.17769
-0.30773 0.22454 -0.28467
-0.30773 0.22207 -0.05419
-0.30773 0.22024 -0.10260
-0.30773 0.23416 -0.22026
-0.30773 0.23079 -0.23642
-0.30773 0.22038 0.13317
-0.30773 0.22385 -0.17117
-0.30773 0.21777 0.20247
-0.30773 0.22717 -0.28055
0.07303 -0.18788 -0.00923
0.06193 -0.18231 -0.00923
0.09055 -0.18980 -0.00923
0.16999 -0.21265 -0.00923
0.10405 -0.20907 -0.00923
0.08249 -0.18899 -0.00923
0.05360 -0.20858 -0.00923
0.09633 -0.19951 -0.00923
0.14182 -0.21041 -0.00923
0.00627 0.22082 -0.24618
-0.17544 0.23359 -0.00923
-0.00923 -0.23664 0.23386
-0.02045 -0.06198 0.02462
-0.01892 -0.14322 0.02462
-0.01380 -0.13329 0.02462
-0.01772 -0.12318 0.02462
-0.02238 -0.10527 0.02462
-0.02360 0.01745 0.02462
-0.00648 -0.17636 -0.04277
0.00873 -0.20388 -0.16660
0.00855 -0.17346 -0.02970
0.00526 -0.18308 -0.07301
0.30773 0.23475 0.02382
0.30773 0.22636 -0.27503
0.30773 0.23683 -0.25086
0.30773 0.22430 -0.19318
0.30773 0.24264 -0.19334
0.30773 0.24288 0.04131
0.30773 0.22513 -0.18325
0.30773 0.24531 0.10296
0.30773 0.24289 0.08937
0.30773 0.22804 -0.24063
0.30773 0.22821 -0.22265
0.30773 0.23264 -0.04175
0.30773 0.23112 -0.03044
0.30773 0.22087 -0.28268
0.30773 0.22072 -0.30177
0.30773 0.22232 -0.29654
0.02462 0.12507 -0.00591
0.02462 -0.05599 0.00066
0.02462 -0.14999 -0.00719
0.02462 -0.10801 -0.00019
0.02462 -0.13023 0.00578
0.02462 -0.05506 -0.00480
-0.01183 0.21834 0.02462
-0.03737 -0.17516 -0.00422
-0.04762 -0.17744 -0.00045
0.09120 -0.22710 0.00923
0.20372 -0.22249 0.00923
0.08139 -0.22210 0.00923
-0.28861 0.23844 -0.29734
-0.18705 0.23413 -0.29734
-0.28552 0.21767 -0.29734
-0.15270 0.22988 -0.29734
-0.16472 0.23373 -0.29734
-0.26659 0.23273 -0.29734
0.16148 0.24609 -0.29734
0.00539 0.23900 -0.29734
-0.01488 0.24605 -0.29734
-0.03186 0.23773 -0.29734
-0.06856 0.23057 -0.29734
-0.29069 0.22831 -0.29734
0.25558 0.24489 -0.29734
-0.02677 0.23219 -0.29734
-0.19192 0.23144 -0.29734
-0.02462 0.05951 -0.02103
-0.02462 0.06331 -0.02365
-0.02462 0.04376 -0.01851
-0.02462 -0.10549 -0.02255
-0.02462 -0.18664 -0.02408
-0.02462 0.18018 -0.01782
-0.02462 -0.00881 -0.02242
-0.00179 -0.19258 -0.11573
-0.00579 -0.21305 -0.20786
-0.00923 0.23202 0.14119
-0.00923 0.22853 0.02678
-0.00923 0.20100 0.03492
-0.00923 0.22747 0.03442
-0.00923 0.21235 0.13303
-0.00923 0.21792 0.13938
-0.00923 0.23032 0.11999
-0.00923 0.23160 0.14903
-0.00923 0.23056 0.08786
0.24618 0.22218 -0.00104
0.05950 0.22907 -0.30773
-0.17370 0.24173 -0.30773
0.26355 0.23262 -0.30773
0.06591 0.24597 -0.30773
-0.23376 0.24468 -0.30773
0.07143 0.23279 -0.30773
0.16853 0.24617 -0.30773
0.03536 0.23087 -0.30773
-0.07177 0.24479 -0.30773
-0.12868 0.24119 -0.30773
0.12114 0.23041 -0.30773
0.25267 0.23976 -0.30773
0.11907 0.24307 -0.30773
0.05092 0.23011 -0.30773
-0.03009 0.20010 -0.00923
-0.15118 0.21095 -0.00923
-0.21999 0.20536 -0.00923
-0.07366 0.22584 -0.00923
-0.06396 0.21138 -0.00923
-0.06747 0.22522 -0.00923
-0.07260 0.21940 -0.00923
-0.15882 0.19837 -0.00923
-0.08100 0.21555 -0.00923
0.00923 -0.24531 -0.19962
0.14920 -0.23838 -0.00713
0.16761 -0.24086 0.00439
0.19462 -0.24450 0.00226
0.17699 0.21775 0.00923
0.22464 0.23119 0.00923
0.21297 0.21384 0.00923
0.19203 0.23273 0.00923
0.23438 0.21172 0.00923
0.30199 0.21541 0.06851
0.30474 0.21541 0.21839
0.30720 0.21541 -0.25730
0.29938 0.21541 0.20271
0.29988 0.21541 0.19051
-0.00435 0.20186 0.22392
-0.00223 0.20080 0.20478
-0.00601 0.19362 0.07547
-0.11014 0.19554 0.00805
-0.16850 0.19878 -0.00124
-0.18121 0.19949 0.00266
-0.02462 -0.17165 0.02193
-0.02462 -0.09156 0.00531
-0.02462 0.12532 0.00847
-0.02462 -0.18702 0.02224
-0.02462 -0.22551 0.01279
-0.02462 -0.09302 0.01199
-0.02462 0.06930 0.01276
-0.29734 0.23724 0.17015
-0.29734 0.22478 0.01987
-0.29734 0.22758 0.11037
-0.29734 0.22154 -0.10157
-0.29734 0.21588 -0.15734
-0.29734 0.21656 -0.09830
-0.29734 0.23356 0.09221
-0.29734 0.23837 0.15552
0.00298 -0.19544 -0.12862
-0.00094 -0.17643 -0.04307
0.00813 -0.21669 -0.22423
-0.00221 -0.18496 -0.08145
-0.17452 0.22918 -0.30773
-0.10378 0.22816 -0.30773
0.04277 0.22781 -0.30773
-0.27181 0.21555 -0.30773
-0.26523 0.22119 -0.30773
0.00410 0.22398 -0.30773
0.07112 0.22306 -0.30773
-0.15859 0.23140 -0.30773
-0.11497 0.22806 -0.30773
0.06500 0.22621 -0.30773
-0.04216 0.23238 -0.30773
-0.16309 0.23859 -0.30773
0.07328 0.21784 -0.30773
-0.19062 0.22179 -0.30773
-0.24108 0.22096 -0.30773
-0.20019 0.22183 -0.30773
0.20832 -0.21825 0.00923
0.18394 -0.21172 0.00923
0.09415 -0.19706 0.00923
0.02658 -0.20694 0.00923
0.10505 -0.20915 0.00923
0.13882 -0.21844 0.00923
0.06211 -0.21527 0.00923
-0.24618 0.21295 0.00468
0.00569 0.14353 -0.02462
-0.00429 0.00061 -0.02462
-0.00517 -0.08506 -0.02462
-0.00152 0.09800 -0.02462
0.00087 0.15224 -0.02462
0.00121 0.13214 -0.02462
-0.01255 -0.10930 0.02462
-0.02462 0.11578 0.00671
-0.02462 -0.06122 -0.00227
-0.02462 -0.14667 -0.00115
-0.02462 -0.15671 -0.00841
0.11758 -0.19299 0.00407
0.09606 -0.18820 0.00610
0.20527 -0.21247 0.00232
-0.01601 0.22538 -0.02462
-0.01016 0.08670 -0.02462
-0.01377 0.13855 -0.02462
-0.01468 0.11466 -0.02462
-0.01997 0.14128 -0.02462
-0.01624 0.04977 -0.02462
0.29888 0.24618 0.06544
0.29813 0.24618 -0.08278
0.30017 0.24618 0.20961
0.30196 0.24618 0.00886
0.30021 0.24618 0.15738
0.02394 0.20056 -0.02462
0.02209 0.04645 -0.02462
0.01335 -0.22275 -0.02462
0.01760 -0.11426 -0.02462
0.01369 -0.17453 -0.02462
0.02412 -0.05137 -0.02462
0.01695 -0.12937 -0.02462
-0.21792 -0.22390 0.00308
-0.16078 -0.22911 0.00308
-0.21086 -0.23041 0.00308
-0.20185 -0.23870 0.00308
-0.22706 -0.23091 0.00308
-0.30773 0.23721 0.04714
-0.30773 0.24244 -0.18234
-0.30773 0.21974 0.26201
-0.30773 0.24509 0.00097
-0.30773 0.24233 -0.20622
-0.30773 0.22414 0.23765
-0.30773 0.24476 0.23354
-0.30773 0.23871 0.19105
-0.30773 0.22619 0.10055
-0.30773 0.24008 -0.13587
-0.30773 0.24603 0.08522
-0.30773 0.23725 0.03728
-0.30773 0.22937 0.11667
-0.30773 0.24561 -0.15682
-0.00923 0.21474 -0.10005
-0.00923 0.21389 -0.11463
-0.00923 0.21114 -0.03917
-0.00923 0.21121 -0.09137
-0.00923 0.21073 -0.16670
-0.00923 0.20401 -0.16461
-0.00923 0.20511 -0.12165
0.00824 0.23387 -0.19363
0.00108 0.23387 -0.20510
0.00831 0.23387 -0.18329
0.00810 0.23387 -0.14512
0.22541 -0.24618 -0.00074
-0.24107 -0.24250 -0.00923
-0.15511 -0.22581 -0.00923
-0.10848 -0.22764 -0.00923
-0.24073 -0.22950 -0.00923
-0.21849 -0.22312 -0.00923
-0.01229 -0.00387 0.02462
0.00643 -0.17126 0.02462
-0.01579 0.09541 0.02462
-0.00280 -0.07287 0.02462
-0.00439 -0.17266 0.02462
-0.00360 -0.03802 0.02462
-0.30458 0.24618 -0.22768
-0.30286 0.24618 -0.18507
-0.30297 0.24618 -0.15127
-0.29754 0.24618 0.16385
-0.30326 0.24618 -0.25158
-0.29945 0.24618 -0.12494
-0.18902 -0.24505 0.00003
0.24378 -0.23780 0.00923
0.19365 -0.23865 0.00923
0.21497 -0.23255 0.00923
0.12612 -0.22754 0.00923
-0.00923 -0.21774 -0.18619
-0.00923 -0.20560 -0.15367
-0.00923 -0.23794 -0.23522
-0.00923 -0.21563 -0.18015
-0.00740 -0.18791 0.08868
0.02462 -0.22764 0.01595
0.30773 0.22942 0.19256
0.30773 0.23138 0.20432
0.30773 0.21977 0.11062
0.30773 0.21640 0.07633
0.30773 0.22807 0.12340
0.30773 0.23821 0.30098
0.30773 0.22279 0.10113
0.30773 0.22020 -0.12786
0.30773 0.22142 0.05995
0.30773 0.22684 0.11459
0.30773 0.22881 0.02962
0.30773 0.23500 0.19818
0.30773 0.23239 0.25087
0.30773 0.22005 0.27322
-0.02264 -0.18120 -0.02462
-0.01260 -0.12677 -0.02462
-0.02326 -0.14882 -0.02462
-0.01880 -0.13938 -0.02462
-0.01924 -0.08510 -0.02462
-0.02189 0.07800 -0.02462
-0.01613 -0.06497 -0.02462
0.04579 -0.17703 -0.00506
0.11003 -0.19131 -0.00570
0.09639 -0.20796 -0.00923
0.10279 -0.19873 -0.00923
0.11279 -0.21637 -0.00923
0.08470 -0.19849 -0.00923
0.16400 -0.20380 -0.00923
0.08357 -0.20638 -0.00923
0.02510 -0.20200 -0.00923
0.04900 -0.19031 -0.00923
0.03162 -0.21256 -0.00923
0.00923 -0.19972 0.08435
0.00923 -0.21883 0.08419
0.00923 -0.19306 0.02474
0.00923 -0.21144 0.08987
0.00923 -0.22967 0.11326
0.00923 -0.21282 0.08065
0.00923 -0.21362 0.03227
-0.10885 0.23101 0.00923
-0.16017 0.22229 0.00923
-0.12538 0.22127 0.00923
-0.21448 0.23203 0.00923
-0.14125 0.22993 0.00923
-0.17756 0.22023 0.00923
0.23168 0.22820 -0.30773
0.22024 0.23168 -0.30773
-0.04222 0.24176 -0.30773
0.09375 0.23588 -0.30773
0.13786 0.24575 -0.30773
-0.02245 0.24534 -0.30773
0.26766 0.22179 -0.30773
0.24353 0.22704 -0.30773
0.16165 0.23995 -0.30773
0.19638 0.23734 -0.30773
-0.15613 0.24155 -0.30773
0.28203 0.24599 -0.30773
0.09048 0.24260 -0.30773
0.14824 0.22378 -0.30773
0.29210 0.23530 -0.30773
0.25682 0.23162 -0.30773
0.21558 0.23145 -0.30773
-0.02839 0.23387 0.00053
-0.08134 0.23387 0.00231
-0.12062 0.23387 -0.00509
-0.29974 0.21541 -0.14390
-0.30173 0.21541 0.05435
-0.00205 0.19313 -0.06672
0.00579 0.19204 -0.04710
-0.00443 0.19657 -0.12861
0.01498 0.03765 -0.02462
-0.00223 -0.12689 -0.02462
0.00024 -0.16994 -0.02462
0.01501 0.02080 -0.02462
0.00388 -0.01776 -0.02462
0.01882 0.09018 -0.02462
0.00648 0.23387 0.22705
-0.00281 0.23387 0.23031
-0.00864 0.23387 0.13179
-0.00334 0.23387 0.11668
-0.00716 0.23387 0.07198
0.02462 0.03751 0.01038
0.02462 -0.14630 0.01674
0.02462 -0.05195 0.01315
0.02462 -0.07324 0.01434
-0.00923 -0.22217 -0.16189
-0.00923 -0.20385 -0.10181
-0.00923 -0.22426 -0.14809
0.04610 0.23387 -0.00146
0.03192 0.23387 -0.00745
0.09027 0.23387 0.00317
0.23994 0.22840 0.30773
0.29690 0.22893 0.30773
0.23090 0.21597 0.30773
0.29352 0.21737 0.30773
-0.06924 0.22154 0.30773
0.12157 0.21608 0.30773
0.05613 0.21949 0.30773
0.30149 0.22725 0.30773
-0.05611 0.21599 0.30773
0.07466 0.21720 0.30773
-0.10972 0.22473 0.30773
-0.06211 0.22646 0.30773
0.25197 0.23821 0.30773
-0.10303 0.21665 0.30773
-0.09949 -0.21088 0.00308
-0.12417 -0.20401 0.00308
-0.13051 -0.19737 0.00308
-0.09286 -0.20197 0.00308
-0.15755 -0.20283 0.00308
-0.13985 -0.21644 0.00308
-0.03954 -0.19398 0.00308
-0.06966 -0.21440 0.00308
-0.05647 -0.19892 0.00308
-0.08920 -0.18779 0.00308
0.01343 0.23387 0.02351
0.02462 0.07877 -0.01922
0.02462 0.19877 -0.01619
0.02462 -0.03920 -0.01162
0.02462 0.13834 -0.01860
0.02462 0.03981 -0.01083
0.00923 -0.22036 -0.05970
0.00923 -0.22453 -0.10241
0.00923 -0.19607 -0.04432
0.00923 -0.21020 -0.05893
0.00923 -0.24236 -0.18186
0.00923 -0.22611 -0.06634
0.00923 -0.22166 -0.11906
0.00923 -0.22189 -0.11289
-0.29375 0.24301 -0.29734
-0.22798 0.24068 -0.29734
-0.23937 0.24245 -0.29734
0.12443 0.23868 -0.29734
0.22490 0.24414 -0.29734
-0.27808 0.23514 -0.29734
-0.01058 0.24440 -0.29734
-0.09918 0.24595 -0.29734
-0.20835 0.23882 -0.29734
-0.08715 0.23149 -0.29734
0.06612 0.24350 -0.29734
-0.03410 0.22942 -0.29734
-0.05795 0.24347 -0.29734
-0.11058 0.23017 -0.29734
0.05349 0.19931 -0.00923
0.19391 0.21164 -0.00923
0.09296 0.19954 -0.00923
0.13518 0.21336 -0.00923
0.16270 0.21035 -0.00923
0.05258 0.21388 -0.00923
0.29734 0.22474 -0.19645
0.29734 0.21928 0.00796
0.29734 0.22035 -0.24265
0.29734 0.22776 -0.03530
0.29734 0.22465 -0.22419
0.29734 0.22707 -0.18518
0.29734 0.22117 -0.02569
0.29734 0.21995 -0.09605
0.29734 0.22987 -0.21241
0.29734 0.22387 -0.25989
0.29734 0.21881 -0.19513
0.29734 0.21821 0.06502
0.29734 0.22094 -0.08364
0.29734 0.22201 -0.11127
0.29734 0.22716 -0.08559
0.29734 0.23999 -0.28568
-0.15394 -0.20107 -0.00824
-0.19426 -0.21003 -0.00172
0.16285 0.21715 0.29734
-0.18480 0.21992 0.29734
0.17284 0.21782 0.29734
-0.24469 0.22422 0.29734
-0.21061 0.21676 0.29734
-0.01585 0.21930 0.29734
-0.22343 0.22848 0.29734
-0.22396 0.23659 0.29734
-0.08564 0.21584 0.29734
-0.09644 0.23461 0.29734
-0.25160 0.23962 0.29734
-0.16560 0.21996 0.29734
-0.00632 0.21615 0.29734
-0.07461 0.22980 0.29734
0.00610 0.21342 -0.24618
-0.02462 0.23179 0.01371
-0.18744 -0.20851 -0.00779
-0.22591 -0.21706 0.00108
0.30773 0.24510 0.07272
0.30773 0.22623 -0.29125
0.30773 0.22817 -0.25598
0.30773 0.22592 -0.13258
0.30773 0.24222 0.11155
0.30773 0.24270 0.23531
0.30773 0.23201 -0.28278
0.30773 0.24065 0.09548
0.30773 0.24457 0.12181
0.30773 0.22089 -0.23811
0.30773 0.23317 -0.02100
0.30773 0.22903 -0.21289
0.30773 0.22805 -0.11561
0.30773 0.24123 0.14522
0.30773 0.24606 -0.06282
-0.02030 -0.22772 0.00004
-0.00247 0.23387 -0.18684
0.00335 0.23387 -0.23518
0.00547 0.23387 -0.22820
-0.01816 0.02516 0.02462
0.00435 0.02612 -0.02462
0.00017 -0.04438 -0.02462
0.00835 0.11257 -0.02462
0.02222 0.22561 -0.02462
0.09405 0.24618 -0.00674
0.23779 0.24618 -0.08467
-0.00268 0.24618 -0.11317
0.24086 0.24618 0.01741
0.17062 0.24618 -0.05920
-0.00380 0.24618 -0.12429
-0.09827 0.24618 -0.21609
0.10534 0.24618 -0.01624
0.12698 0.24618 0.09591
0.09487 0.24618 0.04744
0.03499 0.24618 -0.00326
-0.15102 0.24618 -0.26027
0.23822 0.24618 0.20957
0.04526 0.24618 -0.03279
0.14940 0.24618 -0.26761
0.15457 0.24618 -0.14480
0.13134 0.24618 0.05594
0.07013 0.24618 -0.08989
0.24798 0.24618 0.04354
-0.04449 0.24618 -0.17862
-0.02589 0.24618 -0.17694
0.11387 0.24618 -0.23006
0.13410 0.24618 -0.14634
-0.23226 0.24618 -0.26970
-0.20019 0.24618 -0.22546
0.10492 0.24618 -0.19872
0.15393 0.24618 -0.28865
0.07700 0.24618 -0.00356
0.07663 0.24618 -0.27884
0.26193 0.24618 0.07730
-0.06973 0.24618 -0.22165
-0.18070 0.24618 -0.22375
0.03689 0.24618 -0.05954
0.21359 0.24618 -0.10996
-0.11422 0.24618 -0.23417
0.18657 0.24618 -0.24180
0.16482 0.24618 0.11214
0.11509 0.24618 0.00640
-0.09991 0.24618 -0.27738
0.11441 0.24618 -0.08119
-0.05107 0.24618 -0.27858
0.12642 0.24618 -0.10905
-0.09157 0.24618 -0.10931
0.23441 0.24618 0.03921
0.25289 0.24618 0.23166
0.27660 0.24618 0.14152
-0.21129 0.24618 -0.22463
0.26060 0.24618 0.00604
0.05343 0.24618 -0.25398
0.04458 0.24618 -0.23492
-0.00787 0.24618 -0.24979
0.27948 0.24618 0.27248
-0.06949 0.24618 -0.08448
0.15288 0.24618 0.01609
0.16241 0.24618 0.10738
0.01141 0.24618 -0.13776
-0.20100 0.24618 -0.21689
0.12117 0.24618 -0.26186
-0.01328 0.24618 -0.09350
0.14822 0.24618 -0.25462
0.18734 0.24618 0.17311
0.22188 0.24618 -0.13319
0.17837 0.24618 0.02043
0.11913 0.24618 -0.18653
0.26370 0.24618 0.04897
0.28815 0.24618 -0.22291
0.00564 0.24618 -0.00536
0.25777 0.24618 -0.18776
0.26194 0.24618 -0.02554
0.21929 0.24618 0.18134
0.25762 0.24618 -0.25959
-0.14420 0.24618 -0.22188
0.26439 0.24618 -0.13644
0.23255 0.24618 0.13538
-0.06319 0.24618 -0.12843
0.16888 0.24618 0.03498
-0.24035 0.24618 -0.28758
0.16788 0.24618 -0.10714
0.11110 0.24618 0.08607
-0.12900 0.24618 -0.20215
0.13488 0.24618 -0.02816
0.12715 0.24618 -0.18427
0.01206 0.24618 -0.09072
0.12706 0.24618 -0.00094
-0.14106 0.24618 -0.19803
0.28835 0.24618 0.27814
-0.19721 0.24618 -0.27682
0.23656 0.24618 0.09626
-0.00910 0.24618 -0.07564
0.25143 0.24618 -0.13796
0.21618 0.24618 -0.10482
0.25136 0.24618 -0.16138
-0.05271 0.24618 -0.09537
0.18165 0.24618 -0.00330
0.14409 0.24618 -0.15852
0.12928 0.24618 0.04711
0.05984 0.24618 -0.19550
0.11477 0.24618 -0.13009
0.17612 0.24618 -0.06074
0.25728 0.24618 -0.00567
-0.01689 0.24618 -0.13061
0.20690 0.24618 0.11261
0.26023 0.24618 0.05674
-0.09439 0.24618 -0.19148
0.20602 0.24618 0.19443
0.09421 0.24618 -0.07128
-0.14929 0.24618 -0.28703
0.02959 0.24618 -0.14163
0.01930 0.24618 -0.09164
-0.09811 0.24618 -0.15510
0.25963 0.24618 -0.00125
0.03338 0.24618 -0.06763
0.13809 0.24618 -0.17094
0.19295 0.24618 0.03267
-0.00563 0.24618 -0.18244
-0.05454 0.24618 -0.21729
0.22485 0.24618 0.16276
0.13692 0.24618 -0.12915
-0.03630 0.24618 -0.10367
0.29082 0.24618 -0.08593
0.15554 0.24618 -0.13930
-0.02105 0.24618 -0.29426
0.10197 0.24618 -0.02455
0.13373 0.24618 0.06966
0.21127 0.24618 0.12536
0.00761 0.24618 -0.17569
0.18622 0.24618 0.06629
0.26746 0.24618 0.07066
0.05451 0.24618 -0.06328
0.18937 0.24618 0.05789
0.27147 0.24618 -0.09265
0.02675 0.24618 -0.27240
0.12261 0.24618 -0.12714
0.14640 0.24618 -0.14802
0.20351 0.24618 -0.13954
0.15137 0.24618 0.00608
-0.20610 0.24618 -0.29164
0.20130 0.24618 -0.19519
0.01610 0.24618 -0.06026
0.00798 0.24618 -0.20377
0.02983 0.24618 -0.18854
0.22244 0.24618 -0.02033
-0.06087 0.24618 -0.08824
0.08208 0.24618 -0.27730
-0.01457 0.24618 -0.02273
0.04599 0.24618 -0.29158
-0.00369 0.24618 -0.17649
0.03955 0.24618 -0.16034
-0.06023 0.24618 -0.06384
0.16387 0.24618 0.14237
0.14050 0.24618 -0.19607
0.14939 0.24618 0.10108
0.03731 0.24618 -0.19499
0.20212 0.24618 0.08616
0.28607 0.24618 0.20415
-0.23862 0.24618 -0.24162
-0.24850 0.24618 -0.27604
0.09375 0.24618 -0.23507
-0.10243 0.24618 -0.19381
0.24236 0.24618 -0.22500
0.16637 0.24618 0.04983
-0.18317 0.24618 -0.23396
-0.04208 0.24618 -0.10303
-0.18088 0.24618 -0.22974
-0.06871 0.24618 -0.14309
-0.08778 0.24618 -0.27343
0.16620 0.24618 -0.20954
0.16037 0.24618 -0.26653
0.04883 0.24618 0.03558
0.14964 0.24618 0.11929
-0.07482 0.24618 -0.20564
0.21000 0.24618 -0.03597
-0.03757 0.24618 -0.21862
-0.20340 0.24618 -0.21271
-0.16202 0.24618 -0.17484
0.05422 0.24618 -0.16897
0.10655 0.24618 -0.04650
0.18719 0.24618 -0.06417
0.24892 0.24618 0.24855
0.12216 0.24618 -0.15160
0.14337 0.24618 0.13928
0.17999 0.24618 -0.12739
0.05113 0.24618 -0.17599
-0.00646 0.24618 -0.27224
0.27447 0.24618 -0.29609
0.14657 0.24618 0.10642
0.04743 0.24618 -0.28387
0.27019 0.24618 0.15945
0.04559 0.24618 -0.21988
0.12006 0.24618 -0.11097
0.27124 0.24618 -0.25567
0.29332 0.24618 -0.24043
0.10151 0.24618 0.00009
0.18030 0.24618 -0.02648
0.28315 0.24618 -0.17358
-0.04512 0.24618 -0.19680
0.14223 0.24618 -0.11257
0.26949 0.24618 -0.27840
-0.08639 0.24618 -0.15324
-0.00790 0.24618 -0.16705
0.29095 0.24618 0.06757
0.24594 0.24618 -0.06352
0.06734 0.24618 0.06560
0.07854 0.24618 -0.23497
0.02878 0.24618 -0.06461
0.08956 0.24618 0.03248
0.21106 0.24618 -0.19737
0.06729 0.24618 -0.05210
0.20814 0.24618 -0.05824
0.25118 0.24618 -0.03618
0.04219 0.24618 -0.13944
-0.20919 0.24618 -0.24510
0.29472 0.24618 0.08173
0.02021 0.24618 -0.17377
0.18047 0.24618 -0.16089
0.22484 0.24618 0.17614
0.02731 0.24618 -0.18241
0.08074 0.24618 0.02381
0.17549 0.24618 0.16939
0.17947 0.24618 -0.23341
0.07080 0.24618 -0.22207
0.07327 0.24618 -0.23201
0.23956 0.24618 0.11549
0.09248 0.24618 0.01626
0.25943 0.24618 -0.01773
0.26755 0.24618 -0.12622
0.28266 0.24618 0.23672
-0.00020 0.24618 -0.05785
0.23769 0.24618 -0.21585
0.15173 0.24618 -0.15978
-0.13937 0.24618 -0.23773
-0.06464 0.24618 -0.27738
0.26761 0.24618 -0.01226
0.21457 0.24618 -0.02306
0.21138 0.24618 0.13588
0.11915 0.24618 -0.13686
-0.02764 0.24618 -0.20075
0.26280 0.24618 -0.03888
0.16312 0.24618 -0.09404
0.29270 0.24618 0.17944
0.07248 0.24618 0.01643
0.28904 0.24618 0.01427
-0.05739 0.24618 -0.15005
0.20807 0.24618 -0.29650
0.16745 0.24618 0.09367
0.03591 0.24618 -0.01097
0.27552 0.24618 -0.14522
0.08153 0.24618 -0.25988
0.21429 0.24618 0.03066
0.28147 0.24618 0.08200
0.23482 0.24618 -0.04257
0.05744 0.24618 -0.10657
0.05204 0.24618 -0.09529
0.17633 0.24618 -0.10883
-0.02841 0.24618 -0.23243
0.23463 0.24618 -0.18320
0.07489 0.24618 -0.04044
0.12848 0.24618 -0.05446
0.27732 0.24618 0.01991
-0.05191 0.24618 -0.14030
0.25634 0.24618 -0.21743
0.29423 0.24618 0.01495
0.14912 0.24618 -0.07840
0.24225 0.24618 0.13822
0.18666 0.24618 -0.16398
0.23425 0.24618 -0.14804
0.05946 0.24618 -0.16590
0.07978 0.24618 -0.09950
0.29889 0.21541 -0.16596
0.29906 0.21541 -0.14046
0.29774 0.21541 -0.18717
0.29916 0.21541 -0.20062
0.30296 0.21541 -0.21739
-0.08501 0.24618 -0.30612
0.20992 0.24618 -0.30471
0.17969 0.24618 -0.30556
0.29141 0.24618 -0.30021
-0.04862 0.24618 -0.30394
-0.30773 0.23457 -0.27350
-0.30773 0.21891 -0.03803
-0.30773 0.23269 -0.11464
-0.30773 0.22751 -0.06648
-0.30773 0.22217 0.15301
-0.30773 0.21725 0.00972
-0.30773 0.22040 -0.30533
-0.30773 0.21835 -0.12167
-0.30773 0.23039 -0.08865
-0.30773 0.23514 -0.27960
-0.30773 0.23717 -0.20553
-0.30773 0.22603 -0.02997
-0.30773 0.22156 0.01427
-0.30773 0.22352 -0.18796
-0.30773 0.21605 0.19743
-0.02462 0.16543 -0.00361
-0.02462 0.15194 0.00095
-0.02462 0.08892 -0.00854
0.23469 0.20830 -0.00098
0.09568 0.19671 -0.00633
0.13389 0.19990 -0.00700
0.20103 0.20549 0.00244
-0.23002 0.21801 0.30773
0.15783 0.23444 0.30773
0.23053 0.23036 0.30773
0.17978 0.22593 0.30773
-0.02513 0.22847 0.30773
0.21993 0.22170 0.30773
0.25159 0.23344 0.30773
0.03399 0.21722 0.30773
0.28563 0.24369 0.30773
0.15843 0.22145 0.30773
0.08504 0.21887 0.30773
0.15427 0.21852 0.30773
-0.22524 0.21871 0.30773
0.03189 0.22636 0.30773
0.28034 0.22948 0.30773
-0.00909 -0.24618 0.24277
-0.15750 0.24618 -0.29908
-0.08398 0.24618 -0.29881
-0.19330 0.24618 -0.30153
-0.06124 0.24618 -0.30296
0.13198 0.24618 -0.29738
0.01701 0.22096 -0.02462
-0.00111 -0.24126 0.16048
-0.00780 -0.23215 0.09302
0.00360 -0.24199 0.16593
-0.12372 0.21541 0.30692
0.01294 0.21541 0.30414
0.19544 0.21541 0.30050
0.09197 0.21541 0.30616
0.10838 0.21541 0.30513
-0.00923 -0.17815 -0.05054
-0.00923 -0.22928 -0.22840
-0.00923 -0.22448 -0.18118
-0.00923 -0.20057 -0.11163
0.16007 -0.23428 -0.00923
0.05668 -0.22472 -0.00923
0.16883 -0.22427 -0.00923
0.09358 -0.22977 -0.00923
-0.02462 0.00221 0.00620
-0.01848 -0.09998 0.02462
-0.01771 -0.17555 0.02462
-0.02295 -0.12744 0.02462
-0.01790 -0.13729 0.02462
-0.24618 0.21620 -0.00090
-0.01279 0.19272 0.02462
-0.29829 0.24618 0.08635
-0.29906 0.24618 -0.17256
-0.29860 0.24618 -0.25239
-0.29811 0.24618 -0.27367
-0.00596 0.20036 0.19685
-0.00559 0.20293 0.24314
-0.00160 0.19661 0.12940
-0.00850 0.19550 0.10938
-0.02462 -0.08699 -0.02338
-0.02462 -0.03345 -0.01874
-0.02462 0.15209 -0.02012
-0.02462 0.08498 -0.01643
-0.02462 0.15778 -0.01757
-0.30773 0.24105 -0.00575
-0.30773 0.23873 -0.10969
-0.30773 0.24571 -0.22030
-0.30773 0.22400 0.21895
-0.30773 0.23563 0.12277
-0.30773 0.24003 0.08679
-0.30773 0.24135 0.24336
-0.30773 0.24126 0.21022
-0.30773 0.23763 0.23055
-0.30773 0.23051 0.02123
-0.30773 0.24413 0.29085
-0.30773 0.22396 0.24469
-0.30773 0.23230 0.27984
-0.30773 0.22959 0.30521
-0.30773 0.23324 0.06345
-0.30773 0.23008 0.23963
-0.00036 0.02329 -0.02462
-0.00580 -0.07736 -0.02462
-0.00780 -0.02486 -0.02462
0.00203 0.16482 -0.02462
-0.00518 0.04406 -0.02462
-0.00923 -0.20575 0.03386
-0.00923 -0.18679 0.03260
-0.00923 -0.21154 0.16846
-0.00923 -0.21203 0.10273
-0.00923 -0.19883 0.10114
-0.00923 -0.22145 0.22979
-0.00923 -0.21104 0.18427
-0.00923 -0.21565 0.06994
-0.00923 0.20304 -0.22194
-0.00923 0.21746 -0.06226
-0.00923 0.20483 -0.07377
-0.00923 0.19947 -0.11682
-0.00923 0.20382 -0.19165
-0.00923 0.21939 -0.11175
-0.00923 0.21760 -0.04888
0.21432 -0.21449 0.00662
0.15072 -0.20035 0.00404
0.10893 -0.19107 0.00846
0.22326 -0.21647 -0.00324
-0.00923 -0.23498 -0.17500
-0.00923 -0.24339 -0.23579
-0.00923 -0.22511 0.11625
-0.00923 -0.23042 0.18470
-0.00923 -0.22895 0.23262
-0.23822 0.22611 -0.00923
-0.23917 0.21158 -0.00923
-0.13390 0.22976 -0.00923
-0.22625 0.21654 -0.00923
-0.30333 0.21541 0.22515
-0.29761 0.21541 0.00188
-0.30654 0.21541 0.27501
-0.00522 0.00903 0.02462
0.01672 0.05894 0.02462
0.01485 0.12660 0.02462
0.00585 0.04553 0.02462
0.00528 -0.01357 0.02462
0.00529 0.16790 0.02462
0.00444 0.15469 0.02462
0.01469 0.04899 0.02462
0.00029 0.16786 0.02462
-0.00264 0.14490 0.02462
0.01536 0.17530 0.02462
-0.00149 -0.04929 0.02462
0.00577 -0.06625 0.02462
-0.00147 0.09824 0.02462
0.00238 0.18512 0.02462
-0.01387 0.17398 0.02462
-0.00923 0.23058 -0.19230
-0.00923 0.22346 -0.19542
-0.00923 0.22151 -0.11924
-0.00923 0.21427 -0.24076
-0.00923 0.20890 -0.22756
-0.00923 0.21468 -0.18637
0.29745 0.21541 0.02892
0.29930 0.21541 -0.29891
0.30577 0.21541 -0.26560
0.30082 0.21541 -0.05373
0.29821 0.21541 0.18286
0.00923 0.21051 -0.06337
0.00923 0.22718 -0.08467
0.00923 0.21506 -0.09631
0.00923 0.22789 -0.15424
0.00923 0.23300 -0.17077
0.00923 0.22932 -0.14109
0.00923 0.19814 -0.04940
0.30685 0.24618 0.27937
0.29991 0.24618 -0.11740
0.29770 0.24618 0.18096
0.30685 0.24618 0.27259
0.30280 0.24618 0.05719
0.30495 0.24618 0.26270
0.24643 0.23843 0.29734
0.06686 0.24460 0.29734
0.17878 0.23282 0.29734
-0.14592 0.24161 0.29734
0.18627 0.22455 0.29734
0.21649 0.24242 0.29734
-0.03897 0.23318 0.29734
0.10170 0.23979 0.29734
-0.01975 0.24089 0.29734
-0.07568 0.24169 0.29734
0.01870 0.24603 0.29734
-0.09276 0.24531 0.29734
-0.17677 0.24354 0.29734
0.28523 0.24512 0.29734
0.06202 0.23040 0.29734
0.23952 0.22700 0.29734
0.00923 -0.24314 0.22639
0.00923 0.23022 0.06664
0.00923 0.23102 0.24282
0.00923 0.23051 0.10731
0.00923 0.23186 0.23401
0.00923 0.21790 0.19074
0.00923 0.22849 0.12277
0.00359 -0.24302 0.17354
-0.00281 -0.23111 0.08534
-0.00384 -0.23722 0.13061
-0.00923 0.20123 0.09817
-0.00923 0.21520 0.15229
-0.00923 0.22043 0.24084
-0.00923 0.21275 0.22400
-0.02462 -0.11522 -0.01502
-0.02462 0.19377 -0.01009
-0.02462 -0.20823 -0.02101
-0.02462 0.02010 -0.01357
-0.02462 0.18477 -0.01004
-0.18556 0.23308 -0.00923
0.17815 -0.23889 0.00923
0.00292 -0.24618 0.22271
-0.02462 -0.15471 0.00983
-0.02462 -0.19663 0.02306
-0.02462 -0.01311 0.00696
-0.02462 -0.07178 0.01566
-0.02462 -0.16291 0.01974
-0.02462 -0.17569 0.01455
-0.02462 -0.05542 0.01141
-0.02462 -0.04404 0.01249
-0.17322 -0.24054 -0.00923
0.29734 0.23922 0.00126
0.29734 0.23074 0.06951
0.29734 0.23932 0.21848
0.29734 0.23915 0.14089
0.29734 0.23204 0.26934
0.29734 0.23793 0.05609
0.29734 0.22760 0.20577
0.29734 0.23803 -0.05814
0.29734 0.24573 -0.19807
0.29734 0.24340 0.29168
0.29734 0.22624 0.29287
0.29734 0.23902 0.20284
0.29734 0.24213 0.07898
0.29734 0.23060 0.07537
0.29734 0.23473 -0.02164
0.02462 -0.04406 0.01865
0.02462 0.05603 0.01642
0.02462 0.10840 0.01851
0.02462 0.15661 0.01699
0.02462 -0.04688 0.02288
-0.01845 -0.20171 -0.02462
-0.02432 -0.03377 -0.02462
-0.01790 -0.19454 -0.02462
-0.01141 -0.19092 -0.02462
-0.01952 0.01544 -0.02462
-0.04182 -0.19592 -0.00923
-0.03888 -0.20500 -0.00923
-0.12452 -0.19540 -0.00923
-0.11468 -0.21205 -0.00923
-0.10842 -0.20709 -0.00923
-0.17520 -0.20852 -0.00923
-0.04281 -0.18021 -0.00923
-0.13926 -0.20723 -0.00923
-0.03460 -0.20011 -0.00923
0.01176 0.23387 -0.00992
0.01602 0.22682 0.02462
0.04947 -0.22492 -0.00722
0.17993 -0.24252 0.00254
-0.16849 0.23387 -0.00036
-0.24612 0.23387 -0.00868
-0.10434 0.23387 0.00782
-0.17845 0.23387 -0.00001
-0.04239 0.24618 -0.04048
-0.20260 0.24618 0.00137
-0.20825 0.24618 0.07183
-0.17134 0.24618 0.29278
-0.25482 0.24618 -0.08821
-0.28481 0.24618 -0.05463
-0.11097 0.24618 0.15566
-0.04462 0.24618 0.03935
-0.22406 0.24618 0.22317
-0.21840 0.24618 0.07997
0.06506 0.24618 0.24849
-0.19910 0.24618 0.16829
-0.05626 0.24618 0.26702
-0.20564 0.24618 0.29084
0.03007 0.24618 0.03609
0.24684 0.24618 0.28764
-0.23974 0.24618 0.04085
0.02851 0.24618 0.27754
-0.15444 0.24618 0.26625
-0.00671 0.24618 0.21490
-0.23456 0.24618 0.21188
-0.20657 0.24618 0.20242
0.09951 0.24618 0.13497
-0.04380 0.24618 0.12199
-0.21870 0.24618 0.06410
-0.21454 0.24618 -0.05250
-0.23248 0.24618 0.05802
-0.04051 0.24618 0.00356
-0.09357 0.24618 0.03229
-0.19501 0.24618 0.22767
-0.21383 0.24618 -0.01814
-0.23097 0.24618 -0.16468
-0.09738 0.24618 0.09566
-0.21998 0.24618 0.11883
0.05377 0.24618 0.08706
-0.19211 0.24618 0.00262
-0.15814 0.24618 0.09992
-0.06599 0.24618 0.05342
-0.01583 0.24618 0.06059
-0.14531 0.24618 -0.05336
0.03238 0.24618 0.06864
0.00481 0.24618 0.09650
0.00196 0.24618 0.25343
0.02597 0.24618 0.12427
-0.00962 0.24618 0.17837
-0.03303 0.24618 0.00613
-0.28690 0.24618 -0.26277
-0.16681 0.24618 0.17924
-0.09179 0.24618 0.21908
-0.15660 0.24618 0.22712
-0.02065 0.24618 -0.00289
0.05577 0.24618 0.20429
-0.06259 0.24618 0.22791
-0.01194 0.24618 0.05622
-0.21383 0.24618 0.13528
-0.06281 0.24618 0.16070
0.07206 0.24618 0.24941
-0.21459 0.24618 0.19796
-0.19067 0.24618 0.00916
0.03373 0.24618 0.04702
-0.06259 0.24618 -0.00405
-0.16203 0.24618 0.28841
-0.21529 0.24618 -0.13182
0.08486 0.24618 0.16245
-0.24727 0.24618 0.03940
-0.13251 0.24618 0.18826
-0.12032 0.24618 0.07404
0.06402 0.24618 0.22763
-0.14078 0.24618 -0.08395
-0.18216 0.24618 0.01312
-0.15095 0.24618 0.12088
0.17355 0.24618 0.25318
-0.06336 0.24618 0.27575
-0.26245 0.24618 0.12691
-0.20545 0.24618 -0.20447
-0.27778 0.24618 -0.13935
-0.29673 0.24618 0.04491
0.20148 0.24618 0.29437
-0.04247 0.24618 0.04440
-0.11139 0.24618 0.27028
-0.22197 0.24618 -0.20725
-0.12599 0.24618 0.16967
-0.21663 0.24618 0.07156
-0.26369 0.24618 0.17690
0.15244 0.24618 0.29696
-0.04513 0.24618 0.15191
-0.27635 0.24618 0.29183
-0.25921 0.24618 -0.16398
0.05743 0.24618 0.24767
0.17273 0.24618 0.20067
-0.14508 0.24618 0.24155
-0.25060 0.24618 -0.10468
-0.17182 0.24618 0.14772
0.03907 0.24618 0.09923
-0.18059 0.24618 -0.01561
-0.02137 0.24618 0.27321
-0.24321 0.24618 0.03480
0.10257 0.24618 0.18541
-0.21108 0.24618 0.17179
0.13581 0.24618 0.20374
-0.24235 0.24618 0.13845
-0.15433 0.24618 -0.00322
-0.12831 0.24618 0.00668
0.09196 0.24618 0.27820
-0.26921 0.24618 -0.16519
0.15724 0.24618 0.23520
0.03103 0.24618 0.12366
-0.04832 0.24618 0.05866
-0.20811 0.24618 -0.10269
-0.23669 0.24618 0.18582
-0.08886 0.24618 0.04713
-0.21185 0.24618 0.02010
-0.20100 0.24618 0.11957
-0.14559 0.24618 0.09641
-0.13447 0.24618 -0.08525
-0.05967 0.24618 0.12362
-0.14128 0.24618 0.24717
0.18784 0.24618 0.20157
-0.09591 0.24618 0.07807
-0.18410 0.24618 -0.10686
-0.25941 0.24618 0.18588
-0.28219 0.24618 0.11028
0.14224 0.24618 0.14705
-0.26983 0.24618 0.13856
-0.26759 0.24618 0.07401
0.01279 0.24618 0.07072
-0.18576 0.24618 0.16365
-0.18498 0.24618 0.11492
-0.20815 0.24618 0.11522
-0.22865 0.24618 -0.06605
0.10150 0.24618 0.23034
-0.06142 0.24618 0.04558
-0.14889 0.24618 0.26517
-0.01250 0.24618 0.06709
-0.00194 0.24618 0.15528
0.06001 0.24618 0.13523
-0.20858 0.24618 0.02842
-0.14936 0.24618 0.18603
-0.27500 0.24618 0.21761
-0.17367 0.24618 0.15747
-0.17963 0.24618 0.21943
-0.13338 0.24618 0.08393
0.07378 0.24618 0.14208
0.03822 0.24618 0.11824
0.08417 0.24618 0.29664
-0.12842 0.24618 0.24668
-0.19072 0.24618 0.12167
-0.25402 0.24618 -0.17215
-0.11805 0.24618 -0.01845
-0.21596 0.24618 -0.11011
-0.15635 0.24618 0.09336
-0.17348 0.24618 -0.08561
-0.04220 0.24618 0.27565
-0.28733 0.24618 -0.07312
-0.02586 0.24618 0.12495
-0.23792 0.24618 0.16520
0.00489 0.24618 0.12373
-0.27678 0.24618 0.10527
-0.01235 0.24618 0.03059
-0.19643 0.24618 0.26624
0.06649 0.24618 0.27107
-0.14182 0.24618 -0.13387
-0.13541 0.24618 -0.07300
-0.20490 0.24618 0.17253
0.26362 0.24618 0.26776
0.21532 0.24618 0.26356
-0.13663 0.24618 -0.01321
0.11441 0.24618 0.29019
0.08244 0.24618 0.23345
-0.24687 0.24618 0.26152
0.02822 0.24618 0.12878
0.05018 0.24618 0.16495
-0.29061 0.24618 0.15927
0.03732 0.24618 0.07723
-0.25817 0.24618 0.12222
0.28245 0.24618 0.29230
-0.24635 0.24618 0.07852
0.24695 0.24618 0.26534
0.07497 0.24618 0.09705
-0.13937 0.24618 -0.11340
0.06680 0.24618 0.17939
-0.13612 0.24618 0.19479
-0.24929 0.24618 0.06561
-0.12562 0.24618 0.21979
0.13564 0.24618 0.25065
0.19321 0.24618 0.25562
-0.24596 0.24618 0.18247
-0.19760 0.24618 0.01956
-0.05706 0.24618 0.28866
0.18751 0.24618 0.23581
-0.26533 0.24618 -0.04887
-0.19890 0.24618 0.13491
-0.01873 0.24618 0.24885
-0.28093 0.24618 0.27234
0.21316 0.24618 0.28695
-0.09761 0.24618 0.20771
0.01679 0.24618 0.06509
-0.12960 0.24618 0.07267
-0.28421 0.24618 -0.03472
-0.24074 0.24618 -0.08970
-0.09934 0.24618 0.10659
-0.16603 0.24618 0.12355
0.07138 0.24618 0.16394
0.26564 0.24618 0.28920
-0.27952 0.24618 -0.25982
-0.17572 0.24618 -0.12487
-0.27490 0.24618 -0.02794
-0.09364 0.24618 0.14643
-0.16561 0.24618 0.20334
-0.15531 0.24618 -0.09229
0.08143 0.24618 0.17883
-0.03577 0.24618 0.22809
-0.10857 0.24618 0.10058
-0.23014 0.24618 -0.02568
-0.28092 0.24618 -0.14683
-0.23473 0.24618 0.27585
-0.21280 0.24618 0.22372
-0.26502 0.24618 0.04493
0.10231 0.24618 0.29278
-0.11571 0.24618 -0.04365
0.06693 0.24618 0.21788
-0.17090 0.24618 0.05817
-0.12515 0.24618 0.29410
-0.09275 0.24618 0.24251
-0.28417 0.24618 0.09126
-0.12055 0.24618 0.08515
-0.29296 0.24618 0.08558
0.18643 0.24618 0.26489
-0.21690 0.24618 0.20470
0.08998 0.24618 0.23726
0.02382 0.24618 0.04042
-0.12383 0.24618 0.04097
-0.04195 0.24618 -0.00640
-0.07444 0.24618 0.02968
-0.26273 0.24618 -0.25965
-0.05443 0.24618 0.18505
0.01988 0.24618 0.15212
-0.26441 0.24618 -0.13196
-0.06011 0.24618 -0.04664
-0.18912 0.24618 -0.03185
-0.06839 0.24618 0.25644
0.16264 0.24618 0.24716
-0.22993 0.24618 0.01648
-0.16711 0.24618 -0.15848
-0.17845 0.24618 0.10920
0.02605 0.24618 0.02610
-0.28103 0.24618 0.18513
-0.10769 0.24618 -0.09316
-0.19756 0.24618 -0.16570
-0.17703 0.24618 0.05051
-0.27899 0.24618 0.26792
-0.07660 0.24618 0.05398
-0.12357 0.24618 0.13966
-0.28704 0.24618 0.05780
0.04341 0.24618 0.21107
-0.08758 0.24618 0.03704
0.17028 0.24618 0.29214
-0.27208 0.24618 -0.07292
-0.19925 0.24618 -0.03826
0.14556 0.24618 0.27642
-0.15149 0.24618 0.10050
-0.23148 0.24618 0.09759
-0.20811 0.24618 0.04133
-0.02864 0.24618 0.04098
-0.21331 0.24618 0.06226
-0.14644 0.24618 0.23570
-0.12407 0.24618 0.11009
-0.00648 0.24618 0.06193
-0.18600 0.24618 -0.17041
-0.17080 0.24618 -0.05997
-0.26510 0.24618 0.16121
-0.20796 0.24618 0.18040
0.22542 0.24618 0.25121
-0.15868 0.24618 -0.15855
-0.15860 0.24618 0.16205
-0.17531 0.24618 -0.06806
-0.26688 0.24618 0.25102
0.03016 0.24618 0.07976
-0.04024 0.24618 0.07910
0.14105 0.24618 0.23980
0.22568 0.24618 0.28463
-0.18321 0.24618 0.05173
-0.20616 0.24618 -0.18332
-0.04309 0.24618 0.28571
-0.11230 0.24618 0.26288
-0.15003 0.24618 0.19279
-0.03800 0.24618 0.06029
0.15482 0.24618 0.27651
-0.13492 0.24618 -0.06631
-0.16947 0.24618 0.13172
-0.24380 0.24618 -0.13406
0.09725 0.24618 0.21998
-0.16062 0.24618 0.02190
0.21182 0.24618 0.27293
-0.25420 0.24618 -0.07135
-0.03863 0.24618 -0.01606
0.02229 0.24618 0.19366
-0.04908 0.24618 -0.03117
-0.06246 0.24618 0.27014
-0.00202 -0.21380 0.20520
0.00127 -0.20920 0.18450
0.00561 -0.19220 0.10798
0.01086 -0.22772 -0.01578
-0.01820 0.23387 0.00350
-0.29734 0.21986 0.02717
-0.29734 0.22884 0.00272
-0.29734 0.22919 0.11905
-0.29734 0.22329 -0.07230
-0.29734 0.23119 0.13343
-0.29734 0.22499 -0.00430
-0.29734 0.23040 0.01987
-0.29734 0.21849 0.01069
-0.00086 -0.24618 -0.21501
0.02462 0.13050 -0.02314
0.02462 -0.11797 -0.01349
0.02462 -0.19913 -0.01313
0.02462 -0.13926 -0.01288
0.04356 0.23387 -0.00731
0.06784 0.23387 0.00449
0.17642 0.23387 0.00825
0.03362 0.23387 0.00484
-0.08155 0.22433 -0.29734
-0.07485 0.22044 -0.29734
-0.06212 0.21601 -0.29734
-0.13835 0.21965 -0.29734
0.28734 0.21657 -0.29734
-0.03928 0.22573 -0.29734
-0.10250 0.22526 -0.29734
-0.25755 0.21606 -0.29734
0.15262 0.22335 -0.29734
-0.02093 0.22452 -0.29734
0.20957 0.23249 -0.29734
0.02462 -0.08872 -0.00652
0.02462 -0.13217 -0.00745
0.02462 0.13058 -0.00911
0.00771 -0.23188 0.09104
0.00877 -0.23500 0.11414
-0.00037 -0.22689 0.05410
0.10315 -0.23216 0.00751
0.09483 -0.23104 0.00641
0.15289 -0.23887 0.00414
0.03586 0.21541 0.29788
-0.22465 0.21541 0.29760
-0.03669 0.21541 0.30216
-0.11358 0.21541 0.30273
-0.19080 0.21541 0.30251
-0.10139 -0.23253 -0.00297
0.00496 0.19391 0.08074
-0.00302 0.19243 0.05404
0.00818 0.19247 0.05481
0.00213 0.19310 0.06609
-0.25884 0.24618 -0.30577
-0.27141 0.24618 -0.30055
0.00968 0.24618 -0.30215
-0.29734 0.23514 0.23467
-0.29734 0.23189 0.26367
-0.29734 0.23148 0.29287
-0.29734 0.22279 0.23046
-0.29734 0.22052 0.24014
-0.29734 0.23132 0.16304
-0.29734 0.22994 0.21265
0.00281 0.19530 0.10583
-0.00105 0.19278 0.06038
0.00360 0.19206 0.04745
0.00893 0.19220 0.04993
-0.05982 0.19624 0.00923
-0.15098 0.20417 0.00923
-0.07979 0.21096 0.00923
-0.14987 0.21125 0.00923
-0.12371 0.20428 0.00923
-0.24398 0.20302 0.00923
-0.04198 0.20899 0.00923
-0.02462 -0.16837 0.00147
-0.02462 -0.00559 0.00420
0.29734 0.21944 0.29633
0.29734 0.22318 0.24996
0.29734 0.23723 0.25292
0.29734 0.24243 -0.20447
0.29734 0.24057 -0.04548
0.29734 0.23398 0.09012
0.29734 0.23720 0.14824
0.29734 0.22840 0.10092
0.29734 0.24116 0.15712
0.29734 0.24329 0.11222
0.29734 0.23708 0.26497
0.29734 0.24613 0.16940
0.29734 0.23748 0.22469
0.29734 0.24476 -0.14878
-0.29734 0.22564 -0.13750
-0.29734 0.23712 -0.18360
-0.29734 0.24081 0.08661
-0.29734 0.23842 0.14182
-0.29734 0.23893 -0.11310
-0.29734 0.23106 -0.17015
-0.29734 0.24472 0.02630
-0.29734 0.22516 -0.16786
-0.29734 0.23549 -0.14051
-0.29734 0.23228 -0.25304
-0.29734 0.24171 -0.16653
-0.29734 0.22854 -0.15787
-0.29734 0.22925 -0.06427
-0.29734 0.23616 -0.17697
-0.01940 0.22889 -0.02462
-0.29734 0.21638 0.11876
-0.29734 0.21824 0.21831
-0.29734 0.23805 0.28105
-0.29734 0.24087 0.29595
-0.29734 0.21649 0.27747
-0.29734 0.21883 0.10802
-0.29734 0.22493 0.08673
-0.12671 -0.23615 -0.00557
-0.06418 -0.22722 -0.00427
0.00872 -0.23429 -0.11367
0.00462 -0.24317 -0.17583
-0.00203 -0.24140 -0.16346
0.16245 0.23387 -0.00237
0.10112 0.23387 -0.00526
0.17109 0.23387 -0.00431
0.12863 0.24618 -0.30704
0.18914 0.24618 -0.30113
-0.20341 0.24618 -0.30670
0.23253 0.24618 -0.30420
0.27214 0.21541 0.30724
0.25458 0.21541 0.29821
0.07728 0.21541 0.30228
0.24559 0.21541 0.30659
0.00812 0.21541 0.30522
-0.00303 -0.05411 0.02462
-0.01229 0.02919 0.02462
-0.01361 -0.02930 0.02462
-0.00981 -0.06883 0.02462
-0.01671 0.03622 0.02462
-0.01284 -0.03626 0.02462
-0.05023 -0.19489 0.00308
-0.08930 -0.19641 0.00308
-0.06347 -0.22039 0.00308
-0.02585 -0.19332 0.00308
-0.07301 -0.19953 0.00308
-0.11028 -0.19390 0.00308
0.12637 0.19927 -0.00447
0.16780 0.20272 0.00059
0.00923 0.23339 0.11106
0.00923 0.22421 0.16801
0.00923 0.21182 0.18376
0.00923 0.22031 0.15526
0.00923 0.21994 0.20301
-0.30668 0.24618 0.29738
-0.30451 0.24618 -0.03550
-0.30267 0.24618 0.20660
-0.30367 0.24618 0.02255
-0.30766 0.24618 0.25981
-0.30407 0.24618 0.22642
-0.13906 0.19715 -0.00281
-0.12879 0.19658 -0.00343
-0.15239 0.19789 -0.00506
-0.12334 0.19628 -0.00805
0.00923 -0.24083 0.24474
0.30536 0.24618 -0.17757
0.30303 0.24618 -0.29599
0.30352 0.24618 -0.15682
0.30623 0.24618 -0.22733
0.30749 0.24618 -0.27096
-0.00744 0.23387 -0.11359
-0.00616 0.23387 -0.15505
-0.00422 0.23387 -0.09467
-0.00738 0.23387 -0.05925
0.00812 -0.22772 -0.00379
0.00269 0.24051 0.29734
0.25379 0.23191 0.29734
0.29613 0.23585 0.29734
0.01635 0.23342 0.29734
-0.10453 0.23751 0.29734
0.18407 0.24275 0.29734
0.04566 0.24486 0.29734
0.23942 0.24080 0.29734
