0.22774 -0.15663 -0.37672
0.22378 0.15482 0.31347
0.22453 0.15482 0.28173
0.21996 0.15482 -0.12493
0.21960 0.15482 0.19826
0.22639 0.15482 0.30523
0.22084 0.15482 -0.17107
0.22864 0.15482 0.31524
0.23061 0.15482 0.31026
0.21985 0.15482 0.35472
0.22562 0.15482 0.22817
0.22446 0.15482 -0.02822
-0.21933 0.06821 -0.38863
-0.21933 -0.15341 -0.38293
-0.21933 -0.10977 -0.38610
-0.21933 -0.14699 -0.37894
-0.21933 0.02166 -0.39152
-0.21933 -0.11701 -0.38637
0.23225 0.00635 0.37672
0.22897 -0.13048 0.37672
0.23280 -0.06472 0.37672
0.22822 -0.05675 0.37672
0.23116 -0.17754 0.37672
0.22438 -0.17628 0.37672
0.21933 0.15394 0.38373
0.21933 0.00825 0.38234
0.21933 0.02075 0.38481
-0.23341 0.18578 0.30865
-0.23602 0.18578 0.11851
-0.23614 0.18578 0.29460
-0.23412 0.18578 0.06158
-0.23731 0.18578 0.16302
-0.23858 0.18578 0.34597
-0.23391 0.18578 0.25674
-0.23299 0.18578 0.18081
-0.12543 0.16514 -0.37863
0.16166 0.16514 -0.37911
0.20017 0.16514 -0.38167
0.17358 0.16514 -0.37901
0.22497 0.16514 -0.38291
0.17330 0.16514 -0.38813
-0.02710 0.16514 -0.37732
0.15590 0.16514 -0.38569
-0.11771 0.16514 -0.38364
-0.20706 0.16514 -0.39210
-0.06979 0.16514 -0.38272
-0.21571 0.16514 -0.38539
0.01493 0.16514 -0.38926
-0.17780 0.16514 -0.38244
0.23481 0.06759 0.38991
0.23481 0.09767 0.39151
0.23481 0.07850 0.38384
0.23481 0.02139 0.39208
0.23481 -0.02821 0.38662
0.23481 0.04097 0.38676
-0.23396 0.01028 0.37672
-0.23109 0.08841 0.37672
-0.22673 0.05230 0.37672
-0.23460 -0.17857 0.37672
-0.23005 0.11991 0.37672
-0.23423 -0.11779 0.37672
-0.21978 -0.06434 -0.39221
-0.22537 -0.11642 -0.39221
-0.22489 0.00452 -0.39221
-0.22035 -0.15304 -0.39221
0.22826 0.16514 -0.29470
0.23024 0.16514 -0.33792
0.22526 0.16514 -0.06122
0.22365 0.16514 0.09658
0.22452 0.16514 -0.15447
0.22207 0.16514 -0.23348
0.22912 0.16514 -0.20287
0.22676 0.16514 -0.00074
0.22769 0.16514 -0.08444
0.22160 0.16514 0.25999
0.22389 0.16514 -0.23874
0.23419 0.16514 -0.36407
0.22059 0.16514 -0.03426
0.22211 -0.17693 -0.39221
0.23048 0.01919 -0.39221
0.23251 -0.18130 -0.39221
0.23218 -0.02595 -0.39221
0.23000 0.03367 -0.39221
0.22861 -0.03625 -0.39221
-0.23278 -0.18578 -0.38927
0.23445 0.18578 0.14109
0.23795 0.18578 0.25407
0.23896 0.18578 0.14452
0.23996 0.18578 -0.09565
0.23528 0.18578 -0.00110
0.23642 0.18578 0.03278
0.23381 0.18578 0.08542
-0.19870 0.16514 -0.39322
-0.00028 0.16514 -0.39299
-0.07024 0.16514 -0.39371
-0.06130 0.15812 -0.39221
0.07393 0.15546 -0.39221
0.15893 0.15493 -0.39221
0.15247 0.15820 -0.39221
0.06159 0.15664 -0.39221
0.06934 0.16396 0.39221
0.21305 0.16014 0.39221
0.10659 0.15852 0.39221
0.20083 0.15690 0.39221
0.15635 0.15685 0.39221
-0.22008 0.15482 0.28332
-0.22029 0.15482 -0.24696
-0.22340 0.15482 -0.28023
-0.21937 0.15482 -0.36184
-0.22917 0.15482 -0.26373
-0.22373 0.15482 -0.20771
-0.22481 0.15482 -0.34942
-0.22217 0.15482 0.19674
-0.22743 0.15482 -0.10733
-0.22304 0.15482 -0.30168
-0.22243 0.15482 0.10855
-0.22039 0.15482 0.30329
0.22973 0.15482 -0.02079
0.23343 0.15482 -0.22077
0.22815 0.15482 -0.03962
0.22806 0.15482 -0.07908
0.23175 0.15482 0.16349
0.22445 0.15482 -0.35150
0.22431 0.15482 -0.30237
0.22652 0.15482 -0.14816
0.22901 0.15482 -0.20656
0.23084 0.15482 -0.34485
0.22196 0.15482 -0.25764
0.23114 0.15482 -0.28239
0.23456 0.15482 0.13572
0.22547 0.15482 -0.32624
-0.21999 -0.14652 0.39221
-0.23044 0.13289 0.39221
-0.22635 0.04243 0.39221
-0.22379 0.05802 0.39221
-0.23097 0.12008 0.39221
-0.21934 0.00862 -0.37672
-0.23078 0.10485 -0.37672
-0.22320 0.13326 -0.37672
-0.22005 -0.08841 -0.37672
-0.22076 0.13953 -0.37672
-0.22306 0.12721 -0.37672
-0.12413 0.16335 0.37672
-0.01640 0.16312 0.37672
-0.15348 0.15665 0.37672
-0.12932 0.16150 0.37672
-0.07082 0.16373 0.37672
0.23481 0.16393 -0.35833
0.23481 0.15562 -0.06753
0.23481 0.15685 -0.28840
0.23481 0.15878 -0.24548
0.23481 0.15544 0.18436
0.23481 0.15741 0.03743
0.23481 0.15602 0.23624
0.23481 0.15938 -0.01239
-0.20337 0.18578 0.23309
0.03449 0.18578 -0.19565
-0.16018 0.18578 0.15503
-0.16253 0.18578 -0.25137
0.00655 0.18578 -0.37762
-0.02183 0.18578 -0.36637
-0.11020 0.18578 0.07696
-0.22235 0.18578 -0.21554
-0.15211 0.18578 -0.03408
0.22136 0.18578 -0.38320
0.02074 0.18578 -0.24751
-0.02566 0.18578 -0.29012
-0.14341 0.18578 -0.38469
0.07500 0.18578 -0.35624
-0.11164 0.18578 -0.14868
-0.22079 0.18578 -0.02007
-0.14969 0.18578 -0.34766
0.07678 0.18578 -0.29481
-0.11740 0.18578 0.04987
-0.05649 0.18578 -0.27283
-0.21088 0.18578 0.32271
-0.02603 0.18578 -0.25464
-0.06123 0.18578 -0.26028
0.05870 0.18578 -0.22824
-0.02080 0.18578 -0.21563
0.12826 0.18578 -0.30600
-0.03007 0.18578 -0.20183
0.00222 0.18578 -0.16119
-0.22635 0.18578 0.13978
0.10162 0.18578 -0.31823
0.05233 0.18578 -0.26985
0.00526 0.18578 -0.26038
-0.18083 0.18578 -0.29926
-0.17293 0.18578 -0.17014
-0.21679 0.18578 -0.12590
0.18442 0.18578 -0.37877
-0.06306 0.18578 -0.02342
-0.13236 0.18578 -0.25296
0.04423 0.18578 -0.12787
0.17811 0.18578 -0.35293
-0.08870 0.18578 -0.22633
-0.21967 0.18578 0.26851
-0.14783 0.18578 -0.25411
-0.01091 0.18578 -0.12912
-0.06455 0.18578 0.05574
-0.06504 0.18578 -0.20612
-0.14841 0.18578 0.07259
-0.07591 0.18578 -0.10463
-0.16186 0.18578 -0.21346
0.04833 0.18578 -0.24791
-0.20630 0.18578 0.13190
-0.15590 0.18578 0.03730
-0.22073 0.18578 0.06525
0.12250 0.18578 -0.35307
-0.10927 0.18578 -0.33993
-0.17843 0.18578 -0.32247
0.03810 0.18578 -0.25940
-0.19418 0.18578 -0.15789
-0.07662 0.18578 0.09928
0.17664 0.18578 -0.37057
-0.22127 0.18578 -0.35117
-0.06672 0.18578 -0.28686
-0.16739 0.18578 -0.10826
-0.15878 0.18578 0.20893
-0.21686 0.18578 0.07219
0.02276 0.18578 -0.36260
-0.00939 0.18578 -0.08792
0.03493 0.18578 -0.29141
-0.13745 0.18578 -0.28736
-0.16017 0.18578 -0.11671
0.04117 0.18578 -0.16885
0.03199 0.18578 -0.33350
0.09476 0.18578 -0.28467
0.12300 0.18578 -0.26106
0.03066 0.18578 -0.25361
-0.11704 0.18578 -0.24280
-0.20799 0.18578 0.12141
-0.03299 0.18578 -0.15044
0.18217 0.18578 -0.33458
0.12339 0.18578 -0.24679
-0.21559 0.18578 -0.25825
0.03315 0.18578 -0.34140
-0.07964 0.18578 -0.12608
-0.20903 0.18578 -0.05187
0.03883 0.18578 -0.15100
-0.11474 0.18578 0.18374
0.02289 0.18578 -0.29597
-0.14080 0.18578 -0.08759
0.00974 0.18578 -0.08629
0.07216 0.18578 -0.19215
-0.20471 0.18578 -0.31545
-0.14674 0.18578 -0.33480
0.00963 0.18578 -0.23460
0.15726 0.18578 -0.27596
-0.08148 0.18578 -0.38278
-0.08078 0.18578 0.04455
-0.21331 0.18578 0.11756
-0.17011 0.18578 0.20612
-0.22124 0.18578 -0.15443
-0.20432 0.18578 -0.12446
-0.06458 0.18578 0.00155
-0.20578 0.18578 0.16884
-0.07274 0.18578 -0.09472
0.02862 0.18578 -0.31845
0.02203 0.18578 -0.17521
0.01140 0.18578 -0.32589
0.04366 0.18578 -0.08815
-0.12013 0.18578 -0.19354
0.07968 0.18578 -0.17345
-0.12673 0.18578 -0.22762
-0.20091 0.18578 0.31274
-0.04037 0.18578 -0.14988
-0.20184 0.18578 0.14266
-0.09654 0.18578 0.09485
-0.13687 0.18578 0.16485
-0.17982 0.18578 -0.34341
-0.13905 0.18578 0.21634
-0.15459 0.18578 -0.17305
-0.20725 0.18578 -0.37754
-0.21064 0.18578 -0.08058
-0.02912 0.18578 0.02919
-0.07978 0.18578 -0.20796
-0.19883 0.18578 -0.04392
-0.18027 0.18578 -0.14695
0.00891 0.18578 -0.07234
-0.19766 0.18578 0.28346
0.02881 0.18578 -0.24871
-0.17921 0.18578 0.17600
-0.17046 0.18578 -0.05156
-0.21523 0.18578 -0.32025
-0.11002 0.18578 -0.31190
-0.16929 0.18578 -0.07803
-0.10247 0.18578 -0.31506
-0.03595 0.18578 -0.22861
-0.15141 0.18578 -0.18565
-0.19908 0.18578 0.10543
-0.21857 0.18578 0.34616
0.09748 0.18578 -0.38684
-0.11963 0.18578 0.16937
-0.12497 0.18578 0.01944
0.16784 0.18578 -0.31660
-0.17288 0.18578 -0.19866
0.00925 0.18578 -0.20648
0.00865 0.18578 -0.19026
-0.17501 0.18578 0.02665
-0.10720 0.18578 0.13269
-0.10893 0.18578 -0.21199
-0.20507 0.18578 0.24202
0.02049 0.18578 -0.32127
-0.15986 0.18578 -0.01450
-0.22834 0.18578 0.25778
0.04708 0.18578 -0.36605
0.08943 0.18578 -0.27576
-0.11268 0.18578 -0.09419
-0.05599 0.18578 -0.00561
-0.12525 0.18578 -0.38540
-0.04253 0.18578 0.04569
-0.13409 0.18578 -0.20860
-0.10671 0.18578 -0.20624
-0.02903 0.18578 -0.10472
-0.11027 0.18578 0.08641
-0.04160 0.18578 -0.27477
-0.17248 0.18578 0.28425
-0.10817 0.18578 0.17020
-0.06713 0.18578 -0.05918
-0.10455 0.18578 0.15151
-0.20441 0.18578 -0.34291
0.13772 0.18578 -0.31568
-0.15181 0.18578 -0.24943
-0.02375 0.18578 -0.06691
0.07096 0.18578 -0.26870
-0.02677 0.18578 -0.17846
-0.21805 0.18578 -0.05355
-0.05433 0.18578 0.02660
-0.19698 0.18578 -0.09152
0.12829 0.18578 -0.37943
-0.17844 0.18578 0.05289
-0.17307 0.18578 -0.31585
0.16721 0.18578 -0.36583
0.00119 0.18578 -0.19653
-0.17733 0.18578 -0.35107
0.08917 0.18578 -0.17261
-0.18291 0.18578 0.04381
-0.15632 0.18578 -0.37173
-0.14757 0.18578 0.13513
-0.09222 0.18578 -0.28096
-0.08192 0.18578 -0.06915
-0.21189 0.18578 -0.14467
-0.07973 0.18578 0.06585
0.12593 0.18578 -0.29045
-0.19831 0.18578 0.13101
0.17827 0.18578 -0.36578
-0.14461 0.18578 0.01063
-0.21421 0.18578 0.20062
-0.00278 0.18578 -0.20249
-0.09940 0.18578 0.08986
-0.04743 0.18578 0.06160
0.04953 0.18578 -0.29841
-0.13686 0.18578 -0.31287
0.01040 0.18578 -0.19586
-0.06664 0.18578 -0.23874
0.19148 0.18578 -0.32582
-0.12923 0.18578 -0.36881
-0.01470 0.18578 -0.01459
-0.11344 0.18578 -0.04787
-0.06532 0.18578 -0.25665
-0.06781 0.18578 -0.24950
-0.04678 0.18578 -0.16288
-0.18661 0.18578 0.21144
-0.00487 0.18578 0.00230
0.01097 0.18578 -0.30983
0.02117 0.18578 -0.06404
-0.15619 0.18578 -0.36198
-0.04007 0.18578 -0.36514
0.05568 0.18578 -0.20309
-0.21395 0.18578 -0.30674
-0.14428 0.18578 0.16695
-0.02419 0.18578 -0.05261
0.06162 0.18578 -0.11677
-0.11270 0.18578 -0.01256
-0.21021 0.18578 -0.20345
0.08600 0.18578 -0.24011
-0.20663 0.18578 -0.14478
-0.04002 0.18578 -0.38249
-0.01364 0.18578 -0.35170
0.01275 0.18578 -0.08053
0.13534 0.18578 -0.33900
0.05236 0.18578 -0.27908
-0.14879 0.18578 0.05373
0.01210 0.18578 -0.29624
-0.14600 0.18578 -0.10839
-0.21638 0.18578 0.02766
-0.01610 0.18578 -0.27277
0.13785 0.18578 -0.36505
0.03516 0.18578 -0.07791
0.14519 0.18578 -0.28460
-0.04000 0.18578 -0.14323
0.01483 0.18578 -0.03821
-0.17464 0.18578 -0.11961
-0.21151 0.18578 -0.31293
-0.11826 0.18578 0.10217
0.01796 0.18578 -0.30204
-0.17639 0.18578 -0.03255
-0.03444 0.18578 -0.34405
-0.03963 0.18578 -0.22361
-0.07386 0.18578 0.03210
-0.06177 0.18578 -0.29347
-0.14464 0.18578 -0.26815
0.09871 0.18578 -0.32808
-0.02690 0.18578 -0.13198
-0.16387 0.18578 -0.26377
-0.08557 0.18578 -0.13285
0.02092 0.18578 -0.36769
0.09176 0.18578 -0.37569
-0.10326 0.18578 0.04792
-0.20253 0.18578 -0.01907
-0.07931 0.18578 -0.36985
-0.00532 0.18578 -0.10239
0.01590 0.18578 -0.19632
-0.09577 0.18578 -0.03710
-0.15581 0.18578 -0.09268
0.08430 0.18578 -0.30388
-0.18531 0.18578 0.00596
-0.00274 0.18578 -0.00967
-0.22049 0.18578 0.21079
-0.10194 0.18578 -0.13264
-0.16808 0.18578 -0.38148
-0.11669 0.18578 0.17722
0.11124 0.18578 -0.37443
-0.10253 0.18578 0.10742
-0.13064 0.18578 0.09220
-0.13296 0.18578 -0.13161
-0.17249 0.18578 0.24498
-0.22423 0.18578 0.36049
-0.00235 0.18578 -0.12822
-0.02527 0.18578 -0.37918
-0.02905 0.18578 -0.08939
-0.12057 0.18578 0.01632
-0.13120 0.18578 -0.32501
0.06537 0.18578 -0.27070
0.08257 0.18578 -0.29489
-0.19315 0.18578 0.09744
-0.14996 0.18578 0.12458
0.17539 0.18578 -0.29659
0.06782 0.18578 -0.31675
-0.04850 0.18578 -0.01729
-0.10074 0.18578 0.07057
0.04728 0.18578 -0.26194
-0.10168 0.18578 -0.15225
-0.17325 0.18578 0.01911
-0.14944 0.18578 -0.13017
0.14484 0.18578 -0.34969
0.08781 0.18578 -0.32004
-0.16720 0.18578 -0.34939
-0.05096 0.18578 -0.03629
0.15326 0.18578 -0.31708
-0.13773 0.18578 0.21114
-0.14668 0.18578 0.08360
-0.05851 0.18578 -0.02836
-0.08986 0.18578 0.06924
-0.06212 0.18578 -0.05500
0.11869 0.18578 -0.35734
-0.19793 0.18578 -0.36761
-0.20730 0.18578 -0.07638
0.17420 0.18578 -0.32420
-0.15825 0.18578 -0.13464
-0.00445 0.18578 -0.15263
0.02455 0.18578 -0.16996
0.10401 0.18578 -0.23608
-0.21241 0.18578 0.01936
-0.19431 0.18578 0.15663
-0.21611 0.18578 -0.35485
-0.05373 0.18578 -0.30233
0.14378 0.18578 -0.30281
0.06367 0.18578 -0.36663
-0.15650 0.18578 -0.35093
-0.11571 0.18578 -0.10227
-0.20955 0.18578 0.25802
-0.09042 0.18578 0.09248
-0.04097 0.18578 -0.17688
-0.11544 0.18578 -0.16706
-0.13663 0.18578 0.14160
0.06644 0.18578 -0.20959
0.19878 0.18578 -0.35129
-0.19984 0.18578 -0.38483
-0.11979 0.18578 -0.35576
-0.12704 0.18578 -0.19630
-0.03760 0.18578 -0.24549
-0.17658 0.18578 0.11451
0.09500 0.18578 -0.25431
-0.05546 0.18578 -0.20157
-0.16590 0.18578 -0.22579
-0.08851 0.18578 -0.07802
0.14074 0.18578 -0.26018
-0.11450 0.18578 -0.07166
-0.13240 0.18578 -0.35063
-0.15913 0.18578 -0.22417
-0.19754 0.18578 -0.08171
0.06078 0.18578 -0.10279
-0.20161 0.18578 -0.18021
-0.17486 0.18578 0.03671
-0.10003 0.18578 0.00152
0.13237 0.18578 -0.22668
-0.15196 0.18578 -0.37988
-0.11562 0.18578 0.12845
-0.22009 0.18578 -0.10419
-0.11507 0.18578 0.00889
-0.21719 0.18578 0.14155
-0.13316 0.18578 -0.34478
-0.17012 0.18578 -0.37097
-0.01835 0.18578 -0.02734
-0.18694 0.18578 0.18213
-0.10538 0.18578 0.03899
-0.17897 0.18578 0.10467
-0.08982 0.18578 -0.18316
0.00882 0.18578 -0.27332
-0.06017 0.18578 -0.26943
0.00678 0.18578 -0.13893
-0.19389 0.18578 -0.09797
0.02399 0.18578 -0.14356
-0.00573 0.18578 -0.28174
-0.16944 0.18578 -0.03689
-0.18032 0.18578 -0.13591
-0.22660 0.18578 -0.22067
0.02096 0.18578 -0.28332
-0.09445 0.18578 0.02253
-0.16619 0.18578 -0.23352
-0.02713 0.18578 -0.19147
-0.00701 0.18578 -0.36625
-0.22392 0.16514 0.39013
0.20219 0.15482 -0.38186
0.19998 0.15482 -0.39105
0.14374 0.15482 -0.37728
0.03943 0.15482 -0.38532
-0.05108 0.15482 -0.37797
-0.03277 0.15482 -0.37830
0.23092 0.18578 -0.18288
0.23347 0.18578 -0.14452
0.23033 0.18578 0.17379
0.23022 0.18578 -0.19301
0.23116 0.18578 -0.26131
0.23097 0.18578 0.19612
0.23212 0.18578 0.09498
0.23395 0.18578 -0.04361
-0.23481 0.16344 -0.38762
-0.00137 0.15620 -0.37672
-0.14154 0.15506 -0.37672
-0.15539 0.15489 -0.37672
-0.06666 0.15603 -0.37672
0.21933 -0.12061 -0.38429
0.21933 0.00401 -0.37730
0.21933 0.01897 -0.37951
-0.22537 0.14990 -0.39221
-0.23298 0.01703 -0.39221
-0.23316 0.14168 -0.39221
-0.23444 0.08839 -0.39221
-0.23084 -0.06631 -0.39221
0.22919 0.18578 0.39330
-0.08201 0.18578 0.39651
0.12846 0.18578 0.39128
0.03003 0.16514 0.39735
0.23997 0.18551 0.15819
0.23997 0.17582 0.12588
0.23997 0.18304 0.04165
0.23997 0.18182 0.35329
0.23997 0.18537 0.16634
0.23997 0.18451 0.31589
0.23997 0.18284 -0.00543
0.23997 0.16887 0.26044
0.23997 0.17453 0.27609
0.23997 0.18297 0.29666
0.23997 0.18334 0.37323
0.23997 0.18145 0.18630
0.23997 0.17201 0.17418
0.23997 0.17610 0.37767
0.23997 0.18418 0.07445
0.23997 0.17522 0.15896
0.22874 0.17172 -0.39737
0.00972 0.17134 -0.39737
0.17632 0.17632 -0.39737
-0.06869 0.17107 -0.39737
0.05193 0.16625 -0.39737
0.20196 0.17246 -0.39737
0.10671 0.16520 -0.39737
0.22950 0.16632 -0.39737
-0.04428 0.18578 -0.38758
0.18446 0.18578 -0.38756
0.13688 0.18578 -0.39256
0.17416 0.18578 -0.39161
0.07731 0.18578 -0.39028
-0.22989 0.16514 0.38645
-0.23437 0.16514 -0.33665
-0.23138 0.16514 0.18488
-0.22595 0.16514 0.28912
-0.22632 0.16514 0.18232
-0.23348 0.16514 -0.06360
-0.22824 0.16514 0.37928
-0.22691 0.16514 0.21043
-0.23078 0.16514 0.25443
-0.23276 0.16514 -0.05250
-0.23394 0.16514 0.06675
-0.23180 0.16514 0.20283
0.21933 0.15801 -0.37255
0.21933 0.16073 -0.13667
0.21933 0.16486 0.19048
0.21933 0.16137 0.02416
0.21933 0.15859 -0.20785
0.21933 0.16494 -0.02119
-0.08960 0.15482 -0.38999
0.02570 0.15482 -0.38624
-0.19512 0.15482 -0.38441
0.06468 0.15482 -0.38760
-0.10586 0.15482 -0.38844
-0.02191 0.15482 -0.39162
-0.11183 0.15482 -0.38938
0.23288 0.16185 -0.39221
0.22379 0.00101 -0.39221
0.22975 0.15413 -0.39221
0.22723 0.14380 -0.39221
0.22556 -0.01571 -0.39221
0.22383 0.12546 -0.39221
-0.21933 0.04901 -0.38029
-0.21933 0.15311 -0.38158
-0.21933 0.14431 -0.38459
-0.21933 0.11656 -0.38432
-0.21933 -0.03498 -0.38279
-0.21656 0.16067 0.39221
-0.05061 0.15739 0.39221
-0.08572 0.15628 0.39221
-0.07898 0.15805 0.39221
0.06893 0.15612 0.39221
-0.13051 0.15482 -0.39194
-0.05581 0.15482 -0.38596
0.18305 0.15482 -0.39166
-0.12836 0.15482 -0.38595
0.09175 0.15482 -0.39210
-0.00949 0.15482 -0.39121
-0.23584 0.16514 -0.19001
-0.23739 0.16514 -0.32590
-0.23573 0.16514 -0.14510
0.23481 0.15855 0.21368
0.23481 0.15983 0.34724
0.23481 0.16126 -0.00132
0.23481 0.16508 -0.18080
0.23481 0.16372 0.35442
0.23481 0.16081 0.06741
0.23323 -0.09434 -0.39221
0.22215 -0.14419 -0.39221
0.22615 -0.12924 -0.39221
0.22266 -0.12212 -0.39221
0.22235 -0.18488 -0.39221
0.23474 0.16514 0.29020
0.22841 0.16514 -0.05579
0.22900 0.16514 0.23275
0.22874 0.16514 0.16257
0.22969 0.16514 0.13769
0.23288 0.16514 0.26813
0.23174 0.16514 -0.14328
0.22456 0.16514 0.30541
0.22826 0.16514 0.37709
0.22209 0.16514 0.31811
-0.16036 0.16436 -0.39221
0.09283 0.16388 -0.39221
-0.04471 0.15958 -0.39221
-0.05242 0.16305 -0.39221
0.19749 0.16514 0.37950
-0.05316 0.16514 0.38806
0.16813 0.16514 0.38368
0.21733 0.16514 0.38397
-0.12614 0.16514 0.39159
0.06150 0.16514 0.39160
-0.05951 0.16514 0.38097
0.00358 0.16514 0.37959
-0.19701 0.16514 0.38453
-0.17078 0.16514 0.37723
-0.21931 0.16514 0.38116
-0.13608 0.16514 0.38039
-0.02203 0.16514 0.38109
-0.14254 0.16514 0.37924
-0.01370 0.17765 -0.39737
-0.02223 0.18313 -0.39737
-0.19105 0.18045 -0.39737
-0.17525 0.18483 -0.39737
-0.13861 0.17474 -0.39737
0.05981 0.18499 -0.39737
-0.13530 0.18460 -0.39737
-0.14945 0.18270 -0.39737
-0.15749 0.17386 -0.39737
-0.08984 0.18522 -0.39737
-0.22091 0.18389 -0.39737
0.23478 0.15482 0.15902
0.23105 0.15482 0.10829
0.22979 0.15482 -0.05157
0.22795 0.15482 -0.09516
0.22410 0.15482 -0.15405
0.22770 0.15482 -0.06756
0.22683 0.15482 -0.24110
0.21933 0.01123 0.38853
0.21933 0.11134 0.39030
0.21933 -0.13024 0.38986
0.21933 -0.05899 0.38450
0.21933 -0.15290 0.39093
-0.22882 0.16514 -0.38185
-0.02060 0.15822 0.37672
0.14428 0.16112 0.37672
-0.12616 0.15598 0.37672
0.09795 0.16174 0.37672
0.12271 0.16284 0.37672
-0.21357 0.18557 0.39737
0.14961 0.18464 0.39737
0.22035 0.17349 0.39737
0.09355 0.17650 0.39737
0.18821 0.18484 0.39737
0.08728 0.17783 0.39737
0.13326 0.18212 0.39737
0.17972 0.17095 0.39737
0.23651 0.16880 0.39737
0.10107 0.17954 0.39737
-0.23997 0.17377 0.06428
-0.23997 0.18199 0.28487
-0.23997 0.18313 0.32162
-0.23997 0.17007 0.11872
-0.23997 0.16895 0.35409
-0.23997 0.17497 0.27518
-0.23997 0.16780 0.01754
-0.23997 0.17656 0.19406
-0.23997 0.17412 0.11467
-0.23997 0.17852 0.18366
-0.23997 0.18071 0.38748
-0.23997 0.18210 0.27892
0.23481 0.08521 0.38862
0.23481 0.11508 0.38070
0.23481 -0.05269 0.39009
0.23481 0.03551 0.39168
0.22029 0.14973 -0.39221
0.22089 0.02998 -0.39221
0.22346 0.02186 -0.39221
0.21947 -0.08593 -0.39221
-0.21933 0.16058 0.18861
-0.21933 0.16207 -0.03844
-0.21933 0.16378 0.10040
-0.21933 0.16222 0.20180
-0.21933 0.15945 0.24244
-0.21933 0.15965 0.21451
-0.21933 0.16511 0.33234
-0.21933 0.16358 0.13133
-0.22284 -0.12341 -0.37672
-0.22821 -0.08704 -0.37672
-0.23016 -0.08090 -0.37672
-0.23247 -0.13922 -0.37672
-0.23427 -0.05897 -0.37672
-0.23148 0.15482 0.19854
-0.23405 0.15482 0.21211
-0.23247 0.15482 0.18349
-0.22525 0.15482 0.36115
-0.23092 0.15482 0.09132
-0.23332 0.15482 -0.24256
-0.23202 0.15482 0.09812
-0.23342 0.15482 0.32346
-0.22719 0.15482 0.30419
-0.11944 0.16514 0.38018
-0.18830 0.16514 0.38958
-0.08024 0.16514 0.37818
0.13782 0.16514 0.37885
0.10939 0.16514 0.37720
0.02885 0.16514 0.38151
0.23481 0.04608 0.38064
0.23481 -0.11601 0.38240
0.23481 0.01404 0.38283
0.23481 0.00234 0.38360
0.15257 0.18578 -0.39640
-0.11068 0.18578 -0.38990
0.00787 0.18578 -0.39665
-0.14372 0.18578 -0.39179
-0.16163 0.18578 -0.39112
0.16409 0.18578 -0.39709
0.23550 0.16514 0.25112
0.23569 0.16514 -0.17423
0.23943 0.16514 -0.36808
0.23736 0.16514 -0.07309
0.05172 0.16514 0.39268
0.18682 0.16514 0.39420
0.07888 0.15482 0.38780
0.12359 0.15482 0.39030
-0.18865 0.15482 0.38122
-0.01747 0.15482 0.39210
-0.13543 0.15482 0.39015
0.00704 0.15482 0.38589
0.03439 0.15482 0.38817
0.08559 0.15482 0.38775
0.23396 0.18578 -0.36911
0.23107 0.18578 -0.28972
0.23041 0.18578 0.21704
0.23590 0.18578 -0.21741
0.23136 0.18578 -0.29647
0.23143 0.18578 -0.31374
0.23144 0.18578 -0.38383
-0.23481 -0.01698 -0.38087
-0.23481 -0.11144 -0.38613
-0.23481 -0.10171 -0.38818
-0.23481 -0.06739 -0.37678
-0.23481 -0.15804 -0.37763
0.20894 0.15638 -0.37672
0.21601 0.15903 -0.37672
0.16800 0.15641 -0.37672
0.12342 0.15826 -0.37672
-0.09200 0.16347 -0.37672
-0.22331 -0.10081 0.37672
-0.22133 -0.01991 0.37672
-0.22662 -0.00609 0.37672
0.23481 -0.18049 -0.38194
0.23481 -0.13676 -0.38600
0.23481 -0.05760 -0.38893
0.23481 -0.01832 -0.38992
0.23481 -0.11127 -0.38084
0.03288 0.18239 0.39737
0.05454 0.18207 0.39737
0.13978 0.17943 0.39737
0.04504 0.18465 0.39737
-0.02551 0.17660 0.39737
0.23352 0.17958 0.39737
0.18979 0.17217 0.39737
-0.16742 0.18433 0.39737
0.10604 0.17277 0.39737
0.14432 0.17099 0.39737
-0.03079 0.18578 0.18503
0.19863 0.18578 -0.30187
0.17564 0.18578 0.08872
-0.19036 0.18578 0.37120
0.20394 0.18578 -0.14924
0.08906 0.18578 0.04832
0.14602 0.18578 -0.10212
0.18352 0.18578 -0.01413
0.11123 0.18578 0.31626
0.21926 0.18578 -0.30284
0.19597 0.18578 0.01774
0.21625 0.18578 -0.26549
0.14220 0.18578 0.17235
0.20209 0.18578 -0.11828
0.02713 0.18578 0.07652
0.21861 0.18578 -0.12377
0.12607 0.18578 -0.07454
0.13356 0.18578 0.27808
0.03299 0.18578 0.34384
-0.16659 0.18578 0.35527
0.18609 0.18578 0.17525
-0.05332 0.18578 0.25564
0.20046 0.18578 -0.15491
0.11230 0.18578 0.28116
-0.00423 0.18578 0.37820
0.10499 0.18578 -0.09675
0.15617 0.18578 -0.03293
-0.03874 0.18578 0.12252
0.17047 0.18578 -0.19012
0.16236 0.18578 -0.15323
0.21490 0.18578 -0.24311
0.21713 0.18578 0.06156
0.17300 0.18578 0.22786
0.12244 0.18578 0.32426
-0.18618 0.18578 0.33989
-0.08546 0.18578 0.22028
0.21064 0.18578 0.25820
-0.03298 0.18578 0.24620
0.18446 0.18578 0.03799
0.14916 0.18578 0.02011
-0.01123 0.18578 0.28457
-0.13784 0.18578 0.33214
-0.02542 0.18578 0.25539
0.20279 0.18578 -0.07138
0.19103 0.18578 -0.17726
0.14866 0.18578 0.06264
0.06332 0.18578 -0.06088
0.08987 0.18578 0.11902
0.11192 0.18578 -0.04914
-0.02203 0.18578 0.24455
-0.05542 0.18578 0.16869
0.04887 0.18578 0.17597
0.22289 0.18578 -0.17017
0.11535 0.18578 0.00689
0.14980 0.18578 -0.13886
0.19623 0.18578 -0.21128
0.03645 0.18578 0.11993
-0.15284 0.18578 0.37167
0.20306 0.18578 -0.29411
-0.05999 0.18578 0.33202
0.21841 0.18578 -0.23855
-0.08830 0.18578 0.34366
0.20471 0.18578 -0.05434
0.18305 0.18578 0.18809
-0.16353 0.18578 0.31080
0.17519 0.18578 0.06484
-0.00971 0.18578 0.05101
-0.10189 0.18578 0.28617
0.15101 0.18578 0.23125
0.14067 0.18578 0.03077
0.15283 0.18578 0.15464
0.11177 0.18578 -0.16269
-0.03161 0.18578 0.36884
0.18294 0.18578 0.21536
0.10291 0.18578 0.04008
0.11981 0.18578 0.05149
0.08948 0.18578 0.21182
0.12163 0.18578 0.36022
0.17759 0.18578 0.34686
-0.00250 0.18578 0.02955
0.21476 0.18578 0.10287
0.04285 0.18578 0.36464
-0.08134 0.18578 0.22968
0.17579 0.18578 -0.09056
0.07725 0.18578 0.18495
0.05938 0.18578 0.21018
-0.10893 0.18578 0.29065
0.08881 0.18578 0.28200
0.20338 0.18578 0.06052
-0.17653 0.18578 0.30232
-0.04047 0.18578 0.26568
0.01340 0.18578 0.06058
0.08437 0.18578 0.33478
0.17720 0.18578 -0.10607
0.10427 0.18578 0.10914
-0.05254 0.18578 0.27720
0.19358 0.18578 0.20515
0.01128 0.18578 0.25095
-0.06843 0.18578 0.30560
-0.01160 0.18578 0.07320
0.10638 0.18578 0.13634
0.12236 0.18578 0.27929
0.09959 0.18578 -0.15479
-0.01336 0.18578 0.38097
0.19690 0.18578 -0.14366
-0.07506 0.18578 0.18706
0.20461 0.18578 -0.34441
0.01641 0.18578 0.18523
0.09995 0.18578 0.21832
0.12911 0.18578 -0.10263
0.19268 0.18578 0.21343
0.04505 0.18578 0.37252
0.08609 0.18578 0.06438
0.11238 0.18578 -0.18589
-0.05598 0.18578 0.33944
-0.02875 0.18578 0.26224
0.15216 0.18578 0.24642
0.06891 0.18578 0.06878
0.10558 0.18578 0.28523
-0.00687 0.18578 0.21590
0.15350 0.18578 -0.10132
-0.00224 0.18578 0.22912
0.19713 0.18578 0.22911
0.20445 0.18578 0.11193
0.12815 0.18578 0.11067
0.16412 0.18578 0.23603
0.14573 0.18578 -0.07778
0.12365 0.18578 -0.03440
-0.04885 0.18578 0.12358
-0.05490 0.18578 0.20904
0.00603 0.18578 -0.00034
0.19048 0.18578 0.23205
0.18238 0.18578 0.36851
0.19572 0.18578 0.15535
0.15084 0.18578 -0.11895
0.03406 0.18578 0.19864
-0.00595 0.18578 0.33765
0.03339 0.18578 0.12577
0.08629 0.18578 0.23900
0.14146 0.18578 -0.12532
-0.06465 0.18578 0.36058
0.05924 0.18578 0.17724
-0.02085 0.18578 0.10317
-0.12250 0.18578 0.27098
0.18457 0.18578 0.05391
0.06422 0.18578 0.04020
0.13120 0.18578 0.37332
0.22508 0.18578 0.16248
0.12096 0.18578 -0.05241
-0.20311 0.18578 0.36209
0.17189 0.18578 -0.18371
0.02773 0.18578 0.26580
0.10562 0.18578 0.06609
0.06568 0.18578 0.01354
0.11398 0.18578 0.33421
0.11825 0.18578 0.37949
-0.04128 0.18578 0.14507
0.06764 0.18578 0.26215
0.15767 0.18578 0.01607
0.03213 0.18578 0.18730
0.00158 0.18578 0.32197
0.13829 0.18578 -0.09932
0.18086 0.18578 0.19407
0.20356 0.18578 -0.11055
0.19415 0.18578 0.35944
0.19871 0.18578 -0.02504
-0.03046 0.18578 0.19283
0.16961 0.18578 0.30712
0.07425 0.18578 0.35069
0.05340 0.18578 0.21796
-0.05832 0.18578 0.13427
-0.00548 0.18578 0.22366
0.16087 0.18578 -0.24793
0.22437 0.18578 0.19754
0.04028 0.18578 0.19551
0.01034 0.18578 0.20556
-0.02085 0.18578 0.07131
0.11592 0.18578 0.33896
0.03008 0.18578 0.19222
0.13871 0.18578 0.27718
-0.19528 0.18578 0.36424
0.22587 0.18578 -0.14134
0.17273 0.18578 0.27734
0.22686 0.18578 0.33393
-0.01744 0.18578 0.38612
-0.05338 0.18578 0.35714
0.14507 0.18578 -0.17819
0.12782 0.18578 0.36623
0.16936 0.18578 0.01716
0.00864 0.18578 0.07436
0.08022 0.18578 0.17900
0.18665 0.18578 0.15110
-0.04531 0.18578 0.22612
0.00536 0.18578 0.25906
0.21171 0.18578 0.04727
0.11036 0.18578 0.29759
0.10475 0.18578 0.06117
0.16538 0.18578 0.02375
0.14056 0.18578 0.37208
0.05753 0.18578 -0.02687
0.03002 0.18578 0.24077
0.21801 0.18578 -0.09381
-0.14862 0.18578 0.28572
0.04543 0.18578 0.25658
-0.07061 0.18578 0.33265
0.11497 0.18578 0.36392
0.22330 0.18578 0.22023
0.01717 0.18578 0.25992
0.13691 0.18578 0.08844
0.04058 0.18578 0.30679
0.06225 0.18578 0.11382
0.17740 0.18578 0.29366
0.16094 0.18578 -0.21470
-0.08870 0.18578 0.33219
0.16364 0.18578 -0.11450
0.16322 0.18578 0.32638
-0.00817 0.18578 0.29289
-0.06851 0.18578 0.28179
0.15527 0.18578 0.30455
0.17301 0.18578 -0.03327
-0.02683 0.18578 0.12086
0.15398 0.18578 -0.17043
0.21492 0.18578 0.26119
-0.04678 0.18578 0.26110
0.08011 0.18578 0.07058
0.18658 0.18578 0.12481
0.09664 0.18578 -0.09934
0.10544 0.18578 0.34722
-0.19819 0.18578 0.38477
0.19100 0.18578 0.01683
-0.02399 0.18578 0.13658
0.09870 0.18578 0.29463
0.13302 0.18578 -0.20337
0.22340 0.18578 0.25948
0.18281 0.18578 -0.24394
0.09032 0.18578 0.13460
0.11445 0.18578 -0.06764
0.13587 0.18578 0.21934
-0.00267 0.18578 0.12287
-0.08988 0.18578 0.18776
0.18789 0.18578 0.30612
0.21898 0.18578 -0.33469
0.17844 0.18578 0.33941
0.04082 0.18578 0.33554
0.14734 0.18578 -0.19075
0.13020 0.18578 0.08168
-0.04224 0.18578 0.34502
0.06887 0.18578 0.32618
0.13518 0.18578 -0.10648
0.04657 0.18578 0.21190
0.08078 0.18578 0.01050
0.19684 0.18578 0.25919
0.21594 0.18578 -0.08464
0.18813 0.18578 0.28948
-0.19982 0.18578 0.38000
0.05772 0.18578 0.26237
-0.11110 0.18578 0.33744
-0.02973 0.18578 0.27411
0.20021 0.18578 0.15807
0.06994 0.18578 0.28167
0.04261 0.18578 0.06485
0.06716 0.18578 0.19362
-0.03529 0.18578 0.35544
0.01063 0.18578 0.35781
0.22951 0.18578 -0.35266
-0.07832 0.18578 0.15691
0.11059 0.18578 0.04897
0.13313 0.18578 0.01555
-0.06651 0.18578 0.30021
0.19621 0.18578 0.19440
0.15522 0.18578 0.21943
0.17796 0.18578 0.31169
0.21241 0.18578 0.03851
0.13859 0.18578 0.23721
0.22390 0.18578 0.36055
-0.00311 0.18578 0.09000
-0.01157 0.18578 0.24107
-0.02269 0.18578 0.21207
0.13647 0.18578 -0.13650
0.05521 0.18578 0.04114
0.03642 0.18578 0.00811
0.20586 0.18578 0.35682
-0.03745 0.18578 0.28582
-0.00355 0.18578 0.24848
-0.15993 0.18578 0.32132
0.13305 0.18578 0.11521
-0.12318 0.18578 0.22012
0.15607 0.18578 -0.22621
0.14444 0.18578 -0.09230
0.07508 0.18578 0.23380
0.21788 0.18578 -0.18564
0.19368 0.18578 0.37094
-0.15600 0.18578 0.32623
-0.03695 0.18578 0.23992
0.20084 0.18578 -0.01052
0.11687 0.18578 -0.03548
0.22064 0.18578 0.20262
-0.08917 0.18578 0.20233
-0.13017 0.18578 0.32138
-0.01738 0.18578 0.11203
-0.15156 0.18578 0.30294
-0.03605 0.18578 0.33020
0.19211 0.18578 0.22187
0.05199 0.18578 -0.07685
-0.00680 0.18578 0.33211
0.15665 0.18578 -0.18154
-0.04316 0.18578 0.13704
0.08583 0.18578 -0.10323
0.14097 0.18578 0.29185
0.10920 0.18578 -0.15458
0.14279 0.18578 0.06292
0.02207 0.18578 0.00853
0.02112 0.18578 0.38292
0.02475 0.18578 0.14086
0.07069 0.18578 0.27428
-0.09150 0.18578 0.32137
-0.18798 0.18578 0.37970
0.06099 0.18578 0.28657
0.14528 0.18578 0.15001
0.14618 0.18578 0.03872
0.05794 0.18578 0.37111
0.16753 0.18578 0.28387
-0.05264 0.18578 0.23568
0.09712 0.18578 0.15242
0.21384 0.18578 -0.00789
0.07516 0.18578 -0.02445
-0.08695 0.18578 0.24546
0.14484 0.18578 -0.11209
0.04278 0.18578 0.29663
0.12851 0.18578 0.06524
-0.02714 0.18578 0.32460
-0.10950 0.18578 0.37317
0.08641 0.18578 -0.04279
0.16374 0.18578 0.05101
0.20635 0.18578 0.03540
0.11762 0.18578 -0.07482
-0.02232 0.18578 0.34217
0.09945 0.18578 0.31707
0.04498 0.18578 0.07630
-0.04095 0.18578 0.17411
-0.04637 0.18578 0.10857
0.04095 0.18578 0.02047
0.20570 0.18578 -0.15812
-0.03132 0.18578 0.08752
0.14180 0.18578 0.09898
0.06077 0.18578 0.04680
0.08778 0.18578 -0.00403
0.20750 0.18578 0.32668
0.15094 0.18578 -0.20264
0.14189 0.18578 -0.18888
0.20483 0.18578 0.17797
0.05439 0.18578 -0.04491
0.14405 0.18578 0.19588
0.17439 0.18578 -0.27797
0.22150 0.18578 -0.01727
0.13694 0.18578 0.15594
0.15171 0.18578 0.13547
0.13911 0.18578 0.31950
0.22148 0.18578 -0.03262
-0.10578 0.18578 0.33192
0.22302 0.18578 -0.37195
0.22368 0.18578 0.10378
0.03049 0.18578 0.38634
-0.10775 0.18578 0.21669
0.01758 0.18578 0.23196
0.09978 0.18578 0.13936
0.07694 0.18578 0.17082
0.14250 0.18578 -0.20584
0.02095 0.18578 0.20000
-0.00741 0.18578 0.27414
0.21912 0.18578 0.26391
0.03387 0.18578 0.26019
0.15653 0.18578 0.34234
0.20739 0.18578 0.29646
-0.14021 0.18578 0.30189
0.16741 0.18578 -0.06991
0.03779 0.18578 0.13788
0.18215 0.18578 -0.18393
0.01385 0.18578 0.05249
0.07666 0.18578 0.36130
0.20605 0.18578 0.24944
0.15950 0.18578 0.33284
0.20881 0.18578 -0.17832
0.12255 0.18578 0.22299
0.05127 0.18578 0.07415
0.07470 0.18578 -0.06961
0.14948 0.18578 -0.00879
-0.17272 0.18578 0.32142
0.04516 0.18578 0.35300
0.09548 0.18578 -0.13130
0.11847 0.18578 0.31418
0.20867 0.18578 0.34112
0.21823 0.18578 -0.35206
0.17045 0.18578 -0.11018
0.15090 0.18578 0.27293
0.01794 0.18578 0.20769
0.15890 0.18578 -0.17665
0.09974 0.18578 0.00150
-0.08410 0.18578 0.32673
0.20192 0.18578 -0.20415
-0.02663 0.18578 0.37210
0.15079 0.18578 0.35711
0.21624 0.18578 -0.06698
0.14710 0.18578 -0.18453
0.16104 0.18578 -0.14007
0.10746 0.18578 -0.14073
0.06783 0.18578 -0.08025
0.21566 0.18578 -0.01405
0.18623 0.18578 -0.20853
-0.01029 0.18578 0.11642
-0.04243 0.18578 0.29732
0.18597 0.18578 -0.06318
0.17016 0.18578 0.20711
0.05593 0.18578 -0.07302
0.21229 0.18578 0.13116
0.21114 0.18578 -0.30130
0.04729 0.18578 -0.01703
-0.11118 0.18578 0.26695
0.02989 0.18578 0.35102
0.16303 0.18578 0.12695
0.06540 0.18578 0.02964
0.06864 0.18578 0.36350
0.07633 0.18578 0.09393
0.16488 0.18578 -0.05868
0.12915 0.18578 0.19190
0.22662 0.18578 -0.21906
0.03001 0.18578 -0.00570
0.12137 0.18578 0.20605
0.18122 0.18578 -0.17197
0.18554 0.18578 0.38278
0.00253 0.18578 0.20397
0.06823 0.18578 0.37738
-0.06795 0.18578 0.25616
0.17536 0.18578 -0.04576
0.02097 0.18578 0.31419
0.20914 0.18578 0.36791
0.15129 0.18578 0.21273
0.15110 0.18578 0.23804
0.12812 0.18578 -0.11409
0.08106 0.18578 0.06267
0.08663 0.18578 -0.03501
0.09926 0.18578 0.13197
0.05120 0.18578 -0.03192
0.11511 0.18578 0.15241
0.20158 0.18578 -0.19438
-0.07898 0.18578 0.34222
0.20844 0.18578 -0.09970
0.10305 0.18578 0.24635
0.13677 0.18578 0.13617
0.18309 0.18578 0.34436
0.02496 0.18578 0.30795
0.09711 0.18578 0.10194
0.01788 0.18578 0.34009
-0.02866 0.18578 0.09370
0.20273 0.18578 0.29429
0.19465 0.18578 0.18075
0.06698 0.18578 -0.10229
-0.02014 0.18578 0.35574
-0.05601 0.18578 0.36483
0.03453 0.18578 -0.02074
0.21613 0.18578 -0.13919
-0.07429 0.18578 0.31340
0.18747 0.18578 0.16405
0.21524 0.18578 0.21060
0.02569 0.18578 0.18143
0.15639 0.18578 0.06661
0.16991 0.18578 -0.11968
0.00643 0.18578 0.34731
-0.01281 0.18578 0.25736
0.16519 0.18578 0.08127
0.18627 0.18578 0.20979
0.08353 0.18578 0.10719
0.14396 0.18578 0.37944
0.08610 0.18578 0.28961
-0.04885 0.18578 0.36483
0.01127 0.18578 0.29417
0.09356 0.18578 -0.14264
0.22465 0.18578 -0.35443
-0.04691 0.18578 0.18449
0.13382 0.18578 0.17047
-0.14645 0.18578 0.33829
0.00019 0.18578 0.20868
0.12152 0.18578 -0.20369
0.14017 0.18578 0.02050
-0.04276 0.18578 0.09477
-0.06196 0.18578 0.28661
0.17188 0.18578 0.05152
0.15427 0.18578 -0.24717
0.02213 0.18578 0.03961
-0.12443 0.18578 0.37240
0.04478 0.18578 0.04995
-0.01240 0.18578 0.33003
-0.14688 0.18578 0.33271
-0.07185 0.18578 0.38322
0.09957 0.18578 0.36655
0.05972 0.18578 0.31710
0.20317 0.18578 0.01335
-0.00375 0.18578 0.20318
-0.06430 0.18578 0.34708
0.19170 0.18578 0.14594
0.11592 0.18578 -0.01872
0.15275 0.18578 -0.19532
0.20242 0.18578 0.04346
-0.09562 0.18578 0.30042
0.04684 0.18578 0.15151
0.04958 0.18578 -0.05130
0.04178 0.18578 0.34322
0.17367 0.18578 -0.12698
0.15200 0.18578 0.19935
-0.11990 0.18578 0.32587
0.16828 0.18578 -0.09841
0.17416 0.18578 -0.24967
0.19131 0.18578 -0.03235
0.07338 0.18578 0.21773
0.19579 0.18578 -0.05660
0.00070 0.18578 0.02035
-0.11005 0.18578 0.27997
0.03646 0.18578 0.13059
0.22782 0.18578 0.08179
0.20585 0.18578 0.16964
0.18204 0.18578 0.04927
0.08340 0.18578 0.03416
0.17765 0.18578 0.37022
0.12312 0.18578 0.12091
-0.05931 0.18578 0.10583
-0.01242 0.18578 0.34207
-0.03309 0.18578 0.37556
0.06355 0.18578 0.15185
0.08250 0.18578 -0.09865
0.11376 0.18578 0.23722
0.12718 0.18578 -0.00853
-0.01189 0.18578 0.12801
-0.02929 0.18578 0.06306
0.03191 0.18578 -0.03087
-0.07868 0.18578 0.20827
0.16382 0.18578 -0.25615
-0.04093 0.18578 0.21850
0.05491 0.18578 -0.09057
0.00111 0.18578 0.21845
-0.09526 0.18578 0.17470
0.15796 0.18578 0.13996
0.21236 0.18578 -0.21018
0.22905 0.18578 0.31007
0.20208 0.18578 -0.17452
0.13586 0.18578 -0.07632
0.20356 0.18578 0.25884
0.10540 0.18578 0.19552
0.02555 0.18578 0.37463
-0.00143 0.18578 0.28574
0.08199 0.18578 0.05155
-0.04085 0.18578 0.11001
0.15042 0.18578 -0.21154
-0.10794 0.18578 0.20253
0.12746 0.18578 -0.12247
-0.12139 0.18578 0.34551
0.17348 0.18578 -0.22558
0.04534 0.18578 -0.06167
0.00294 0.18578 0.33188
0.08407 0.18578 0.31552
0.08204 0.18578 0.00126
0.22502 0.18578 -0.12786
0.01661 0.18578 0.31035
0.21499 0.18578 -0.14969
0.17114 0.18578 0.35176
0.05308 0.18578 0.04730
0.22509 0.18578 0.34235
0.02913 0.18578 0.01951
-0.08679 0.18578 0.19391
0.12025 0.18578 0.03074
0.14511 0.18578 0.01215
0.16946 0.18578 -0.13208
0.18977 0.18578 -0.10577
0.09281 0.18578 0.13965
0.08564 0.18578 0.08078
0.08374 0.18578 0.19790
0.19070 0.18578 0.26157
-0.10078 0.18578 0.22378
0.20409 0.18578 0.28249
0.16603 0.18578 0.13227
0.20304 0.18578 0.37265
0.21906 0.18578 0.23265
0.12716 0.18578 -0.04643
0.14444 0.18578 -0.15117
-0.11271 0.18578 0.21845
0.18083 0.18578 -0.30183
0.07420 0.18578 0.31623
0.05185 0.18578 0.05911
0.10835 0.18578 0.00870
0.05427 0.18578 0.11280
0.13606 0.18578 0.09489
-0.00696 0.18578 0.26781
-0.00557 0.18578 0.10816
0.03286 0.18578 0.26815
-0.09819 0.18578 0.37428
-0.06334 0.18578 0.21129
0.02226 0.18578 0.02103
-0.05490 0.18578 0.24420
0.15636 0.18578 0.11612
0.16621 0.18578 -0.22301
0.08150 0.18578 0.08419
0.08747 0.18578 0.09216
0.15699 0.18578 0.20561
0.21344 0.18578 0.08720
-0.09699 0.18578 0.32663
-0.03376 0.18578 0.34759
0.17924 0.18578 0.04021
0.02614 0.18578 0.21328
-0.17896 0.18578 0.38062
0.04674 0.18578 -0.07549
0.22632 0.18578 -0.35951
-0.04798 0.18578 0.35695
0.21559 0.18578 0.27336
0.21203 0.18578 -0.31951
0.19185 0.18578 -0.18512
-0.15149 0.18578 0.27388
-0.02296 0.18578 0.05768
0.21939 0.18578 0.31818
-0.18651 0.18578 0.33480
0.22231 0.18578 -0.11645
0.05733 0.18578 0.35728
0.22642 0.18578 -0.21132
0.11415 0.18578 0.35813
0.01912 0.18578 0.10065
0.00856 0.18578 0.24520
0.01889 0.18578 0.28932
0.14102 0.18578 -0.06793
0.13641 0.18578 0.33697
0.07951 0.18578 0.33205
0.11766 0.18578 0.01539
0.11743 0.18578 0.26581
0.16549 0.18578 -0.06426
-0.01333 0.18578 0.36648
0.14474 0.18578 -0.00624
0.11030 0.18578 0.15519
0.11361 0.18578 -0.17023
0.01798 0.18578 0.16052
0.14300 0.18578 -0.02494
0.06490 0.18578 0.09866
-0.12087 0.18578 0.29950
-0.14957 0.18578 0.38441
-0.10004 0.18578 0.27746
0.02192 0.18578 0.24010
0.08706 0.18578 -0.12205
-0.14901 0.18578 0.25961
0.12904 0.18578 0.00036
0.03122 0.18578 0.25406
-0.20095 0.18578 0.35063
0.16320 0.18578 0.36866
0.20291 0.18578 0.13750
0.07665 0.18578 0.24639
-0.03519 0.18578 0.23320
0.04169 0.18578 0.31923
0.16126 0.18578 0.03606
0.09421 0.18578 -0.15236
0.11532 0.18578 0.05550
0.19912 0.18578 -0.16029
0.20229 0.18578 0.13065
-0.13699 0.18578 0.28324
0.22046 0.18578 -0.10383
-0.15511 0.18578 0.33554
0.17935 0.18578 0.00457
0.02784 0.18578 0.27941
0.13791 0.18578 0.04724
0.19853 0.18578 0.35613
0.22092 0.18578 -0.20858
0.01265 0.18578 0.36799
0.08167 0.18578 -0.05743
0.01040 0.18578 0.13506
-0.08394 0.18578 0.16040
0.22134 0.18578 -0.16335
0.06080 0.18578 0.24242
-0.07331 0.18578 0.37530
0.16918 0.18578 0.32942
-0.07985 0.18578 0.32238
0.16813 0.18578 0.27210
-0.07728 0.18578 0.38095
-0.12535 0.18578 0.25858
0.04485 0.18578 0.19098
-0.00105 0.18578 0.05858
-0.02985 0.18578 0.17306
0.12842 0.18578 -0.14095
0.21440 0.18578 0.09739
-0.01526 0.18578 0.28789
0.05641 0.18578 0.37956
0.01352 0.18578 0.00525
0.02798 0.18578 0.13452
-0.08375 0.18578 0.17097
-0.02032 0.18578 0.04270
0.16195 0.18578 0.13658
-0.06175 0.18578 0.25720
0.09613 0.18578 0.22878
0.16750 0.18578 0.06121
0.04144 0.18578 -0.00549
0.10761 0.18578 0.32375
0.18337 0.18578 0.31352
0.19913 0.18578 0.08636
-0.23531 0.18578 -0.38066
-0.22990 0.18578 -0.17535
-0.23391 0.18578 -0.12888
-0.23644 0.18578 -0.15164
-0.23317 0.05400 -0.39221
-0.22407 0.09780 -0.39221
-0.22743 0.12790 -0.39221
-0.22621 0.07287 -0.39221
-0.22698 0.15738 -0.39221
-0.22596 -0.12825 0.39221
-0.23267 -0.08200 0.39221
-0.22130 -0.17752 0.39221
-0.23086 -0.11851 0.39221
-0.22767 -0.04709 0.39221
0.04224 0.18578 0.38916
-0.20664 0.18578 0.39549
-0.02920 0.18578 0.38864
-0.08485 0.18578 0.38832
-0.20036 0.15699 0.39221
-0.03663 0.15501 0.39221
-0.19485 0.15570 0.39221
0.00285 0.15913 0.39221
-0.20774 0.16480 0.39221
0.22008 0.08997 -0.37672
0.21964 0.13528 -0.37672
0.22587 -0.04518 -0.37672
0.22105 -0.13132 -0.37672
0.23028 -0.14833 -0.37672
0.17725 0.15482 0.38048
0.00389 0.15482 0.37971
0.02205 0.15482 0.37790
0.16905 0.15482 0.38350
-0.03277 0.15482 0.38246
0.11203 0.15482 0.37739
-0.23481 -0.16053 0.38939
-0.23481 -0.16574 0.38529
-0.23481 -0.12764 0.38425
-0.23481 -0.15489 0.38807
0.00947 0.17143 0.39737
-0.18498 0.17053 0.39737
-0.15330 0.17161 0.39737
-0.23612 0.17299 0.39737
-0.05057 0.16514 0.39737
-0.06599 0.16893 0.39737
-0.11429 0.16547 0.39737
-0.23926 0.17824 0.39737
-0.07519 0.17451 0.39737
-0.01018 0.16991 0.39737
-0.21510 0.16514 0.39700
0.23914 0.16514 0.19553
0.23804 0.16514 0.09173
0.23680 0.16514 0.18023
-0.22442 0.15482 0.03637
-0.22018 0.15482 0.32843
-0.22123 0.15482 -0.32029
-0.22879 0.15482 -0.30584
-0.22760 0.15482 -0.06983
-0.22480 0.15482 -0.23889
-0.22386 0.15482 -0.04927
-0.23133 0.15482 -0.23636
-0.22119 0.15482 -0.18971
-0.22120 0.15482 0.08447
-0.22526 0.15482 0.00342
-0.22087 0.15482 0.09964
-0.22933 -0.03106 -0.37672
-0.23412 0.06215 -0.37672
-0.23363 -0.09014 -0.37672
-0.22589 -0.10775 -0.37672
-0.23452 -0.14537 -0.37672
-0.22551 -0.11708 -0.37672
-0.22216 0.16514 0.16980
-0.22271 0.16514 -0.10142
-0.22471 0.16514 -0.33051
-0.22171 0.16514 0.04726
-0.21996 0.16514 0.03926
-0.22451 0.16514 0.07710
-0.21943 0.16514 0.17881
-0.22113 0.16514 -0.05876
-0.21933 0.09943 -0.38618
-0.21933 -0.16412 -0.37755
-0.01498 0.18578 -0.37359
0.16704 0.18578 -0.29667
0.00141 0.18578 -0.20978
-0.12057 0.18578 -0.29471
-0.16329 0.18578 0.22701
-0.02730 0.18578 -0.27418
0.15805 0.18578 -0.28437
-0.07069 0.18578 -0.33014
-0.12829 0.18578 0.14396
0.06577 0.18578 -0.32184
0.03555 0.18578 -0.08509
-0.17024 0.18578 0.18538
-0.07904 0.18578 -0.30017
-0.19629 0.18578 0.14797
-0.05171 0.18578 0.00285
-0.07587 0.18578 -0.31889
-0.16207 0.18578 0.02522
-0.01143 0.18578 -0.14234
-0.19076 0.18578 -0.10761
-0.20292 0.18578 0.01967
0.08846 0.18578 -0.30054
-0.18446 0.18578 0.01747
0.05386 0.18578 -0.12040
-0.18730 0.18578 -0.19477
-0.21524 0.18578 0.30285
-0.02507 0.18578 -0.11535
-0.12583 0.18578 -0.32916
-0.03580 0.18578 -0.28266
-0.22462 0.18578 -0.37691
-0.02938 0.18578 -0.09615
-0.14697 0.18578 -0.26121
-0.00217 0.18578 -0.22735
0.12518 0.18578 -0.38604
-0.17683 0.18578 0.12322
-0.11042 0.18578 -0.25575
-0.18223 0.18578 -0.21848
-0.16524 0.18578 0.16833
-0.03684 0.18578 -0.05514
-0.17184 0.18578 -0.20556
-0.18163 0.18578 0.06969
0.09469 0.18578 -0.21859
-0.18887 0.18578 -0.32067
-0.08115 0.18578 -0.29237
-0.19114 0.18578 -0.17891
-0.21516 0.18578 -0.16217
-0.20223 0.18578 0.22417
-0.06754 0.18578 -0.22975
-0.17369 0.18578 -0.23467
-0.21351 0.18578 0.28024
-0.05337 0.18578 0.01391
-0.08721 0.18578 -0.00890
-0.15573 0.18578 -0.04635
-0.18604 0.18578 0.28068
0.03621 0.18578 -0.14655
0.00648 0.18578 -0.17078
-0.12148 0.18578 0.06445
-0.17298 0.18578 0.22714
-0.04957 0.18578 -0.02816
-0.17783 0.18578 -0.00860
-0.17161 0.18578 -0.26137
-0.11063 0.18578 -0.33356
-0.22873 0.18578 -0.19911
-0.06087 0.18578 -0.21819
0.11218 0.18578 -0.23953
-0.13271 0.18578 -0.15270
-0.20775 0.18578 0.14610
-0.20517 0.18578 0.05071
-0.04606 0.18578 -0.13450
-0.19319 0.18578 0.20047
-0.01211 0.18578 -0.32585
-0.08724 0.18578 -0.21453
-0.06584 0.18578 -0.17064
-0.17680 0.18578 0.05816
-0.15535 0.18578 -0.21285
-0.01493 0.18578 -0.05306
-0.07806 0.18578 -0.25739
0.05313 0.18578 -0.21013
0.00428 0.18578 -0.31094
-0.17719 0.18578 -0.16219
-0.18068 0.18578 0.16758
-0.12854 0.18578 0.06703
0.07674 0.18578 -0.26473
-0.01017 0.18578 -0.16245
-0.17025 0.18578 -0.31098
0.11663 0.18578 -0.30989
-0.01886 0.18578 -0.35456
-0.04248 0.18578 -0.21933
-0.14067 0.18578 0.13015
-0.13548 0.18578 -0.00888
-0.06737 0.18578 0.09231
-0.18983 0.18578 -0.04050
-0.22509 0.18578 0.16963
-0.10651 0.18578 -0.17763
-0.03015 0.18578 -0.11063
0.06028 0.18578 -0.33451
-0.10759 0.18578 -0.02869
0.05031 0.18578 -0.25486
-0.13033 0.18578 0.15496
-0.10154 0.18578 -0.14178
-0.20606 0.18578 0.29221
-0.07446 0.18578 -0.13524
-0.08373 0.18578 -0.17632
0.08103 0.18578 -0.31435
-0.08195 0.18578 -0.05042
-0.06997 0.18578 -0.32345
-0.19521 0.18578 -0.01950
-0.16644 0.18578 -0.01589
0.16119 0.18578 -0.33923
-0.10130 0.18578 -0.03290
-0.07503 0.18578 -0.19147
-0.14039 0.18578 -0.23589
0.01972 0.18578 -0.15667
-0.07203 0.18578 -0.06391
-0.10489 0.18578 -0.32337
-0.10908 0.18578 -0.04002
0.18484 0.18578 -0.32457
-0.08569 0.18578 0.13664
0.19803 0.18578 -0.33887
-0.16595 0.18578 -0.03003
0.12970 0.18578 -0.26395
-0.22865 0.18578 0.29001
0.08107 0.18578 -0.23745
-0.14837 0.18578 -0.07126
-0.10972 0.18578 -0.10199
-0.09550 0.18578 0.14631
0.08125 0.18578 -0.27258
0.08861 0.18578 -0.34983
0.10872 0.18578 -0.31856
-0.20313 0.18578 0.19523
-0.10139 0.18578 -0.11076
0.13977 0.18578 -0.33460
-0.06534 0.18578 -0.03849
-0.05231 0.18578 0.07431
0.02677 0.18578 -0.35147
-0.06606 0.18578 0.10548
-0.10784 0.18578 -0.05828
-0.11727 0.18578 0.03542
-0.20253 0.18578 0.07445
-0.21396 0.18578 -0.29712
0.09436 0.18578 -0.32229
-0.20258 0.18578 0.27092
0.15038 0.18578 -0.25689
0.14032 0.18578 -0.28773
-0.06661 0.18578 0.07333
-0.09728 0.18578 0.04663
-0.03503 0.18578 -0.13331
-0.12595 0.18578 -0.07252
-0.13775 0.18578 -0.16042
-0.21315 0.18578 0.18986
-0.22186 0.18578 -0.36327
0.00654 0.18578 -0.05998
-0.14483 0.18578 0.19663
-0.11895 0.18578 -0.31400
-0.13636 0.18578 -0.00089
0.04041 0.18578 -0.23671
-0.09125 0.18578 -0.26898
-0.05629 0.18578 -0.33530
-0.00758 0.18578 -0.17028
-0.02319 0.18578 -0.05922
-0.17569 0.18578 -0.10018
-0.20309 0.18578 -0.18550
-0.17035 0.18578 -0.32816
-0.04171 0.18578 -0.19582
-0.12031 0.18578 -0.08188
-0.07497 0.18578 -0.37816
0.13894 0.18578 -0.35418
-0.16105 0.18578 0.26307
-0.21237 0.18578 -0.04565
-0.09097 0.18578 -0.30529
-0.22890 0.18578 0.20321
-0.11974 0.18578 0.14609
-0.04076 0.18578 -0.12588
-0.03157 0.18578 -0.25831
-0.14098 0.18578 -0.29258
0.00123 0.18578 -0.18841
-0.15780 0.18578 0.22270
0.06290 0.18578 -0.27763
-0.18303 0.18578 0.23749
0.14007 0.18578 -0.27931
-0.12307 0.18578 -0.12606
-0.21034 0.18578 -0.31823
-0.07679 0.18578 -0.16042
0.00719 0.18578 -0.03482
0.19336 0.18578 -0.37850
-0.12218 0.18578 0.07382
-0.10725 0.18578 -0.29839
-0.16604 0.18578 -0.29418
-0.14980 0.18578 -0.14513
-0.07309 0.18578 0.07433
-0.08412 0.18578 -0.36253
-0.18620 0.18578 -0.12559
-0.04910 0.18578 -0.24349
0.06525 0.18578 -0.19324
-0.06404 0.18578 -0.36499
-0.07775 0.18578 -0.08387
0.00082 0.18578 -0.26742
-0.20235 0.18578 -0.08871
-0.13609 0.18578 -0.03148
-0.14284 0.18578 -0.03438
-0.14541 0.18578 -0.20225
-0.13254 0.18578 0.19796
-0.15980 0.18578 0.08956
0.13540 0.18578 -0.25933
-0.07317 0.18578 -0.24177
-0.22114 0.18578 0.09247
-0.10285 0.18578 -0.06268
0.14785 0.18578 -0.35514
-0.04763 0.18578 -0.22841
-0.04192 0.18578 -0.05900
-0.05404 0.18578 -0.29029
-0.04836 0.18578 0.04922
-0.06755 0.18578 -0.10412
-0.21903 0.18578 -0.18660
-0.17782 0.18578 -0.07551
-0.13059 0.18578 0.21124
-0.09814 0.18578 -0.09621
0.10579 0.18578 -0.34438
-0.00063 0.18578 -0.11667
-0.11347 0.18578 -0.05609
-0.12398 0.18578 0.14913
0.08029 0.18578 -0.14332
0.00339 0.18578 -0.07764
-0.10158 0.18578 -0.18896
-0.16576 0.18578 -0.31509
0.16252 0.18578 -0.34535
-0.08976 0.18578 -0.11421
-0.11125 0.18578 -0.15479
0.07564 0.18578 -0.25561
-0.17130 0.18578 0.16020
-0.21504 0.18578 -0.19263
-0.22618 0.18578 -0.06159
-0.21888 0.18578 0.32949
0.01674 0.18578 -0.14247
0.18223 0.18578 -0.35595
-0.04546 0.18578 -0.16866
-0.21649 0.18578 -0.38468
-0.13103 0.18578 0.16232
-0.21655 0.18578 -0.27711
-0.09768 0.18578 -0.24848
0.13306 0.18578 -0.37532
-0.12151 0.18578 -0.33352
0.09634 0.18578 -0.24885
-0.12271 0.18578 0.07939
-0.02411 0.18578 -0.23702
0.20147 0.18578 -0.38586
-0.13314 0.18578 -0.02236
0.02424 0.18578 -0.05343
-0.07681 0.18578 -0.14325
-0.04685 0.18578 -0.08570
-0.08514 0.18578 0.07274
0.13995 0.18578 -0.30988
-0.19548 0.18578 -0.33596
-0.08305 0.18578 -0.01748
-0.19826 0.18578 -0.11106
0.02574 0.18578 -0.30824
-0.19780 0.18578 -0.24101
-0.21380 0.18578 -0.17656
-0.08606 0.18578 -0.07248
-0.15344 0.18578 0.19982
-0.22042 0.18578 -0.26264
-0.16107 0.18578 -0.08874
-0.04416 0.18578 -0.09079
-0.12479 0.18578 -0.30999
0.12308 0.18578 -0.25512
0.04641 0.18578 -0.18642
-0.17657 0.18578 0.29717
0.02670 0.18578 -0.26378
-0.19093 0.18578 -0.37726
-0.09005 0.18578 -0.17521
-0.19714 0.18578 0.27836
-0.20017 0.18578 0.32211
-0.01898 0.18578 -0.04489
-0.21190 0.18578 0.06779
-0.17644 0.18578 0.21962
-0.04111 0.18578 -0.33792
-0.02065 0.18578 -0.18257
-0.02451 0.18578 -0.17133
0.21216 0.18578 -0.35924
-0.10231 0.18578 -0.16276
-0.11723 0.18578 -0.08769
-0.20322 0.18578 0.11572
-0.01539 0.18578 -0.36186
-0.09389 0.18578 -0.38610
-0.22624 0.18578 0.31636
-0.19169 0.18578 0.24842
-0.09298 0.18578 -0.01290
0.04618 0.18578 -0.34821
-0.18891 0.18578 0.12179
-0.08071 0.18578 -0.09954
-0.18668 0.18578 0.20366
-0.16934 0.18578 -0.14610
-0.19927 0.18578 0.30524
0.00507 0.18578 -0.35569
0.12534 0.18578 -0.23980
-0.06567 0.18578 -0.01302
-0.08536 0.18578 -0.30102
-0.20699 0.18578 0.06319
-0.12055 0.18578 -0.13634
-0.17549 0.18578 0.25579
0.13885 0.18578 -0.24114
0.05855 0.18578 -0.20740
-0.18203 0.18578 -0.06776
-0.18588 0.18578 0.26794
-0.12568 0.18578 -0.00534
0.06325 0.18578 -0.12694
-0.07564 0.18578 -0.35423
0.06818 0.18578 -0.17381
-0.00458 0.18578 -0.13636
-0.09732 0.18578 -0.37843
-0.22948 0.18578 0.16527
0.11659 0.18578 -0.29501
-0.23002 -0.00087 0.37672
-0.23189 0.10047 0.37672
-0.23123 -0.04952 0.37672
-0.22939 0.04495 0.37672
-0.23308 -0.10186 0.37672
-0.22673 0.13371 0.37672
0.07039 0.16514 -0.37975
0.12114 0.16514 -0.37996
0.13317 0.16514 -0.38475
0.18262 0.16514 -0.37994
