0.33527 0.13025 0.03679
0.22447 0.13025 0.04883
0.25557 0.13025 -0.05230
-0.06493 0.13025 0.21364
0.24870 0.13025 -0.20236
-0.21888 0.13025 0.28104
0.28010 0.13025 -0.21366
0.30505 0.13025 -0.00706
-0.09738 0.13025 0.18049
0.10899 0.13025 0.24465
0.31346 0.13025 -0.07650
0.30229 0.13025 0.12148
0.07495 0.13025 -0.03716
0.19051 0.13025 -0.15260
0.18253 0.13025 -0.04164
-0.14996 0.13025 0.19139
0.14197 0.13025 0.03530
0.29580 0.13025 -0.06005
0.14006 0.13025 0.04213
0.32576 0.13025 -0.08383
0.09796 0.13025 0.22597
-0.08870 0.13025 0.26595
0.25362 0.13025 -0.09614
-0.17151 0.13025 0.24166
0.11562 0.13025 -0.04996
0.07816 0.13025 0.29037
0.25019 0.13025 0.04795
0.09031 0.13025 0.05186
0.01387 0.13025 0.16270
-0.12270 0.13025 0.18939
0.09960 0.13025 0.13477
0.19834 0.13025 0.08625
0.09282 0.13025 0.16467
0.22526 0.13025 -0.17711
-0.25962 0.13025 0.29409
0.20473 0.13025 0.03448
0.31068 0.13025 0.05564
0.23038 0.13025 -0.14514
0.02698 0.13025 0.24535
0.11198 0.13025 0.07884
0.27791 0.13025 0.08761
-0.23340 0.13025 0.27255
0.19166 0.13025 -0.06876
0.20963 0.13025 -0.06055
0.14546 0.13025 0.05782
0.25512 0.13025 -0.07006
0.02910 0.13025 0.27323
-0.24440 0.13025 0.25256
0.13723 0.13025 0.18799
0.25907 0.13025 0.09341
-0.15158 0.13025 0.25290
-0.11593 0.13025 0.29070
-0.01221 0.13025 0.09581
0.13503 0.13025 -0.01633
-0.15616 0.13025 0.25271
-0.23624 0.13025 0.30106
0.26345 0.13025 -0.01144
0.05376 0.13025 0.26674
0.00986 0.13025 0.07777
-0.08824 0.13025 0.28703
0.03531 0.13025 0.11672
-0.03436 0.13025 0.24890
-0.08716 0.13025 0.08329
-0.06357 0.13025 0.08812
0.23990 0.13025 -0.03399
-0.08846 0.13025 0.21183
-0.08406 0.13025 0.09954
0.07459 0.13025 0.12854
-0.10864 0.13025 0.14572
-0.02534 0.13025 0.07919
0.17494 0.13025 0.02764
0.12982 0.13025 -0.05042
0.29379 0.13025 -0.20581
-0.13361 0.13025 0.16466
0.03504 0.13025 0.21756
0.30097 0.13025 0.20348
0.28961 0.13025 0.22711
0.07110 0.13025 -0.01205
0.14777 0.13025 -0.07992
0.20457 0.13025 0.19798
0.17551 0.13025 0.23844
0.18917 0.13025 0.14426
0.22724 0.13025 -0.16566
0.19764 0.13025 0.15883
-0.15635 0.13025 0.23465
0.24448 0.13025 0.16323
-0.01798 0.13025 0.24161
0.28012 0.13025 0.01140
0.02319 0.13025 0.00264
0.02396 0.13025 -0.00304
0.19445 0.13025 -0.13388
0.31289 0.12294 -0.34103
0.16835 -0.12310 -0.23648
0.19535 0.12131 -0.34056
0.23812 0.03731 0.23581
0.01863 0.13025 0.33436
-0.00152 -0.00480 -0.24349
-0.24738 0.11894 0.33801
0.34072 0.12170 0.27089
-0.24304 -0.03821 -0.04390
0.33331 0.11828 -0.31436
0.10924 0.11828 -0.31363
-0.27337 0.11828 -0.32511
-0.13303 0.11828 -0.32614
0.28353 0.11828 -0.32366
-0.21647 0.11992 -0.33945
-0.34103 0.12608 -0.18780
-0.22777 0.09248 -0.23659
-0.23846 -0.09087 -0.24178
0.13414 0.08159 0.23585
-0.05523 0.12614 0.34101
-0.23559 0.03062 -0.23898
0.33734 0.12987 0.27694
0.07045 -0.04894 -0.24010
-0.22976 0.11828 0.32717
0.07213 0.11828 0.32737
-0.24291 -0.10714 -0.15400
0.03187 0.11828 -0.32710
0.31865 0.11828 -0.32351
0.12780 0.11828 -0.32623
-0.18519 0.13025 -0.32038
0.03065 0.13025 -0.32271
-0.32420 0.13025 -0.32021
0.23605 -0.05370 0.24147
-0.12198 0.07246 -0.24277
0.14941 0.13025 0.33277
0.01378 0.00330 0.24351
0.33692 0.11848 -0.29740
-0.23559 -0.04712 -0.05963
-0.24184 0.07364 0.24208
-0.23700 0.02370 0.03950
-0.24353 0.10766 0.21445
0.23557 0.08635 -0.23509
0.23749 0.08960 0.24007
0.34027 0.12091 -0.14347
0.23923 -0.12226 0.19134
0.15211 -0.10641 -0.23592
-0.22516 0.12855 0.33953
0.33679 0.11847 -0.08093
0.01800 0.00286 0.23625
-0.23555 -0.01031 0.23947
-0.27384 0.13025 -0.31441
-0.13187 0.13025 -0.31735
-0.30925 0.13025 -0.31282
0.23571 0.06536 0.23843
0.33638 0.13012 0.24210
0.05946 0.12718 -0.34058
-0.24246 -0.04646 0.23682
0.24230 0.11146 -0.21286
0.13439 0.12890 0.33907
0.34047 0.12735 0.19565
0.08619 -0.05946 -0.23936
-0.26882 0.11828 0.33518
-0.01652 0.13025 -0.32740
-0.03621 0.13025 -0.32700
-0.23794 0.07191 0.11040
-0.28884 0.11828 0.31511
-0.09067 0.11828 0.31598
0.23953 -0.05094 0.07349
-0.25217 0.13025 0.32810
0.19145 0.13025 0.32483
-0.34128 0.12378 0.07614
0.23926 0.09736 -0.22166
-0.23203 -0.09600 0.23825
0.16368 0.13025 -0.33131
-0.11486 0.13025 -0.33170
-0.23518 0.12011 0.33965
-0.22324 0.11828 -0.32418
-0.12342 0.11828 -0.32528
-0.23567 -0.12350 -0.20438
0.06385 0.11828 -0.33044
0.17774 0.11828 -0.32968
0.10393 0.11828 0.32925
0.27511 0.11828 0.33107
-0.23702 -0.12233 -0.20014
0.23681 0.04708 -0.07469
0.06908 0.13025 0.31889
0.13356 0.13025 0.31761
-0.07249 0.13025 0.32036
-0.23709 -0.03088 -0.03073
0.33770 0.11881 0.17030
-0.33885 0.12907 0.16029
-0.08804 0.12819 -0.33983
0.23496 0.13025 0.32009
0.03791 0.13025 0.32167
0.10013 0.13025 0.31973
-0.34014 0.12778 0.02193
-0.21972 0.11828 0.33127
-0.23443 0.11828 0.33014
0.34058 0.12135 0.05605
-0.34125 0.12499 0.00530
-0.33536 0.11828 0.20353
0.24010 -0.06350 0.09216
0.04110 0.13025 -0.24869
-0.10226 0.13025 -0.24034
-0.08222 0.13025 -0.22617
-0.25007 0.13025 -0.29844
0.12079 0.13025 -0.28389
-0.00024 0.13025 -0.14187
0.18022 0.13025 -0.26821
-0.30990 0.13025 -0.26063
0.02064 0.13025 -0.23148
-0.02704 0.13025 -0.13601
0.12584 0.13025 -0.20498
-0.15094 0.13025 -0.30957
0.09831 0.13025 -0.21482
0.26445 0.13025 -0.29254
-0.06084 0.13025 -0.28369
0.03048 0.13025 -0.24147
0.17547 0.13025 -0.23808
-0.00629 0.13025 -0.24529
-0.06494 0.13025 -0.30635
-0.11656 0.13025 -0.07787
-0.32659 0.13025 0.00996
0.02230 0.13025 -0.26639
-0.24033 0.13025 -0.10460
0.04922 0.13025 -0.29756
-0.13962 0.13025 -0.11333
-0.04994 0.13025 -0.28911
-0.11738 0.13025 -0.18844
-0.19980 0.13025 -0.15252
-0.28150 0.13025 -0.09486
-0.27926 0.13025 -0.00300
0.09807 0.13025 -0.29801
-0.03121 0.13025 -0.20262
-0.12251 0.13025 -0.11218
0.14501 0.13025 -0.24404
-0.14751 0.13025 -0.30614
0.22163 0.13025 -0.29235
-0.29358 0.13025 -0.12431
-0.10575 0.13025 -0.15896
0.09835 0.13025 -0.26228
0.00880 0.13025 -0.15469
-0.10727 0.13025 -0.11822
-0.04026 0.13025 -0.17746
-0.31193 0.13025 -0.14477
-0.19316 0.13025 -0.28500
-0.26115 0.13025 -0.20275
0.17375 0.13025 -0.22637
-0.09670 0.13025 -0.19386
-0.06453 0.13025 -0.27279
-0.29637 0.13025 -0.19754
0.10160 0.13025 -0.29113
-0.13683 0.13025 -0.18617
0.15545 0.13025 -0.30538
-0.18282 0.13025 -0.26984
-0.00860 0.13025 -0.25993
-0.05083 0.13025 -0.16453
0.22677 0.13025 -0.26574
0.16550 0.13025 -0.24678
0.28575 0.13025 -0.29934
-0.23210 0.13025 -0.14164
-0.26288 0.13025 -0.16793
-0.01498 0.13025 -0.20201
0.00874 0.13025 -0.28826
0.06810 0.13025 -0.21885
-0.32504 0.13025 -0.28032
-0.18462 0.13025 -0.06844
-0.15224 0.13025 -0.07404
-0.28904 0.13025 -0.28218
-0.24703 0.13025 -0.05497
-0.01596 0.13025 -0.16006
0.31162 0.13025 -0.30861
0.11006 0.13025 -0.23823
-0.30070 0.13025 -0.02938
-0.32441 0.13025 -0.15533
-0.14673 0.13025 -0.31039
-0.10784 0.13025 -0.30705
-0.27795 0.13025 -0.25173
-0.09941 0.13025 -0.09007
0.17847 0.13025 -0.23233
0.20104 0.13025 -0.24399
-0.10558 0.13025 -0.22877
-0.33311 0.13025 -0.31114
-0.09564 0.13025 -0.17311
-0.13768 0.13025 -0.19517
-0.33120 0.13025 -0.26760
-0.19353 0.13025 -0.24571
-0.10337 0.13025 -0.30276
0.16437 0.13025 -0.24027
-0.19052 0.13025 -0.20859
-0.20275 0.13025 -0.10687
-0.04594 0.13025 -0.18499
-0.06289 0.13025 -0.29755
-0.04787 0.13025 -0.20288
-0.23842 0.13025 -0.08176
-0.30390 0.13025 -0.26149
0.16276 0.13025 -0.25531
-0.25705 0.13025 -0.27949
-0.18404 0.13025 -0.30386
-0.18432 0.13025 -0.21695
-0.25298 0.13025 -0.05321
-0.11102 0.13025 -0.27836
-0.27501 0.13025 -0.00821
-0.07422 0.13025 -0.11887
-0.15456 0.13025 -0.10405
-0.15596 0.13025 -0.13310
-0.00042 0.13025 -0.16640
0.09108 0.13025 -0.27111
0.08411 0.13025 -0.28499
-0.18121 0.13025 -0.15185
0.04723 0.13025 -0.17236
-0.27537 0.13025 -0.08455
-0.08982 0.13025 -0.18561
-0.17332 0.13025 -0.03983
0.02002 0.13025 -0.27872
0.17237 0.13025 -0.25685
-0.16392 0.13025 -0.11019
-0.13700 0.13025 -0.14499
-0.20573 0.13025 -0.16807
-0.22873 0.13025 -0.28787
0.27461 0.13025 -0.28109
-0.00234 0.13025 -0.23273
-0.09296 0.13025 -0.14421
-0.17339 0.13025 -0.22617
-0.10198 0.13025 -0.20223
-0.13537 0.13025 -0.14975
-0.01174 0.13025 -0.21927
-0.15852 0.13025 -0.21408
-0.12981 0.13025 -0.27146
-0.30473 0.13025 -0.02282
-0.04602 0.13025 -0.26359
-0.28050 0.13025 -0.19524
-0.19723 0.13025 -0.12346
-0.24714 0.13025 -0.03420
-0.15936 0.13025 -0.22985
-0.20632 0.13025 -0.03557
-0.16656 0.13025 -0.08189
-0.16299 0.13025 -0.04633
-0.23331 0.13025 -0.01380
0.12112 0.13025 -0.24168
-0.15643 0.13025 -0.12905
-0.10597 0.13025 -0.09269
-0.10825 0.13025 -0.13069
-0.04920 0.13025 -0.14224
0.17385 0.13025 -0.30179
0.13190 0.13025 -0.21929
-0.31321 0.13025 -0.24202
-0.25884 0.13025 -0.04435
-0.08663 0.13025 -0.12701
0.01200 0.13025 -0.28557
-0.16850 0.13025 -0.05072
-0.04125 0.13025 -0.15919
0.23820 0.13025 -0.26503
-0.19436 0.13025 -0.30906
-0.31658 0.13025 -0.08641
-0.12161 0.13025 -0.26545
-0.13627 0.13025 -0.10421
-0.17804 0.13025 -0.13995
-0.32438 0.13025 0.02837
-0.32861 0.13025 -0.19780
-0.07470 0.13025 -0.14852
-0.13015 0.13025 -0.06458
-0.05159 0.13025 -0.20817
-0.01710 0.13025 -0.28107
-0.05719 0.13025 -0.18854
-0.02525 0.13025 -0.13212
-0.26905 0.13025 -0.10351
-0.08914 0.13025 -0.27261
-0.30368 0.13025 0.02980
-0.26812 0.13025 -0.15496
-0.30795 0.13025 -0.25005
0.02372 0.13025 -0.30823
-0.16764 0.13025 -0.29055
-0.08095 0.13025 -0.25966
-0.23018 0.13025 -0.02428
-0.12580 0.12243 -0.34103
-0.11798 0.07739 -0.23923
-0.06982 -0.05553 0.24307
0.03136 -0.03231 -0.23949
-0.23719 -0.12740 -0.20602
-0.13959 0.12261 0.34110
-0.24350 -0.12619 -0.18479
0.24105 -0.11244 0.15144
-0.02940 0.12101 -0.34034
-0.11786 0.07416 -0.23579
-0.24161 0.01577 0.03933
-0.33602 0.13017 0.26060
0.00806 0.13025 -0.32085
-0.06682 0.13025 -0.32157
0.13435 0.12993 -0.33718
-0.31713 0.13025 -0.33424
0.23788 0.05757 -0.10209
-0.28440 0.11828 -0.33085
-0.22576 0.11828 -0.33038
-0.16919 0.11828 -0.33267
0.02434 -0.02175 -0.24344
0.23619 0.11098 -0.18894
0.32114 0.12454 -0.33952
0.33590 0.11835 0.04167
0.23762 0.02091 -0.04716
0.33896 0.12898 -0.13074
0.33888 0.12905 0.26138
-0.01838 0.12576 -0.34115
-0.33668 0.11845 0.03615
0.18175 0.12773 -0.34018
-0.02305 -0.01799 0.23726
0.30629 0.12665 0.34080
-0.19620 -0.12392 0.24294
0.33558 0.13022 0.10115
-0.23674 -0.03782 0.24238
-0.06196 0.03836 -0.24243
0.30787 0.13025 0.32345
-0.26156 0.13025 0.32413
0.24016 -0.10848 0.23377
-0.23638 -0.09992 -0.23705
0.26501 0.13025 -0.31646
0.32588 0.13025 -0.31462
0.16646 0.13025 -0.31576
-0.33892 0.11952 0.04752
-0.24291 0.05087 -0.24168
-0.33609 0.13016 0.04342
0.16651 0.11828 0.33541
0.24057 0.02139 -0.03466
-0.06370 0.04100 -0.23920
0.24353 -0.02027 0.23960
-0.04034 0.01581 -0.24016
0.23556 -0.00464 -0.23931
0.21951 0.13025 -0.31261
0.04896 0.13025 -0.31228
-0.22071 0.13025 -0.31193
-0.10665 -0.07398 0.24177
-0.24081 0.00308 -0.24333
0.02755 0.01673 0.23893
-0.34006 0.12790 0.20428
0.28076 0.11860 -0.33719
0.31349 0.11828 -0.31244
0.31971 0.11828 -0.31224
-0.24091 -0.08552 -0.12465
-0.23577 -0.10807 -0.23080
-0.01247 0.11828 0.32237
-0.30834 0.11828 0.32047
-0.32363 0.11828 0.31861
0.06409 0.11828 0.31447
0.32010 0.11828 0.31397
-0.05212 0.11828 0.31230
-0.03511 0.01699 -0.24353
0.18269 0.12305 -0.34119
-0.12982 0.11897 0.33809
-0.03474 -0.02999 0.24353
-0.12948 0.08472 -0.24111
-0.00564 0.00203 -0.24022
-0.04239 0.13025 0.13901
0.02045 0.13025 0.23644
-0.02319 0.13025 0.23201
0.18897 0.13025 0.12895
0.15484 0.13025 0.03847
0.15533 0.13025 -0.01166
0.12807 0.13025 0.19604
0.06685 0.13025 0.10323
-0.05806 0.13025 0.16469
-0.07603 0.13025 0.12657
0.26241 0.13025 0.04922
0.13181 0.13025 0.01314
0.04521 0.13025 0.15440
0.26406 0.13025 0.29280
0.20184 0.13025 -0.01542
0.07679 0.13025 0.06576
0.31793 0.13025 0.02395
0.26594 0.13025 -0.07657
-0.23573 0.13025 0.27988
0.16892 0.13025 0.16664
0.05913 0.13025 0.22907
0.18864 0.13025 0.19709
0.16647 0.13025 0.22120
0.09832 0.13025 0.20749
-0.03024 0.13025 0.20665
0.32679 0.13025 0.14425
0.05187 0.13025 0.18624
-0.02277 0.13025 0.09842
-0.19143 0.13025 0.17835
0.08325 0.13025 0.19113
0.24991 0.13025 -0.13391
0.30422 0.13025 0.26253
0.11836 0.13025 -0.10736
0.26720 0.13025 0.04149
0.16584 0.13025 0.30757
0.30194 0.13025 0.28051
0.10276 0.13025 0.27205
0.00078 0.13025 0.02478
0.08310 0.13025 -0.00933
0.04350 0.13025 0.07463
0.29120 0.13025 -0.06359
0.31272 0.13025 -0.17891
0.14488 0.13025 0.14207
-0.04703 0.13025 0.20530
0.25113 0.13025 0.19252
0.18635 0.13025 0.10108
0.23309 0.13025 -0.04021
0.10657 0.13025 0.04272
0.09424 0.13025 -0.06838
0.05090 0.13025 -0.01295
0.20055 0.13025 0.07123
-0.14450 0.13025 0.28958
0.05576 0.13025 0.09592
-0.09070 0.13025 0.20827
0.05982 0.13025 0.24736
0.03594 0.13025 -0.02350
-0.08496 0.13025 0.19865
0.15457 0.13025 0.04614
-0.17397 0.13025 0.23550
0.19821 0.13025 0.07836
0.24672 0.13025 -0.15446
0.05489 0.13025 0.14696
-0.00385 0.13025 0.20553
0.18894 0.13025 0.22139
0.09126 0.13025 0.13540
0.00961 0.13025 0.09767
0.13874 0.13025 0.28528
0.17725 0.13025 -0.00873
0.28168 0.13025 0.24427
0.23295 0.13025 0.24915
0.16741 0.13025 0.12696
0.31157 0.13025 0.29872
0.29457 0.13025 0.06367
0.25522 0.13025 -0.19090
0.19740 0.13025 -0.04543
0.02824 0.13025 0.23428
0.05064 0.13025 0.09991
0.29577 0.13025 0.24841
-0.24510 0.13025 0.28378
0.30301 0.13025 0.10638
0.22082 0.13025 0.25113
0.26998 0.13025 0.30078
-0.25317 0.13025 0.27755
-0.08563 0.13025 0.22657
0.09823 0.13025 0.08257
0.05720 0.13025 0.19981
0.13782 0.13025 -0.02961
-0.23730 0.13025 0.23111
-0.16460 0.13025 0.16488
0.08154 0.13025 0.17747
-0.03325 0.13025 0.26111
0.28564 0.13025 0.17530
0.22538 0.13025 0.12481
-0.09116 0.13025 0.30118
0.07178 0.13025 -0.00580
-0.07065 0.13025 0.10960
-0.11930 0.13025 0.19363
0.21112 0.13025 -0.00977
0.10476 0.13025 -0.04905
0.24638 0.13025 -0.06414
-0.06636 0.13025 0.12016
-0.00451 0.13025 0.18952
0.13813 0.13025 0.05412
0.15039 0.13025 0.04374
0.25521 0.13025 0.19848
0.18175 0.13025 0.21153
0.09211 0.13025 -0.04987
0.29778 0.13025 -0.12698
0.05761 0.13025 0.08343
-0.04117 0.13025 0.04078
0.31912 0.13025 -0.20531
0.02847 0.13025 0.02569
0.15402 0.13025 0.20039
0.30409 0.13025 0.22454
0.27999 0.13025 0.19022
-0.15555 0.13025 0.17125
0.15149 0.13025 0.12231
0.23351 0.13025 -0.20637
0.30508 0.13025 -0.10473
0.27307 0.13025 -0.16252
0.01713 0.13025 0.08875
0.28550 0.13025 -0.18955
0.23118 0.13025 -0.01575
0.07995 0.13025 0.26551
0.14682 0.13025 0.14574
-0.21052 0.13025 0.30554
-0.13853 0.13025 0.17924
-0.00265 0.13025 0.02828
-0.08244 0.13025 0.19137
0.30193 0.13025 0.09889
0.20766 0.13025 -0.01437
-0.19142 0.13025 0.22082
-0.21587 0.13025 0.28429
0.32426 0.13025 -0.17297
0.31996 0.13025 -0.17686
0.04140 0.13025 0.00758
0.33235 0.13025 0.16504
0.09136 0.13025 0.04410
-0.22482 0.13025 0.22770
0.12846 0.13025 0.28297
0.12518 0.13025 0.04705
-0.23067 0.13025 0.26547
0.00531 0.13025 0.02345
-0.06773 0.13025 0.17854
0.27742 0.13025 0.04711
0.21338 0.13025 0.11690
-0.25194 0.13025 0.26438
0.27338 0.13025 0.28036
0.22831 0.13025 -0.00263
0.09267 0.13025 -0.06403
0.25076 0.13025 -0.10544
0.19348 0.13025 -0.14025
0.32848 0.13025 0.00980
0.20452 0.13025 -0.09320
-0.11890 0.13025 0.16219
0.15706 0.13025 0.25535
-0.13229 0.13025 0.30345
0.23948 0.13025 -0.16012
0.11350 0.13025 0.20647
0.27801 0.13025 0.13380
-0.27965 0.13025 0.30418
0.29063 0.13025 -0.07630
0.19613 0.13025 0.10723
0.14408 0.13025 0.02714
0.30722 0.13025 -0.25901
0.24343 0.13025 0.15838
-0.08925 0.13025 0.18707
0.12568 0.13025 0.07349
-0.03552 0.13025 0.10582
0.30509 0.13025 -0.21693
0.08858 0.13025 0.11706
-0.15033 0.13025 0.19639
0.19296 0.13025 0.20273
-0.25667 0.13025 0.29095
0.14071 0.13025 0.07194
0.16811 0.13025 0.06875
0.32088 0.13025 -0.24306
0.02002 0.13025 0.04462
0.32338 0.13025 0.29512
-0.15777 0.13025 0.14704
0.32831 0.13025 0.19203
-0.08879 0.13025 0.16024
0.12800 0.13025 0.09894
0.19385 0.13025 -0.05621
0.26091 0.13025 -0.19362
0.12688 0.13025 0.27694
0.14906 0.13025 0.01922
-0.22690 0.13025 0.21144
0.25136 0.13025 0.23053
0.32803 0.13025 0.27500
0.24491 0.13025 -0.12278
0.15590 0.13025 0.12850
0.25496 0.13025 -0.07684
0.20964 0.13025 0.01379
0.31659 0.13025 0.28162
0.24988 0.13025 0.08740
0.10544 0.13025 0.03592
0.10592 0.13025 -0.02857
0.11989 0.13025 0.01664
0.31622 0.13025 0.14829
0.29514 0.13025 -0.27310
0.09572 0.13025 0.26298
0.20371 0.13025 -0.01963
0.12701 0.13025 0.23669
0.26454 0.13025 0.15418
-0.07945 0.13025 0.16682
0.22608 0.13025 0.20652
-0.11838 0.13025 0.17485
0.17862 0.13025 0.07738
0.25984 0.13025 0.01119
0.10743 0.13025 0.06662
-0.13733 0.13025 0.14899
-0.07438 0.13025 0.16299
-0.10588 0.13025 0.23666
-0.16200 0.13025 0.15774
0.29241 0.13025 -0.25588
0.08520 0.13025 0.11001
0.15249 0.13025 0.27837
-0.00529 0.13025 0.13921
0.29011 0.13025 0.09567
0.23248 0.13025 0.24464
0.33473 0.13025 -0.23933
-0.16391 0.13025 0.23055
0.15264 0.13025 0.30132
0.21844 0.13025 0.05288
0.28319 0.13025 0.10933
0.11016 0.13025 0.18907
0.22017 0.13025 -0.09442
0.08186 0.13025 0.01811
0.31874 0.13025 0.26322
0.17142 0.13025 -0.13977
0.29573 0.13025 0.25419
0.08281 0.13025 -0.07521
0.05457 0.13025 0.04919
0.16309 0.13025 -0.00859
0.27429 0.13025 0.24639
0.06515 0.13025 0.07355
0.07846 0.13025 0.04087
0.04832 0.13025 -0.04131
0.25334 0.13025 0.15039
0.17250 0.13025 0.12337
0.15576 0.13025 0.07529
0.07765 0.13025 0.26012
0.08509 0.13025 -0.06943
-0.04472 0.13025 0.30069
-0.03236 0.13025 0.06706
-0.11349 0.13025 0.30109
0.10812 0.13025 0.07140
-0.02180 0.13025 0.21627
-0.15261 0.13025 0.26857
0.27839 0.13025 -0.20196
0.27880 0.13025 0.27271
0.30890 0.13025 0.26413
0.04516 0.13025 0.04050
0.16206 0.13025 -0.09940
0.12696 0.13025 0.05662
0.19393 0.13025 0.00794
0.30338 0.13025 0.12622
0.07904 0.13025 -0.03591
0.22617 0.13025 0.08779
0.06973 0.13025 0.10719
0.22649 0.13025 0.11303
0.28521 0.13025 -0.09555
0.22458 0.13025 0.23153
-0.04454 0.13025 0.12843
-0.10998 0.13025 0.11553
0.19334 0.13025 0.04991
0.18305 0.13025 0.29071
0.10504 0.13025 0.07851
-0.20612 0.13025 0.29967
0.28353 0.13025 -0.11637
0.19246 0.13025 -0.16848
0.33218 0.13025 0.00730
0.11968 0.13025 -0.01874
0.17732 0.13025 0.29308
0.28120 0.13025 -0.12622
-0.25750 0.12863 0.33942
0.14014 -0.09883 -0.23577
-0.23973 0.08191 0.13905
-0.23906 -0.10257 -0.15047
-0.17393 -0.12670 0.23790
-0.04544 0.11961 0.33904
0.33763 0.12975 -0.22923
0.34061 0.12143 -0.11998
-0.01127 -0.00938 0.23855
-0.23344 -0.10900 0.23968
-0.23461 0.12785 -0.34009
0.22200 0.13025 0.31666
0.32167 0.13025 0.31715
0.20067 0.13025 0.31320
0.17577 0.11828 0.28096
-0.30213 0.11828 0.06901
-0.26247 0.11828 0.21795
0.04156 0.11828 0.27905
0.08115 0.11828 0.22100
-0.24039 0.11828 0.16836
0.15412 0.11828 0.27713
-0.05265 0.11828 0.19966
-0.19455 0.11828 0.27677
-0.06930 0.11828 0.25888
-0.03972 0.11828 0.29113
-0.21673 0.11828 0.13965
0.20847 0.11828 0.27929
0.04036 0.11828 0.23250
0.10949 0.11828 0.26237
-0.13905 0.11828 0.25967
0.01346 0.11828 0.18627
0.16979 0.11828 0.28194
-0.19909 0.11828 0.24835
-0.16321 0.11828 0.26221
-0.05330 0.11828 0.25950
-0.23355 0.11828 0.09496
0.11299 0.11828 0.27369
-0.20039 0.11828 0.12761
-0.08496 0.11828 0.15252
-0.30815 0.11828 0.20028
-0.27800 0.11828 0.20675
-0.10953 0.11828 0.20230
-0.26336 0.11828 0.13931
-0.22449 0.11828 0.16623
-0.22953 0.11828 0.15183
-0.15523 0.11828 0.12135
-0.11542 0.11828 0.17685
-0.07720 0.11828 0.24223
-0.04019 0.11828 0.19865
-0.20711 0.11828 0.30607
-0.08843 0.11828 0.28777
-0.08187 0.11828 0.21879
-0.12787 0.11828 0.14109
-0.12635 0.11828 0.28374
-0.01156 0.11828 0.20396
0.04902 0.11828 0.23469
-0.21297 0.11828 0.20324
-0.30925 0.11828 0.15776
-0.21102 0.11828 0.23247
-0.16817 0.11828 0.23383
-0.23104 0.11828 0.27443
0.09180 0.11828 0.28520
-0.20983 0.11828 0.12643
-0.21117 0.11828 0.11031
-0.23113 0.11828 0.23035
-0.31682 0.11828 0.17793
-0.19956 0.11828 0.10436
-0.11705 0.11828 0.13725
0.07294 0.11828 0.22142
-0.33222 0.11828 0.06734
0.08906 0.11828 0.29185
-0.15050 0.11828 0.17101
-0.00496 0.11828 0.25302
-0.16273 0.11828 0.27969
-0.11953 0.11828 0.29968
-0.23829 0.11828 0.12558
-0.24942 0.11828 0.24307
-0.00997 0.11828 0.23973
-0.15054 0.11828 0.15148
-0.18132 0.11828 0.27232
0.03227 0.11828 0.25284
0.02338 0.11828 0.29401
-0.07629 0.11828 0.19664
-0.11189 0.11828 0.21172
-0.10469 0.11828 0.24725
-0.12086 0.11828 0.19870
-0.22096 0.11828 0.17093
-0.25777 0.11828 0.12518
-0.08912 0.11828 0.21454
-0.24893 0.11828 0.14629
0.12030 0.11828 0.24551
-0.21105 0.11828 0.30698
-0.21070 0.11828 0.13542
-0.03271 0.11828 0.29435
-0.23845 0.11828 0.22944
-0.11932 0.11828 0.14187
-0.16163 0.11828 0.14144
-0.22287 0.11828 0.30539
-0.32067 0.11828 0.16796
0.12774 0.11828 0.27325
0.14402 0.11828 0.29641
-0.27562 0.11828 0.08168
0.02858 0.11828 0.24147
0.22392 0.11828 0.29902
0.02651 0.11828 0.25378
-0.00958 0.11828 0.29471
-0.33148 0.11828 0.15251
-0.02309 0.11828 0.23731
-0.20465 0.11828 0.13708
-0.25955 0.11828 0.08267
-0.12122 0.11828 0.30872
-0.15425 0.11828 0.24765
-0.30043 0.11828 0.17875
0.07759 0.11828 0.22614
0.05388 0.11828 0.29937
-0.04815 0.11828 0.17570
-0.19403 0.11828 0.26416
0.02592 0.11828 0.20873
-0.24148 0.11828 0.12887
-0.13950 0.11828 0.13304
0.31630 0.11828 0.30398
-0.29850 0.11828 0.26187
-0.26421 0.11828 0.21177
-0.11029 0.11828 0.16198
-0.33131 0.11828 0.12526
0.04571 0.11828 0.30493
0.08688 0.11828 0.22668
-0.21906 0.11828 0.12583
-0.27870 0.11828 0.10309
0.02106 0.11828 0.20030
-0.13432 0.11828 0.15793
0.00513 0.11828 0.26396
-0.07620 0.11828 0.17710
0.23748 0.11828 0.28571
-0.15233 0.11828 0.19261
-0.34053 0.12727 -0.21606
0.30861 0.12589 -0.34111
0.09655 0.12365 0.34126
0.33830 0.12947 0.08294
-0.24255 0.11571 0.18749
0.33943 0.12862 0.15286
-0.33862 0.11929 0.30829
0.28519 0.12201 0.34085
-0.23629 -0.04019 -0.23723
0.04584 0.12225 -0.34095
-0.26316 0.11841 -0.33636
0.17307 0.11828 0.33089
0.27945 0.11828 0.33173
-0.33849 0.12934 0.17791
0.29524 0.11828 0.32713
0.17487 0.11828 0.32687
-0.24338 0.04986 0.08599
0.06320 0.12975 0.33763
0.09975 0.11828 -0.31799
-0.19444 0.11828 -0.31881
0.11039 0.11828 -0.31876
-0.15282 0.11829 0.33543
0.24321 -0.10386 0.23030
-0.14877 0.11828 -0.32789
-0.34006 0.12158 -0.31639
0.33893 0.11952 0.12715
-0.14308 0.09411 -0.23868
0.01492 -0.00115 0.23858
0.11316 -0.07977 -0.23617
-0.15676 -0.10732 0.23766
-0.11484 0.11828 0.33311
0.14102 0.11828 0.33509
-0.34005 0.12790 -0.11398
-0.23974 0.08926 0.22846
-0.26594 0.13025 -0.32340
0.25569 0.13025 -0.32433
0.23662 0.13025 -0.32500
0.22617 -0.10622 -0.23764
-0.24352 0.11142 0.17991
-0.23748 -0.06821 -0.08596
-0.02650 0.13025 -0.31913
0.21912 0.13025 -0.31892
0.10540 0.13025 -0.31786
-0.23567 0.03678 0.23856
0.34071 0.12686 -0.15845
0.34123 0.12514 0.29224
0.12652 -0.09552 -0.24143
0.27593 0.11898 0.33813
0.00525 0.13025 0.33080
0.24355 0.13025 0.33125
-0.24288 0.09531 0.14795
-0.23584 0.03835 0.06423
-0.24316 0.04256 0.07018
0.29287 0.11828 -0.32180
-0.02275 0.11828 -0.32234
0.23934 0.08682 -0.23883
0.33620 0.13014 -0.20105
-0.10926 -0.08450 0.23996
0.32069 0.12936 -0.33663
-0.11079 0.11828 0.33251
-0.06866 0.03976 -0.24353
-0.34096 0.12227 -0.09890
0.15949 0.10365 0.23614
0.00749 -0.01218 -0.24349
0.24547 0.11952 -0.33893
0.24352 0.03209 -0.05692
0.03733 0.12946 -0.33832
-0.17405 0.10740 -0.23632
0.09751 0.12782 0.34011
-0.26244 0.12721 -0.34057
-0.24276 0.02847 0.23718
-0.27600 0.11828 -0.31484
0.04633 0.11828 -0.31335
0.07107 0.11828 -0.31182
0.24052 -0.12031 0.22187
0.32987 0.12768 -0.33330
0.24274 -0.10744 0.22663
0.01741 -0.02197 -0.24196
0.23978 -0.01109 0.24353
0.07378 0.04542 0.23611
-0.33644 0.13011 -0.06119
0.22451 0.10392 0.23669
-0.02592 -0.02596 0.24313
-0.29259 0.13025 -0.31730
-0.17819 0.13025 -0.31297
0.01074 0.13025 -0.31624
-0.01471 0.00768 -0.23777
0.05651 0.12166 0.34070
-0.23824 -0.10990 -0.14751
-0.24110 0.10957 0.19236
0.33705 0.11854 0.12191
-0.05001 0.02565 -0.23572
0.07779 0.04587 0.23555
0.13088 0.07793 0.23665
-0.24316 -0.01617 -0.01141
0.11441 0.07051 0.24352
-0.23556 0.05428 0.23977
0.24319 0.03654 -0.24115
0.04918 0.12809 0.33990
0.09255 0.11828 -0.32014
0.13975 0.11828 -0.32268
0.29723 0.11828 -0.31939
0.24319 -0.07045 0.09253
-0.27189 0.11828 -0.26139
-0.03064 0.11828 -0.23878
-0.16949 0.11828 -0.09521
-0.17344 0.11828 -0.29214
-0.02946 0.11828 -0.30127
-0.29223 0.11828 -0.08116
-0.21913 0.11828 -0.28774
-0.15547 0.11828 -0.25867
0.03450 0.11828 -0.20463
-0.19377 0.11828 -0.08363
-0.01325 0.11828 -0.28415
-0.17621 0.11828 -0.24300
-0.11796 0.11828 -0.14704
-0.22530 0.11828 -0.17475
-0.22516 0.11828 -0.07318
-0.22323 0.11828 -0.12197
-0.28999 0.11828 -0.05534
-0.02934 0.11828 -0.16382
-0.20566 0.11828 -0.17905
0.11322 0.11828 -0.27794
-0.18579 0.11828 -0.25772
-0.10126 0.11828 -0.27318
-0.24334 0.11828 -0.27607
0.19257 0.11828 -0.27126
-0.08440 0.11828 -0.15173
-0.18858 0.11828 -0.16741
-0.31659 0.11828 -0.16911
-0.23891 0.11828 -0.05949
-0.26823 0.11828 -0.08921
-0.17570 0.11828 -0.08876
-0.10072 0.11828 -0.30220
0.30022 0.11828 -0.30998
0.07627 0.11828 -0.19011
-0.29508 0.11828 -0.27924
-0.09143 0.11828 -0.25584
-0.04714 0.11828 -0.16743
0.01056 0.11828 -0.31027
0.03448 0.11828 -0.24690
-0.18633 0.11828 -0.07760
-0.06696 0.11828 -0.20612
0.18211 0.11828 -0.24605
-0.25795 0.11828 -0.30202
0.22903 0.11828 -0.30856
-0.16830 0.11828 -0.24529
0.03713 0.11828 -0.21083
0.21538 0.11828 -0.28375
-0.01625 0.11828 -0.13101
-0.06237 0.11828 -0.18454
-0.32253 0.11828 -0.11148
-0.26299 0.11828 -0.13376
0.16417 0.11828 -0.22232
-0.19299 0.11828 -0.16935
-0.05862 0.11828 -0.11109
-0.02831 0.11828 -0.26881
0.03035 0.11828 -0.24160
0.03188 0.11828 -0.30381
-0.08968 0.11828 -0.28597
-0.32425 0.11828 0.00566
-0.00962 0.11828 -0.15258
-0.32139 0.11828 -0.09322
0.11249 0.11828 -0.26521
-0.23772 0.11828 -0.15799
-0.23693 0.11828 -0.30312
-0.08029 0.11828 -0.16000
-0.00173 0.11828 -0.30505
-0.29853 0.11828 -0.10354
-0.09864 0.11828 -0.28785
-0.31263 0.11828 -0.12822
-0.31017 0.11828 -0.09620
-0.00276 0.11828 -0.18228
-0.24415 0.11828 -0.24512
-0.11238 0.11828 -0.16560
0.10670 0.11828 -0.30126
0.21563 0.11828 -0.29919
0.26195 0.11828 -0.28897
-0.31433 0.11828 -0.23993
0.07828 0.11828 -0.26182
-0.28399 0.11828 -0.24702
-0.10313 0.11828 -0.20778
0.02742 0.11828 -0.28641
0.01650 0.11828 -0.27420
-0.23672 0.11828 -0.29289
0.11844 0.11828 -0.26588
0.05886 0.11828 -0.29465
-0.23150 0.11828 -0.04905
-0.26460 0.11828 -0.21831
0.15274 0.11828 -0.21785
-0.06937 0.11828 -0.13975
-0.30734 0.11828 -0.11870
-0.30510 0.11828 -0.23663
-0.19631 0.11828 -0.26555
-0.28766 0.11828 -0.30184
-0.10956 0.11828 -0.10040
0.23875 0.11828 -0.28255
-0.27576 0.11828 -0.15789
-0.30614 0.11828 -0.30132
-0.01425 0.11828 -0.23083
-0.13033 0.11828 -0.23238
-0.11608 0.11828 -0.21669
-0.21838 0.11828 -0.16539
0.04959 0.11828 -0.25987
-0.05193 0.11828 -0.23872
-0.15868 0.11828 -0.18710
-0.05137 0.11828 -0.20432
-0.18206 0.11828 -0.23886
0.08303 0.11828 -0.26501
-0.32214 0.11828 -0.03110
0.01297 0.11828 -0.29998
-0.23244 0.11828 -0.26443
-0.14836 0.11828 -0.13014
-0.30973 0.11828 -0.29407
-0.19348 0.11828 -0.20480
-0.00020 0.11828 -0.25248
-0.17615 0.11828 -0.15032
-0.18282 0.11828 -0.19387
0.11845 0.11828 -0.23572
-0.22766 0.11828 -0.19187
-0.07523 0.11828 -0.16951
-0.20646 0.11828 -0.17013
-0.17757 0.11828 -0.23117
-0.21398 0.11828 -0.11059
0.02757 0.11828 -0.26987
0.29096 0.11828 -0.30245
0.08446 0.11828 -0.27355
-0.19200 0.11828 -0.03612
-0.21455 0.11828 -0.13040
-0.20893 0.11828 -0.20873
-0.15338 0.11828 -0.06448
-0.33526 0.11828 -0.23573
-0.23512 0.11828 -0.03278
0.03957 0.11828 -0.16547
-0.29258 0.11828 -0.23086
-0.04574 0.11828 -0.11596
-0.17479 0.11828 -0.21891
-0.26219 0.11828 -0.30985
-0.32143 0.11828 -0.05775
0.10962 0.11828 -0.24299
-0.30054 0.11828 -0.00154
0.12859 0.11828 -0.29797
-0.07489 0.11828 -0.17395
-0.11032 0.11828 -0.21566
-0.09286 0.11828 -0.24930
-0.30593 0.11828 -0.15976
0.01529 0.11828 -0.17715
-0.13915 0.11828 -0.11416
-0.32694 0.11828 -0.25530
-0.26046 0.11828 -0.21421
-0.30627 0.11828 -0.25405
-0.06381 0.11828 -0.12088
0.18508 0.11828 -0.26875
0.01717 0.11828 -0.21788
-0.11950 0.11828 -0.26541
-0.14588 0.11828 -0.10895
-0.17474 0.11828 -0.23809
-0.23559 0.11828 -0.01201
-0.04514 0.11828 -0.21643
-0.20850 0.11828 -0.13337
0.13543 0.11828 -0.22014
-0.29153 0.11828 0.01194
-0.26410 0.11828 -0.10072
-0.14365 0.11828 -0.26008
-0.28289 0.11828 -0.06238
0.02325 0.11828 -0.26305
0.10689 0.11828 -0.20295
-0.27716 0.11828 -0.09935
-0.10057 0.11828 -0.21655
-0.07222 0.11828 -0.22719
-0.33454 0.11828 -0.00506
-0.11385 0.11828 -0.22560
0.09494 0.11828 -0.21349
-0.11045 0.11828 -0.17693
0.07846 0.11828 -0.19754
-0.23593 -0.05948 -0.08210
-0.34007 0.12066 -0.23068
-0.23817 0.04457 0.06944
0.20724 0.11054 0.24353
-0.23842 0.02621 0.05565
0.30471 0.13025 0.33093
0.28859 0.13025 0.33073
0.23992 -0.00469 0.24351
-0.19481 0.11962 -0.33906
0.23793 -0.10843 0.22402
-0.20905 0.10758 -0.24284
0.23627 0.00255 -0.00936
-0.22688 0.11828 -0.31814
-0.18485 0.11828 -0.32104
-0.17354 -0.12267 0.23555
0.23559 0.10654 -0.16617
0.01014 0.11828 0.32673
-0.34087 0.12207 0.17512
-0.04405 0.02618 -0.24256
0.24077 -0.04236 0.24334
-0.10513 0.13025 -0.33492
0.24162 -0.03015 0.02920
-0.24155 0.11126 0.21460
0.11016 0.13025 -0.33088
0.23626 0.04328 -0.07834
-0.29853 0.13025 -0.12736
-0.26022 0.13025 -0.00863
0.18828 0.13025 -0.25816
-0.25125 0.13025 -0.23668
-0.30545 0.13025 -0.24203
-0.07935 0.13025 -0.15952
-0.17855 0.13025 -0.07851
0.18370 0.13025 -0.30363
-0.29747 0.13025 -0.02150
-0.26970 0.13025 -0.03543
-0.32430 0.13025 -0.09408
-0.28006 0.13025 -0.30155
-0.27422 0.13025 -0.17633
-0.27341 0.13025 -0.15304
-0.05325 0.13025 -0.19624
-0.29550 0.13025 -0.21962
-0.05853 0.13025 -0.11584
-0.33487 0.13025 -0.27053
0.10730 0.13025 -0.24581
-0.04186 0.13025 -0.18768
0.00162 0.13025 -0.25655
0.09390 0.13025 -0.20153
0.26062 0.13025 -0.27961
-0.06502 0.13025 -0.18776
0.15688 0.13025 -0.29031
-0.30728 0.13025 -0.22169
-0.02026 0.13025 -0.30903
-0.19448 0.13025 -0.14989
-0.32974 0.13025 0.03665
-0.28963 0.13025 0.02043
-0.08839 0.13025 -0.27748
-0.14314 0.13025 -0.15918
-0.03864 0.13025 -0.19260
-0.09492 0.13025 -0.24651
0.06028 0.13025 -0.25314
-0.29664 0.13025 -0.23750
-0.30183 0.13025 -0.30189
-0.10386 0.13025 -0.23438
-0.30438 0.13025 -0.18257
-0.25613 0.13025 -0.12952
-0.22400 0.13025 -0.23072
0.02177 0.13025 -0.17914
-0.15839 0.13025 -0.28059
-0.18949 0.13025 -0.28004
-0.28335 0.13025 -0.07260
0.23434 0.13025 -0.30450
0.26237 0.13025 -0.29941
-0.25326 0.13025 -0.16514
-0.01388 0.13025 -0.24597
0.09241 0.13025 -0.23349
0.03829 0.13025 -0.15801
-0.15489 0.13025 -0.23311
-0.05372 0.13025 -0.12242
-0.08696 0.13025 -0.14875
-0.08838 0.13025 -0.23298
-0.05118 0.13025 -0.18199
-0.24225 0.13025 -0.30223
-0.17287 0.13025 -0.04409
-0.30787 0.13025 -0.05257
-0.30189 0.13025 -0.15346
0.13300 0.13025 -0.29864
-0.00738 0.13025 -0.18795
0.03365 0.13025 -0.22454
-0.23921 0.13025 -0.24935
-0.33494 0.13025 -0.03254
-0.31853 0.13025 -0.30339
-0.25982 0.13025 -0.23982
-0.21200 0.13025 -0.18765
-0.18333 0.13025 -0.10328
-0.32209 0.13025 -0.05662
0.02845 0.13025 -0.17089
-0.33387 0.13025 -0.13445
0.23048 0.13025 -0.29042
-0.03642 0.13025 -0.18258
-0.26029 0.13025 -0.17203
-0.15426 0.13025 -0.28843
-0.06649 0.13025 -0.13191
-0.32626 0.13025 -0.25365
-0.31870 0.13025 -0.07601
-0.09723 0.13025 -0.20915
-0.11266 0.13025 -0.28469
0.01671 0.13025 -0.25115
-0.24092 0.13025 -0.08694
0.06280 0.13025 -0.29342
-0.17586 0.13025 -0.19037
-0.21493 0.13025 -0.26433
-0.26234 0.13025 -0.02451
0.09180 0.13025 -0.26648
0.20679 0.13025 -0.24748
-0.33070 0.13025 0.01667
0.05988 0.13025 -0.23425
0.01269 0.13025 -0.14752
-0.10371 0.13025 -0.19822
-0.29380 0.13025 -0.02763
0.24041 0.13025 -0.30741
-0.21889 0.13025 -0.20998
-0.24794 0.13025 -0.22812
0.07724 0.13025 -0.17943
-0.30368 0.13025 -0.04311
-0.16698 0.13025 -0.12619
-0.06471 0.13025 -0.20079
0.01855 0.13025 -0.24049
-0.05882 0.13025 -0.29710
0.28192 0.13025 -0.30401
-0.12380 0.13025 -0.28549
-0.32355 0.13025 -0.04884
-0.30923 0.13025 -0.02190
-0.23891 0.13025 -0.18563
-0.29047 0.13025 -0.18761
0.04053 0.13025 -0.24262
-0.10774 0.13025 -0.17944
-0.14669 0.13025 -0.19607
0.03964 0.13025 -0.27040
-0.18178 0.13025 -0.12445
-0.08129 0.13025 -0.26728
-0.14821 0.13025 -0.09302
-0.28132 0.13025 -0.28850
-0.23547 0.13025 -0.17918
-0.13627 0.13025 -0.28507
-0.24439 0.13025 -0.19690
0.10861 0.13025 -0.27138
0.14430 0.13025 -0.22624
-0.31696 0.13025 -0.01448
-0.06425 0.13025 -0.21486
-0.14949 0.13025 -0.29306
0.10368 0.13025 -0.27003
-0.33041 0.13025 -0.27583
0.00562 0.13025 -0.22189
-0.23020 0.13025 -0.18658
-0.16962 0.13025 -0.24910
-0.02803 0.13025 -0.24341
0.25134 0.13025 -0.29065
-0.06636 0.13025 -0.29990
-0.28296 0.13025 -0.23440
-0.32961 0.13025 0.02199
-0.20393 0.13025 -0.19300
-0.28452 0.13025 -0.11762
-0.09686 0.13025 -0.22723
0.08328 0.13025 -0.30601
-0.03301 0.13025 -0.13169
-0.25781 0.13025 -0.22536
0.07800 0.13025 -0.18887
-0.13597 0.13025 -0.26585
0.17901 0.13025 -0.25993
-0.21817 0.13025 -0.02418
-0.11341 0.13025 -0.30447
0.15784 0.13025 -0.22524
0.22081 0.13025 -0.30865
0.10818 0.13025 -0.30985
-0.28905 0.13025 -0.06469
-0.08532 0.13025 -0.30101
-0.17756 0.13025 -0.13166
-0.07090 0.13025 -0.13937
-0.29818 0.13025 -0.16338
-0.16742 0.13025 -0.22173
-0.25810 0.13025 -0.29269
-0.25589 0.13025 -0.02739
-0.09204 0.13025 -0.19997
-0.32943 0.13025 -0.05981
-0.29473 0.13025 -0.29640
0.01868 0.13025 -0.20435
-0.07006 0.13025 -0.23618
-0.03181 0.11828 -0.33353
-0.23697 -0.05753 0.23649
0.06094 -0.05146 -0.23750
-0.27834 0.11828 0.31099
-0.10918 0.11828 0.17628
-0.27140 0.11828 0.25040
-0.32474 0.11828 0.14839
-0.01290 0.11828 0.17763
-0.11573 0.11828 0.29404
0.01804 0.11828 0.25558
-0.18393 0.11828 0.13597
0.03252 0.11828 0.21679
-0.13808 0.11828 0.20439
-0.22948 0.11828 0.30249
-0.25034 0.11828 0.18804
-0.19193 0.11828 0.28885
-0.28829 0.11828 0.09630
-0.29391 0.11828 0.08291
-0.05834 0.11828 0.24371
-0.14485 0.11828 0.12424
-0.14211 0.11828 0.17229
-0.26598 0.11828 0.23139
-0.14995 0.11828 0.12297
-0.24854 0.11828 0.08416
-0.12969 0.11828 0.30121
-0.04591 0.11828 0.26291
0.18347 0.11828 0.30576
-0.13346 0.11828 0.15171
-0.33281 0.11828 0.11189
0.05282 0.11828 0.26099
-0.18372 0.11828 0.12943
-0.14216 0.11828 0.27572
-0.30141 0.11828 0.14667
0.14899 0.11828 0.29988
0.15140 0.11828 0.30909
-0.08709 0.11828 0.27379
-0.31652 0.11828 0.29022
-0.29892 0.11828 0.10064
-0.25901 0.11828 0.08970
-0.17246 0.11828 0.20242
0.01481 0.11828 0.20050
-0.31951 0.11828 0.12286
-0.14743 0.11828 0.16018
-0.18349 0.11828 0.30099
-0.33340 0.11828 0.10520
0.22634 0.11828 0.28327
-0.08529 0.11828 0.14723
-0.00063 0.11828 0.21613
-0.21083 0.11828 0.25249
-0.12676 0.11828 0.18334
-0.26704 0.11828 0.23655
-0.30653 0.11828 0.07551
-0.03753 0.11828 0.27781
0.15292 0.11828 0.28618
-0.07390 0.11828 0.29610
0.09152 0.11828 0.23650
-0.22774 0.11828 0.29244
-0.09991 0.11828 0.26102
-0.12739 0.11828 0.16793
-0.08764 0.11828 0.29430
-0.22803 0.11828 0.14040
-0.04809 0.11828 0.16599
0.05541 0.11828 0.24870
-0.21433 0.11828 0.15520
-0.01297 0.11828 0.19395
-0.31416 0.11828 0.16195
-0.17208 0.11828 0.15073
-0.19986 0.11828 0.16956
-0.02835 0.11828 0.28441
0.01117 0.11828 0.28790
-0.19318 0.11828 0.11262
0.01660 0.11828 0.27407
-0.29349 0.11828 0.26129
0.23333 0.11828 0.27253
-0.27946 0.11828 0.15808
-0.09528 0.11828 0.28150
-0.05994 0.11828 0.26968
-0.30529 0.11828 0.06046
-0.00336 0.11828 0.23503
-0.25027 0.11828 0.24772
-0.26627 0.11828 0.16196
0.12199 0.11828 0.22854
-0.07415 0.11828 0.27467
-0.25452 0.11828 0.29935
0.00864 0.11828 0.28456
-0.18685 0.11828 0.30607
0.12925 0.11828 0.23375
0.11421 0.11828 0.23470
-0.17720 0.11828 0.13048
0.25558 0.11828 0.29700
0.02114 0.11828 0.30998
-0.11169 0.11828 0.15817
0.10070 0.11828 0.26008
-0.27137 0.11828 0.25656
-0.17093 0.11828 0.18634
-0.09919 0.11828 0.16465
-0.22729 0.11828 0.11292
-0.22167 0.11828 0.19286
-0.30577 0.11828 0.26987
-0.05303 0.11828 0.30452
-0.17732 0.11828 0.24921
-0.30486 0.11828 0.30100
-0.08459 0.11828 0.30098
-0.01945 0.11828 0.28973
-0.33314 0.11828 0.29945
0.00574 0.11828 0.30812
0.04146 0.11828 0.30028
0.06455 0.11828 0.30742
-0.23261 0.11828 0.26842
0.00363 0.11828 0.27831
0.06057 0.11828 0.25567
-0.25238 0.11828 0.21118
-0.28391 0.11828 0.13283
-0.28010 0.11828 0.23411
-0.00192 0.11828 0.19455
0.03422 0.11828 0.29730
-0.32898 0.11828 0.17963
-0.26633 0.11828 0.11618
-0.30165 0.11828 0.22859
-0.28290 0.11828 0.22374
0.16532 0.11828 -0.33508
0.00716 0.11828 -0.28916
-0.32386 0.11828 -0.07362
-0.30438 0.11828 -0.24315
-0.33176 0.11828 -0.06026
0.03357 0.11828 -0.18557
-0.26275 0.11828 -0.12642
-0.28972 0.11828 -0.00520
-0.10111 0.11828 -0.17288
-0.29722 0.11828 0.00236
-0.23775 0.11828 -0.19771
-0.22891 0.11828 -0.09251
-0.10451 0.11828 -0.25986
-0.16934 0.11828 -0.04704
0.22440 0.11828 -0.25283
-0.25765 0.11828 -0.12854
-0.28602 0.11828 -0.11463
-0.01451 0.11828 -0.27188
-0.33069 0.11828 -0.08769
-0.20186 0.11828 -0.16170
-0.00828 0.11828 -0.13977
-0.03115 0.11828 -0.21686
0.08676 0.11828 -0.18438
0.07079 0.11828 -0.20511
-0.08853 0.11828 -0.16036
-0.15104 0.11828 -0.05691
-0.26016 0.11828 -0.20292
0.22213 0.11828 -0.25918
-0.30127 0.11828 0.00529
-0.22282 0.11828 -0.15570
-0.30441 0.11828 -0.27859
-0.05410 0.11828 -0.12614
-0.13159 0.11828 -0.18429
-0.11757 0.11828 -0.22392
-0.18291 0.11828 -0.06853
-0.09395 0.11828 -0.29521
-0.05950 0.11828 -0.27438
-0.17181 0.11828 -0.28400
-0.07471 0.11828 -0.14283
-0.29186 0.11828 -0.27044
0.15936 0.11828 -0.29848
-0.28602 0.11828 -0.08290
-0.06676 0.11828 -0.21915
-0.02474 0.11828 -0.14829
-0.28424 0.11828 -0.04666
-0.27094 0.11828 -0.26711
-0.26306 0.11828 -0.17993
-0.28745 0.11828 -0.02965
-0.18191 0.11828 -0.18382
0.18456 0.11828 -0.28292
-0.25271 0.11828 -0.23644
-0.24872 0.11828 -0.09750
-0.08953 0.11828 -0.11868
0.09685 0.11828 -0.20058
-0.20406 0.11828 -0.28092
-0.11950 0.11828 -0.11076
0.00384 0.11828 -0.21309
-0.05893 0.11828 -0.23334
-0.04101 0.11828 -0.14854
0.07800 0.11828 -0.27311
0.01969 0.11828 -0.17124
0.10545 0.11828 -0.21305
-0.25016 0.11828 -0.24906
-0.28684 0.11828 -0.26532
0.29799 0.11828 -0.30190
0.15501 0.11828 -0.30882
0.19066 0.11828 -0.28821
-0.31979 0.11828 0.00988
0.08875 0.11828 -0.22525
-0.26747 0.11828 -0.02135
-0.28846 0.11828 -0.05929
0.10690 0.11828 -0.28528
0.05126 0.11828 -0.18265
0.06434 0.11828 -0.30098
0.00745 0.11828 -0.18304
-0.00109 0.11828 -0.13416
-0.00621 0.11828 -0.22980
-0.12006 0.11828 -0.07332
-0.06080 0.11828 -0.20632
-0.18706 0.11828 -0.22564
-0.16715 0.11828 -0.17434
0.07015 0.11828 -0.28478
-0.07409 0.11828 -0.21639
-0.03631 0.11828 -0.19245
0.02611 0.11828 -0.18360
-0.27309 0.11828 -0.30362
-0.02263 0.11828 -0.16083
0.02295 0.11828 -0.17757
0.10494 0.11828 -0.29328
-0.23312 0.11828 -0.15398
-0.00958 0.11828 -0.27236
-0.21233 0.11828 -0.25400
-0.11872 0.11828 -0.22955
-0.30254 0.11828 -0.29254
0.13809 0.11828 -0.27495
-0.21031 0.11828 -0.24049
-0.10340 0.11828 -0.18898
-0.33018 0.11828 0.00501
-0.21203 0.11828 -0.15794
-0.07263 0.11828 -0.13382
0.06588 0.11828 -0.30530
-0.01794 0.11828 -0.18839
0.06906 0.11828 -0.29330
-0.30385 0.11828 -0.01945
-0.19724 0.11828 -0.16022
-0.24149 0.11828 -0.07425
0.14685 0.11828 -0.25261
-0.05416 0.11828 -0.28877
-0.13946 0.11828 -0.24877
-0.33139 0.11828 -0.16602
-0.32583 0.11828 -0.24220
-0.31882 0.11828 -0.23477
0.07202 0.11828 -0.27790
-0.31454 0.11828 -0.06152
-0.08114 0.11828 -0.14627
-0.30537 0.11828 0.02354
-0.13180 0.11828 -0.13403
0.13845 0.11828 -0.22761
0.27194 0.11828 -0.29874
-0.09801 0.11828 -0.21274
-0.26975 0.11828 -0.21003
-0.25321 0.11828 -0.18243
-0.10804 0.11828 -0.31106
-0.27331 0.11828 -0.09519
0.10974 0.11828 -0.22796
-0.09424 0.11828 -0.08990
-0.11899 0.11828 -0.16109
-0.07471 0.11828 -0.29903
-0.30284 0.11828 -0.03784
0.14170 0.11828 -0.24637
0.03115 0.11828 -0.22557
-0.09141 0.11828 -0.27404
-0.24206 0.11828 -0.00630
-0.22128 0.11828 -0.04858
-0.10128 0.11828 -0.20026
-0.24561 0.11828 -0.09116
0.06992 0.11828 -0.24027
-0.01219 0.11828 -0.30458
0.05337 0.11828 -0.25156
-0.06223 0.11828 -0.22934
-0.32329 0.11828 0.03840
-0.22821 0.11828 -0.30579
0.25884 0.11828 -0.27670
-0.05962 0.11828 -0.30575
-0.26717 0.11828 -0.18921
0.15311 0.11828 -0.24093
-0.21781 0.11828 -0.30053
0.21168 0.11828 -0.25274
-0.12335 0.11828 -0.19087
-0.18949 0.11828 -0.19359
-0.21102 0.11828 -0.12540
-0.19010 0.11828 -0.12223
0.21293 0.11828 -0.30423
0.23882 0.11828 -0.26935
-0.11537 0.11828 -0.17010
-0.33273 0.11828 -0.22298
0.19595 0.11828 -0.27547
-0.14497 0.11828 -0.16143
-0.33137 0.11828 -0.22848
-0.30585 0.11881 -0.33771
0.26336 0.12108 -0.34040
0.24273 0.11085 -0.19234
0.00457 0.12952 0.33819
-0.13312 0.13025 0.32929
-0.27060 0.13025 0.33047
-0.03094 0.13022 -0.33558
-0.31042 0.11846 0.33673
-0.24262 -0.07541 -0.09829
0.33998 0.12054 0.22473
-0.23705 0.09851 0.22168
0.33620 0.11839 -0.30264
-0.26313 0.12932 0.33853
-0.13724 0.11843 0.33651
0.24008 -0.01859 0.01095
-0.33699 0.13002 0.00592
0.33978 0.12028 0.30378
0.12131 -0.08552 -0.23603
0.06637 0.04104 0.23645
0.20885 0.13025 0.32471
0.24952 0.13025 0.32755
0.22557 0.13025 0.32653
0.12737 -0.08990 -0.23590
-0.22018 -0.11517 0.23576
-0.10259 0.11879 -0.33764
0.34115 0.12277 -0.27743
-0.33719 0.11860 -0.27550
0.21817 0.10989 0.23994
0.20800 0.11195 0.23585
-0.19493 0.12332 -0.34122
-0.18778 0.11828 -0.33201
0.28362 0.11828 -0.33160
-0.12374 0.11828 -0.33496
0.05962 0.13025 -0.33025
0.31356 0.12651 0.34062
-0.24210 -0.02761 -0.02602
0.30304 0.11850 0.33695
0.24152 -0.10493 0.23553
0.31183 0.11828 0.31165
0.33402 0.11828 0.31424
0.02765 0.11828 0.31320
0.22661 0.09747 0.23557
-0.24346 -0.04193 -0.05420
0.11584 0.11828 0.32349
-0.00374 0.11828 0.32453
0.21730 0.11828 0.32487
-0.33543 0.13024 -0.16354
-0.03734 -0.03401 0.24295
0.08475 -0.06791 -0.24063
-0.06371 0.12484 0.34127
-0.20042 0.11159 -0.23564
-0.23930 -0.07122 -0.08942
0.24496 0.13025 -0.33452
0.23760 -0.07035 -0.24303
0.14587 -0.10211 -0.24311
0.24265 -0.03097 0.24204
-0.16122 0.10472 -0.23601
-0.20070 0.11600 -0.24135
0.33870 0.11935 -0.29332
-0.11873 0.13025 0.32482
0.17074 0.13025 0.32361
-0.01738 0.11828 -0.11852
0.03930 0.11828 0.13663
0.17324 0.11828 -0.03622
0.22225 0.11828 0.03646
0.11889 0.11828 0.22433
0.19031 0.11828 -0.21115
0.02525 0.11828 0.01129
0.03829 0.11828 -0.15110
0.23084 0.11828 -0.16265
0.22019 0.11828 -0.11040
0.21613 0.11828 0.18826
-0.19830 0.11828 0.04870
0.13908 0.11828 -0.18126
-0.09463 0.11828 0.10673
0.24748 0.11828 -0.10523
-0.03632 0.11828 -0.08059
-0.08737 0.11828 0.01277
0.05700 0.11828 0.10644
0.23014 0.11828 -0.07624
0.00728 0.11828 -0.00187
0.04251 0.11828 0.00957
0.11568 0.11828 -0.15470
0.11729 0.11828 0.19451
0.31582 0.11828 0.19082
-0.19704 0.11828 0.07350
0.24635 0.11828 -0.09804
0.24357 0.11828 -0.23650
0.14787 0.11828 0.11150
0.27296 0.11828 0.24687
-0.18732 0.11828 0.10056
0.23888 0.11828 0.20997
0.27969 0.11828 -0.11475
0.05754 0.11828 0.11584
0.15180 0.11828 0.04195
-0.04061 0.11828 0.13116
0.13381 0.11828 0.16714
0.23220 0.11828 -0.12323
0.21607 0.11828 -0.16499
0.19390 0.11828 -0.13535
0.17645 0.11828 0.18903
0.27715 0.11828 -0.05057
0.18142 0.11828 -0.07312
0.12602 0.11828 0.18350
0.13053 0.11828 -0.10319
-0.23043 0.11828 -0.00635
0.25240 0.11828 0.24321
0.21318 0.11828 -0.02523
0.33531 0.11828 0.16554
0.15376 0.11828 -0.00828
0.29570 0.11828 -0.21230
0.19873 0.11828 -0.01339
-0.18409 0.11828 0.01862
-0.21122 0.11828 0.09364
0.12802 0.11828 -0.07050
0.14139 0.11828 0.05751
0.27869 0.11828 0.06469
0.01371 0.11828 0.15995
0.23940 0.11828 0.02127
0.26136 0.11828 0.26840
0.03598 0.11828 -0.12350
0.32140 0.11828 0.13348
-0.08434 0.11828 -0.01349
0.15868 0.11828 -0.17567
0.32123 0.11828 0.25062
0.16260 0.11828 0.11164
0.14630 0.11828 0.05078
0.04587 0.11828 0.10680
0.12003 0.11828 -0.18160
0.16210 0.11828 -0.02667
0.16954 0.11828 0.09220
0.21592 0.11828 0.06306
0.22324 0.11828 0.24904
-0.22342 0.11828 0.02042
0.28281 0.11828 0.02651
0.22698 0.11828 -0.01347
0.17214 0.11828 -0.19844
0.05633 0.11828 -0.05319
0.30009 0.11828 0.27631
0.29707 0.11828 0.11007
0.30452 0.11828 -0.08424
0.11718 0.11828 -0.16845
0.28839 0.11828 0.07297
-0.00524 0.11828 -0.05131
0.17184 0.11828 0.22376
0.02241 0.11828 0.06932
0.17457 0.11828 -0.06528
-0.05953 0.11828 0.13130
0.01650 0.11828 0.08998
0.01470 0.11828 0.11535
0.09908 0.11828 0.09638
0.27553 0.11828 0.20039
0.26689 0.11828 -0.22110
0.19193 0.11828 0.02075
0.08420 0.11828 -0.10543
0.19531 0.11828 0.22669
0.15045 0.11828 0.09893
0.27403 0.11828 0.04954
0.22464 0.11828 0.06363
0.31025 0.11828 -0.27058
0.15386 0.11828 0.17913
0.04892 0.11828 0.02656
-0.04776 0.11828 -0.01918
0.14500 0.11828 0.02709
0.07014 0.11828 -0.16257
-0.16233 0.11828 0.11543
0.08135 0.11828 -0.05182
0.11759 0.11828 -0.04505
-0.03460 0.11828 0.11378
-0.09482 0.11828 0.12845
-0.11310 0.11828 0.12369
0.18493 0.11828 -0.01612
0.08808 0.11828 -0.13104
0.20053 0.11828 -0.18920
-0.23386 0.11828 0.01850
0.27207 0.11828 0.07327
-0.01400 0.11828 -0.09977
0.29307 0.11828 -0.14574
-0.00236 0.11828 -0.12910
0.29127 0.11828 -0.06677
-0.11385 0.11828 0.11687
-0.05414 0.11828 -0.05325
0.13778 0.11828 -0.13784
-0.00393 0.11828 -0.11713
0.15597 0.11828 -0.12240
0.22415 0.11828 0.02256
0.11236 0.11828 0.13057
0.15380 0.11828 0.16313
0.08191 0.11828 0.15745
-0.01180 0.11828 -0.05509
0.13872 0.11828 0.05119
-0.00196 0.11828 -0.07180
0.24491 0.11828 0.00494
0.11373 0.11828 0.17358
-0.24594 0.11828 0.06202
0.24491 0.11828 -0.05061
0.24888 0.11828 0.20352
0.21851 0.11828 -0.18222
0.01289 0.11828 -0.11990
0.05167 0.11828 0.07502
-0.17234 0.11828 0.01793
0.23848 0.11828 0.24843
0.20319 0.11828 -0.12035
0.29960 0.11828 -0.20733
0.19549 0.11828 -0.14377
0.09712 0.11828 0.17932
0.13798 0.11828 0.20550
0.32007 0.11828 0.22298
0.13682 0.11828 -0.05340
0.32510 0.11828 0.16199
0.13677 0.11828 0.12409
-0.25945 0.11828 0.04430
0.10424 0.11828 0.20371
-0.07646 0.11828 -0.05584
0.25682 0.11828 0.22374
-0.03015 0.11828 0.04411
0.14509 0.11828 0.22375
0.23278 0.11828 0.07771
0.11289 0.11828 0.10695
0.30701 0.11828 -0.28803
0.05925 0.11828 0.02172
0.22809 0.11828 0.11327
0.33418 0.11828 -0.28316
0.27215 0.11828 -0.27561
0.06089 0.11828 0.16367
0.20460 0.11828 0.10433
0.29978 0.11828 -0.10980
0.11369 0.11828 -0.14876
-0.06031 0.11828 -0.01978
-0.02411 0.11828 0.12743
0.11361 0.11828 -0.18417
0.15580 0.11828 0.14461
0.21402 0.11828 0.14627
0.32413 0.11828 0.02853
0.22367 0.11828 -0.10192
0.23281 0.11828 -0.25524
0.26652 0.11828 0.10716
0.07868 0.11828 0.01249
0.01585 0.11828 0.06723
-0.20539 0.11828 0.07978
0.30754 0.11828 -0.19012
0.22652 0.11828 -0.23144
0.08135 0.11828 0.08891
0.10183 0.11828 0.00545
-0.07462 0.11828 -0.08489
0.02111 0.11828 0.07590
-0.29295 0.11828 0.05059
-0.08071 0.11828 0.03995
0.22253 0.11828 -0.12795
0.04655 0.11828 0.19247
-0.08650 0.11828 -0.05307
0.24272 0.11828 -0.16806
0.26974 0.11828 0.13259
-0.09185 0.11828 0.13334
0.16327 0.11828 0.23173
0.12338 0.11828 -0.08100
0.15327 0.11828 0.04582
-0.05198 0.11828 -0.06063
-0.00721 0.11828 0.00653
0.07721 0.11828 -0.15366
0.28516 0.11828 0.18856
0.20854 0.11828 0.18225
0.16879 0.11828 -0.07589
0.30919 0.11828 -0.15881
-0.06267 0.11828 0.08809
-0.08110 0.11828 -0.00892
0.21609 0.11828 0.02092
0.29957 0.11828 0.17082
-0.06807 0.11828 0.05209
0.21176 0.11828 -0.04213
0.23276 0.11828 -0.21141
0.32091 0.11828 -0.03230
0.00341 0.11828 -0.07220
0.09168 0.11828 0.11651
0.10745 0.11828 -0.07144
0.20013 0.11828 -0.05652
0.31288 0.11828 -0.06075
0.09023 0.11828 0.18559
0.24927 0.11828 -0.00517
0.25920 0.11828 -0.01144
0.05270 0.11828 -0.14203
0.31813 0.11828 0.19698
0.19331 0.11828 0.23626
0.31833 0.11828 -0.05347
0.26304 0.11828 0.22702
0.25859 0.11828 0.18148
0.27122 0.11828 0.01721
-0.24142 0.11828 0.03459
-0.06728 0.11828 -0.09364
0.29894 0.11828 -0.25068
-0.00728 0.11828 0.16661
0.29657 0.11828 0.02058
-0.25002 0.11828 0.00613
0.28112 0.11828 -0.10696
-0.15387 0.11828 -0.02906
-0.02784 0.11828 0.02782
-0.02911 0.11828 0.07948
0.10337 0.11828 0.14273
-0.20037 0.11828 0.08511
0.04103 0.11828 -0.02301
-0.15556 0.11828 0.05064
-0.17521 0.11828 0.09416
-0.19845 0.11828 0.03183
0.14998 0.11828 0.19200
0.20101 0.11828 0.22256
0.16705 0.11828 0.08302
0.11717 0.11828 0.19896
0.03649 0.11828 0.18348
0.16711 0.11828 -0.19335
-0.01590 0.11828 -0.08395
0.28662 0.11828 -0.02364
0.33397 0.11828 0.05986
0.13786 0.11828 -0.16301
0.13460 0.11828 0.14861
0.05650 0.11828 0.17826
0.27292 0.11828 0.14953
