0.02275 -0.07299 -0.03888
0.11295 0.22542 0.21104
0.16108 0.22542 0.16109
-0.02840 0.05968 -0.03455
0.02283 0.06494 -0.03882
0.22464 0.22542 -0.10092
-0.02272 0.18033 -0.19194
-0.13658 0.18033 0.26139
0.15498 -0.20543 -0.03332
0.14622 -0.13395 0.04472
-0.01647 -0.11854 -0.11443
0.22869 0.22542 -0.18379
-0.00010 0.22542 -0.12890
0.18018 0.22542 -0.09588
0.29499 0.18033 0.06982
0.30870 0.18768 -0.05227
-0.14511 -0.17508 0.00268
0.14208 -0.17618 -0.00138
-0.02549 -0.16819 -0.10927
-0.20728 0.20505 0.23533
-0.04141 -0.16334 0.01683
0.16602 0.18033 -0.07002
0.12794 -0.12781 -0.03275
-0.22588 0.22542 0.20071
0.18005 0.20236 0.25623
-0.29410 0.18033 -0.08783
-0.09110 0.18033 -0.21365
-0.02094 -0.07483 0.03971
-0.02612 -0.17998 -0.11294
-0.19205 0.18033 -0.01393
-0.00804 -0.13581 -0.13355
0.06519 0.22542 -0.09089
-0.16415 0.18033 0.25878
0.17423 0.18033 0.15038
-0.27352 0.18045 0.15727
0.21816 0.20788 0.22698
0.00533 -0.06047 0.04438
-0.17401 0.22542 0.20942
-0.14111 0.18033 0.27386
0.04274 -0.15102 0.10958
-0.29762 0.22542 0.08399
0.00216 -0.13525 0.11992
0.04744 0.22542 -0.07952
0.02833 -0.11347 -0.10784
0.20255 0.18033 -0.08618
-0.03168 0.18033 0.12416
0.15217 -0.18743 -0.03720
-0.17141 0.18033 0.26166
0.11086 0.22542 0.20641
0.09559 0.22542 -0.02847
0.14900 -0.15570 0.00756
-0.20396 0.18033 -0.21652
0.01959 -0.22542 0.01448
0.29734 0.22542 0.01147
-0.05064 0.22542 -0.27782
-0.16011 0.18033 0.13195
0.22906 0.22542 -0.20968
-0.00198 0.18033 -0.05875
0.09461 0.22542 0.25680
-0.13168 0.18033 -0.27437
-0.29289 0.19320 -0.11050
-0.12983 0.18033 0.08213
0.09842 -0.11647 -0.01169
-0.27197 0.22542 -0.11176
-0.13519 0.22542 -0.03889
-0.04824 0.22542 0.19984
0.11383 0.18033 0.18050
-0.01034 0.22542 0.01448
-0.01629 0.06887 0.04163
0.19092 0.22542 0.06071
0.26223 0.18793 -0.17222
-0.19831 -0.19507 -0.00926
-0.14224 -0.15814 -0.01609
-0.03001 0.18033 -0.19186
0.00834 -0.11797 -0.10686
0.11169 0.22542 0.09203
-0.07815 0.22542 -0.22067
0.15910 0.22542 -0.00976
-0.24665 0.18033 -0.12001
-0.03994 0.18033 0.08940
-0.10964 0.18033 -0.24205
-0.01541 0.22542 -0.30880
-0.24130 0.18033 0.18574
-0.23453 0.18033 -0.01463
0.00760 -0.11855 0.07806
-0.04005 0.15839 -0.02012
0.06199 -0.12452 0.00279
-0.20563 0.22542 0.12026
-0.23476 0.20248 0.20802
-0.00939 -0.18187 -0.11717
-0.04581 0.18033 -0.13396
-0.21305 0.18033 0.06125
-0.28416 0.22542 0.10390
-0.07254 0.18033 -0.13819
0.00601 0.18033 -0.09168
0.11841 0.22542 -0.10754
0.06126 0.18033 -0.12035
0.09238 0.18033 0.15749
-0.09346 0.18033 0.20908
-0.02347 -0.06734 -0.03833
-0.00023 -0.20975 -0.13353
-0.02846 0.18033 0.09423
0.02675 0.22542 -0.26101
-0.06201 -0.12686 -0.04326
-0.01332 -0.22542 0.03701
0.02562 0.22542 0.25993
-0.25787 0.18033 0.09347
0.00784 0.18033 0.12091
0.16117 0.22542 0.10907
0.02784 -0.15429 -0.19649
0.29309 0.20018 -0.11003
0.11899 -0.17771 -0.00648
0.04034 -0.01367 0.01941
0.04364 -0.14888 -0.15543
-0.04906 -0.15077 0.00628
-0.30396 0.18033 0.00896
-0.03578 -0.15327 -0.04740
0.24180 0.18033 0.08165
0.30627 0.18231 -0.07076
0.18807 -0.17126 0.00202
0.05794 0.22542 0.20564
-0.06921 0.19955 -0.30647
-0.03300 0.22542 0.13443
-0.00565 0.22542 -0.25179
-0.02253 0.22542 -0.02870
-0.02278 0.18033 0.06093
0.04374 -0.05612 -0.01021
0.06560 0.18033 -0.09838
-0.28282 0.18540 0.13481
0.08656 0.22542 -0.24937
-0.15934 0.18033 -0.04764
0.13489 0.22542 0.09634
0.22280 0.18774 -0.22342
-0.17525 0.22542 -0.14621
0.21385 0.22542 0.00005
0.06030 -0.11332 0.02721
-0.17244 0.22542 -0.00267
0.05230 0.22542 0.00535
0.16041 0.18033 -0.22124
0.09513 0.22542 0.04631
0.05684 0.22542 -0.24156
0.10778 0.22542 0.28239
-0.15079 0.22542 0.26913
-0.08828 0.22542 -0.06519
0.05453 0.18033 0.09444
-0.18717 0.22542 -0.01969
-0.01874 -0.15729 -0.05453
-0.00182 0.11969 -0.04484
0.02178 0.18033 -0.06111
-0.00061 0.22542 0.07618
-0.12308 -0.16032 0.00100
-0.25529 0.22542 -0.17097
-0.06794 0.18033 -0.12816
0.15584 -0.16984 0.01642
-0.11615 0.18033 -0.09959
0.00539 0.22542 0.31201
-0.08853 0.22542 0.10197
0.03226 -0.15541 -0.08695
0.05948 0.22542 -0.26097
0.01326 0.18033 0.26157
0.24887 0.18033 0.00334
-0.09492 0.22542 0.24913
-0.03611 0.18033 0.20065
-0.04059 0.18033 -0.04922
0.15099 0.18033 0.09463
-0.06685 -0.14947 -0.00528
0.18485 0.18033 0.03633
-0.06952 0.22542 0.06888
0.18005 0.18033 0.15178
-0.16802 -0.15195 -0.04490
-0.04376 -0.12939 -0.10058
-0.00353 0.18033 0.22923
-0.16845 0.22542 -0.07177
-0.02731 -0.01461 -0.03538
0.31055 0.19634 0.03822
-0.00518 0.18033 -0.26452
-0.06712 0.22542 -0.27343
0.15024 -0.14896 0.04260
0.00744 -0.16020 0.14816
-0.06632 0.18033 0.29303
0.17975 0.18033 0.12450
0.04497 -0.16770 0.00088
0.04741 -0.14595 -0.04230
-0.00956 0.22542 0.27383
0.00158 -0.18935 0.04488
0.19615 -0.19778 0.00651
0.05023 0.18033 0.17975
-0.21337 0.18033 0.05315
0.05059 0.22542 0.16377
0.01079 0.22542 -0.09055
0.04165 -0.04324 -0.01626
0.21208 0.22542 -0.13136
0.04754 0.22542 0.08929
0.04060 0.05564 0.01879
-0.11067 -0.11763 0.03005
0.21432 0.18033 0.03387
0.03890 0.14463 -0.02272
0.01127 -0.03617 -0.04360
-0.09047 0.22542 -0.10061
-0.08376 0.22542 -0.00701
0.08747 0.22542 -0.02809
-0.24172 0.18033 -0.11782
-0.19864 -0.22027 -0.03539
-0.02956 0.15352 0.03366
0.04418 -0.06015 -0.00684
0.06836 0.18033 0.12798
-0.26730 0.22542 -0.05623
0.27679 0.18060 0.14939
0.14648 0.18033 0.00355
0.08932 0.22542 0.09088
0.03796 0.18033 0.08173
0.10653 0.22542 -0.21154
0.17516 0.22542 -0.07337
-0.26801 0.19613 -0.16469
-0.01601 0.22542 -0.22695
-0.04229 0.22542 -0.06342
0.09883 0.22542 -0.29621
-0.02040 0.17225 0.03993
0.16589 0.18033 -0.19283
-0.07868 0.18033 0.22663
-0.03261 -0.07078 -0.03093
0.03764 -0.18216 0.11867
0.24686 0.22542 -0.00670
-0.07957 0.22542 0.02279
-0.12540 -0.12295 0.02459
-0.05312 -0.12619 0.00211
-0.09837 0.22542 0.26386
-0.03439 0.22542 0.24529
0.04360 -0.19784 -0.01129
0.00626 0.22542 0.30557
-0.29895 0.22542 -0.07118
-0.02854 0.12986 0.03444
0.00348 -0.17706 -0.04463
-0.16101 0.18033 0.04054
-0.04030 0.08705 0.01951
0.14226 -0.17741 -0.04370
-0.04439 -0.19548 0.17508
-0.29042 0.20497 -0.11647
-0.02463 -0.11298 0.04286
-0.03030 0.22542 -0.13476
-0.00140 -0.07924 -0.04490
-0.04157 0.00775 0.01645
0.00151 -0.18983 -0.17271
-0.00325 -0.12368 -0.08927
-0.07643 0.20627 -0.30552
-0.05677 0.20227 0.30811
-0.13147 0.22542 0.10866
0.19808 0.22542 -0.12382
0.12805 0.18033 -0.27049
0.02927 -0.15665 -0.09179
-0.06136 -0.13877 -0.04462
0.13713 0.18033 0.26693
-0.09713 0.22542 0.20149
-0.02390 0.01360 -0.03800
-0.14617 0.22542 0.25390
0.07330 0.22542 -0.04000
0.15034 -0.15293 0.04027
-0.28149 0.18901 0.13803
0.06771 0.22542 0.15912
-0.21739 0.22542 -0.11292
0.15568 0.19376 0.27418
0.04495 -0.15048 0.03902
0.16220 0.18033 -0.06200
0.18908 0.22542 -0.22805
0.04340 0.09557 -0.01201
0.21291 0.18033 0.11877
0.04007 -0.20233 0.12139
0.06026 0.18033 -0.15647
0.15671 0.22542 0.00843
0.03754 -0.18803 -0.02451
0.11722 0.22542 0.23705
-0.02614 0.18033 0.12403
0.13438 -0.22542 -0.03897
0.28015 0.22542 -0.04891
0.03357 -0.13043 0.13080
0.03593 0.08909 -0.02660
0.20883 0.22542 0.06262
0.05733 0.22542 -0.21919
0.21065 0.18033 0.12496
-0.03427 0.22542 0.29918
-0.03703 0.16039 -0.02516
0.10223 0.18033 0.11420
-0.13108 0.18033 0.20562
0.01783 -0.15717 -0.10275
-0.18043 -0.15434 -0.00124
0.04310 -0.16263 0.12173
-0.14322 0.18033 -0.02503
0.00014 -0.15182 0.12598
0.19495 0.22542 0.24459
-0.04493 -0.18976 -0.13639
-0.14776 -0.20219 0.00397
-0.06359 -0.11849 -0.00767
-0.27865 0.22542 0.05567
-0.02262 0.22542 -0.05234
-0.21280 0.18459 -0.23109
-0.12726 -0.12798 0.03395
-0.03708 -0.01768 -0.02510
-0.23252 0.22542 0.00235
-0.12493 0.22542 0.00526
-0.25333 0.22542 -0.03695
0.18808 0.18033 0.07251
0.19167 0.18033 0.05860
0.05084 0.18033 0.01245
0.11933 0.18033 0.00256
-0.10457 0.22542 0.27992
-0.06640 0.22542 -0.23098
0.14722 0.18033 -0.14322
-0.06705 -0.12586 0.00224
-0.02591 -0.11735 -0.11266
0.04269 0.18033 -0.08736
-0.06707 0.22542 0.12824
-0.09369 0.22542 -0.20218
-0.23014 0.22542 -0.16011
-0.13880 -0.12043 -0.03908
-0.23094 0.18033 0.16325
0.04954 0.22542 -0.16129
0.00257 -0.14712 0.04474
0.09141 0.18033 -0.06036
0.12440 0.22542 0.03537
-0.03648 -0.15272 0.03746
-0.10752 0.18033 0.19933
-0.05426 0.22542 0.06940
-0.16512 -0.19335 -0.03904
0.19454 0.18033 0.07253
-0.16883 0.22542 -0.13568
-0.23054 0.18033 -0.00470
-0.02244 0.14878 -0.03908
-0.29390 0.22542 -0.08468
0.02977 0.12912 0.03350
-0.27041 0.18756 0.16157
-0.09861 0.18033 0.28317
-0.13493 0.22542 -0.01096
0.04054 0.09584 0.01892
0.04758 -0.14908 -0.00498
0.21817 0.18033 0.00957
-0.01382 -0.22542 -0.13392
-0.20628 0.22542 0.04041
-0.10273 0.22542 0.16920
-0.00364 -0.22542 0.03355
0.07619 -0.15212 0.03727
-0.04257 -0.12520 0.10542
-0.00774 0.22542 0.02402
0.00846 -0.22542 -0.04174
-0.18450 -0.22542 -0.03495
0.03129 0.15029 0.03233
-0.03348 -0.16623 -0.15322
-0.13056 0.22542 0.00071
0.05538 0.18033 -0.12130
0.26465 0.22542 0.00575
-0.00309 -0.12389 0.04769
-0.04175 0.22542 0.10614
-0.30265 0.18251 -0.08694
-0.14151 -0.22542 0.02692
0.02139 0.22542 0.07215
0.06159 0.22542 0.08734
-0.17297 0.22542 0.19692
0.03086 -0.15599 0.04671
-0.20601 0.18033 -0.15083
-0.21305 0.20846 -0.23090
0.02433 -0.11294 -0.07661
-0.13312 -0.11976 -0.00626
0.15281 0.18033 -0.25341
-0.02768 -0.16511 -0.03510
-0.11682 0.22542 0.10575
0.17365 0.22542 -0.11897
0.20594 0.18033 0.02321
-0.04426 -0.12929 -0.06461
0.01543 -0.22542 -0.18862
-0.06900 0.18033 0.27984
0.16532 0.22542 -0.16468
0.01413 0.10497 0.04253
-0.17987 0.22542 -0.05266
0.29765 0.18943 0.09903
-0.11522 -0.19823 0.03259
-0.04453 -0.13248 0.14644
-0.01571 0.18033 -0.22099
0.13413 -0.13063 -0.02904
-0.00025 0.18033 -0.12601
-0.10124 0.19048 0.29673
-0.23143 0.18859 -0.21237
0.12486 -0.12785 0.04367
-0.04300 -0.21594 -0.12623
0.17495 0.22542 0.13777
-0.22857 0.18033 0.11678
0.04537 0.18033 -0.05272
0.05622 0.22542 -0.27195
-0.14407 -0.20489 0.04308
0.03216 -0.00139 0.03151
0.08188 0.22542 0.08990
0.11862 0.22542 0.10630
0.20070 0.22542 0.12120
-0.19543 0.22542 0.21378
-0.04341 0.22542 -0.22875
0.23663 0.19736 0.20559
0.28953 0.18033 0.03622
-0.30818 0.20722 -0.05625
0.08753 0.22542 0.01305
0.24397 0.22542 -0.12539
-0.02385 0.22542 0.20680
0.27062 0.22542 -0.15482
0.10488 0.18033 -0.23156
-0.01427 -0.11449 0.09199
-0.04484 -0.13708 0.11210
-0.16466 0.18953 -0.26804
-0.02653 0.21558 -0.31209
-0.08844 0.18033 -0.26104
0.02963 -0.22542 0.02821
-0.02596 0.22542 0.24333
-0.13793 -0.15859 0.04352
0.07984 0.22542 0.26326
0.01774 -0.11334 -0.08030
0.04493 0.22542 -0.27446
-0.10479 -0.16038 0.03273
0.15487 -0.17241 -0.03148
-0.03787 0.22542 -0.23030
-0.04375 0.18033 0.17672
0.28468 0.22542 0.08208
0.28111 0.18033 0.06006
-0.00932 0.13228 0.04386
0.00607 0.18033 -0.10045
-0.04347 0.09683 0.01186
0.06664 -0.11781 0.00856
0.11478 0.22542 -0.15217
-0.13850 0.22542 0.11116
-0.13830 -0.14813 -0.04122
0.31104 0.21510 -0.03452
-0.00077 -0.17457 0.18544
0.00363 0.22542 0.03142
0.00623 0.01906 0.04426
-0.01799 0.18033 0.24689
-0.22970 0.18033 -0.09626
0.00373 -0.21612 0.04459
-0.04776 0.18033 0.04437
0.02408 -0.22542 0.00552
-0.05466 0.18033 -0.19517
-0.09371 0.22542 -0.26753
-0.13150 -0.19469 0.04459
-0.17514 -0.12799 -0.01512
0.15420 -0.16372 -0.01473
0.10188 -0.12211 0.00446
0.06694 0.21254 0.30677
0.08054 -0.15749 0.02480
0.11508 0.22542 0.04887
-0.16359 0.18033 -0.22755
0.11986 0.18033 0.10864
-0.11344 0.21361 0.29168
0.01921 0.22542 0.13495
-0.10971 0.18033 -0.05873
-0.07358 0.18033 0.08797
0.12465 0.22542 0.27442
0.22206 0.22542 -0.19838
-0.11253 0.18033 -0.11340
-0.00895 -0.08755 0.04390
0.06273 0.22542 -0.15010
0.02391 -0.02635 0.03799
-0.20737 0.22542 -0.12734
-0.25695 0.22542 -0.08553
-0.26230 0.21244 0.17213
0.27304 0.18033 -0.03537
0.27826 0.18033 -0.01677
-0.06213 0.21874 0.30740
-0.02615 0.18033 -0.21325
0.04409 0.17713 0.00755
0.03147 0.22542 0.21272
0.04384 0.11260 0.00942
0.12019 -0.21475 -0.03916
0.28314 0.19159 -0.13404
-0.07609 0.22542 -0.10047
0.17913 0.21249 0.25693
-0.27265 0.18033 0.12492
-0.00383 0.22542 -0.23370
0.14034 0.22542 -0.16083
-0.20194 -0.20333 -0.01630
0.00607 -0.17405 0.14980
-0.19055 0.22542 0.06182
0.03063 -0.11441 -0.08444
0.03746 0.15508 0.02461
0.04413 0.18033 0.26506
0.06813 -0.14754 0.04129
0.17023 0.18033 0.10941
0.16537 0.18033 -0.04552
0.14748 0.18033 -0.02292
0.14586 0.22542 0.26676
0.24145 0.18033 -0.07146
0.01642 0.10009 0.04158
0.14385 -0.13368 0.00035
0.04262 0.22542 -0.04295
0.04378 -0.14237 -0.07201
0.05314 -0.13972 -0.00059
0.22703 0.18033 0.15603
0.17749 0.22542 0.19957
-0.02191 0.18033 -0.14959
-0.10292 0.18033 0.23869
-0.00395 -0.20904 0.19282
0.26430 0.20393 0.16953
-0.04779 0.22542 -0.29701
-0.04065 -0.08088 -0.01867
0.13236 -0.11286 0.02142
-0.03534 -0.19598 0.02736
-0.02982 -0.05689 0.03346
0.12401 0.19556 0.28730
0.04852 0.22542 -0.19836
0.00030 -0.14152 0.11681
0.20047 0.18033 -0.15300
-0.09922 -0.11333 -0.02729
0.12380 0.18033 0.14045
-0.18317 0.22542 0.18810
0.16433 0.18033 0.08588
0.08747 0.22542 -0.15176
0.13244 0.22542 -0.24664
0.23714 0.20342 -0.20492
0.22745 0.18033 -0.08169
0.12298 -0.20907 -0.04129
0.03126 -0.22193 -0.15976
-0.19627 -0.15408 -0.01659
0.15294 0.22542 -0.25655
0.12240 0.18033 0.27128
0.02635 0.15716 0.03612
-0.27241 0.18033 0.10448
0.04313 -0.21374 -0.01267
-0.00009 -0.13693 0.14914
-0.20983 0.18033 0.14341
-0.02416 0.22542 0.03114
-0.09391 -0.12157 -0.04022
-0.09915 0.22542 -0.06555
0.00990 -0.17604 -0.04378
0.04424 0.16806 -0.00640
-0.01244 -0.22539 0.20034
-0.04253 0.03382 -0.01413
-0.18002 0.18033 0.19191
-0.25145 0.22542 -0.18579
0.10855 0.18033 0.16371
0.01205 0.17114 -0.04339
0.15055 0.22542 -0.09122
-0.12932 0.22542 -0.16064
-0.14534 0.18033 -0.03211
-0.25479 0.18033 -0.10077
0.12362 -0.20974 -0.00330
-0.26447 0.18033 0.06705
-0.00402 -0.14783 0.08807
0.22229 0.18033 -0.11889
-0.24640 0.22542 -0.10144
0.02785 -0.01282 -0.03497
-0.15863 0.18033 0.26997
0.13586 -0.16800 -0.04479
0.04473 -0.17836 0.13773
0.14486 -0.14123 -0.02286
0.00114 0.22542 -0.02689
-0.07173 0.22542 0.04425
-0.16240 -0.21583 -0.03588
0.07899 0.22542 0.08612
0.09762 0.18033 -0.28041
-0.04066 -0.21701 0.01864
0.11139 -0.15335 0.00941
-0.19236 0.18033 -0.04616
0.06454 0.18033 0.06460
-0.02339 -0.22542 0.03177
0.00003 -0.13548 -0.05984
0.10534 0.18033 0.25395
0.23065 0.22542 -0.01102
-0.25254 0.20184 -0.18486
-0.03310 0.18033 0.27022
-0.04904 0.22542 -0.17892
0.01807 -0.11330 -0.12711
-0.00765 0.22542 0.20103
0.18689 -0.21484 0.00107
-0.09283 0.21948 -0.30021
0.02680 -0.15859 -0.03577
0.27232 0.22542 -0.04317
0.26033 0.18033 0.15386
-0.20137 0.22542 0.08519
0.00851 -0.12047 -0.15302
-0.05248 -0.15754 0.02064
0.11166 0.18033 -0.18642
-0.21051 0.18033 0.04903
-0.09790 0.18033 -0.05856
0.00621 0.12574 0.04427
0.30267 0.22542 -0.03471
0.19751 0.22542 -0.05653
0.24499 0.18033 0.03464
-0.20084 0.18033 0.15445
-0.16498 0.20538 0.26779
-0.03743 -0.11851 0.08700
-0.22427 0.22542 -0.14553
-0.04188 -0.07693 0.01570
-0.18896 0.22542 0.22762
0.15143 0.22542 -0.11669
0.01705 0.16075 0.04132
-0.06064 0.18033 0.29154
-0.05872 0.22542 0.20319
-0.29510 0.22542 0.02913
0.13360 0.18033 0.25872
0.11672 -0.15467 0.01114
-0.02325 0.18033 -0.19739
-0.24186 0.22542 0.17423
0.04240 0.21274 0.31000
0.09144 0.18033 0.23149
-0.04278 0.18033 -0.20007
0.15296 -0.14950 0.00226
0.08834 0.18033 0.04408
0.19858 0.21216 -0.24200
-0.07174 0.22542 0.27473
0.07656 0.18033 -0.28903
0.24677 0.18033 -0.05143
-0.17328 -0.22542 -0.00810
-0.04214 -0.07045 0.01506
0.20312 0.22542 -0.04630
0.11905 -0.14302 0.04351
-0.04314 -0.14392 0.12388
0.04451 -0.16540 0.12766
-0.01670 0.22542 0.10525
0.26290 0.18033 0.06533
0.00138 -0.22054 0.14257
0.04466 -0.10394 0.00320
0.03348 0.22542 -0.04560
0.07197 -0.15520 0.01230
-0.24106 0.18033 0.17781
-0.04239 -0.16458 -0.01447
-0.02425 0.22542 -0.09935
-0.16420 0.18033 0.19179
0.11933 -0.12550 -0.00815
0.09376 0.18033 -0.16816
0.14449 0.18033 0.27557
-0.01735 -0.11812 0.15898
0.26151 0.22542 0.00910
0.18005 0.18033 -0.00260
0.11685 0.18831 0.29026
0.01461 0.18033 0.23485
-0.02128 -0.22542 0.00086
0.04025 -0.12162 -0.07094
0.13793 0.18033 -0.25587
-0.28276 0.22542 0.01479
-0.05683 0.22542 -0.04297
0.03515 0.22542 -0.29029
0.03923 0.18033 0.13723
-0.02351 0.18033 0.11465
0.04423 -0.15381 0.03506
-0.00709 0.00558 0.04415
-0.04747 -0.14661 0.00308
-0.12263 0.18033 0.10812
-0.04053 -0.09096 0.01895
0.04351 -0.15507 -0.18160
0.00288 0.12768 -0.04470
-0.04000 0.22542 -0.09115
-0.15614 0.22542 -0.12734
0.12390 -0.12184 -0.02034
0.31544 0.20518 0.00109
-0.02776 -0.22542 0.16853
0.11428 -0.19261 -0.03032
-0.01354 -0.18769 0.15987
-0.02013 0.09416 -0.04004
-0.10061 0.18033 0.20670
0.06810 0.18033 -0.20661
-0.01439 0.10769 -0.04242
-0.24395 0.22542 0.04442
0.08516 0.22542 0.22685
-0.07494 0.22542 0.25578
-0.15466 0.18033 0.00155
0.17085 0.18033 -0.09535
0.26314 0.22542 -0.15143
-0.04494 -0.11504 -0.00107
0.01937 0.22089 -0.31303
-0.15804 0.18033 -0.23800
0.15802 0.22542 0.06215
-0.10769 0.22542 -0.01980
0.16798 -0.17025 0.00274
0.01126 -0.12337 0.12044
-0.04314 0.19355 0.30990
-0.01700 -0.11344 -0.04940
-0.14099 0.18033 0.19323
0.11826 0.18033 0.26261
-0.13060 0.18033 -0.02538
0.17683 -0.16001 0.04489
-0.31486 0.19716 0.00551
0.18181 0.18033 -0.21121
0.08114 0.22542 -0.27394
-0.05662 -0.11444 0.01438
0.08553 0.18033 -0.02349
0.01755 -0.15769 0.09294
0.30270 0.18149 -0.08682
-0.23496 0.22542 -0.04869
-0.21178 0.18033 0.11227
-0.28705 0.22274 0.12462
-0.02348 -0.15767 -0.05671
0.27833 0.22542 0.03261
-0.04649 0.22542 0.24979
0.01524 -0.10485 0.04207
0.23341 0.22542 0.02117
0.03407 -0.21982 0.02902
0.24059 0.22542 0.00097
0.00928 -0.11725 -0.04764
-0.01151 -0.11563 0.05132
-0.05856 0.18033 -0.15668
-0.15312 0.22542 0.10529
-0.31505 0.21972 0.00407
0.03672 0.12070 0.02557
0.05922 0.18033 0.24810
0.29373 0.22542 0.05414
0.01347 0.22542 0.03696
0.03323 -0.15559 -0.13835
-0.06634 0.22542 0.05263
-0.14376 -0.12352 -0.00415
0.03047 0.18033 -0.17560
-0.14296 0.18033 0.16200
0.10347 0.22542 0.27217
0.04497 -0.13610 0.07032
-0.17373 0.18033 0.11452
0.19552 0.22542 -0.15321
0.01357 -0.21389 0.15573
-0.29175 0.18033 0.08076
0.17821 0.22542 -0.05758
0.02491 0.22542 -0.27306
-0.14509 -0.21612 0.00243
0.04336 -0.17490 -0.18784
-0.02699 0.18033 0.13131
0.24776 0.18033 0.01262
0.08233 0.18033 0.15816
0.09233 0.18033 -0.21313
-0.01990 0.18033 -0.21691
-0.04085 -0.09701 -0.01819
-0.27388 0.22542 0.10663
-0.27811 0.18397 0.14619
0.19916 -0.16882 0.01284
-0.04448 0.22542 0.09850
-0.02999 0.18033 -0.24730
-0.00032 -0.14288 0.15536
-0.05658 0.18033 -0.25309
0.11654 0.18033 0.02224
-0.04215 -0.15730 0.02629
-0.06749 0.22542 -0.07815
0.02173 -0.17352 0.15698
-0.19500 0.22542 0.02491
-0.28440 0.22542 0.11321
-0.06421 0.22542 0.07013
0.10551 0.18033 -0.00464
0.02903 0.04369 -0.03406
0.12045 -0.15746 0.02508
0.01041 -0.15411 -0.05160
-0.04507 -0.19201 0.18019
0.01397 0.22542 -0.10247
-0.11284 -0.14297 -0.04354
-0.22630 0.21490 0.21905
0.27922 0.22542 0.10637
-0.09432 0.18033 0.14882
-0.06626 0.18033 0.10981
0.18656 0.22542 0.20116
-0.07284 0.18033 0.05453
-0.02891 -0.20095 0.03416
-0.21994 0.18033 0.11111
-0.31171 0.19154 0.02943
0.00860 -0.11725 0.04395
-0.00028 -0.20331 0.18244
-0.04190 -0.21105 -0.12377
0.03229 -0.15540 -0.08002
0.22632 0.22542 0.14263
0.04705 0.22542 -0.04895
0.03140 0.18033 -0.04565
0.16579 0.22542 -0.14535
-0.04403 0.03300 0.00804
-0.15063 0.18033 0.03654
-0.26087 0.18033 -0.15708
-0.04163 -0.14708 0.13416
-0.05120 0.18033 0.22576
0.03709 -0.20803 -0.02508
-0.00006 -0.19570 -0.13481
0.08792 0.22000 -0.30225
-0.18029 -0.21437 -0.00001
0.19986 0.18033 -0.17183
-0.14528 0.22542 0.13728
-0.03949 -0.09889 0.02146
0.04352 -0.14507 0.10156
-0.19846 0.22542 0.20139
0.03635 0.22542 0.23069
0.27760 0.22542 0.09518
0.02326 -0.20987 0.03849
-0.24591 0.22542 -0.13014
0.17197 0.18033 0.07318
-0.03614 0.07095 -0.02633
-0.18087 0.18033 0.10198
0.30921 0.22456 -0.04840
0.09762 0.18033 -0.11960
0.11090 0.18033 -0.28940
-0.26157 0.20230 0.17308
0.04100 -0.05819 0.01783
0.07948 0.18033 0.25644
0.03031 -0.15954 0.15263
-0.03805 -0.19748 -0.11898
0.19060 0.18033 0.23523
-0.06923 0.18033 -0.00410
0.12165 0.18033 0.01073
-0.28322 0.21407 0.13384
0.20938 0.18033 -0.17904
0.10688 0.18033 0.23078
0.03233 0.18033 -0.13947
0.28513 0.18033 0.10130
0.19774 -0.15604 0.02415
0.10872 0.22542 -0.16112
0.30138 0.22542 -0.07330
0.10816 0.21498 0.29386
0.30286 0.22491 -0.08644
0.03465 0.18033 0.25595
-0.07514 0.22542 -0.22776
0.02113 0.22542 -0.26675
0.17039 0.22542 0.22462
0.05847 -0.11360 -0.01640
-0.06464 0.22542 -0.12708
0.05576 0.22542 0.14637
-0.14549 0.22542 -0.20341
-0.31295 0.22542 -0.01155
-0.10323 0.18033 0.28959
0.04398 -0.22045 -0.00838
0.05117 0.18033 -0.27205
0.02034 0.11676 -0.03996
0.21542 0.22542 0.07436
-0.24620 0.19946 -0.19312
0.12482 0.22542 0.13700
0.19452 0.18033 -0.15432
-0.06007 0.18033 0.25122
0.26321 0.22542 0.09973
-0.03646 -0.11776 -0.04492
-0.03320 0.22542 0.06748
0.22560 0.22542 -0.17882
0.03472 -0.00857 0.02817
0.01590 -0.22114 -0.15889
-0.15358 0.22542 0.05266
-0.04276 -0.19226 -0.12566
0.28198 0.21694 0.13684
-0.09649 0.22542 0.09710
-0.06070 0.18033 0.18768
0.22714 0.22542 -0.12096
0.30306 0.18033 -0.03064
0.03920 0.22542 -0.03535
0.14158 -0.19808 -0.00098
0.04442 -0.07425 -0.00505
0.05112 0.22542 0.27550
-0.03290 0.08966 -0.03055
0.06946 0.18033 -0.14514
0.02989 0.18033 0.03679
0.28523 0.18033 0.01311
-0.08703 0.22542 0.06198
0.04687 0.18033 -0.01220
0.04395 -0.15651 -0.02962
0.00091 -0.15777 0.12141
0.16774 0.18033 0.13462
0.09143 0.22542 -0.00799
-0.11244 0.18033 0.28341
-0.13287 0.22542 0.04807
-0.26971 0.22542 0.01459
-0.00022 0.22542 -0.22310
0.18016 0.18033 -0.09467
-0.14029 0.18033 0.13579
0.02675 -0.05052 0.03581
0.12942 0.22542 0.14841
0.09379 0.18033 -0.18095
0.06271 0.22542 0.27841
-0.19994 0.18033 -0.22327
-0.02345 0.07211 -0.03835
-0.29635 0.18033 -0.03250
-0.15146 0.18033 0.10584
0.09374 0.18033 0.07909
0.14606 -0.20693 -0.04226
-0.21181 0.18033 -0.17182
-0.16734 0.18033 -0.06559
0.00082 0.04305 0.04498
0.06282 0.22542 0.10187
-0.04431 -0.10570 -0.00588
0.07909 0.22542 -0.01607
0.10729 -0.11447 0.01431
0.21427 0.22542 -0.01239
-0.19169 0.18033 -0.00176
-0.12722 0.22542 0.01365
0.07092 -0.14209 0.00119
-0.04414 0.18033 0.18943
0.14438 0.18033 0.26612
0.01325 -0.15559 -0.09144
-0.17913 0.22542 -0.08233
-0.09765 0.18033 0.09983
0.04184 0.18033 -0.02894
-0.02626 -0.04140 -0.03619
0.16447 -0.21446 0.00655
0.15307 0.22542 0.22318
-0.15749 -0.12439 -0.00627
0.22324 0.22542 0.10010
-0.06758 0.18033 0.14786
-0.30980 0.22510 0.04396
-0.04152 0.18033 -0.25167
-0.04105 -0.17610 0.01769
-0.11683 0.18033 0.06380
-0.09372 0.19231 -0.29984
-0.04154 -0.00288 0.01651
0.13737 0.18033 -0.23920
0.04066 0.06047 0.01865
0.06830 0.18033 0.27333
-0.00308 -0.20513 -0.14660
-0.02374 0.22542 0.22284
0.00998 0.14394 0.04377
-0.04482 0.08736 0.00200
0.01398 0.22542 0.11010
-0.17241 0.18033 0.16467
0.02441 0.22542 -0.06025
0.17395 0.22542 -0.06340
0.22699 0.22542 0.08050
0.27857 0.18033 0.10134
0.00314 -0.17666 0.12324
-0.04216 -0.13733 0.17076
-0.04468 0.09264 -0.00309
0.06543 0.22542 0.13935
0.01977 0.22542 0.28785
0.23777 0.18033 -0.11104
0.28435 0.21364 -0.13113
0.16947 0.22542 0.08431
0.29810 0.22428 -0.09793
-0.04927 0.22542 0.16776
-0.00319 -0.18765 0.19183
-0.10332 0.22542 -0.20812
-0.19313 0.18033 -0.17411
-0.18738 -0.21929 -0.04381
0.07616 0.18033 0.16188
-0.13156 0.22542 0.20605
0.00030 -0.22437 -0.04504
-0.16196 0.22542 -0.04562
-0.01092 0.18033 -0.07323
0.04356 -0.05400 0.01157
0.07625 0.22542 -0.23345
-0.01413 -0.20360 -0.15595
-0.30336 0.18033 0.08457
-0.15206 0.18033 -0.25391
0.18949 0.18033 -0.19019
0.13410 0.22542 -0.18328
0.02088 -0.19281 0.11293
-0.12109 0.18033 -0.04269
-0.06849 0.18033 0.08298
-0.03167 0.17354 0.03204
0.24393 0.18033 -0.02619
0.04125 0.22542 -0.01413
-0.04476 -0.08697 0.00247
-0.29127 0.18033 -0.08192
-0.17867 0.22542 0.02114
0.08220 0.18033 0.09408
0.03353 0.10764 -0.02972
-0.15612 0.18033 0.12035
-0.10139 0.22542 -0.24884
0.00029 0.22542 -0.29228
-0.03465 0.08061 -0.02826
-0.04399 0.11672 -0.00833
0.16017 -0.19464 0.01282
0.15350 0.18033 0.03873
-0.03171 -0.22542 0.18018
0.28087 0.18033 -0.08028
0.00041 -0.13212 -0.09933
-0.10826 0.18033 0.26237
-0.06236 0.18033 0.14876
-0.03400 -0.20236 -0.15462
0.05470 0.18033 -0.07739
-0.30279 0.22542 0.03299
0.01536 -0.11403 -0.04880
0.25823 0.22542 0.05843
0.00285 -0.12439 -0.09958
-0.00184 0.22542 -0.20102
-0.00701 -0.18936 -0.15150
-0.06850 0.18033 -0.01447
0.13510 -0.15675 0.02943
0.19260 -0.18141 0.00378
-0.15144 0.22542 0.08547
-0.08379 0.18033 -0.02335
-0.24654 0.22542 -0.16962
0.06840 0.18033 -0.10844
0.00110 -0.20952 -0.18696
-0.17808 -0.19129 -0.00030
0.11893 -0.19077 -0.03799
-0.04434 0.08030 0.00564
-0.10669 0.22542 0.24544
-0.01573 -0.21556 -0.04187
0.14669 0.18033 -0.19616
-0.21601 0.18033 0.16488
-0.01005 0.18033 -0.13928
-0.07463 0.18033 -0.05572
-0.00448 -0.14842 0.05364
0.22461 0.22542 0.09482
0.03577 0.09383 0.02680
-0.18947 0.18033 -0.18759
-0.14524 0.18033 0.10048
-0.02684 -0.15723 -0.07626
0.07231 0.22542 0.17456
0.21914 0.22542 0.11428
-0.03985 -0.12110 -0.06320
0.00569 0.22542 -0.25698
0.00393 -0.22088 0.12280
0.02265 -0.22542 0.15544
-0.04673 0.22542 0.21419
0.02213 -0.15774 -0.12868
0.02149 -0.22542 -0.03674
-0.13035 0.22234 0.28467
0.02534 0.18033 0.30743
0.06083 0.18033 0.07969
-0.20496 0.22153 0.23711
0.10299 0.18033 0.04643
0.09700 0.22542 -0.13055
-0.02587 0.18033 0.17808
-0.00978 0.18033 -0.05965
0.04432 -0.14342 -0.14778
0.19499 0.22542 0.22591
-0.25240 0.21275 -0.18503
-0.00590 -0.12023 -0.07057
-0.03287 0.12959 0.03059
-0.00152 -0.08537 -0.04488
-0.05858 -0.11883 0.03786
-0.17578 0.22542 -0.24649
-0.01771 0.22542 -0.23194
0.27339 0.22542 -0.14184
-0.17968 0.19902 0.25651
-0.10974 -0.15127 -0.03837
-0.04078 -0.05956 0.01834
0.12334 0.18033 -0.11717
0.13494 0.18033 0.11911
0.01989 0.18033 0.27048
0.11893 0.22542 -0.23450
0.10979 0.22542 0.18148
-0.15391 0.18033 -0.18410
-0.01121 -0.13750 -0.13819
0.07393 -0.12637 0.04305
-0.03990 -0.04292 -0.02047
0.20286 -0.21760 0.02266
-0.17876 0.22542 0.09023
-0.10492 0.18033 -0.12064
-0.05838 0.18321 0.30790
0.03800 -0.19706 -0.19664
-0.26626 0.22542 -0.04815
-0.00137 -0.15759 0.18209
-0.24278 0.18033 -0.15107
0.00728 0.18033 -0.12245
0.19240 -0.21629 0.00363
0.02014 -0.15748 0.08794
0.09316 0.18033 0.28926
-0.21560 0.18033 -0.19562
0.00706 -0.18275 0.04415
-0.11587 0.22542 0.22013
0.15762 -0.21215 -0.02381
-0.03931 -0.15011 0.05165
0.17783 0.18033 0.11669
0.11972 0.18033 -0.15759
-0.09489 0.22542 0.02249
-0.14290 0.22542 -0.05895
0.00419 0.15916 0.04453
-0.08460 -0.15551 -0.03203
0.05281 0.18699 -0.30863
-0.12621 0.22542 -0.14567
-0.04461 0.05920 0.00360
0.20082 0.18033 -0.13660
0.22847 0.21167 -0.21622
-0.01877 0.01301 0.04061
-0.15368 0.18033 -0.01155
0.25596 0.18033 -0.15070
0.13017 -0.19751 -0.00067
-0.10631 0.22542 -0.29002
-0.10049 0.22542 -0.23071
-0.05434 0.22542 -0.17419
-0.24382 0.18033 -0.01125
0.31501 0.20136 -0.00433
0.22438 0.22542 0.12770
-0.17381 -0.14750 -0.00079
-0.18931 0.22542 -0.08692
0.09278 0.22542 0.15176
-0.13630 0.18033 -0.00259
0.19357 0.19759 0.24585
-0.01077 0.18033 0.08497
-0.09101 0.18033 -0.17855
0.24771 0.20234 -0.19115
-0.05688 -0.15134 -0.00680
0.24030 0.18033 0.12186
-0.13635 0.22542 0.23196
-0.14863 0.18033 -0.06805
0.01275 -0.03157 0.04310
-0.31100 0.22267 -0.03483
0.04353 -0.18578 0.12753
-0.07957 0.18033 0.16581
-0.21127 0.22542 -0.14094
-0.06946 0.18033 -0.06857
0.25519 0.18033 -0.16334
0.30714 0.18033 -0.00000
-0.30424 0.18033 0.02620
0.26848 0.18033 -0.01089
0.08516 0.18033 0.00718
-0.23951 0.18033 -0.10078
0.11596 0.22542 0.11293
-0.01363 -0.10876 0.04274
-0.17629 -0.13853 -0.00470
-0.03782 -0.19977 -0.15169
-0.20633 0.22542 -0.19218
0.04379 0.00729 0.00984
-0.14036 -0.11335 -0.02134
-0.17036 0.22542 0.13065
-0.15223 0.21060 0.27561
-0.04983 0.18033 -0.22898
-0.17986 0.22542 -0.25052
0.20440 0.18033 0.09629
-0.04472 -0.13790 0.15690
0.27999 0.20280 0.14165
0.07782 -0.15117 0.00658
-0.08858 0.18033 -0.16770
0.12511 0.22542 -0.20495
-0.26688 0.18033 -0.15124
0.01453 0.22542 0.05283
0.18388 -0.14741 0.04003
0.04349 0.18033 -0.09573
0.03215 -0.15546 0.03228
-0.00732 0.18033 0.25970
0.01660 0.22542 -0.19631
-0.04386 0.18033 0.08564
0.02349 -0.20474 -0.03832
-0.22824 0.18033 0.09763
-0.01162 0.22542 -0.18098
0.19019 0.22542 -0.05592
-0.11195 0.18033 0.06703
-0.05676 0.22542 -0.02498
-0.20715 0.22542 -0.15206
-0.27450 0.18827 0.15491
-0.15116 0.18033 -0.23514
-0.01431 0.22542 -0.24919
-0.00432 0.15886 -0.04451
0.16034 0.19248 0.27135
-0.00175 -0.14347 0.07923
0.13406 0.22542 0.20642
-0.30548 0.18234 0.07677
0.02514 0.18992 0.31228
0.02319 -0.22542 -0.18129
0.10221 0.21954 -0.29633
0.03717 -0.11831 -0.03955
-0.26769 0.19251 0.16511
-0.05061 0.22542 -0.12444
-0.04134 0.04952 -0.01699
-0.12392 -0.20159 0.00306
0.09393 -0.14509 0.00243
0.08683 0.22542 0.16431
-0.06976 0.22542 0.22761
0.25200 0.18553 0.18556
0.16917 0.18033 0.24075
-0.03358 0.22542 0.20155
0.10960 0.22542 -0.13737
-0.11533 0.18033 -0.17037
0.17146 0.22542 -0.23857
-0.02313 0.22542 0.17822
0.02209 0.22542 0.21727
-0.03912 -0.12163 0.14750
-0.05843 0.22542 -0.16970
-0.09012 0.18850 -0.30133
0.03075 0.22542 0.18716
0.12324 0.18033 0.22958
-0.01458 -0.20968 -0.11436
-0.19217 0.21278 0.24693
-0.18425 0.18033 -0.04655
-0.20007 -0.18932 -0.03329
-0.07587 0.22542 0.24028
-0.00997 0.22542 -0.08534
-0.14365 0.18033 -0.11121
0.30473 0.22542 -0.01297
-0.01151 0.21691 -0.31407
0.25641 0.22542 0.17933
0.23894 0.22542 -0.14419
0.00800 0.22542 -0.12034
0.01276 0.15629 0.04310
-0.27113 0.22542 -0.06747
-0.04373 -0.02092 0.01025
0.04493 -0.13644 0.05187
0.16385 0.22542 -0.09420
0.15919 0.22542 -0.07771
-0.04275 -0.14486 0.05929
0.12352 0.22542 0.27934
0.04019 0.16808 0.01977
-0.02678 -0.17824 0.20223
-0.09538 0.20280 -0.29916
-0.06126 0.18033 0.24673
-0.10588 0.22542 -0.17962
-0.20281 0.22542 -0.19578
0.01390 0.22542 0.11534
0.19619 0.22542 0.18589
0.06439 0.18033 0.27726
-0.19208 0.22542 -0.05389
-0.02131 -0.17181 0.15588
-0.05280 -0.13180 0.04463
0.06396 0.22542 -0.23858
0.30586 0.20531 -0.07387
-0.00565 -0.17823 0.19489
0.09646 0.18033 0.04129
0.18071 -0.18698 0.04503
0.21072 0.18033 0.03851
-0.21169 0.18033 0.08078
-0.03144 -0.11475 0.13513
0.21738 0.22542 -0.15948
0.28157 0.18033 -0.01104
0.01115 -0.00178 -0.04362
-0.08083 0.18033 -0.07834
-0.03118 -0.09132 -0.03242
-0.06432 -0.15280 0.03638
-0.14398 -0.12411 -0.04136
-0.02766 0.18762 -0.31194
-0.03423 0.22542 0.26605
-0.02042 0.18033 0.13715
-0.03197 0.22542 0.17056
-0.16980 0.22542 0.17597
-0.14067 0.18033 0.11942
-0.13863 0.18033 -0.16244
-0.24817 0.22542 0.15673
-0.04208 -0.14648 -0.04236
0.06034 0.22542 0.19282
0.04091 0.06703 0.01804
-0.00194 -0.18380 -0.14392
0.07059 0.18033 -0.15537
-0.08887 0.22542 -0.23655
0.20226 -0.21694 0.01784
0.01202 0.18033 0.31094
0.29302 0.22542 -0.00627
0.27762 0.18033 0.07109
0.04167 -0.05771 -0.01620
-0.00049 -0.13150 0.09844
0.01044 -0.15413 -0.11461
-0.02569 -0.15738 0.03847
0.25659 0.22542 0.15637
-0.02011 0.18033 -0.13458
-0.15395 0.18033 0.06261
0.14229 0.18033 0.03659
0.04122 0.05387 -0.01729
-0.06424 0.22542 -0.14040
-0.04148 0.18033 0.10900
-0.24698 0.18033 -0.03801
-0.10455 0.22542 -0.15513
0.25129 0.19164 -0.18649
0.28814 0.22103 0.12197
-0.00162 -0.12737 0.08772
-0.07032 0.22542 0.14060
0.00271 -0.14577 0.05167
-0.27515 0.22542 -0.12472
-0.10085 0.18033 0.17637
0.00646 -0.19352 0.11949
0.02299 0.22199 0.31256
-0.02825 0.22542 -0.17163
-0.30022 0.22542 0.08865
-0.15195 0.22542 0.21057
-0.10261 0.22542 -0.09413
0.16780 0.21858 0.26562
-0.03970 0.22542 0.09498
-0.14247 0.22528 0.27965
-0.01385 -0.21504 0.20092
-0.07194 0.19902 0.30611
0.27357 0.22542 0.03651
-0.02545 -0.08440 -0.03681
0.00919 0.22542 0.04696
-0.01583 0.14227 -0.04182
-0.13274 0.18033 0.18467
0.04407 -0.14167 -0.09820
0.05009 0.18033 -0.07266
-0.13812 0.18426 -0.28145
0.04256 -0.21257 0.01404
-0.17778 0.22542 0.22382
0.16158 -0.20775 0.03481
-0.11087 0.22542 0.25135
-0.00463 0.18033 0.12858
0.00362 0.15097 -0.04461
-0.16061 0.22542 -0.06178
-0.06441 0.18033 -0.04324
0.00504 0.18033 -0.31408
0.03293 0.18033 -0.24161
0.08986 0.22542 -0.13462
-0.04470 -0.02748 0.00294
0.16226 0.18033 -0.26706
-0.10757 0.18677 -0.29411
0.28146 0.22542 -0.13725
-0.17564 -0.17871 -0.04450
-0.04995 0.22542 0.15223
0.23276 0.20429 0.21063
-0.16761 0.18033 -0.25128
0.04036 -0.12176 0.04690
0.11326 0.22542 0.15496
0.25318 0.22496 -0.18402
0.26938 0.18033 -0.11919
0.04491 -0.14079 -0.15927
-0.20181 0.18033 0.22931
0.04290 0.18033 0.15341
0.10987 0.18033 0.13593
-0.25603 0.18033 0.03002
0.22639 0.22542 -0.16464
-0.04443 -0.13027 -0.07191
-0.07124 -0.13431 0.00012
0.01051 0.22542 0.02394
-0.09518 0.22542 -0.02574
-0.16212 0.18033 0.10402
-0.03211 0.18033 -0.14203
-0.11704 0.22542 -0.16238
-0.00891 0.18033 -0.12867
-0.16276 0.22542 0.16470
-0.03620 0.05929 0.02624
-0.17191 0.22542 0.21873
0.14763 0.22542 -0.20794
-0.24020 0.18033 0.14052
0.14173 0.22542 0.14780
-0.03192 -0.15556 0.09170
0.00315 -0.12381 -0.04892
0.02087 -0.11293 0.07691
0.04338 0.22542 0.05719
0.00824 0.18033 0.26182
0.13831 0.22542 0.05395
-0.15177 0.18033 0.16413
-0.09778 -0.11422 -0.01491
-0.06081 0.22542 -0.23297
0.08157 0.22542 -0.14304
-0.04420 -0.02975 -0.00668
-0.00523 -0.22542 0.02245
-0.07726 0.22542 -0.17922
0.00318 -0.14792 0.09846
0.16070 0.22542 -0.17493
-0.04971 0.22542 0.03322
-0.02428 -0.22176 -0.03771
0.15750 0.22542 -0.08600
-0.22770 0.22542 -0.11786
0.22705 0.21788 -0.21807
0.09079 0.22542 0.10323
0.19908 0.22542 0.05933
-0.23844 0.22542 0.12773
0.10952 -0.16897 -0.02169
0.06856 0.18033 0.26859
0.11135 0.22542 0.08130
-0.03081 0.22542 -0.09224
0.09701 -0.11285 0.02363
0.16726 0.18033 0.04201
0.14271 0.18033 -0.13248
-0.00902 -0.11745 0.09046
0.10072 0.18033 0.09615
-0.17835 0.18033 -0.22084
-0.27122 0.22542 0.08851
-0.04503 -0.12069 0.00038
0.17650 0.22542 0.14244
-0.08483 0.22542 0.03003
0.00906 0.22542 -0.29642
-0.01277 0.09226 -0.04309
0.07072 0.20027 0.30627
-0.12505 0.22542 0.20554
0.16919 0.18033 0.08536
0.26089 0.18033 0.00592
-0.10561 0.18033 0.00101
0.10009 0.22542 -0.19986
0.01905 -0.11490 -0.14983
0.10867 -0.12716 -0.04188
0.18039 0.18033 0.18816
0.14055 0.22542 0.24096
-0.02287 0.18033 0.22706
0.03380 0.18033 -0.14739
-0.09610 0.18033 0.03236
0.04836 -0.11289 0.02119
0.01890 -0.15731 0.05569
0.00394 -0.16819 0.12002
-0.23330 0.18033 0.19080
-0.01481 -0.15624 0.10923
-0.05280 0.18033 0.24118
-0.03328 -0.13058 -0.13118
-0.13436 0.18033 0.05734
0.03206 0.22542 0.24399
-0.22528 0.18264 -0.22038
-0.15365 0.22542 0.13623
0.31340 0.21879 0.01660
-0.00913 0.22542 0.09168
0.00285 -0.12439 0.04785
-0.17137 0.22542 -0.18223
-0.09502 0.22542 -0.04543
0.07536 0.18033 -0.30459
0.13808 0.22542 0.20902
0.11567 0.22542 -0.14430
-0.28370 0.18033 -0.09027
0.05443 0.18033 0.07433
0.00435 0.21143 -0.31501
0.03997 -0.16024 0.11345
0.10891 0.22542 -0.19830
0.01706 -0.11287 0.04131
-0.08145 0.22542 -0.29532
0.00338 -0.06508 0.04464
0.29517 0.22542 0.09248
0.01588 0.22542 -0.02354
-0.21407 0.18934 0.23012
0.01129 -0.11572 -0.07082
-0.00553 -0.16842 -0.11787
0.05530 0.22542 -0.09962
-0.08437 -0.14979 0.00553
-0.09155 0.18033 -0.20305
-0.26967 0.22542 0.12001
0.04134 -0.15161 0.13986
-0.14800 -0.15960 -0.03147
-0.05145 -0.13376 -0.00020
0.04451 -0.20803 0.13963
-0.05488 0.18033 -0.12831
0.19229 -0.22542 0.01070
0.30204 0.19128 -0.08842
-0.06461 0.22542 -0.00973
0.11289 -0.11814 0.00813
0.07924 0.22542 -0.03784
-0.02074 0.04556 0.03979
-0.15276 -0.19559 0.00864
-0.15438 -0.13694 -0.04473
-0.03790 -0.22542 0.17403
-0.03442 -0.15431 0.05098
-0.15626 0.22542 -0.08730
0.26425 0.22542 -0.08746
-0.08115 0.22542 0.08152
-0.03621 -0.10866 -0.02623
-0.20054 0.18033 -0.07878
0.03557 -0.05531 0.02707
0.10461 0.18033 0.22385
0.18967 0.21799 -0.24884
-0.13152 0.18033 0.10770
-0.02934 0.22542 -0.30569
0.18579 0.18211 0.25182
0.10327 0.18033 0.13562
0.08940 0.19518 -0.30163
0.20610 0.18033 0.02873
0.04116 -0.14769 0.04775
0.00227 0.18033 0.24243
-0.10523 0.18033 0.16523
0.03885 0.22542 -0.17386
0.03010 -0.17910 0.03325
0.06502 0.18033 -0.26003
-0.04459 -0.15447 0.00371
0.20447 0.18033 -0.20883
-0.22429 0.22344 0.22167
-0.11344 0.18033 -0.08963
0.10794 0.18033 -0.11497
-0.02985 0.18033 -0.05062
-0.04479 -0.13746 0.10093
-0.03903 0.18033 0.15002
0.02642 0.18033 0.18085
0.23634 0.18033 -0.02192
0.23250 0.18033 -0.15851
0.28277 0.22542 -0.01428
0.04945 0.18033 0.02139
0.04454 0.03850 -0.00416
0.20611 0.18033 0.20302
-0.09657 0.19958 0.29866
-0.12098 0.22542 -0.06874
0.14656 0.18033 -0.20207
0.06266 0.22542 -0.01380
-0.00336 0.18033 0.20249
-0.16385 0.22542 0.12104
-0.18834 0.18033 -0.16210
0.03783 0.18033 -0.10051
-0.10446 0.18033 -0.26324
0.16875 0.22542 0.06892
-0.16792 0.22542 0.07577
-0.05785 0.22542 -0.05636
0.15916 0.18033 0.22902
0.12425 0.18033 -0.16761
0.19166 0.18033 -0.20625
-0.20313 0.18033 0.19593
-0.11506 0.18033 0.26696
-0.22201 0.18033 -0.03790
0.09768 0.18033 -0.16126
-0.08804 -0.11774 0.00865
-0.03754 -0.22542 -0.14306
0.28327 0.18033 -0.10156
0.03179 0.18033 0.06395
-0.20890 0.18033 0.02051
0.11957 0.18033 0.25179
0.02141 -0.20389 -0.15794
0.01155 0.08963 -0.04356
0.18125 0.22542 0.23822
0.08054 0.22542 0.01304
-0.19314 0.18709 0.24618
-0.02070 -0.15755 0.11912
-0.10235 -0.12909 -0.00090
0.09169 0.18033 0.27930
0.09762 0.22542 0.20061
0.01929 0.18033 0.06992
0.15784 0.18033 -0.25472
-0.14174 0.18033 -0.18257
0.06792 0.22542 -0.12668
0.18293 0.22542 -0.03060
0.28747 0.18033 -0.11307
-0.03191 -0.22048 -0.11494
0.00683 -0.19592 0.15137
-0.30260 0.20588 0.08705
0.10382 -0.14553 0.04247
-0.27635 0.18033 -0.12724
0.11829 -0.16540 -0.04073
-0.08712 0.18033 0.13721
-0.13492 -0.14346 0.04054
-0.04164 -0.01650 0.01627
0.04467 -0.13839 0.04698
-0.26182 0.22542 -0.00066
0.30691 0.21203 0.06591
0.11464 -0.20121 -0.03119
-0.26902 0.22542 0.14582
0.01850 0.18033 -0.21238
0.16857 0.22542 -0.02678
0.00079 0.18033 -0.22810
0.09975 0.22542 0.09210
0.18645 -0.19406 0.04420
0.16639 0.18033 -0.05117
-0.00540 0.07253 0.04437
0.09246 0.22542 0.19997
-0.12449 0.22542 0.14443
0.00296 -0.13115 0.11729
0.03745 0.22542 0.01061
0.11775 0.18033 -0.14235
0.21219 0.22542 0.04994
-0.00875 -0.21386 0.16275
0.11328 -0.21976 -0.01820
-0.12755 0.22542 -0.07097
0.10737 -0.16551 -0.01863
0.25448 0.18033 0.10349
-0.09048 0.22542 0.01939
0.19102 -0.17824 0.04223
0.04467 -0.21241 -0.18349
0.08122 0.18033 0.18234
0.07301 0.18033 0.25406
0.04096 -0.12353 -0.14355
0.00045 -0.11070 -0.04502
0.04471 0.08719 0.00282
0.02885 -0.03803 0.03420
-0.03228 0.22542 -0.05812
-0.16250 0.22542 0.25800
0.15727 0.18033 0.15842
0.11407 -0.18437 -0.01527
0.06522 0.18033 -0.22513
-0.04305 -0.14970 0.17928
-0.03695 -0.22542 0.00316
-0.29504 0.18033 0.00324
-0.05741 0.18033 0.01983
0.15738 -0.17658 -0.02335
0.11629 0.22542 -0.13885
0.18205 0.18033 0.15658
0.17571 0.22542 0.11822
0.09827 0.18033 0.29439
0.16051 0.22542 -0.10770
-0.22263 0.22542 -0.20545
0.04440 -0.12649 -0.04310
-0.05976 -0.15725 0.02666
-0.07615 0.22542 -0.23803
0.18288 0.19911 -0.25406
0.05318 0.18033 0.04247
0.05692 0.18033 0.00631
0.04115 0.13473 -0.01745
-0.21424 0.18033 -0.17734
-0.13939 0.18033 -0.24753
-0.15345 -0.17717 0.03519
0.09441 -0.12562 -0.04255
-0.19797 0.22542 -0.06667
0.14179 0.18033 0.22817
0.11054 -0.17036 -0.02619
-0.16062 0.18033 -0.10432
0.00466 0.18033 0.27009
0.10896 0.22542 -0.03320
0.01438 0.22542 0.23293
-0.00866 0.20418 -0.31444
-0.02582 -0.17774 0.15769
0.04836 0.22542 0.07718
0.14921 0.18033 0.12796
0.04181 -0.15825 -0.16003
0.14382 0.22542 0.10832
-0.04083 -0.21764 -0.01823
-0.29413 0.22542 0.01778
0.07922 0.18033 0.11426
-0.21036 0.18033 -0.08701
0.09259 0.18033 -0.09943
0.13130 -0.12145 0.04012
-0.28703 0.18174 -0.12465
0.07332 0.18033 -0.11403
0.07516 -0.11660 -0.03495
-0.17043 0.18033 -0.07142
0.03922 0.18033 -0.20470
-0.19498 0.18033 -0.10704
-0.04343 -0.11317 -0.01195
0.01597 -0.03334 -0.04176
-0.11303 -0.20810 0.02008
-0.09598 -0.15759 -0.02097
0.05563 0.22542 -0.04395
-0.04397 0.22542 0.19010
0.00246 -0.21357 -0.19025
0.09365 0.18213 0.29987
-0.04170 0.18033 -0.01996
0.02569 0.18033 0.12761
-0.15089 0.22292 -0.27616
0.00452 -0.16445 -0.16273
0.02565 0.22542 -0.08653
-0.11922 -0.15658 0.04375
0.10484 0.22542 0.17456
0.02877 -0.18864 0.11364
-0.00266 -0.17450 0.19006
0.23772 0.18033 0.13079
0.20138 -0.17048 0.01957
0.14996 -0.22542 -0.02731
-0.02553 -0.16220 -0.10358
-0.03112 0.22542 -0.11511
-0.31134 0.19811 -0.03224
-0.00761 -0.15473 0.04408
-0.12882 0.22542 -0.09834
0.04489 -0.13669 -0.13351
0.26942 0.18033 0.06814
-0.13606 0.22040 -0.28231
-0.28542 0.22542 -0.10954
0.03431 0.03919 0.02871
0.14416 0.22542 -0.10572
0.00976 -0.22542 -0.16791
-0.24825 0.22542 -0.00088
-0.13133 -0.13100 -0.00056
0.06026 0.18033 0.12129
0.14099 -0.18449 -0.04433
-0.02928 -0.15665 -0.08810
0.20082 -0.18338 0.03149
-0.14477 0.18033 -0.08168
0.22099 0.18033 0.01765
-0.21085 0.22542 0.11921
-0.03172 0.18033 0.22032
0.21034 0.18033 -0.12002
-0.02685 0.18033 -0.15384
0.06813 0.18033 0.15592
-0.16055 0.22542 0.18778
-0.02833 -0.11801 0.15850
-0.00086 -0.15574 -0.13490
0.12209 0.22542 0.23833
0.08279 0.19648 0.30437
-0.18959 -0.22542 -0.04223
0.02099 0.18033 -0.20740
0.25721 0.22542 -0.11399
-0.02225 -0.15775 0.09821
0.24424 0.20985 -0.19567
0.16231 0.18033 0.02269
0.00394 0.22542 -0.22537
0.02516 -0.19430 -0.15814
0.20256 0.18033 0.17412
-0.02768 -0.19884 -0.11338
-0.01614 0.22542 -0.03794
-0.04805 0.22542 -0.01272
0.00096 0.18033 0.25640
-0.01064 -0.20059 -0.15429
0.01416 0.22542 -0.11058
-0.03797 0.08582 0.02394
-0.01004 0.15287 -0.04376
-0.11426 0.22542 0.06444
-0.00208 -0.14928 0.04481
0.15637 -0.18804 -0.01512
0.08676 0.18033 -0.13657
0.06717 -0.13518 -0.00001
-0.00420 -0.12244 0.07322
-0.06092 0.22542 0.23122
0.01407 0.22542 0.30778
-0.14770 -0.22542 0.04017
-0.06785 0.22542 -0.21880
-0.05111 0.22542 -0.27223
0.25589 0.20660 0.18048
0.15706 -0.20470 -0.02809
-0.03254 -0.19661 0.16028
-0.04504 -0.18361 -0.13489
0.05060 0.21315 0.30892
-0.01212 0.22542 -0.30164
0.11104 0.18033 0.27100
0.16425 0.22542 -0.13966
0.04110 -0.22542 -0.17642
0.04499 -0.09721 -0.00072
-0.12668 0.22542 -0.09106
0.19028 0.22542 0.13085
0.04243 -0.12486 -0.08304
0.15262 0.22542 0.04255
0.18414 0.22542 -0.21413
-0.07539 0.18033 0.17444
-0.11871 0.18953 0.28949
-0.19009 0.18033 0.06188
-0.02056 0.18033 -0.17042
-0.22489 0.22542 -0.05121
0.00406 -0.05058 -0.04455
-0.01722 -0.01732 -0.04125
0.11714 -0.16225 -0.00380
-0.05711 0.18033 -0.04723
0.11545 0.18033 0.07810
0.21572 0.18033 -0.07012
0.04170 0.03029 0.01612
0.24170 0.22542 0.02698
-0.27326 0.18033 -0.03055
-0.00567 0.18033 0.23956
0.15196 -0.16226 0.01288
0.28914 0.18033 -0.10160
-0.30686 0.18442 -0.06623
-0.00904 -0.16884 -0.11451
-0.09911 -0.15843 0.01493
-0.14490 0.22542 -0.22972
-0.01724 0.18033 -0.24736
0.14748 0.18033 0.23321
-0.13987 -0.15604 -0.01244
-0.10200 0.22542 -0.14706
0.09049 0.18033 -0.16070
0.23307 0.18033 0.15224
0.03493 -0.16689 -0.15775
0.05677 0.22542 0.16906
-0.04743 0.22542 -0.28796
-0.17602 0.18033 0.14529
0.18942 0.18873 0.24904
-0.15059 0.22542 -0.27092
-0.06987 0.21591 -0.30639
-0.07866 0.18964 -0.30523
-0.01185 0.22542 0.00075
0.03230 -0.11171 -0.03133
0.11739 0.18033 0.22043
-0.23075 0.22542 0.04725
0.02030 0.22542 0.17381
0.12716 0.18413 -0.28599
-0.16237 0.22542 0.00696
-0.08506 0.18033 -0.28226
-0.00778 0.22542 -0.15866
0.20551 0.18033 0.06791
-0.10958 -0.16793 0.01665
-0.04271 -0.19689 -0.12553
0.02736 0.06742 0.03535
-0.05743 0.18033 0.00578
0.25204 0.22542 -0.01503
-0.10133 0.22542 -0.11517
-0.07971 0.18033 -0.29597
-0.00722 -0.11883 0.08277
-0.06374 0.18033 -0.15830
0.02008 0.22542 0.21054
-0.11581 -0.18481 0.03392
0.31268 0.19158 -0.02205
-0.00204 -0.14416 -0.05449
-0.08551 0.22542 -0.10257
0.04679 0.18033 0.14897
0.19390 -0.17150 0.03951
-0.03778 0.18033 0.11883
-0.11929 0.22542 -0.00897
-0.18581 0.18033 -0.07383
0.16409 0.20719 -0.26847
0.18134 0.18033 0.18262
0.02981 -0.11407 -0.12379
0.04504 -0.14564 -0.16398
0.00898 -0.10547 -0.04390
0.04236 -0.11074 0.01454
0.04370 0.01593 0.01047
-0.28027 0.18033 -0.11646
0.03793 0.18033 0.11744
0.03745 -0.04945 -0.02461
-0.02136 0.22542 0.09051
-0.07896 0.18033 0.08565
-0.07466 0.18033 -0.01347
-0.04164 0.22542 0.15750
0.30244 0.21012 0.08745
0.12991 0.18033 -0.18081
-0.04360 0.22542 -0.26440
0.23276 0.18247 -0.21063
-0.02161 0.18033 0.21036
0.08171 0.18033 -0.10256
-0.02704 0.20957 -0.31202
0.10541 0.22542 -0.22767
-0.13740 -0.18106 0.04480
-0.09538 0.18033 -0.14032
0.09351 0.22542 0.21537
-0.04161 0.22542 0.21071
-0.02387 -0.11288 -0.07707
-0.12476 0.18033 -0.07487
-0.04817 0.21575 -0.30924
0.12873 0.22542 -0.08663
-0.07724 -0.15757 -0.02424
0.18544 0.22542 -0.23301
-0.19604 0.22542 0.13658
0.12175 0.18033 0.12465
0.10697 -0.15015 -0.00265
0.03493 0.18033 -0.02908
0.31531 0.18048 0.00206
0.15722 -0.19284 -0.01822
-0.02000 0.18033 -0.06254
-0.18054 0.22542 0.19686
0.16562 0.18033 -0.10581
-0.30087 0.18033 -0.03866
0.31195 0.18821 0.02763
0.18540 0.22542 0.10070
0.04361 -0.04076 -0.01117
0.01113 -0.11584 -0.08104
-0.28018 0.18033 0.06006
0.12980 0.18033 0.06602
0.14318 0.22542 0.13311
-0.10919 -0.12492 0.00494
0.30964 0.19957 -0.04516
0.17507 0.22542 -0.03013
0.07898 0.18033 -0.11161
0.01790 0.18033 0.13586
0.16103 -0.18296 0.01099
-0.11359 0.22542 0.07226
0.14870 0.22542 0.14191
-0.17945 0.18053 -0.25668
0.03948 -0.12061 -0.11557
-0.31227 0.21109 -0.02519
0.23361 0.18033 -0.06680
0.25936 0.18033 0.13342
0.20221 0.22542 0.09898
-0.02864 0.22542 -0.03954
-0.23013 0.22542 0.14233
-0.05205 0.18033 -0.06282
-0.13660 -0.11477 -0.01359
0.06814 0.22542 -0.13689
-0.04424 0.10549 -0.00641
0.08797 0.18033 -0.24402
0.17965 0.18033 0.22345
-0.11367 -0.22478 0.01625
0.24783 0.18033 0.17204
-0.01225 -0.05788 0.04331
0.08061 0.18033 0.12660
0.02062 0.15833 -0.03984
0.04481 0.01467 -0.00208
-0.27810 0.22542 -0.06865
-0.21470 0.22542 0.21125
-0.03902 0.03572 -0.02257
-0.13965 0.18033 -0.20001
0.09023 0.22542 0.26084
-0.28977 0.22469 -0.11805
0.08863 0.22542 -0.29789
-0.23346 0.18033 -0.14119
0.16970 0.22542 -0.01941
-0.27703 0.22542 -0.02212
-0.15838 -0.18483 -0.01809
0.01978 0.18033 -0.30330
0.13458 -0.20926 -0.00009
0.26847 0.22542 0.05909
0.16960 0.22542 0.17791
0.19398 0.18033 0.14543
0.25231 0.18033 -0.12630
-0.16618 0.21024 0.26687
-0.12157 0.18033 0.03216
-0.06969 0.18033 0.11440
-0.25334 0.22542 0.05415
0.23706 0.18033 -0.09819
-0.03179 0.22542 -0.02104
-0.03674 0.22542 0.01550
0.06584 0.18033 0.18038
0.18668 0.18916 -0.25114
-0.16282 0.18033 -0.12689
