-0.02485 0.19334 -0.15664
0.04645 0.19334 -0.16493
-0.04377 0.19334 -0.24502
-0.00007 0.19334 -0.24344
0.06703 0.19334 0.23087
0.07177 0.19334 0.12327
0.04931 0.19334 -0.14568
0.04760 0.19334 0.00760
0.02553 0.19334 -0.15646
0.00551 0.19334 -0.15463
-0.02849 0.19334 -0.22170
-0.03382 0.19334 -0.22931
0.06428 0.19334 0.16459
-0.00565 0.19334 -0.06990
0.02030 0.19334 -0.18164
0.07183 0.19334 0.05290
0.05414 0.19334 -0.33220
0.08321 0.19334 0.08463
-0.00601 0.19334 -0.31418
0.04884 0.19334 -0.07387
0.07105 0.19334 -0.03361
-0.02521 0.19334 -0.33055
0.05279 0.19334 -0.29807
-0.02957 0.19334 -0.36230
0.09817 0.19334 0.33547
0.04567 0.19334 -0.24471
0.05876 0.19334 0.13143
0.10194 0.19334 0.02100
0.00868 0.19334 -0.34939
0.07421 0.19334 -0.08415
-0.02502 0.19334 -0.27607
-0.00573 0.19334 -0.23076
0.05687 0.19334 0.16727
0.01358 0.19334 -0.19777
-0.03306 0.19334 -0.32149
0.03148 0.19334 -0.17861
0.08787 0.19334 -0.36422
-0.03894 0.19334 -0.36089
0.02589 0.19334 -0.18703
0.07138 0.19334 -0.02129
0.09502 0.19334 0.01149
0.04495 0.19334 0.03997
0.06311 0.19334 0.01151
-0.03319 0.19334 -0.29282
0.03725 0.19334 -0.04030
-0.00578 0.19334 -0.21721
0.00146 0.19334 -0.29270
-0.01275 0.19334 -0.32433
0.03162 0.19334 -0.06298
0.05297 0.19334 -0.08570
0.02820 0.19334 -0.26997
0.01021 0.19334 -0.28436
-0.07254 0.19334 -0.33399
0.03010 0.19334 -0.03498
0.05849 0.19334 -0.13525
0.01214 0.19334 -0.05416
0.09223 0.19334 -0.35422
-0.01340 0.19334 -0.20264
0.00109 0.19334 -0.17353
-0.06509 0.19334 -0.28831
0.08900 0.19334 0.19930
0.01647 0.19334 -0.25327
0.03795 0.19334 0.03841
0.09056 0.19334 0.21063
0.09276 0.19334 -0.36884
0.09317 0.19334 -0.39007
0.02658 0.19334 -0.04984
0.05246 0.19334 0.17278
0.05918 0.19334 0.07753
0.08227 0.19334 0.00714
0.02202 0.19334 -0.06706
0.08030 0.19334 0.25153
0.02088 0.19334 -0.21799
-0.02026 0.19334 -0.23159
0.07205 0.19334 -0.22434
-0.01696 0.19334 -0.09989
0.06615 0.19334 0.04479
0.06541 0.19334 -0.31938
0.08364 0.19334 -0.24744
-0.04175 0.19334 -0.23875
-0.09718 0.10431 0.11182
0.07449 -0.15374 0.15381
-0.09718 0.02331 0.02234
-0.08646 -0.04240 -0.00494
0.02884 -0.19772 -0.38873
0.00295 -0.19806 -0.38873
0.01314 -0.20453 -0.38873
-0.06266 -0.19484 -0.40207
-0.00318 -0.19485 -0.40226
-0.06003 -0.19528 -0.41077
0.08220 0.19332 0.37343
0.11196 0.20944 0.00753
0.07289 0.19080 -0.36390
-0.07963 0.15654 -0.20622
0.08050 0.15498 -0.27935
-0.08308 0.18395 -0.29574
0.09648 0.18986 0.33229
-0.06101 0.21219 0.42034
-0.02949 0.21177 -0.42007
0.07289 -0.16135 -0.16920
0.05930 0.19281 -0.41303
-0.07930 0.18598 -0.41303
-0.09336 0.17593 -0.41303
-0.07018 0.18884 -0.41303
-0.07289 0.06495 -0.09595
-0.11049 0.20577 -0.15492
0.09718 0.16956 0.31234
-0.09718 0.09836 -0.13069
0.07436 0.16082 -0.21635
-0.08261 -0.17923 -0.20904
0.08230 0.16826 0.36493
-0.10028 0.20012 -0.11560
0.08471 -0.12825 -0.15738
0.08310 0.13282 0.21251
-0.08454 -0.06434 -0.02746
0.07963 -0.17819 0.28529
0.07289 0.01496 -0.03177
-0.07987 0.19942 -0.41811
-0.07289 -0.09347 -0.09908
0.08991 -0.05934 0.02219
0.10998 0.20390 -0.32772
-0.09718 -0.18878 0.29528
-0.09718 -0.18933 0.31666
-0.11356 0.21218 -0.34083
-0.07289 0.10700 0.12867
-0.07289 -0.19607 -0.38138
0.11061 0.20616 0.41779
0.11043 0.20556 -0.06028
0.04014 0.19128 -0.38873
0.07085 0.19213 -0.38873
0.02947 0.18406 -0.38873
0.08256 -0.21735 -0.36947
0.09718 0.18173 -0.40245
0.09474 0.16904 0.39650
-0.07289 -0.13880 -0.13931
0.07289 -0.08171 0.06797
-0.07378 -0.18891 0.33685
-0.09040 -0.18209 0.21640
0.07289 0.07905 -0.07848
0.07542 -0.19331 0.37302
0.09209 -0.01837 0.01706
-0.09718 0.17032 0.26222
-0.07289 0.06574 0.06485
-0.09718 0.15943 0.27802
0.09476 0.13390 0.15832
0.07289 -0.08855 0.06504
-0.09718 -0.19494 -0.33249
0.08583 -0.01126 -0.00937
-0.07289 -0.17487 -0.20268
0.09420 0.16903 0.38370
0.11521 0.21439 -0.39005
-0.07289 -0.11651 -0.11016
-0.07289 0.11415 0.12809
-0.07289 -0.18694 0.31937
-0.08284 -0.12844 -0.15774
-0.08684 0.17112 -0.24667
-0.07289 0.14340 0.20889
0.07289 -0.03950 0.00505
0.08896 0.01969 0.01715
-0.09615 0.21068 0.42847
0.02302 -0.19908 -0.41303
-0.05887 -0.21225 -0.41303
-0.08554 -0.21419 -0.41303
-0.11365 0.21233 0.14631
-0.10933 0.19558 -0.22940
-0.10933 0.19587 -0.00387
-0.10933 0.19778 -0.19570
-0.10933 0.19369 -0.25533
-0.10933 0.19548 0.09234
0.07289 0.19107 -0.37033
0.09718 0.07955 0.11151
-0.09383 0.16180 0.31098
-0.05269 0.21764 -0.43356
0.01770 0.21764 -0.43087
0.09718 0.14318 -0.23368
0.09718 0.05902 -0.05812
-0.07289 -0.16121 -0.19736
-0.08914 0.07422 0.07156
-0.09718 0.17416 0.39421
-0.09718 0.06946 -0.07940
0.09352 0.12324 -0.13950
-0.09718 -0.09843 0.07840
-0.09718 -0.11826 0.09924
0.07289 0.10877 0.14872
-0.07289 0.06966 -0.10192
0.07289 0.06058 -0.09106
0.08802 -0.21251 -0.33026
-0.08280 -0.00135 -0.03128
0.08931 0.08706 -0.08688
-0.10701 0.21540 -0.00441
0.08949 0.15459 -0.20162
-0.07301 -0.10290 -0.07301
-0.09718 -0.17569 0.22496
-0.02696 0.20636 0.41745
0.09718 0.04117 -0.05638
-0.06974 0.21035 -0.42829
0.07750 0.03883 0.03436
0.07289 -0.17506 -0.24056
0.07289 0.17139 0.38357
0.07289 0.18350 0.38224
0.09718 -0.17208 0.21456
-0.09718 -0.18189 -0.26940
0.07822 -0.21764 -0.37424
0.10533 0.21338 0.09756
0.08731 -0.15245 0.20822
0.10810 0.19334 0.15076
0.10709 0.19334 0.09721
0.09999 0.19334 -0.41313
0.10757 0.19334 0.18581
0.10415 0.19334 -0.01818
0.10928 0.19334 -0.30793
0.10078 0.19334 -0.30360
-0.09434 -0.17293 -0.19432
0.09552 -0.21764 0.38365
0.07531 0.19285 0.36757
0.08456 0.19087 0.34299
-0.07569 0.19942 0.41987
-0.02411 0.19942 0.42127
0.09718 0.06033 0.06266
-0.07397 -0.08124 -0.04629
0.07975 -0.19593 -0.25773
0.10790 0.21633 -0.40734
0.07289 0.10334 0.14245
0.01167 0.21764 0.42563
0.10235 0.21764 0.42874
-0.07991 0.02051 -0.05043
-0.07289 0.02001 0.02921
-0.01336 -0.19448 -0.38873
-0.00186 -0.20096 -0.38873
0.09089 -0.04187 0.03907
-0.11085 0.20682 -0.32540
-0.08041 0.19333 -0.37977
-0.10312 0.20986 -0.21522
-0.08834 0.00476 0.03634
-0.07289 0.16765 0.31493
0.08461 0.20374 -0.41670
-0.04512 0.17904 -0.38873
-0.06682 0.18315 -0.38873
0.00545 0.16905 -0.38873
-0.09205 -0.12331 -0.14823
-0.07289 0.13543 0.16698
-0.09718 -0.18941 0.30290
0.07905 0.19333 -0.37926
0.09718 0.13760 -0.19305
-0.09718 -0.18104 0.25002
-0.07289 0.16092 0.24844
-0.07834 0.16904 -0.38953
-0.09505 0.16904 -0.39552
-0.00551 0.16904 -0.38906
-0.09718 0.15855 0.21391
0.07289 -0.15243 0.20184
0.07546 -0.18673 -0.22979
-0.09718 0.18002 0.28339
0.07414 0.18045 -0.28122
-0.10497 0.19334 0.38106
-0.09754 0.19334 0.26536
-0.10220 0.19334 0.22082
-0.09838 0.19334 -0.23683
-0.10288 0.19334 0.22725
-0.09967 0.19334 -0.19515
-0.09978 0.19334 -0.14840
-0.08941 0.02122 0.01842
0.09718 -0.16228 0.18604
0.08133 0.15062 0.19223
-0.09618 -0.11784 0.13922
0.07289 -0.04675 0.02710
-0.08658 -0.09326 0.06092
0.07289 0.05508 -0.05603
-0.08463 0.16978 0.24260
0.07289 0.11724 0.15679
-0.09718 -0.00993 -0.01031
-0.09718 0.17872 -0.39283
-0.09718 0.18165 -0.32503
-0.09718 0.17809 -0.37630
0.00326 0.20879 -0.42751
0.07289 -0.17077 -0.21525
-0.09537 0.01470 0.04478
-0.09517 -0.13141 -0.16351
-0.09396 0.07502 0.11140
0.10938 0.20000 0.31599
-0.07741 0.11733 0.17910
-0.05906 0.21117 0.42876
-0.07641 -0.21487 0.34904
0.07970 0.19942 -0.15463
-0.00038 0.19942 0.26489
0.03488 0.19942 0.09828
0.09320 0.19942 -0.26394
0.08861 0.19942 0.10608
0.01193 0.19942 0.09831
-0.00954 0.19942 0.21293
-0.08124 0.19942 0.35973
0.08921 0.19942 -0.29146
0.07716 0.19942 0.13183
-0.02295 0.19942 0.25121
0.06929 0.19942 -0.04749
-0.01987 0.19942 0.27548
-0.00523 0.19942 0.03859
-0.01934 0.19942 0.10519
0.09537 0.19942 -0.21936
-0.01282 0.19942 0.35909
-0.01894 0.19942 0.38145
0.07697 0.19942 -0.14468
0.04411 0.19942 0.32569
0.08021 0.19942 0.09931
0.00131 0.19942 0.05594
0.02103 0.19942 -0.04419
0.02268 0.19942 0.11524
-0.02009 0.19942 0.23061
0.09627 0.19942 -0.13108
0.05086 0.19942 0.16079
0.03876 0.19942 0.29485
0.08679 0.19942 0.36387
0.06487 0.19942 0.03108
0.08654 0.19942 0.22776
-0.07739 0.19942 0.39693
0.08872 0.19942 0.16593
0.00379 0.19942 0.29213
0.07246 0.19942 -0.09005
0.06102 0.19942 -0.05971
-0.05068 0.19942 0.29264
-0.01821 0.19942 0.09803
0.09928 0.19942 0.09280
-0.01217 0.19942 0.37015
0.07937 0.19942 -0.05321
0.03206 0.19942 0.04567
0.06473 0.19942 0.23111
0.05152 0.19942 0.09870
0.06454 0.19942 0.00231
0.08415 0.19942 -0.17128
0.09850 0.19942 0.16009
0.06505 0.19942 0.21471
-0.03501 0.19942 0.24148
0.03835 0.19942 0.13235
0.03496 0.19942 0.11152
0.04828 0.19942 0.05236
0.05117 0.19942 0.12286
-0.04242 0.19942 0.26966
0.08898 0.19942 0.09944
0.04021 0.19942 -0.08390
0.07111 0.19942 0.39887
-0.04229 0.19942 0.28922
0.09224 0.19942 -0.13798
0.02006 0.19942 0.08208
0.09546 0.19942 -0.01163
0.09381 0.19942 -0.14635
-0.01223 0.19942 0.28442
-0.09381 0.19942 0.41070
0.06602 0.19942 0.21959
0.06092 0.19942 -0.17677
0.06227 0.19942 0.30732
-0.06434 0.19942 0.32198
-0.02954 0.19942 0.23558
0.07775 0.19942 -0.26154
-0.02737 0.19942 0.12753
0.02119 0.19942 0.28197
0.04318 0.19942 -0.05021
-0.07094 0.19942 0.36408
0.05867 0.19942 0.36495
0.02514 0.19942 0.01851
0.05347 0.19942 -0.07379
0.09755 0.19942 0.20363
-0.02644 0.19942 0.35459
-0.03850 0.19942 0.32833
0.07661 0.19942 -0.31463
0.00775 0.19942 0.38451
-0.00912 0.19942 0.14960
-0.00923 0.19942 0.41387
-0.03590 0.19942 0.38000
0.04344 0.19942 0.39830
0.03304 0.19942 0.37564
0.00606 0.19942 0.25110
0.09348 0.19942 0.18493
0.04213 0.19942 0.23257
-0.06713 0.19942 0.41131
0.00902 0.19942 0.35034
-0.07902 0.19942 0.36850
0.06512 0.19942 0.14394
0.07928 0.19942 0.30120
0.08365 0.19942 0.13461
0.04855 0.19942 0.01947
0.07042 0.19942 0.05122
-0.07118 0.19942 0.40342
0.07754 0.19942 -0.02841
0.05903 0.19942 -0.00129
0.00153 0.19942 0.16306
0.06736 0.19942 0.24446
-0.00833 0.19942 0.17652
0.09105 0.19942 0.26082
-0.07548 0.19942 0.33261
0.02955 0.19942 -0.01462
-0.01217 0.19942 0.18760
0.07609 0.19942 -0.07997
-0.05660 0.19942 0.31993
0.07455 0.19942 0.28658
0.07542 0.19942 0.32280
0.00994 0.19942 -0.02523
0.06058 0.19942 0.11964
0.07686 0.19942 -0.06311
0.03588 0.19942 0.16556
0.01634 0.19942 -0.05853
0.03566 0.19942 -0.11559
-0.02183 0.19942 0.37283
0.00023 0.19942 0.08663
0.08050 0.19942 -0.12956
0.06272 0.19942 -0.01552
0.07329 0.19942 -0.02369
-0.02995 0.19942 0.18378
-0.03381 0.19942 0.23081
0.03926 0.19942 -0.14240
0.08083 0.20397 -0.42584
-0.08284 -0.21567 0.35563
-0.08985 0.04635 0.07662
0.08773 0.00089 -0.00159
0.07289 -0.18199 -0.27861
0.07289 0.17167 -0.36867
0.07289 0.17373 -0.32050
0.07289 0.17814 -0.36896
0.01160 0.16904 -0.39045
-0.07547 0.16904 -0.39409
0.07522 0.16677 -0.34647
0.07976 0.11969 0.18364
-0.09718 -0.13116 0.13348
0.00022 0.20078 -0.41619
-0.09358 -0.11472 0.13409
0.09718 0.17248 -0.26471
0.09155 0.19123 0.34747
-0.07289 0.12596 -0.14749
0.07577 0.07064 0.06747
-0.09718 -0.14775 0.14737
-0.08614 0.14050 -0.23149
-0.07863 -0.02116 -0.01450
-0.07669 -0.18539 -0.22592
0.07289 -0.04808 -0.04125
0.07289 0.03014 0.04381
-0.07289 -0.03535 -0.02198
0.08245 0.15161 -0.19456
0.09141 0.07837 0.07629
-0.09718 -0.14529 0.14032
-0.09248 0.12124 -0.13631
-0.08465 0.07278 0.10839
0.09718 0.11532 0.13427
0.01311 0.16904 -0.39790
0.07289 0.07015 0.09842
0.07289 -0.16130 0.17047
0.08431 -0.16865 0.18432
0.07795 -0.04617 0.04361
0.01082 0.20986 -0.41897
0.08520 0.16380 0.22457
0.10937 0.19984 0.35859
-0.10953 0.20151 -0.06120
0.09718 0.16205 0.30064
0.10926 0.21757 0.05578
0.09718 -0.19339 0.37025
0.07289 0.12861 -0.20116
0.07289 -0.06327 0.03489
-0.09375 -0.07891 -0.08173
-0.07289 0.08472 0.10777
-0.08523 0.10907 -0.11689
0.07289 0.18671 0.38649
0.07289 0.17703 0.27556
0.07289 0.17923 0.30121
0.10964 0.20218 0.05093
0.07289 0.09911 -0.12765
0.08644 0.12147 0.13667
0.07710 -0.13832 0.17694
0.07289 0.10845 -0.12317
-0.09718 -0.07718 0.07785
-0.07289 -0.18788 0.32662
-0.08298 -0.09607 -0.06434
0.06244 0.19942 0.42182
0.09348 -0.20416 0.41303
0.00114 -0.20388 0.41303
0.04576 -0.20363 0.41303
0.11514 0.21430 0.29474
-0.09718 -0.21597 0.37178
0.07289 -0.11279 -0.10368
0.09718 -0.20892 -0.39732
0.08356 -0.18721 0.32744
0.09718 0.18164 -0.29249
-0.10297 0.20958 0.39283
0.09718 -0.14205 0.14559
-0.07289 -0.16959 0.25281
0.09718 -0.06476 0.04283
0.07289 -0.21564 -0.37595
0.07289 0.13578 0.18573
-0.08322 0.11946 -0.18321
-0.02989 0.19334 -0.41804
-0.03759 0.19334 -0.41499
0.07289 0.15651 0.22698
-0.04040 0.18907 -0.41303
-0.04922 0.18925 -0.41303
-0.02863 0.19253 -0.41303
0.08600 0.19331 -0.41303
0.08278 -0.21764 -0.38701
0.10161 0.20639 -0.35850
0.10201 0.20743 -0.39854
0.07289 0.13645 -0.20335
0.09718 0.15166 0.26403
0.07289 -0.20331 -0.35766
0.08953 -0.20952 -0.31484
0.07289 -0.19112 -0.32599
-0.10574 0.21392 0.41869
-0.10411 0.21158 -0.27322
-0.10414 0.21162 -0.29823
0.10143 0.20583 0.39013
0.07289 -0.19586 -0.25865
0.07289 -0.19617 -0.28849
-0.09718 0.14500 0.21471
0.08135 0.11547 -0.12710
-0.07289 -0.19778 -0.30776
0.08770 0.20832 0.42729
-0.01876 0.20550 0.42625
0.04447 0.17999 -0.41303
-0.01842 0.17224 -0.41303
0.03803 0.17436 -0.41303
0.02402 0.18229 -0.41303
-0.08768 0.12065 0.13536
0.11764 0.21692 0.15327
-0.07834 -0.10711 -0.12157
-0.09651 0.15861 -0.29418
-0.09718 0.17543 0.26586
-0.09718 0.17622 0.29310
-0.09718 -0.21320 0.41162
-0.09718 0.00667 0.03088
0.07289 0.10849 0.13052
0.10145 0.20589 0.32194
-0.08236 0.01165 0.04203
0.09188 0.16546 -0.33361
-0.09906 0.21521 0.42267
0.11607 0.21538 0.37762
0.08257 -0.10628 0.12019
-0.07289 0.15343 -0.23060
-0.09235 0.07067 -0.10555
-0.08665 -0.09821 0.10839
-0.09492 -0.18225 0.30190
0.09208 0.19333 0.38690
0.07289 -0.05784 -0.04140
0.09119 0.16297 -0.31822
0.07289 -0.11018 0.11125
0.09219 0.17710 -0.26752
0.09718 0.16808 -0.29386
0.08380 0.17185 -0.24885
-0.06399 0.20615 0.41737
-0.07975 -0.16970 0.18677
-0.09718 -0.04862 -0.02525
0.07660 -0.12575 -0.10546
-0.10937 0.19982 0.04283
-0.09497 0.15836 -0.21052
-0.07775 0.16223 0.31363
0.09718 -0.10213 0.07825
0.09718 -0.04685 0.01885
-0.09718 0.12150 0.15761
0.09718 -0.18930 -0.27763
0.09718 -0.19328 -0.26700
0.09104 -0.01958 -0.01700
0.08497 0.19333 0.37877
0.05052 0.19942 0.41721
-0.07338 -0.05821 0.02099
0.03279 0.20072 -0.41619
0.08961 -0.12013 0.09730
0.09718 -0.17948 -0.27847
0.11296 0.21125 -0.28085
0.09101 -0.20717 0.30279
0.07836 0.10013 0.10444
-0.10373 0.21099 0.30959
-0.07535 0.07313 0.07031
0.08672 -0.02424 0.02127
-0.09135 0.04687 -0.07721
-0.08729 -0.09977 -0.11059
-0.08805 0.00933 -0.00858
-0.07289 -0.21187 -0.32983
0.07289 0.14393 -0.23356
0.09718 -0.18192 -0.29501
-0.10754 0.21595 0.31241
-0.07498 -0.12545 0.10496
0.07289 0.16458 -0.29553
0.09718 -0.20320 0.37510
0.09718 0.03341 0.05682
0.08690 0.17034 0.24431
-0.02606 0.19333 0.39607
-0.04945 0.19334 0.40097
-0.07780 0.19334 0.40814
-0.09962 0.21764 -0.42920
0.07922 -0.05645 -0.01914
-0.09718 0.16859 -0.33790
0.07653 -0.06149 0.02446
-0.07289 -0.10884 0.10288
0.02516 0.19334 0.41906
-0.00816 0.19334 0.41546
0.10034 0.20072 -0.30549
0.09718 -0.09773 -0.07635
-0.09718 0.19087 -0.36762
0.10659 0.21493 -0.09879
0.08040 -0.08094 0.04593
-0.07289 0.11191 0.13616
0.10201 0.20744 -0.01619
-0.08151 -0.20333 0.28524
0.10947 0.21764 -0.23007
0.11552 0.21764 0.40952
0.11034 0.21764 0.12943
0.11503 0.21764 0.21274
0.11173 0.21764 0.38237
0.11591 0.21764 0.24962
0.10971 0.21764 0.40376
0.09431 -0.15726 0.16065
-0.09250 -0.00105 -0.03152
0.07289 0.14427 0.23962
-0.07970 0.15045 0.19182
-0.08143 -0.16247 -0.23398
-0.06776 0.19334 -0.39661
-0.00751 0.19334 -0.40348
0.05453 0.19334 -0.40809
0.06553 0.19334 -0.41207
0.09494 -0.17207 0.26255
0.09117 0.11844 0.13184
-0.09718 -0.05939 -0.03702
-0.11703 0.21636 0.40977
-0.11610 0.21541 0.38386
-0.07819 -0.16619 -0.17858
0.09185 -0.16165 0.23162
0.09718 -0.16709 0.24110
0.09718 -0.20866 0.37785
-0.09064 -0.00587 0.02753
0.09396 0.16562 0.23005
0.07289 -0.10061 -0.10770
-0.08619 0.19333 0.39505
-0.09075 0.21021 0.42822
-0.04133 0.17829 0.38873
-0.00108 0.16959 0.38873
0.11090 0.20696 -0.38183
0.11067 0.20634 0.22032
-0.08935 -0.20486 0.29093
-0.07289 -0.13507 0.13275
-0.08411 0.21530 -0.42276
-0.03898 -0.20778 0.38873
-0.01859 -0.20515 0.38873
0.09718 0.10407 -0.13334
0.08532 -0.16288 0.17157
-0.09718 0.09944 -0.11601
-0.07791 -0.00526 -0.00388
0.09718 0.11470 0.15705
0.11534 0.21764 0.09468
0.11242 0.21764 -0.18638
0.11579 0.21764 -0.35547
0.11526 0.21764 0.08173
0.11761 0.21764 0.17579
0.11680 0.21764 0.25800
0.11435 0.21764 0.04179
-0.00145 0.19334 -0.02434
0.03390 0.19334 0.13218
0.06991 0.19334 0.27288
0.06584 0.19334 0.25274
-0.04507 0.19334 -0.20402
0.06852 0.19334 0.26351
0.00804 0.19334 0.02067
0.09718 0.01497 -0.04238
0.07692 0.18947 -0.32988
-0.11388 0.21764 -0.21492
-0.11380 0.21764 -0.10048
-0.11814 0.21764 -0.10951
-0.11468 0.21764 -0.25490
-0.11718 0.21764 0.27389
-0.11707 0.21764 0.24876
-0.11058 0.21764 -0.38208
0.07328 -0.15243 -0.15127
-0.08262 -0.19027 -0.34803
-0.09718 -0.16606 -0.20801
-0.10998 0.20392 0.41695
0.08376 0.10064 -0.14919
0.09718 -0.11451 -0.12560
0.09718 -0.12897 -0.13903
0.09091 0.20555 -0.41719
0.10220 0.20792 -0.20369
-0.11566 0.21492 -0.15151
-0.07496 0.13363 0.21442
-0.09718 0.16865 -0.24032
0.09125 -0.18098 -0.21321
-0.09785 0.19942 0.42209
0.09718 0.15207 -0.23695
0.09410 -0.00555 0.00415
-0.08980 0.16124 -0.30750
-0.11729 0.21661 -0.00310
0.09151 -0.19317 0.37183
-0.07289 -0.16801 -0.24418
0.07289 -0.17481 0.24008
-0.09718 -0.11230 0.11628
0.10510 0.21305 -0.16559
0.09718 0.13206 -0.21064
0.08460 0.17562 0.41303
0.07331 0.17356 0.41303
0.03628 0.17674 0.41303
0.09138 0.18321 0.41303
-0.04672 0.21191 -0.42923
0.09027 0.14367 -0.17709
-0.07289 -0.09167 0.08793
0.09718 0.14225 -0.19974
0.10121 0.20509 0.15563
0.10136 0.20560 -0.21050
0.10780 0.21622 -0.04516
0.10756 0.21597 0.16866
-0.09519 -0.15537 -0.21504
0.09018 -0.14107 -0.13066
-0.09718 -0.05436 0.04805
-0.08724 -0.07711 -0.04126
-0.08993 0.16881 0.37182
-0.09718 0.07987 0.11639
0.07289 0.02273 -0.03591
0.07289 0.17724 -0.38659
-0.09718 -0.19934 -0.32780
-0.09718 -0.19475 0.36205
-0.07289 0.13293 -0.16124
-0.07614 -0.10246 0.07238
-0.07289 0.03890 0.03506
0.07515 -0.10037 0.06958
-0.08910 -0.16664 0.24601
0.09718 0.13678 0.17690
-0.07750 0.19334 -0.42517
0.08944 0.19334 -0.42137
0.07530 0.14743 -0.25241
-0.08947 -0.10585 -0.07717
-0.07757 -0.01307 -0.02157
0.06827 0.16904 -0.40099
0.06230 0.16904 -0.39911
-0.00835 0.16904 -0.40718
0.10933 0.19432 -0.10314
0.10933 0.19397 -0.05688
0.10933 0.19441 -0.41221
0.10933 0.19388 -0.17227
-0.07933 -0.13428 -0.16909
-0.07289 -0.14787 -0.15148
-0.03275 -0.21187 -0.41303
0.07491 -0.20609 -0.41303
0.02577 -0.21309 -0.41303
0.07757 0.17710 0.26752
0.09718 -0.03756 -0.00124
0.08935 -0.11585 -0.13595
0.09644 0.11382 -0.12447
-0.07315 0.16448 0.32756
-0.07289 0.17060 -0.25009
-0.09206 -0.03641 -0.00054
-0.07692 0.15319 0.27203
-0.07289 -0.08422 0.05754
0.07289 0.14067 0.21945
-0.10040 0.20128 0.00386
-0.08385 -0.19354 -0.24945
0.09718 0.04344 -0.06511
-0.10631 0.19942 0.12308
-0.10912 0.19942 0.23421
-0.10429 0.19942 -0.11970
-0.10839 0.19942 0.08145
-0.10604 0.19942 0.05261
-0.10472 0.19942 -0.01147
0.09718 -0.15735 0.16630
0.07856 0.05383 0.04894
-0.00925 0.19334 -0.04690
0.01115 0.19334 0.02657
0.01916 0.19334 0.07450
0.09320 0.19334 0.35259
0.05925 0.19334 0.23120
0.08905 0.19334 0.36035
0.01434 0.19334 0.06085
0.08463 0.21295 0.42994
0.09513 0.19333 -0.39554
0.09718 0.17375 -0.32356
0.09718 0.17424 -0.29673
-0.09718 -0.01525 -0.00899
0.07869 0.12316 0.13938
0.01333 0.19302 0.38873
0.01985 0.19302 0.38873
0.11327 0.21173 -0.13321
0.11097 0.20714 0.40154
0.11105 0.20736 0.19590
0.11217 0.20984 0.08776
0.11246 0.21038 -0.10422
0.07289 -0.20486 0.32540
-0.07289 -0.14527 0.17233
-0.07289 0.13158 -0.17575
-0.06633 0.21658 0.43311
0.09265 0.15963 0.29835
0.10022 0.19946 -0.01912
0.07289 -0.14960 -0.17256
-0.07289 0.17693 -0.34880
-0.07289 0.17748 -0.30464
0.07289 -0.12567 -0.13085
0.09615 0.15371 -0.27419
0.08251 -0.15324 0.21006
-0.07289 -0.06451 0.03872
-0.07469 0.16529 -0.33257
0.07289 -0.15428 0.18062
0.10186 0.19334 -0.09662
0.07289 -0.07411 -0.04384
-0.05849 0.21764 0.43044
-0.04476 0.21764 0.43035
-0.09718 -0.08363 -0.06788
0.07289 -0.06061 0.05050
-0.10965 0.20226 0.36137
-0.10964 0.20218 -0.07789
0.07920 0.17519 0.25972
-0.09106 -0.21764 -0.39104
-0.09055 -0.06341 -0.02648
0.07289 -0.18324 0.29428
0.07415 -0.21336 -0.33670
0.01137 -0.19478 0.40086
0.07252 -0.19485 0.40238
-0.00040 -0.19526 0.41040
0.00917 -0.19538 0.41288
-0.11470 0.21377 0.34413
-0.10127 0.20530 0.01674
-0.07972 -0.15223 -0.20770
0.05657 0.19334 -0.41935
0.01217 0.19334 -0.42218
0.09141 0.15289 0.19760
0.09718 -0.13054 0.13780
-0.09718 0.10599 0.13856
-0.02538 0.18025 0.41303
-0.05964 0.18252 0.41303
0.04507 0.17371 0.41303
0.00273 0.17172 0.41303
-0.10037 0.20102 0.34835
-0.10032 0.20050 0.18452
-0.10024 0.19959 0.38763
-0.07939 0.14632 -0.18218
-0.10976 0.20293 -0.22327
0.09718 0.16834 -0.35812
0.07728 -0.06390 -0.02700
-0.09718 0.15590 -0.22931
-0.06532 -0.19446 -0.39455
-0.01343 -0.19506 -0.40651
-0.09718 -0.18808 -0.23913
-0.09718 -0.19204 -0.30512
0.08124 -0.01432 -0.02053
-0.09718 -0.21242 -0.41171
-0.11142 0.20826 -0.41460
-0.11138 0.20817 0.03280
0.11690 0.21623 0.42774
0.07765 0.15626 0.28458
0.09718 -0.20249 0.28222
-0.10089 0.19672 -0.42518
0.07289 -0.13599 -0.16922
-0.10441 0.21205 0.15312
-0.05540 0.19596 -0.42518
0.10940 0.20024 -0.31777
0.08920 -0.17085 -0.25816
0.06578 0.19334 0.40488
0.03049 0.19334 0.40906
-0.04212 0.19334 0.41248
-0.09718 -0.19803 0.32237
-0.09718 -0.20343 0.30019
-0.00347 0.21412 0.42175
-0.11627 0.21558 -0.06717
0.08680 -0.07727 -0.07973
-0.07289 -0.17623 0.24471
0.10287 0.20938 -0.00592
-0.09718 -0.06080 -0.02814
0.07289 0.06608 0.09557
-0.07289 0.17899 0.31611
-0.07289 0.18641 0.34130
-0.07889 -0.12216 0.10016
-0.07289 -0.04977 0.03038
0.08326 0.11206 0.12166
-0.11346 0.21764 -0.04296
-0.11836 0.21764 0.27888
-0.11604 0.21764 0.05729
-0.11075 0.21764 -0.36901
-0.11743 0.21764 -0.03255
-0.11704 0.21764 -0.29429
-0.09718 -0.14644 -0.15611
-0.09718 -0.13917 0.13674
0.07885 0.06571 -0.09888
0.07289 -0.18872 0.29072
0.09511 -0.17784 0.28400
0.07289 0.09274 0.09841
-0.09191 0.15630 0.20567
0.11204 0.20959 -0.08688
0.11243 0.21031 -0.12846
0.07289 -0.19453 0.29013
-0.07289 -0.12695 0.15033
0.02249 0.18028 0.38873
0.07289 -0.03701 -0.01891
0.07289 -0.19795 0.35791
-0.03370 0.19360 0.42518
0.08160 0.16785 -0.35988
-0.10269 0.20899 0.22547
0.09640 0.01150 0.04191
-0.09718 -0.12310 0.10534
0.09536 -0.16641 -0.17908
0.02991 0.17820 -0.41303
-0.03914 0.17299 -0.41303
0.06017 0.17884 -0.41303
0.03331 0.17113 -0.41303
-0.08698 -0.05531 -0.05326
-0.07289 -0.07210 -0.03885
0.07725 0.16249 -0.22061
-0.07289 0.12196 -0.16062
-0.04191 0.16904 0.41194
-0.07779 0.16904 0.39669
-0.04779 0.16904 0.41002
0.08044 0.16904 -0.40703
-0.01397 0.16904 -0.40826
0.07439 0.16904 -0.39404
0.01025 0.16904 -0.41273
-0.08109 0.15612 0.28401
-0.07289 0.05013 -0.07075
0.09718 0.15753 0.21546
0.10963 0.20209 0.29283
0.07362 0.19334 -0.39886
0.03422 0.19334 -0.39692
0.09079 0.07944 -0.11734
-0.01043 0.20820 0.41817
-0.09718 0.18577 -0.34138
-0.08150 -0.21664 -0.36362
0.08993 -0.14321 0.13418
0.07558 0.16904 0.40374
0.04938 0.16904 0.39077
0.05636 0.16904 0.39963
0.08352 -0.15799 -0.16207
-0.08022 0.06022 0.09244
0.09718 -0.07587 0.06153
0.09718 -0.20517 -0.30018
-0.07289 0.18560 0.32184
-0.07289 -0.19617 -0.32546
-0.10205 0.20753 -0.23409
0.09718 -0.00620 0.01655
0.07289 -0.13693 0.14880
0.09718 0.00957 0.03465
-0.09718 -0.16324 0.23481
0.09718 -0.01657 -0.01441
0.09718 -0.00960 -0.01044
0.09718 0.07362 -0.10146
0.09716 -0.16275 0.23480
0.07532 0.16105 0.30631
-0.09718 -0.07087 -0.05703
0.10275 0.20912 -0.07470
-0.04976 0.21508 0.43164
0.06046 -0.19867 0.38873
-0.11531 0.21451 -0.29771
-0.08864 -0.18482 0.22429
-0.08105 -0.17083 -0.25811
0.09718 0.15430 -0.21675
0.02864 0.21602 -0.42345
-0.07289 0.04606 -0.06236
0.07573 -0.16864 -0.18430
-0.10531 0.21334 -0.20819
-0.07289 -0.17034 -0.22580
-0.10984 0.20327 0.06166
-0.10069 0.20300 0.38275
-0.11589 0.21764 0.35617
-0.10970 0.21764 -0.19996
-0.11112 0.21764 0.35445
-0.10956 0.21764 -0.28707
-0.11397 0.21764 0.08108
-0.11097 0.21764 0.27248
-0.10981 0.21764 0.36842
0.09718 -0.14003 -0.15052
-0.09718 0.04243 0.06634
-0.11196 0.20943 -0.20544
0.07289 0.04471 -0.05672
0.08198 -0.14700 -0.19548
-0.02294 0.18640 0.41303
-0.01425 0.18611 0.41303
-0.09718 -0.03101 -0.00040
-0.09718 -0.06403 -0.05629
-0.11554 0.21478 -0.36133
-0.11483 0.21394 -0.19673
0.07289 0.05641 0.06104
-0.09718 0.10960 -0.15849
-0.09718 0.07801 0.08597
0.09535 0.08938 -0.13122
0.07590 0.13210 -0.21082
0.07289 -0.13926 -0.14684
0.09430 0.21327 -0.42110
0.09718 -0.19418 0.33937
-0.09718 -0.11457 0.09115
-0.08260 0.17956 -0.27758
0.10913 0.21745 -0.35335
-0.08721 -0.19429 0.39122
-0.07335 0.03081 -0.02656
-0.02671 0.19942 -0.27333
-0.08981 0.19942 -0.17384
-0.09869 0.19942 -0.18471
-0.08760 0.19942 0.03782
0.01226 0.19942 -0.15992
-0.08522 0.19942 0.11397
0.00032 0.19942 -0.29091
0.04152 0.19942 -0.23063
-0.03041 0.19942 0.07208
-0.04926 0.19942 0.02189
-0.08998 0.19942 0.01777
0.00580 0.19942 -0.15570
-0.04386 0.19942 -0.24141
-0.00189 0.19942 -0.01896
-0.08996 0.19942 -0.11125
-0.10005 0.19942 -0.06062
-0.09157 0.19942 -0.15002
0.01294 0.19942 -0.32669
-0.00294 0.19942 -0.05004
0.03721 0.19942 -0.38044
0.02661 0.19942 -0.11739
-0.08017 0.19942 0.00388
-0.01101 0.19942 -0.06081
-0.09065 0.19942 -0.12503
-0.04693 0.19942 -0.39661
-0.01895 0.19942 -0.03303
0.06564 0.19942 -0.30187
-0.00574 0.19942 -0.15752
-0.05323 0.19942 -0.35988
-0.07113 0.19942 0.27574
0.01121 0.19942 -0.35948
-0.04584 0.19942 0.17824
-0.08441 0.19942 0.34341
-0.08360 0.19942 0.31569
-0.09473 0.19942 0.23628
-0.08088 0.19942 0.14974
-0.04309 0.19942 -0.14081
-0.03879 0.19942 -0.24451
-0.06066 0.19942 -0.02090
0.05916 0.19942 -0.40014
0.04487 0.19942 -0.20041
-0.01282 0.19942 -0.38401
-0.09489 0.19942 0.06495
-0.01483 0.19942 -0.27694
-0.07367 0.19942 -0.39635
-0.04929 0.19942 -0.31832
-0.03892 0.19942 0.01277
-0.01293 0.19942 -0.01595
-0.01654 0.19942 -0.24759
-0.06695 0.19942 0.15609
-0.00591 0.19942 -0.28775
-0.02131 0.19942 -0.11659
-0.02413 0.19942 -0.00257
-0.09382 0.19942 -0.34273
0.03617 0.19942 -0.18945
0.06396 0.19942 -0.41045
-0.03226 0.19942 -0.17824
-0.08163 0.19942 -0.22372
-0.04833 0.19942 0.16064
-0.07827 0.19942 -0.18221
0.02052 0.19942 -0.11455
-0.06825 0.19942 0.01178
-0.04576 0.19942 -0.28827
-0.02645 0.19942 0.03064
-0.06238 0.19942 -0.37195
-0.00411 0.19942 -0.31183
0.03453 0.19942 -0.33909
-0.09147 0.19942 -0.22807
0.05921 0.19942 -0.30374
-0.01777 0.19942 0.02693
-0.01469 0.19942 -0.28779
-0.03348 0.19942 -0.22544
0.05285 0.19942 -0.39265
-0.06232 0.19942 0.20839
-0.04665 0.19942 -0.27917
0.06412 0.19942 -0.34383
-0.01335 0.19942 -0.16475
-0.05846 0.19942 0.07587
-0.06535 0.19942 0.17077
-0.04034 0.19942 -0.25031
-0.10013 0.19942 0.04726
-0.05205 0.19942 -0.26919
0.06215 0.19942 -0.27751
0.01831 0.19942 -0.28859
-0.06992 0.19942 -0.26210
-0.09385 0.19942 0.05489
-0.08646 0.19942 -0.07691
-0.09469 0.19942 -0.00549
0.03218 0.19942 -0.17643
-0.06449 0.19942 0.24882
-0.09689 0.19942 -0.16036
-0.04046 0.19942 -0.21945
-0.01169 0.19942 0.00665
-0.00209 0.19942 -0.21072
-0.07337 0.19942 -0.27432
-0.04292 0.19942 0.02888
-0.05159 0.19942 -0.41544
-0.09783 0.19942 -0.09139
-0.09647 0.19942 0.09507
-0.07850 0.19942 0.08350
0.04068 0.19942 -0.37341
-0.06126 0.19942 -0.35967
-0.04175 0.19942 -0.16657
-0.01635 0.19942 -0.13225
-0.09934 0.19942 -0.22754
-0.01609 0.19942 -0.19417
0.03968 0.19942 -0.31259
-0.04231 0.19942 -0.29284
-0.06965 0.19942 -0.06374
0.01441 0.19942 -0.38539
-0.00471 0.19942 -0.26239
-0.03212 0.19942 -0.10212
-0.03074 0.19942 -0.19981
-0.03529 0.19942 -0.26035
0.01699 0.19942 -0.30264
-0.03172 0.19942 -0.39175
-0.06120 0.19942 -0.07951
-0.08451 0.19942 -0.04348
0.00742 0.19942 -0.10950
-0.04269 0.19942 -0.19293
-0.09334 0.19942 0.27458
-0.04044 0.19942 -0.27518
-0.08035 0.19942 -0.16052
-0.05622 0.19942 -0.12268
-0.03807 0.19942 -0.21160
0.07105 0.19942 -0.33306
0.05584 0.19942 -0.28299
-0.04209 0.19942 0.10498
-0.07864 0.19942 -0.00310
0.02767 0.19942 -0.20287
-0.08071 0.19942 0.20233
0.09718 -0.18597 0.26411
0.09718 -0.19068 0.31064
0.08889 0.02812 -0.02413
0.09718 -0.04545 -0.02380
-0.09591 -0.13103 -0.11414
0.07680 -0.12480 0.15068
-0.09718 0.12266 0.17941
-0.09718 0.03337 -0.05193
0.09718 0.04882 0.07666
-0.07289 0.18139 -0.28609
-0.09450 0.03001 0.02578
-0.10062 0.20261 -0.21116
-0.07927 -0.11153 -0.08517
-0.08888 0.01879 -0.01640
-0.08606 -0.16867 -0.25186
0.09027 -0.19736 -0.26303
0.07652 0.16860 0.23905
0.08956 -0.02272 0.01308
0.07310 -0.16978 -0.25509
-0.09567 0.21014 -0.41912
-0.07289 0.12599 0.15112
-0.07779 0.19334 0.41679
0.01832 0.19334 0.42006
-0.00061 0.19334 0.42000
0.09718 -0.14635 -0.14503
0.08742 0.19334 -0.40524
-0.09718 -0.19506 0.27915
0.09712 -0.18711 -0.23089
0.07289 0.06559 -0.08373
-0.04271 -0.19433 -0.39195
0.09100 -0.19524 -0.41012
0.07289 -0.10680 -0.10227
0.09718 -0.08837 0.07417
-0.10853 0.21691 -0.32805
0.09718 -0.09999 0.07200
-0.10575 0.19334 0.12223
-0.09963 0.19334 -0.38062
-0.10360 0.19334 -0.13669
-0.10238 0.19334 -0.30646
-0.10583 0.19334 -0.27866
-0.09892 0.19334 -0.31084
-0.10909 0.19334 0.30497
-0.10858 0.19334 -0.15769
0.07289 0.17016 0.35238
-0.10440 0.19942 0.24534
-0.10130 0.19942 0.11257
-0.10062 0.19942 -0.21666
-0.10060 0.19942 -0.17829
-0.10070 0.19942 -0.29079
0.09718 0.10166 0.12864
-0.09718 -0.11667 -0.12967
0.09718 -0.13092 0.15617
0.07319 0.13375 0.15802
-0.07289 -0.18905 -0.30938
0.07289 -0.08655 -0.07449
-0.08368 0.16664 0.34484
-0.08841 -0.17863 -0.28693
0.07631 -0.07585 -0.03973
0.07687 -0.17351 -0.26791
0.09551 0.18521 -0.30351
0.07877 -0.12653 0.10674
0.09718 -0.16735 0.21102
0.07289 0.01085 0.01873
-0.08710 0.07734 -0.11452
-0.07289 0.01461 -0.03228
0.10529 0.21331 0.06614
-0.09126 -0.18863 -0.23526
-0.09718 -0.14760 0.15749
-0.09313 0.06415 -0.06006
-0.08208 -0.20613 0.29744
-0.07421 -0.04138 0.03855
-0.08299 -0.15968 0.22594
-0.07289 -0.12282 0.11986
0.11594 0.21525 -0.22638
-0.07289 -0.04812 0.01750
-0.07134 0.16904 0.39172
0.09718 -0.11843 -0.12210
0.09177 0.03801 -0.03356
-0.07289 -0.19819 0.27252
-0.07289 -0.19690 0.32028
-0.10244 0.20845 -0.41515
-0.09239 0.16829 -0.36526
-0.07289 -0.08700 -0.06202
0.10110 0.20473 0.19107
0.09718 -0.16269 -0.18839
0.08652 0.18793 0.32034
0.09718 0.12532 -0.16448
-0.07311 -0.03447 -0.00232
-0.08452 -0.18040 -0.29352
-0.09718 0.14189 0.23531
0.09718 -0.20972 0.32218
-0.09651 0.13819 0.16656
0.08854 0.10013 0.14837
0.07289 0.13424 0.21503
-0.11822 0.21744 0.09824
0.08683 -0.08985 -0.05678
0.07447 -0.13099 -0.16269
-0.07289 0.00290 -0.02703
0.07289 -0.12992 0.16017
0.10297 0.20959 0.30734
0.09718 -0.05696 -0.03016
0.11745 0.21676 0.34683
-0.07289 -0.08621 0.08804
-0.07289 0.14569 -0.22111
-0.07702 -0.15318 0.15271
0.09219 0.04871 0.04397
0.09718 -0.18307 0.29700
-0.11322 0.21165 -0.23473
0.09718 -0.04781 -0.03615
0.09998 0.19334 -0.29361
0.10474 0.19334 -0.12133
0.10930 0.19334 0.11481
0.10386 0.19334 -0.06419
0.10816 0.19334 -0.18932
0.10908 0.19334 0.05509
0.10798 0.19334 0.27594
0.09718 -0.20952 -0.35329
-0.07289 -0.12241 -0.10269
0.07631 -0.07412 0.03778
-0.09718 -0.15354 0.16210
-0.11374 0.21764 0.08852
-0.11299 0.21764 0.10062
-0.10969 0.21764 -0.24089
-0.11694 0.21764 0.37309
-0.11030 0.21764 -0.19043
-0.07289 0.08968 -0.11307
-0.00362 -0.21764 -0.40373
0.07391 -0.21764 -0.40818
-0.05463 -0.21764 -0.40930
0.03389 -0.21764 -0.39853
0.10818 0.21660 0.29647
0.10809 0.21651 -0.27982
-0.09718 -0.12743 -0.13489
0.07721 -0.00546 0.02787
-0.09151 -0.13696 0.17430
0.09354 0.14178 0.23536
0.10933 0.19439 0.32208
0.10933 0.19574 0.30533
0.10933 0.19575 0.25786
0.09074 0.13354 0.21422
-0.08790 -0.15644 -0.15907
-0.07289 -0.19978 0.29848
0.07289 -0.18485 -0.30157
0.09159 0.16140 -0.21773
0.09038 -0.03967 -0.03675
-0.10919 0.21751 0.10614
-0.09049 0.14266 0.17515
-0.07665 0.15982 0.21398
0.09718 -0.16507 -0.23667
-0.08981 0.03752 -0.03309
-0.10031 0.20040 -0.25957
-0.07289 0.16107 -0.25990
-0.08764 -0.14876 -0.14414
-0.11687 0.21620 0.04393
0.07569 -0.11771 0.13902
0.07535 -0.08807 0.05460
-0.09718 -0.20075 -0.38378
-0.07289 -0.18010 0.26300
-0.10219 0.20790 -0.22902
-0.09718 0.03728 0.04931
0.10072 0.20314 -0.29442
0.09718 -0.16554 -0.19621
-0.02511 0.18174 0.38873
0.04087 0.17347 0.38873
-0.05219 0.18423 0.38873
0.09718 -0.15279 0.18952
-0.07610 -0.16375 -0.17327
0.09718 0.11036 -0.16308
0.11334 0.21185 0.41291
-0.09269 -0.13342 0.11808
0.09630 -0.04630 0.04375
0.09718 0.03547 0.03971
-0.09013 -0.02960 0.00677
-0.07432 0.08368 -0.12303
-0.06037 0.19942 -0.41732
-0.08307 -0.08583 0.09093
0.07289 -0.20067 0.29178
-0.08949 -0.00197 0.03076
-0.11664 0.21597 -0.13034
-0.07808 -0.20626 -0.41303
-0.05647 -0.19865 -0.41303
-0.01078 -0.20197 -0.41303
-0.07343 -0.21056 -0.41303
-0.07289 -0.15769 -0.18093
-0.09718 0.18622 0.31704
-0.09016 0.09199 -0.09350
0.10292 0.20949 0.22870
-0.09227 0.17753 -0.26931
0.09707 -0.12407 0.14947
-0.09718 -0.17156 0.25028
0.09718 -0.17492 0.21047
0.11417 0.21306 0.19288
0.07590 -0.10014 0.11111
-0.03874 0.19942 0.15704
-0.03081 0.19942 -0.11996
-0.08655 0.19942 -0.13183
0.00650 0.19942 -0.37893
-0.06634 0.19942 0.16193
-0.03687 0.19942 -0.10762
-0.08469 0.19942 -0.14100
-0.01035 0.19942 -0.19977
-0.08707 0.19942 0.14158
-0.01783 0.19942 -0.30376
-0.08780 0.19942 -0.29423
-0.03001 0.19942 0.05436
-0.05892 0.19942 -0.19424
-0.06765 0.19942 -0.10309
0.00800 0.19942 -0.20024
-0.07373 0.19942 0.10858
0.05846 0.19942 -0.39377
-0.04888 0.19942 -0.14304
-0.09591 0.19942 -0.26774
-0.05232 0.19942 0.00208
-0.05825 0.19942 -0.29635
-0.00021 0.19942 -0.26675
-0.08059 0.19942 -0.10593
-0.06045 0.19942 -0.24775
-0.04233 0.19942 -0.23291
-0.04214 0.19942 -0.05255
0.02672 0.19942 -0.39020
-0.01325 0.19942 -0.08181
-0.05643 0.19942 -0.09557
-0.04298 0.19942 -0.37285
-0.03261 0.19942 -0.29395
0.02365 0.19942 -0.37701
-0.03945 0.19942 -0.08834
-0.08669 0.19942 0.34930
0.00133 0.19942 -0.13093
-0.06712 0.19942 -0.21348
-0.05536 0.19942 0.08684
-0.05225 0.19942 -0.22704
-0.02561 0.19942 -0.14289
0.07554 0.19942 -0.41167
0.05312 0.19942 -0.37845
-0.09578 0.19942 0.23031
-0.00171 0.19942 -0.06822
-0.05954 0.19942 -0.21404
-0.07067 0.19942 -0.17267
0.03580 0.19942 -0.29644
-0.02444 0.19942 -0.34013
-0.09856 0.19942 -0.01751
0.02968 0.19942 -0.28981
-0.09150 0.19942 0.07844
-0.03571 0.19942 -0.07813
-0.09872 0.19942 0.29235
0.02389 0.19942 -0.33385
-0.06523 0.19942 -0.39485
-0.08042 0.19942 -0.02287
0.02373 0.19942 -0.21230
-0.07076 0.19942 -0.07969
-0.08578 0.19942 0.06802
-0.05097 0.19942 0.20777
0.00755 0.19942 -0.03955
-0.08992 0.19942 0.14866
0.02676 0.19942 -0.40277
-0.01973 0.19942 -0.36495
0.02922 0.19942 -0.36274
-0.06514 0.19942 0.02912
-0.05446 0.19942 -0.37923
-0.07777 0.19942 -0.25986
-0.00660 0.19942 -0.00261
0.01826 0.19942 -0.16502
-0.07903 0.19942 -0.13268
-0.08616 0.19942 0.23375
-0.06549 0.19942 0.19320
-0.08134 0.19942 -0.37739
-0.05524 0.19942 0.17080
-0.00046 0.19942 -0.03487
-0.02423 0.19942 -0.02863
-0.00938 0.19942 0.01913
-0.08580 0.19942 0.21341
-0.03460 0.19942 -0.35014
-0.01737 0.19942 -0.26045
-0.05039 0.19942 0.07903
-0.04476 0.19942 -0.20237
-0.05170 0.19942 0.03883
-0.05108 0.19942 -0.10242
-0.00889 0.19942 -0.25940
-0.07841 0.19942 0.12843
-0.01276 0.19942 -0.17344
-0.00003 0.19942 -0.11298
-0.03940 0.19942 -0.31628
-0.08698 0.19942 -0.03613
-0.05670 0.19942 0.17602
-0.08893 0.19942 -0.24052
-0.06650 0.19942 -0.26629
0.04794 0.19942 -0.32978
-0.01283 0.19942 -0.32233
-0.05090 0.19942 -0.03345
0.03063 0.19942 -0.37107
-0.09450 0.19942 0.29666
-0.08673 0.19942 -0.27129
-0.01919 0.19942 -0.29497
-0.06670 0.19942 -0.25543
0.04019 0.19942 -0.17049
0.04648 0.19942 -0.23625
-0.09030 0.19942 0.25139
-0.03452 0.19942 -0.17222
0.00358 0.19942 -0.19800
-0.10007 0.19942 0.37161
-0.03058 0.19942 -0.28417
-0.05141 0.19942 -0.40927
-0.06923 0.19942 -0.38133
0.09718 -0.09379 0.10165
0.10085 0.20371 -0.03085
0.07289 0.04389 0.06437
-0.09107 -0.18867 -0.33494
0.07355 0.18693 -0.31418
0.08145 0.13776 -0.22421
0.08475 -0.07191 0.07320
-0.07484 0.00801 -0.00748
0.03887 0.20213 -0.42548
0.08548 -0.09529 0.10428
0.09718 -0.11225 0.09055
0.08585 0.21663 -0.42407
-0.08950 -0.17437 0.27112
-0.07289 -0.02190 0.00603
-0.10519 0.21319 0.26078
-0.10547 0.21355 0.13852
-0.08098 -0.18750 0.32890
-0.05525 -0.19764 0.41303
0.01160 -0.20776 0.41303
0.07046 -0.20188 0.41303
0.06902 -0.20708 0.41303
-0.08164 -0.02790 0.00833
0.09718 0.16818 0.28909
0.07289 0.15776 -0.25787
0.09718 0.03003 0.03018
-0.09718 -0.11302 -0.08959
-0.07665 -0.19863 -0.26777
-0.07523 0.13048 -0.20696
0.09718 0.13168 0.18446
-0.09718 -0.00385 -0.02894
-0.05820 0.16911 0.41303
0.00661 0.17582 0.41303
-0.01486 0.16931 0.41303
-0.09138 -0.18213 -0.30126
-0.09718 0.16363 -0.31961
-0.07550 -0.06943 0.07018
0.11009 0.21764 0.41217
0.11369 0.21764 0.11922
0.11072 0.21764 0.15730
0.11263 0.21764 0.03238
0.10980 0.21764 0.30818
0.07437 0.07836 0.11589
0.11062 0.21764 -0.34521
0.11811 0.21764 -0.10231
0.11774 0.21764 -0.40100
0.11457 0.21764 -0.09249
0.11595 0.21764 0.10272
-0.10521 0.21321 0.33965
-0.09718 -0.03003 0.02254
0.05204 0.20764 0.42700
-0.09316 0.12283 0.13885
0.11165 0.20876 -0.32485
-0.10043 0.20142 0.02452
0.08818 0.16742 0.35453
-0.09189 -0.06276 0.06207
-0.10132 0.20545 0.28781
0.09698 0.02044 0.01777
0.07289 -0.18060 0.23817
-0.09718 0.05879 0.06543
0.07946 0.15267 0.26991
-0.07631 0.07876 0.07674
0.08118 0.12466 -0.14177
0.04241 -0.21764 -0.39934
0.00177 -0.21764 -0.40716
-0.04056 -0.21764 -0.41132
0.06767 -0.21764 -0.39900
-0.08756 0.11501 0.12636
-0.09718 -0.09320 0.06511
-0.08047 -0.05804 -0.05632
0.08515 -0.18562 0.31924
0.09718 0.09223 0.12365
-0.09698 0.16819 0.36400
0.10619 0.21446 0.12283
-0.08079 -0.05209 0.01453
-0.09718 0.12618 -0.14459
0.11277 0.21094 -0.11712
-0.07880 -0.05146 -0.04920
0.07779 -0.18318 -0.30670
-0.07289 0.08444 -0.09321
-0.09106 0.18207 0.28783
0.09718 -0.19565 -0.28672
-0.09718 -0.13479 -0.13932
-0.10772 0.21614 0.05745
-0.10459 0.20889 0.42755
-0.08162 -0.01095 -0.00909
0.09718 -0.02119 -0.01629
-0.07289 0.07319 0.08617
0.07289 0.08413 -0.10811
-0.10123 0.20517 -0.05322
-0.08914 -0.02491 0.01107
0.11136 0.20812 0.23316
0.09035 -0.05949 -0.05809
-0.08646 0.03111 0.06074
0.09655 0.15899 -0.29572
0.08712 0.17518 -0.25970
-0.08611 -0.19125 -0.35609
-0.07944 -0.21714 0.41303
-0.06755 -0.21526 0.41303
-0.02196 -0.20871 0.41303
-0.09377 -0.21656 -0.36297
-0.09174 -0.10242 0.11433
-0.10933 0.19528 -0.12311
-0.10933 0.19511 -0.36470
0.00777 0.21764 -0.42886
-0.05810 0.21764 -0.42606
-0.09718 -0.04767 0.01217
-0.08211 -0.18963 -0.34281
0.09515 0.18329 0.29280
-0.08320 0.01762 -0.01544
0.10277 0.19942 0.11443
0.10040 0.19942 0.32177
0.10412 0.19942 0.05283
0.10184 0.19942 0.07950
0.07289 0.15414 0.21344
-0.09718 0.16417 0.32017
0.09502 -0.19390 -0.38354
0.09718 -0.15041 -0.16314
0.07501 -0.18999 -0.34572
0.08952 0.09077 -0.13343
0.08729 0.03794 -0.06738
-0.08768 -0.15082 -0.20440
-0.07744 0.09423 -0.09651
-0.09718 0.03184 0.03647
-0.07290 -0.13517 0.17082
0.07289 -0.00085 -0.01008
-0.08571 0.16206 -0.21932
-0.07289 -0.19833 0.37542
-0.07289 -0.16654 0.18974
0.09349 0.05884 0.09087
-0.06125 0.19881 0.42518
0.08001 0.00008 0.03246
-0.06007 -0.20721 -0.38873
-0.03472 -0.20407 -0.38873
-0.03806 -0.21081 -0.38873
-0.07289 -0.20069 0.38623
0.11027 0.20503 -0.04552
-0.09718 -0.10114 -0.07412
-0.07289 0.10446 -0.12577
0.07714 -0.11519 -0.13486
0.07289 0.08667 -0.09088
0.10950 0.20126 -0.02522
0.00400 0.20094 0.42531
0.07662 0.02461 0.05442
0.11485 0.21397 0.39643
-0.09622 -0.05712 0.05520
-0.07442 0.09248 0.13616
-0.08073 0.02854 0.05824
-0.09181 -0.14473 -0.13669
-0.03100 0.19334 -0.02799
-0.05048 0.19334 -0.17189
-0.08154 0.19334 -0.08267
-0.06308 0.19334 0.30946
0.02394 0.19334 0.21665
0.01000 0.19334 0.08565
-0.07131 0.19334 0.22237
-0.09600 0.19334 -0.17418
-0.05969 0.19334 0.22027
-0.03036 0.19334 -0.10653
-0.08446 0.19334 -0.04259
0.09331 0.19334 0.41215
-0.08783 0.19334 -0.14973
-0.03521 0.19334 0.18557
-0.05210 0.19334 0.26242
-0.09204 0.19334 0.37585
-0.01318 0.19334 0.00363
0.04591 0.19334 0.26435
-0.05386 0.19334 0.17430
0.00241 0.19334 0.20963
-0.08969 0.19334 0.26344
-0.03164 0.19334 0.29024
-0.00439 0.19334 0.22776
-0.06857 0.19334 0.32420
-0.05060 0.19334 0.25694
-0.05247 0.19334 0.13957
-0.08111 0.19334 0.17572
0.00957 0.19334 0.17309
-0.07026 0.19334 0.12599
-0.02854 0.19334 -0.08259
-0.08271 0.19334 0.27217
-0.06778 0.19334 0.20688
0.01493 0.19334 0.29079
-0.08865 0.19334 -0.36461
-0.00759 0.19334 0.31337
0.00054 0.19334 0.08296
-0.07179 0.19334 -0.04753
-0.04950 0.19334 0.37826
-0.00359 0.19334 0.41148
-0.00574 0.19334 -0.01252
-0.07714 0.19334 0.09894
0.03056 0.19334 0.19733
-0.08266 0.19334 0.18634
-0.06531 0.19334 0.11680
-0.04156 0.19334 0.11011
0.04407 0.19334 0.38455
0.05411 0.19334 0.34979
0.02089 0.19334 0.27633
-0.05225 0.19334 0.00343
-0.09524 0.19334 -0.20248
-0.06707 0.19334 0.06270
-0.06174 0.19334 0.33561
0.02652 0.19334 0.19363
-0.01800 0.19334 0.28002
-0.01249 0.19334 0.11938
-0.08065 0.19334 0.40003
-0.02990 0.19334 0.27208
-0.00662 0.19334 0.03192
-0.08019 0.19334 -0.09949
0.00051 0.19334 0.21628
-0.09125 0.19334 0.11869
0.03381 0.19334 0.29464
0.00790 0.19334 0.10536
-0.07987 0.19334 0.24749
0.05648 0.19334 0.28775
-0.07623 0.19334 0.32408
-0.09000 0.19334 -0.10806
0.06905 0.19334 0.36395
-0.03901 0.19334 0.01807
0.04402 0.19334 0.23757
-0.06519 0.19334 0.38762
-0.04169 0.19334 0.05938
0.00131 0.19334 0.05038
-0.02948 0.19334 0.03388
-0.04640 0.19334 0.13771
-0.04105 0.19334 0.19931
0.03762 0.19334 0.36807
0.00862 0.19334 0.24510
0.00682 0.19334 0.19408
-0.01329 0.19334 0.08589
-0.00298 0.19334 0.08894
-0.05451 0.19334 0.33632
0.04046 0.19334 0.25317
0.00309 0.19334 0.28967
-0.02975 0.19334 -0.09769
-0.04263 0.19334 0.37559
-0.06841 0.19334 -0.14929
-0.05494 0.19334 -0.12592
-0.03346 0.19334 0.23254
-0.06676 0.19334 0.39589
-0.07128 0.19334 0.16784
-0.07565 0.19334 0.27198
-0.06203 0.19334 0.28839
-0.05139 0.19334 -0.20153
0.04193 0.19334 0.37308
0.06630 0.19334 0.31716
0.04544 0.19334 0.27429
-0.09036 0.19334 0.20614
-0.09365 0.19334 0.07688
-0.08033 0.19334 0.13991
-0.07797 0.19334 -0.07865
0.05850 0.19334 0.38873
-0.09045 0.19334 0.09937
-0.07275 0.19334 -0.11898
-0.03491 0.19334 0.34516
-0.01774 0.19334 0.06974
-0.01605 0.19334 0.17340
-0.04627 0.19334 0.29328
0.02354 0.19334 0.22833
-0.02416 0.19334 0.28970
-0.04447 0.19334 -0.15319
-0.00874 0.19334 -0.02449
0.04837 0.19334 0.37750
0.01677 0.19334 0.20580
-0.02613 0.19334 0.09149
-0.05814 0.19334 -0.20396
-0.07020 0.19334 0.37082
0.06768 0.19334 0.29522
0.01486 0.19334 0.27889
-0.04478 0.19334 0.39777
-0.04173 0.19334 -0.14774
-0.09629 0.19334 0.23987
0.02292 0.19942 0.39713
0.04223 0.19942 -0.05605
0.06231 0.19942 0.33228
0.01385 0.19942 0.00436
0.06539 0.19942 -0.00830
0.03044 0.19942 -0.12147
0.02952 0.19942 0.36630
0.05389 0.19942 -0.01323
-0.06713 0.19942 0.37227
0.07018 0.19942 -0.13983
0.00555 0.19942 0.16617
0.03055 0.19942 0.35265
0.05939 0.19942 0.13026
0.01833 0.19942 0.29470
0.09813 0.19942 0.13569
0.08951 0.19942 0.15176
0.02545 0.19942 0.25222
0.09848 0.19942 -0.23138
0.01989 0.19942 0.09976
-0.01520 0.19942 0.27751
0.04894 0.19942 0.39920
0.07196 0.19942 -0.11032
0.05105 0.19942 -0.20392
0.07193 0.19942 0.27445
0.00230 0.19942 0.14020
0.05498 0.19942 0.14248
0.01743 0.19942 0.04571
0.02849 0.19942 0.23043
0.09536 0.19942 0.04651
0.09218 0.19942 -0.24691
0.09042 0.19942 0.05482
0.00538 0.19942 0.01426
-0.00482 0.19942 0.23742
-0.01933 0.19942 0.11052
0.07178 0.19942 0.34895
0.05542 0.19942 0.04942
-0.02054 0.19942 0.30034
0.09090 0.19942 -0.25676
0.02588 0.19942 0.06014
0.01498 0.19942 0.40421
-0.05371 0.19942 0.38380
0.02167 0.19942 0.14008
0.01575 0.19942 -0.03646
0.02909 0.19942 -0.02570
0.08463 0.19942 0.08332
0.06081 0.19942 -0.20791
-0.01623 0.19942 0.41380
-0.05503 0.19942 0.35083
0.07703 0.19942 -0.07271
0.00320 0.19942 0.32254
0.03619 0.19942 0.38517
-0.00002 0.19942 0.21517
0.07946 0.19942 0.15746
0.09101 0.19942 -0.11603
0.06450 0.19942 0.29542
0.09287 0.19942 0.27391
0.07821 0.19942 -0.08584
0.05009 0.19942 0.38285
0.02020 0.19942 0.18860
0.04868 0.19942 0.07679
0.02666 0.19942 0.41240
0.09518 0.19942 0.35364
-0.03613 0.19942 0.31772
0.03624 0.19942 -0.10133
-0.09325 0.19942 0.39035
0.07495 0.19942 -0.15917
-0.01500 0.19942 0.15137
0.07580 0.19942 -0.30615
0.04590 0.19942 0.31565
0.02228 0.19942 0.21125
0.06206 0.19942 -0.03160
0.00098 0.19942 0.13021
0.04607 0.19942 0.08677
0.00751 0.19942 0.36183
0.09751 0.19942 0.29308
-0.00731 0.19942 0.04565
0.00780 0.19942 0.22834
0.08918 0.19942 -0.18054
0.06385 0.19942 0.26665
0.06707 0.19942 -0.12650
-0.02534 0.19942 0.31221
0.02331 0.19942 0.15173
0.06627 0.19942 0.28595
-0.02317 0.19942 0.33492
0.04533 0.19942 0.19988
0.05714 0.19942 -0.18774
0.03666 0.19942 0.40913
0.03940 0.19942 0.39064
0.08142 0.19942 -0.29686
0.07560 0.19942 -0.23081
0.07352 0.19942 0.21258
0.00928 0.19942 0.11387
0.06465 0.19942 -0.22937
0.04092 0.19942 0.01206
0.07365 0.19942 0.14170
0.08619 0.19942 0.02054
0.05430 0.19942 0.00754
-0.06822 0.19942 0.30974
-0.05912 0.19942 0.32667
0.09500 0.19942 0.22887
-0.00147 0.19942 0.01113
-0.00614 0.19942 0.14025
-0.00290 0.19942 0.11559
0.06218 0.19942 0.17386
-0.02958 0.19942 0.30787
-0.03512 0.19942 0.35573
-0.04122 0.19942 0.29871
0.02693 0.19942 0.37051
0.02140 0.19942 0.26834
-0.03144 0.19942 0.41162
0.03201 0.19942 0.21605
0.01860 0.19942 0.30598
-0.09675 -0.15506 0.15637
-0.07493 -0.14863 0.14389
0.07289 -0.16686 0.21327
-0.10119 0.20503 0.40657
-0.09718 -0.18522 0.30933
-0.09718 -0.19990 0.40054
-0.09718 -0.12138 -0.10688
-0.08199 -0.13388 0.11884
-0.09718 -0.00558 0.00605
0.07289 -0.17167 0.24903
-0.08969 -0.08456 -0.05033
0.07834 0.08171 0.08010
0.08381 0.04739 -0.07780
0.10994 0.20374 0.21039
-0.07289 -0.20435 0.37541
0.08658 0.00202 -0.03406
0.07289 0.03769 0.04987
-0.11207 0.20965 0.34884
0.08271 0.16004 -0.30003
0.08706 -0.14211 0.18432
-0.07289 -0.13328 -0.15059
0.11397 0.21278 0.17807
0.11376 0.21250 -0.40229
-0.09062 -0.05544 0.01807
0.09592 0.11902 0.18235
-0.07756 -0.21163 -0.32573
0.08718 0.18382 -0.29499
0.07289 0.16483 0.29775
0.09718 0.16215 -0.29999
0.10411 0.21159 -0.22699
0.10167 0.20653 -0.28827
0.07374 -0.06590 0.06589
-0.00638 0.21764 0.42771
0.09435 0.21764 0.43162
0.09718 0.11061 -0.14911
-0.07670 -0.05310 -0.01560
-0.07607 0.10637 -0.11283
-0.09718 -0.12855 -0.15208
0.09718 -0.18666 -0.31386
-0.08919 -0.06029 -0.05907
0.08021 -0.19504 0.25443
-0.09718 0.16514 -0.29686
-0.09718 -0.19328 -0.28104
-0.09718 -0.18950 -0.27285
0.07941 0.18553 -0.30548
-0.09031 -0.09806 0.06676
0.06241 0.19334 0.41696
0.03779 0.19334 0.41986
0.09875 0.21608 -0.42351
0.09718 -0.19928 -0.34447
0.09718 -0.20315 -0.31221
0.09584 0.20393 -0.42583
0.11259 0.21061 -0.02544
-0.07289 0.02026 0.04357
-0.09718 0.05470 -0.07264
-0.09576 -0.11728 -0.09328
-0.07754 -0.03857 -0.00144
-0.08304 -0.15238 0.20806
-0.09718 0.08175 -0.10222
0.07792 -0.04021 -0.03732
0.10096 0.20419 -0.04242
-0.11276 0.21091 -0.38781
0.08517 0.13972 -0.16950
0.08240 -0.19950 0.27101
0.09718 0.07898 -0.11434
0.07289 0.01970 0.03455
0.07289 -0.16181 -0.20493
-0.08598 -0.01833 0.01585
-0.06315 0.19081 -0.38873
-0.05326 0.17882 -0.38873
0.01818 0.17098 -0.38873
-0.07289 0.16070 -0.22660
0.09718 0.05911 -0.09038
-0.08564 -0.03311 -0.02982
0.09638 -0.14040 0.12957
0.07289 -0.06914 0.05759
-0.09718 0.17976 0.37825
-0.09718 0.17977 0.36032
-0.09718 0.18222 0.38363
0.08279 -0.21764 0.37313
-0.07289 0.15038 0.19942
-0.08693 -0.19429 -0.39116
0.10056 0.20228 -0.00601
-0.06426 0.19334 -0.40742
-0.01614 0.19334 -0.40756
-0.10190 0.20714 -0.40527
-0.11100 0.20723 0.32353
0.07862 0.10600 0.11234
0.09718 -0.09559 -0.06772
-0.10943 0.20053 0.38860
0.07289 0.11580 -0.13561
-0.09718 -0.05022 0.01988
0.08774 0.15244 -0.26898
0.07926 -0.05303 0.01553
0.11005 0.20421 -0.17709
0.07666 0.11228 -0.16940
0.07427 0.16463 -0.32844
0.07289 0.04169 -0.03875
0.07289 -0.02959 0.00014
0.08604 -0.15395 -0.21171
-0.09629 0.16327 0.22297
0.10418 0.21169 -0.28324
-0.07289 -0.17466 -0.24935
0.09718 -0.21582 -0.40177
-0.09067 -0.20725 -0.30321
-0.09271 -0.09851 0.10882
0.07544 0.04713 -0.04243
0.07289 -0.01129 0.01694
