-0.12616 0.18096 0.17552
-0.13101 0.17545 0.18303
-0.20909 0.19292 0.30386
-0.16464 0.17761 0.23507
-0.20669 0.15960 0.30015
-0.16347 0.16938 0.23326
-0.15782 0.17540 0.22452
-0.00345 0.15581 -0.01438
-0.06866 0.17185 0.08654
-0.17207 0.16500 0.24657
0.17841 0.15820 -0.29581
-0.06658 0.16062 0.08331
-0.09371 0.17341 0.12530
0.08208 0.16050 -0.14674
0.04366 0.15730 -0.08728
0.08390 0.12057 0.36776
0.09674 -0.16961 0.37700
0.08864 0.02292 0.36843
-0.12819 0.16029 -0.33247
0.23802 0.19329 -0.35042
0.23443 0.19182 -0.22980
0.21186 0.07491 -0.38638
0.21193 -0.02429 -0.38638
0.21025 0.00492 -0.38638
0.20266 0.13885 -0.38638
0.21884 0.17201 -0.38638
0.21211 -0.04925 -0.38638
0.23106 0.13354 -0.38638
0.21439 0.10714 -0.38638
0.20200 0.17301 -0.38638
0.22553 0.08458 -0.38638
0.20763 0.12847 -0.38638
-0.13585 -0.01107 -0.38639
-0.14274 -0.17215 -0.38642
-0.13495 -0.05998 -0.38639
-0.23972 0.07510 0.28887
-0.23942 0.04599 0.28721
-0.23798 0.10577 0.27903
-0.23559 0.18738 0.26547
-0.24192 0.08209 0.30139
-0.23845 0.16699 0.28170
-0.23664 0.10655 0.27143
-0.24199 0.10456 0.30176
-0.24074 0.05825 0.29464
-0.24163 -0.04436 0.29973
-0.23960 -0.00194 0.28819
-0.24223 -0.09066 0.30313
-0.23819 0.14867 0.28024
-0.13379 0.15496 -0.38282
-0.13379 0.17579 -0.37960
-0.13379 0.01681 -0.38516
0.12929 0.19329 0.35581
-0.02273 0.19329 -0.37545
0.16738 0.19329 -0.37038
0.08833 0.19329 -0.37470
-0.10019 -0.13952 -0.37830
-0.10254 -0.18746 -0.38518
0.13087 0.12927 0.36853
0.13357 0.16562 0.35323
0.13381 0.13005 0.35185
0.13459 0.15124 0.34744
0.12970 0.06979 0.37516
0.13293 0.03759 0.35687
0.13267 0.14492 0.35832
0.13332 0.18011 0.35466
0.13131 0.18652 0.36603
0.13396 0.08569 0.35104
0.13060 -0.07064 0.37008
0.13244 0.00892 0.35966
0.24312 -0.11275 -0.34079
0.23592 0.17462 -0.32680
-0.22111 0.19329 0.24872
0.11177 -0.19025 0.38178
0.11601 -0.09214 0.38251
0.11135 -0.14518 0.38170
0.11121 -0.10677 0.38168
0.12594 -0.01552 0.38422
0.11732 -0.02696 0.38273
0.12774 -0.07927 0.38453
0.11489 -0.16453 0.38232
0.16345 0.15724 -0.27266
-0.16199 0.16250 0.23097
0.01705 0.17059 -0.04610
0.03047 0.15547 -0.06686
0.02501 0.16245 -0.05842
-0.06926 0.17874 0.08747
0.20905 0.15538 -0.34323
0.00285 0.16177 -0.02413
-0.11745 0.15512 0.16204
-0.20380 0.17767 0.29568
-0.20420 0.18458 0.29630
-0.16814 0.15690 0.24049
0.14162 0.15900 -0.23888
-0.12008 0.16880 0.16611
0.03698 0.16805 -0.07694
0.11910 0.20163 -0.12719
0.16965 0.20163 -0.25287
0.22320 0.20163 -0.27475
0.04164 0.20163 -0.15825
0.20483 0.20163 -0.07825
0.09633 0.20163 -0.11828
0.12951 0.20163 -0.09470
0.16599 0.20163 -0.13212
0.20804 0.20163 -0.26861
0.19346 0.20163 -0.27396
0.12671 0.20163 -0.25175
0.23683 0.20163 -0.29292
0.22246 0.20163 -0.24744
0.01960 0.20163 -0.13014
0.18623 0.20163 -0.18785
-0.04800 0.20163 -0.06616
0.20237 0.20163 -0.12267
0.06245 0.20163 -0.14811
0.02077 0.20163 -0.04295
0.16097 0.20163 -0.03828
0.02655 0.20163 -0.06233
-0.08717 0.20163 -0.09394
0.21539 0.20163 -0.30378
0.09663 0.20163 -0.19573
0.12593 0.20163 -0.11851
0.13014 0.20163 -0.13588
0.20084 0.20163 -0.09797
0.20180 0.20163 -0.17010
-0.09408 0.20163 -0.08512
0.15351 0.20163 -0.30706
-0.11474 0.20163 -0.06078
0.24191 0.20163 -0.32748
0.04727 0.20163 -0.03688
0.04321 0.20163 -0.17441
0.09400 0.20163 -0.25147
0.04556 0.20163 -0.06178
0.20817 0.20163 -0.18380
0.17932 0.20163 -0.22015
0.14198 0.20163 -0.03498
0.08954 0.20163 -0.20231
0.02763 0.20163 -0.16508
0.05067 0.20163 -0.15205
0.24067 0.20163 -0.09929
-0.06562 0.20163 -0.06556
0.18552 0.20163 -0.09701
0.03710 0.20163 -0.11726
0.17541 0.20163 -0.32294
0.05984 0.20163 -0.19147
0.24248 0.20163 -0.00867
0.17222 0.20163 -0.26782
0.16880 0.20163 -0.27374
0.17602 0.20163 -0.08261
0.18895 0.20163 -0.21776
0.23975 0.20163 -0.14422
0.00472 0.20163 -0.10974
0.07780 0.20163 -0.15840
0.14019 0.20163 -0.15198
0.18044 0.20163 -0.20996
0.23711 0.20163 -0.30017
0.22242 0.20163 -0.09537
0.10932 0.20163 -0.25213
0.22536 0.20163 -0.19691
0.21834 0.20163 -0.07666
0.20540 0.20163 -0.15372
0.09287 0.20163 -0.03069
0.22931 0.20163 -0.09101
-0.09289 0.20163 -0.09728
0.01625 0.20163 -0.10423
-0.05951 0.20163 -0.09927
0.04269 0.20163 -0.10498
0.14680 0.20163 -0.24599
0.20093 0.20163 -0.30473
0.03476 0.20163 -0.08855
0.01194 0.20163 -0.17826
0.08849 0.20163 -0.15355
0.20884 0.20163 -0.03975
0.12630 0.20163 -0.03701
0.24105 0.20163 -0.19945
0.24302 0.20163 -0.31423
0.23727 0.20163 -0.13475
0.03242 0.20163 -0.07760
0.03937 0.20163 -0.09720
-0.05055 0.20163 -0.12790
0.12129 0.20163 -0.02863
0.05418 0.20163 -0.03976
0.07944 0.20163 -0.19960
-0.02593 0.20163 -0.15120
0.23114 0.20163 -0.03780
0.15626 0.20163 -0.20002
0.18672 0.20163 -0.20996
0.21448 0.20163 -0.31400
0.00971 0.20163 -0.09245
0.21393 0.20163 -0.09331
0.22115 0.20163 -0.11337
0.22789 0.20137 0.00298
0.13262 0.06087 0.38539
0.13383 0.12728 0.38561
0.12946 0.16478 -0.36580
0.02489 0.16498 -0.36580
0.19359 0.15624 -0.36580
-0.04652 0.15929 -0.36580
-0.10545 0.18260 -0.36580
0.17756 0.15836 -0.36580
-0.10198 0.16384 -0.36580
0.04743 0.16654 -0.36580
-0.08004 0.18066 -0.36580
-0.11118 -0.02795 -0.37582
-0.11081 -0.04329 -0.37582
-0.09892 -0.04885 -0.37582
-0.10440 0.14856 -0.37582
-0.10379 -0.08599 -0.37582
-0.10655 -0.11170 -0.37582
-0.10407 -0.00766 -0.37582
-0.11311 0.06931 -0.37582
-0.10945 0.16610 -0.37582
-0.10819 0.07384 -0.37582
-0.12584 0.13468 -0.37582
-0.10622 0.17743 -0.37582
-0.04827 0.19329 -0.36883
-0.09437 0.19329 -0.37467
0.00221 0.19329 -0.37206
-0.09992 -0.13406 -0.38566
-0.08658 0.13785 -0.38609
-0.09119 0.04389 -0.38620
0.04198 0.15435 -0.36883
-0.04333 0.15435 -0.36581
-0.24300 0.03146 0.30843
-0.23641 -0.18922 0.30959
-0.23987 -0.08713 0.30898
-0.20645 0.17633 0.22195
-0.20942 0.18593 0.23878
-0.20765 -0.04834 0.32539
-0.21665 -0.06609 0.32381
-0.20037 0.14502 0.32668
-0.20883 0.08681 0.32519
-0.22256 -0.14453 0.32277
-0.21157 -0.03075 0.32470
-0.20587 0.09242 0.32571
-0.20659 0.01188 0.32558
0.08847 0.19568 0.37761
-0.12161 0.19339 0.34057
-0.22050 0.18816 0.30159
-0.21837 0.16161 0.28950
-0.21553 0.16507 0.27342
-0.20444 0.17459 0.21055
-0.12864 0.19329 -0.33918
-0.13379 -0.16888 -0.38549
0.22571 0.15691 -0.35141
-0.14116 0.03594 -0.34414
-0.14315 -0.18039 -0.35469
-0.13767 -0.06695 -0.34914
0.23130 0.15986 -0.33486
0.12928 -0.17405 0.37742
0.12866 -0.14493 0.38100
0.12981 -0.18352 0.37432
-0.20234 0.20163 0.08622
-0.15820 0.20163 -0.02680
-0.17029 0.20163 -0.02551
-0.18489 0.20163 0.04599
-0.17130 0.20163 -0.05889
-0.21826 0.20163 0.18479
-0.01094 0.20163 -0.22748
0.10732 0.20163 -0.35895
-0.12709 0.20163 -0.12857
-0.07512 0.20163 -0.17929
0.13296 0.20163 -0.31623
-0.06860 0.20163 -0.18964
-0.10101 0.20163 -0.09685
0.07878 0.20163 -0.38458
0.15072 0.20163 -0.36106
0.14041 0.20163 -0.38282
-0.08489 0.20163 -0.18048
0.01446 0.20163 -0.24376
0.06446 0.20163 -0.30181
0.01201 0.20163 -0.31235
-0.13216 0.20163 -0.24854
-0.04828 0.20163 -0.16505
0.07440 0.20163 -0.30611
-0.01872 0.20163 -0.26935
0.17657 0.20163 -0.37180
-0.08609 0.20163 -0.13888
0.10197 0.20163 -0.33115
-0.06696 0.20163 -0.13018
-0.11147 0.20163 -0.14452
-0.10781 0.20163 -0.20303
-0.06183 0.20163 -0.32223
0.16377 0.20163 -0.35917
0.12049 0.20163 -0.38423
0.02188 0.20163 -0.37991
-0.14192 0.20163 -0.34788
0.09997 0.20163 -0.30210
0.04563 0.20163 -0.22631
-0.00389 0.20163 -0.20937
0.08948 0.20163 -0.31817
0.11245 0.20163 -0.34748
-0.03174 0.20163 -0.20000
0.03195 0.20163 -0.37223
0.10302 0.20163 -0.31619
0.11330 0.20163 -0.37647
-0.13536 0.20163 -0.16179
-0.11954 0.20163 -0.22192
0.02321 0.20163 -0.20773
-0.11093 0.20163 -0.27673
-0.02601 0.20163 -0.24144
0.15044 0.20163 -0.32865
-0.13396 0.20163 -0.30698
0.00171 0.20163 -0.20643
0.08646 0.20163 -0.26582
0.11358 0.20163 -0.33834
-0.03393 0.20163 -0.21327
0.14624 0.20163 -0.32345
-0.08611 0.20163 -0.25203
-0.02741 0.20163 -0.27159
-0.12455 0.20163 -0.21883
0.01059 0.20163 -0.27112
-0.02827 0.20163 -0.25010
0.05268 0.20163 -0.34521
0.06156 0.20163 -0.29124
-0.04537 0.20163 -0.30897
-0.11624 0.20163 -0.11143
-0.10679 0.20163 -0.34221
-0.03628 0.20163 -0.25870
-0.14033 0.20163 -0.33395
0.09879 0.20163 -0.29329
-0.07811 0.20163 -0.38410
-0.08996 0.20163 -0.21810
-0.11232 0.20163 -0.22612
-0.00447 0.20163 -0.18329
0.05620 0.20163 -0.25810
-0.10211 0.20163 -0.28600
0.05479 0.20163 -0.24421
-0.01968 0.20163 -0.33655
-0.11371 0.20163 -0.36955
0.18761 0.20163 -0.35126
0.12648 0.20163 -0.31787
-0.07999 0.20163 -0.24411
-0.08024 0.20163 -0.22370
0.08196 0.20163 -0.29842
0.12022 0.20163 -0.28822
0.05418 0.20163 -0.27174
-0.12482 0.20163 -0.16486
0.13100 0.20163 -0.33223
-0.05956 0.18299 0.34077
0.11656 0.16928 0.37183
-0.08261 0.18696 0.33671
0.04297 0.19260 0.35885
-0.19037 0.19028 0.31771
0.04997 0.16599 0.36009
0.07309 0.17641 0.36417
0.13733 0.19329 0.34244
-0.12961 -0.03491 -0.38638
-0.13027 -0.09131 -0.38638
-0.12408 -0.16240 -0.38638
-0.12477 -0.15225 -0.38638
-0.12962 -0.19615 -0.38638
-0.12352 -0.07794 -0.38638
-0.12790 0.10526 -0.38638
-0.11520 -0.15004 -0.38638
0.15939 0.19329 -0.13358
0.16957 0.19329 -0.19935
0.15505 0.19329 -0.11398
0.07794 0.19329 -0.22077
0.18147 0.19329 -0.15016
0.19940 0.19329 -0.16290
0.11923 0.19329 -0.03173
0.17327 0.19329 -0.18635
0.21345 0.19329 -0.35156
0.01120 0.19329 -0.07951
0.21729 0.19329 -0.22443
0.17793 0.19329 -0.30204
0.12590 0.19329 -0.07144
0.04568 0.19329 -0.13289
0.21491 0.19329 -0.17879
0.09470 0.19329 -0.25645
-0.03232 0.19329 -0.04254
0.06094 0.19329 -0.08977
0.17404 0.19329 -0.32488
-0.05378 0.19329 -0.05630
0.05749 0.19329 -0.02801
0.17325 0.19329 -0.13605
0.16940 0.19329 -0.07067
0.05085 0.19329 -0.18255
0.13091 0.19329 -0.17074
0.23462 0.19329 -0.00371
0.19947 0.19329 -0.13965
0.16107 0.19329 -0.29831
0.08417 0.19329 -0.19752
-0.05389 0.19329 -0.06344
0.23627 0.19329 -0.06198
0.18153 0.19329 -0.25696
0.00121 0.19329 -0.05439
0.21764 0.19329 -0.25774
-0.01272 0.19329 -0.14524
0.21790 0.19329 -0.20997
0.13753 0.19329 -0.10190
0.22509 0.19329 -0.30675
0.13009 0.19329 -0.02071
0.12848 0.19329 -0.11846
0.24216 0.19329 -0.02557
0.14152 0.19329 -0.26327
0.18939 0.19329 -0.17185
0.20691 0.19329 -0.14527
-0.01225 0.19329 -0.11185
0.13590 0.19329 -0.12372
-0.05327 0.19329 -0.09240
0.08954 0.19329 -0.06541
0.18380 0.19329 -0.27427
-0.02479 0.19329 -0.14021
0.06510 0.19329 -0.17971
0.23440 0.19329 -0.01363
0.08099 0.19329 -0.20775
0.23252 0.19329 -0.25088
0.16287 0.19329 -0.23122
0.19085 0.19329 -0.04019
0.15321 0.19329 -0.05982
0.17245 0.19329 -0.14452
0.17638 0.19329 -0.27574
0.12635 0.19329 -0.25269
-0.08325 0.19329 -0.09799
-0.04386 0.19329 -0.07844
0.15305 0.19329 -0.08126
0.09407 0.19329 -0.08812
-0.04180 0.19329 -0.11379
0.20569 0.19329 -0.31595
0.15327 0.19329 -0.04442
0.05927 0.19329 -0.05514
0.07002 0.19329 -0.16865
0.02211 0.19329 -0.08018
0.23807 0.19329 -0.15497
0.08759 0.19329 -0.25058
0.15215 0.19329 -0.23964
0.15559 0.19329 -0.20187
0.10341 0.19329 -0.21426
0.21811 0.19329 -0.05118
0.10408 0.19329 -0.19475
0.08518 0.19329 -0.15438
-0.03059 0.19329 -0.14085
-0.08988 0.19329 -0.09036
0.24165 0.19329 -0.37056
0.03712 0.19329 -0.03592
0.00993 0.19329 -0.17509
0.05368 0.19329 -0.20516
-0.00356 0.19329 -0.11367
0.17556 0.19329 -0.07732
0.13822 0.19329 -0.28216
0.19376 0.19329 -0.06217
0.08155 0.19329 -0.13300
0.10184 0.19329 -0.05379
-0.01042 0.19329 -0.06261
0.01904 0.19329 -0.04746
0.02021 0.19702 -0.38638
-0.06562 0.19729 -0.38638
-0.23584 -0.04478 0.30969
-0.24214 0.12037 0.30858
-0.22669 -0.11312 0.31130
-0.22212 -0.15717 0.31211
-0.22401 -0.19488 0.31178
-0.23900 0.07679 0.30913
-0.23769 -0.02871 0.30937
0.20603 -0.03020 -0.38095
0.20528 -0.01502 -0.38116
0.21437 -0.20028 -0.37656
-0.12323 0.18582 -0.23836
-0.12323 0.19204 -0.31579
-0.17009 0.15435 0.31803
-0.19897 0.15435 0.31341
-0.13104 0.19329 0.16614
-0.18510 0.19329 0.25580
-0.03820 0.19329 0.02544
-0.11019 0.19329 0.14602
0.22490 0.17115 -0.37582
0.24286 0.10010 -0.37582
0.22920 -0.00359 -0.37581
0.21368 0.11717 -0.37581
0.24365 -0.03137 -0.37581
0.23259 0.00589 -0.37581
0.23521 -0.10176 -0.37581
0.22341 0.14419 -0.37581
0.21590 0.18931 -0.37581
0.21942 0.10779 -0.37581
0.21375 0.07068 -0.37581
0.19917 0.19023 -0.37581
-0.17843 0.15435 0.25281
-0.03423 0.15435 0.01996
-0.02349 0.15435 0.00240
-0.02625 0.15435 0.00933
0.13109 -0.17420 0.38512
0.13377 -0.07825 0.38560
-0.20494 0.18971 0.16221
0.24362 -0.15047 -0.34263
0.23520 -0.11322 -0.34082
0.02499 0.15435 -0.06901
0.20521 0.15435 -0.35534
0.19920 0.15435 -0.34560
0.06835 0.15435 -0.13499
-0.23555 -0.04715 0.27094
-0.23505 0.03190 0.26711
-0.13379 0.17426 -0.33264
-0.13379 0.18350 -0.30269
-0.13380 0.18264 -0.29426
-0.09090 0.18619 -0.38638
-0.11411 0.16401 -0.38638
-0.10499 0.15852 -0.38638
-0.10432 -0.15520 -0.38638
-0.12625 0.13721 -0.38638
-0.10270 -0.08725 -0.38638
-0.10749 0.14969 -0.38638
-0.10965 0.10992 -0.38638
-0.11724 0.08779 -0.38638
-0.10234 -0.04290 -0.38638
-0.11125 0.08599 -0.38638
-0.09499 0.14708 -0.38638
-0.09826 0.07096 -0.38638
-0.21326 -0.17628 0.32196
-0.20465 -0.00069 0.32276
-0.20991 -0.12028 0.31879
0.16585 0.16577 -0.36580
0.12591 0.19281 -0.36580
0.02291 0.18287 -0.36580
-0.00967 0.19087 -0.36580
0.10895 0.18244 -0.36580
0.23381 0.15682 -0.36580
-0.02641 0.19038 -0.36580
0.04418 0.18977 -0.36580
0.13897 0.17897 -0.36580
0.21612 0.17445 -0.36580
-0.20096 0.19329 0.09985
-0.17849 0.19329 -0.05170
-0.17326 0.19329 -0.01847
-0.17714 0.19329 0.00795
-0.18874 0.19329 0.04404
0.22809 0.17219 -0.26562
0.14298 0.18902 0.23900
-0.13818 0.19329 -0.35606
0.18752 0.19071 -0.30991
0.20909 0.17704 -0.34330
0.16651 0.19089 -0.27741
0.03847 0.19183 -0.07925
0.19007 0.18535 -0.31386
0.01342 0.18296 -0.04048
0.20922 0.16758 -0.34350
-0.05857 0.18537 0.07092
-0.02574 0.17729 0.02011
0.13590 0.16257 -0.23004
-0.10066 0.18390 0.13606
0.16771 0.16913 -0.27925
0.05022 0.18204 -0.09743
-0.01981 0.18905 0.01095
0.00454 0.18387 -0.02675
0.00791 0.17386 -0.03196
0.11296 0.18550 -0.19454
-0.03254 0.17997 0.03065
0.06417 0.17845 -0.11902
0.22246 0.16015 -0.36399
-0.12357 0.18721 -0.22521
-0.16551 0.15435 0.23263
0.03124 0.15435 -0.08048
-0.20378 0.15435 0.28070
-0.06347 0.15435 0.06035
0.01106 0.15435 -0.04819
-0.13389 -0.11596 -0.36151
-0.13383 -0.18358 -0.37650
-0.13388 -0.16694 -0.36306
-0.13395 0.04691 -0.34464
-0.13385 -0.13900 -0.37117
-0.13388 -0.10049 -0.36176
0.13854 -0.01488 0.34603
0.14012 0.02692 0.34425
0.13838 -0.04872 0.34768
-0.14169 0.19329 -0.26451
0.09801 0.19329 -0.30961
-0.00056 0.19329 -0.29211
-0.09836 0.19329 -0.12976
-0.13680 0.19329 -0.19932
-0.02380 0.19329 -0.28008
-0.13539 0.19329 -0.28060
-0.03567 0.19329 -0.29847
-0.13587 0.19329 -0.25911
-0.13268 0.19329 -0.15854
-0.00625 0.19329 -0.24129
-0.12133 0.19329 -0.10905
-0.03971 0.19329 -0.31308
-0.13205 0.19329 -0.36534
0.04033 0.19329 -0.37678
0.03146 0.19329 -0.25362
0.11234 0.19329 -0.31809
-0.13270 0.19329 -0.11913
0.19668 0.19329 -0.35076
-0.11656 0.19329 -0.19603
-0.10125 0.19329 -0.15203
-0.06771 0.19329 -0.32946
-0.00174 0.19329 -0.38544
-0.11307 0.19329 -0.20935
-0.12959 0.19329 -0.18773
0.03879 0.19329 -0.29395
-0.12206 0.19329 -0.16109
-0.09240 0.19329 -0.38087
0.09702 0.19329 -0.26555
-0.00720 0.19329 -0.31391
0.00343 0.19329 -0.32188
-0.00999 0.19329 -0.22660
-0.04427 0.19329 -0.21561
-0.02897 0.19329 -0.18786
-0.14392 0.19329 -0.37163
-0.12741 0.19329 -0.23466
-0.13434 0.19329 -0.19376
-0.02579 0.19329 -0.30390
-0.03717 0.19329 -0.17546
-0.12776 0.19329 -0.32797
0.06043 0.19329 -0.23264
0.23092 0.19329 -0.38209
-0.06241 0.19329 -0.17877
-0.11799 0.19329 -0.08761
-0.10614 0.19329 -0.29444
-0.10468 0.19329 -0.36277
-0.11694 0.19329 -0.14661
-0.12580 0.19329 -0.21476
-0.09355 0.19329 -0.10738
0.03159 0.19329 -0.34818
-0.07476 0.19329 -0.21289
-0.13887 0.19329 -0.22634
0.02213 0.19329 -0.22473
0.12171 0.19329 -0.32153
-0.03595 0.19329 -0.35486
0.00851 0.19329 -0.25385
-0.04854 0.19329 -0.28581
-0.09775 0.19329 -0.18630
-0.01059 0.19329 -0.17701
-0.06608 0.19329 -0.20259
-0.06170 0.19329 -0.24266
0.04619 0.19329 -0.26880
-0.12025 0.19329 -0.33680
0.06283 0.19329 -0.27164
-0.02479 0.19329 -0.35189
0.02154 0.19329 -0.21652
0.18754 0.19329 -0.37755
0.02221 0.19329 -0.25459
-0.09650 0.19329 -0.31448
-0.08195 0.19329 -0.29177
-0.10729 0.19329 -0.18021
-0.08662 0.19329 -0.11116
0.12394 0.19329 -0.35574
0.00687 0.19329 -0.35661
-0.05961 0.19329 -0.24900
-0.02956 0.19329 -0.38398
-0.13628 0.19329 -0.24805
-0.05598 0.19329 -0.18972
-0.12211 0.19329 -0.32564
0.13370 0.04355 0.35248
0.12976 -0.16306 0.37484
0.13111 -0.18117 0.36717
0.13442 0.06283 0.34841
0.13492 0.01645 0.34555
0.13250 -0.05285 0.35932
0.13456 -0.00943 0.34760
-0.22800 0.15576 0.29285
-0.14447 0.16604 -0.35822
-0.14441 0.06864 -0.37333
-0.14438 -0.01488 -0.38217
-0.14451 0.14438 -0.34545
-0.14438 0.03320 -0.38297
-0.14441 -0.01839 -0.37428
-0.14444 0.17210 -0.36569
-0.14442 -0.03870 -0.36936
-0.14443 0.10069 -0.36889
-0.14444 0.15169 -0.36516
-0.14443 0.02172 -0.36827
-0.13379 0.07791 -0.37769
-0.13379 -0.05416 -0.38226
-0.13379 -0.00472 -0.37738
-0.24399 0.19256 0.31313
-0.24350 0.07225 0.31030
0.24500 -0.18857 -0.38549
0.24500 -0.05060 -0.38096
0.24500 -0.03331 -0.38386
0.05078 0.17358 0.35007
0.12069 0.16858 0.36239
0.05487 0.17822 0.35079
0.07210 0.18095 0.35382
0.11018 0.15517 0.36054
0.01555 0.17976 0.34385
0.04050 0.18153 0.34825
0.08273 0.16798 0.35570
-0.06058 0.17080 0.33043
0.13538 0.18887 0.28213
0.13201 0.18785 0.30122
0.00239 0.19329 0.35018
-0.17164 0.19329 0.31765
0.21954 0.18746 -0.36580
0.13567 0.01303 0.38593
0.13586 -0.01610 0.38596
0.13816 0.04227 0.38637
-0.14436 0.19611 -0.24894
-0.14436 0.19537 -0.16468
0.12894 -0.11879 0.37402
0.11704 -0.02053 0.37196
0.11651 0.00822 0.37187
0.11667 -0.08555 0.37190
0.12453 0.10894 0.37326
0.12185 -0.14855 0.37279
-0.21335 0.19329 0.31895
0.14264 0.16384 -0.36580
0.07798 0.16826 -0.36580
-0.01685 0.16022 -0.36580
-0.06461 0.18027 -0.36580
-0.07159 0.15506 -0.36580
-0.09366 0.16640 -0.36580
-0.01313 0.17498 -0.36580
-0.13328 0.17822 -0.36580
0.13014 0.01929 0.37267
0.13533 0.16864 0.34322
0.12945 0.17245 0.37659
0.13055 0.15975 0.37036
0.13153 0.06253 0.36482
0.12993 0.14349 0.37386
0.13392 0.07667 0.35122
0.13392 0.09904 0.35123
0.13309 0.07265 0.35592
0.12865 0.01183 0.38114
0.06238 0.19329 -0.36905
0.19137 0.19329 -0.37118
-0.13072 0.19329 -0.34618
0.01241 0.19329 -0.31203
0.16028 0.19329 -0.36746
-0.13578 0.19329 -0.13913
0.05590 0.19329 -0.35654
0.01509 0.19329 -0.28663
-0.02024 0.19329 -0.18816
0.14369 0.19329 -0.34765
-0.07909 0.19329 -0.16551
-0.07917 0.19329 -0.26409
-0.06922 0.19329 -0.30092
-0.13646 0.19329 -0.24180
0.01365 0.19329 -0.22300
-0.12788 0.19329 -0.26495
0.07022 0.19329 -0.36368
0.00247 0.19329 -0.22057
-0.12011 0.19329 -0.17132
-0.06872 0.19329 -0.26849
-0.04662 0.19329 -0.20568
-0.12767 0.19329 -0.37362
-0.10314 0.19329 -0.24541
-0.06983 0.19329 -0.22640
-0.12004 0.19329 -0.11550
-0.08598 0.19329 -0.23194
0.00873 0.19329 -0.20610
-0.12688 0.19329 -0.24204
0.15204 0.19329 -0.36404
0.13462 0.19329 -0.33323
0.18427 0.19329 -0.35903
0.14046 0.19329 -0.35729
-0.10887 0.19329 -0.32830
0.05634 0.19329 -0.34461
0.03732 0.19329 -0.28540
-0.12779 0.19329 -0.27654
0.08805 0.19329 -0.36441
-0.04343 0.19329 -0.28893
-0.10597 0.19329 -0.30958
-0.05374 0.19329 -0.25377
0.07741 0.19329 -0.35701
-0.05083 0.19329 -0.33646
0.00436 0.19329 -0.38011
-0.02144 0.19329 -0.25229
-0.04265 0.19329 -0.17245
-0.03828 0.19329 -0.27180
0.04418 0.19329 -0.34388
0.08288 0.19329 -0.33678
0.06898 0.19329 -0.27054
0.04643 0.19329 -0.34968
0.04647 0.19329 -0.29015
-0.11812 0.19329 -0.13509
0.09307 0.19329 -0.31675
0.02799 0.19329 -0.36529
0.08067 0.19329 -0.30860
0.02362 0.19329 -0.29873
-0.01319 0.19329 -0.29810
0.01811 0.19329 -0.27889
-0.10246 0.19329 -0.26462
0.08511 0.19329 -0.31606
0.00996 0.19329 -0.30332
0.22795 0.19329 -0.37468
-0.04416 0.19329 -0.17999
-0.04206 0.19329 -0.25454
-0.08331 0.19329 -0.13384
0.12232 0.19329 -0.37666
-0.03623 0.19329 -0.28650
-0.12665 -0.00532 -0.38638
-0.11764 -0.05834 -0.38638
-0.12807 -0.18821 -0.38638
-0.13177 0.14237 -0.38638
-0.11679 -0.19044 -0.38638
-0.11687 -0.11493 -0.38638
-0.12823 -0.14064 -0.38638
-0.07241 0.19329 0.07492
-0.05395 0.19329 0.05656
-0.16275 0.19329 0.21657
0.04603 0.19329 -0.10709
-0.07099 0.19329 0.08246
-0.03843 0.19329 0.35118
-0.18000 0.19329 0.31994
-0.10221 0.19329 0.31083
-0.13763 0.19329 0.28658
0.05184 0.19329 0.36424
-0.20525 0.19329 0.29267
-0.00091 0.19329 0.33596
-0.09879 0.19329 0.28609
-0.17680 0.19329 0.27658
-0.20900 0.19329 0.25481
-0.21372 0.19329 0.28492
-0.22850 0.19329 0.23728
-0.13931 0.19329 0.33251
-0.17481 0.19329 0.22097
-0.05983 0.19329 0.31432
-0.09148 0.19329 0.33243
-0.11795 0.19329 0.33422
-0.20768 0.19329 0.23370
-0.20211 0.19329 0.20957
-0.21615 0.19329 0.29975
-0.09147 0.19329 0.29810
-0.13104 0.19329 0.32526
-0.01512 0.19329 0.31960
-0.21701 0.19329 0.27260
-0.20920 0.19329 0.26261
0.00932 0.19329 0.35624
-0.23906 0.08868 0.30912
-0.23372 0.13403 0.31007
0.15119 0.19059 0.25330
0.15402 0.18203 0.23727
-0.23243 -0.09637 0.30839
-0.23063 -0.02875 0.29822
-0.22788 0.06074 0.28262
-0.23115 -0.03685 0.30117
-0.22659 0.10455 0.27527
-0.22856 0.17216 0.28643
-0.23048 0.11938 0.29736
-0.22884 0.12672 0.28802
-0.23095 -0.09718 0.29999
-0.23013 0.17434 0.29535
-0.22815 0.18995 0.28415
-0.22799 0.11908 0.28320
0.14247 0.07743 0.36360
0.13981 0.11539 0.37873
0.14361 0.04468 0.35717
0.14320 0.02423 0.35950
0.13868 0.07928 0.38512
0.13880 -0.12309 0.38443
0.13940 -0.04727 0.38104
0.14308 0.17969 0.36018
0.14567 0.13321 0.34545
0.14304 0.17143 0.36040
0.14551 0.16082 0.34637
-0.05066 0.17270 0.03921
-0.07331 0.17627 0.07427
-0.20858 0.17692 0.28360
-0.10039 0.16622 0.11617
0.09025 0.15648 -0.17886
0.05575 0.16144 -0.12546
-0.20612 0.16934 0.27979
-0.13042 0.16410 0.16264
-0.10987 0.15850 0.13084
-0.11558 0.16029 0.13967
-0.05597 0.17416 0.04742
0.02337 0.15585 -0.07536
-0.17808 0.17800 0.23640
-0.17808 0.18754 0.23641
-0.19905 0.17437 0.26885
-0.19181 0.15497 0.25764
-0.09030 0.16662 0.10055
-0.00539 0.16057 -0.03085
-0.19549 0.18583 0.26334
0.14437 0.15915 -0.26261
-0.21755 0.19679 0.16314
-0.21992 0.20049 0.17657
-0.20535 0.19827 0.09398
0.23443 0.19057 -0.29136
0.09334 0.03975 0.37860
0.10409 0.08922 0.38045
0.10615 0.02807 0.38081
0.09205 0.18154 0.37837
0.12025 0.09559 0.38324
0.08374 0.14750 0.37694
0.10801 0.09811 0.38113
0.10896 0.18280 0.38129
0.10831 0.12045 0.38118
0.12116 0.16294 0.38340
0.09631 0.16616 0.37911
0.09722 0.05557 0.37926
-0.14439 0.17648 -0.37977
-0.14441 -0.00730 -0.37465
-0.14437 0.13687 -0.38515
-0.14442 0.16933 -0.37128
-0.14441 -0.05082 -0.37280
-0.14439 0.14014 -0.38031
-0.14442 -0.00215 -0.36927
-0.14438 -0.03806 -0.38302
-0.14445 -0.00985 -0.36279
-0.14441 0.14302 -0.37206
-0.14437 0.16310 -0.38335
-0.14440 -0.10260 -0.37702
-0.24403 -0.06721 0.31333
-0.24490 -0.19700 0.31828
-0.24363 -0.18438 0.31104
0.12186 0.17868 -0.37582
0.23277 0.15563 -0.37582
0.06312 0.16220 -0.37582
0.03322 0.15976 -0.37582
0.05080 0.16791 -0.37582
0.17848 0.17147 -0.37582
0.13970 0.15678 0.33775
0.11473 0.15435 0.36810
-0.00409 0.15435 0.34073
0.13807 0.16776 0.32773
0.14903 0.17952 0.26554
0.13235 0.18399 0.36012
-0.08785 0.15437 0.33579
-0.16385 0.15482 0.32238
-0.22252 0.16668 0.31204
0.06443 0.15846 0.36264
-0.12665 0.16530 0.32895
-0.03986 0.17211 0.34425
0.08613 0.15904 0.36646
-0.19584 0.16159 0.31674
-0.06657 0.17058 0.33954
-0.07780 0.17254 0.33756
0.13875 0.16695 0.29376
0.23528 0.06037 -0.37581
0.24086 0.04044 -0.37581
-0.22177 0.17207 0.30201
0.00540 0.18149 0.34206
-0.21499 0.18024 0.30320
-0.04319 0.19128 0.33349
-0.14081 0.17005 0.31628
-0.01196 0.19127 0.33900
0.07435 0.18909 0.35422
0.03051 0.19214 0.34649
-0.00232 0.18680 0.34070
-0.09418 0.20163 -0.17046
-0.10274 0.20163 -0.23556
-0.05772 0.20163 -0.18513
-0.00029 0.20163 -0.27055
0.02268 0.20163 -0.31626
0.12024 0.20163 -0.35394
-0.13187 0.20163 -0.35170
-0.09167 0.20163 -0.30613
-0.08993 0.20163 -0.14998
-0.13457 0.20163 -0.18383
-0.09207 0.20163 -0.35978
-0.13295 0.20163 -0.14983
-0.02121 0.20163 -0.20579
0.02549 0.20163 -0.34130
-0.06997 0.20163 -0.16556
0.05577 0.20163 -0.23084
0.00506 0.20163 -0.26413
-0.14194 0.20163 -0.29269
-0.05438 0.20163 -0.24658
-0.13080 0.20163 -0.27955
-0.12316 0.20163 -0.19236
-0.03586 0.20163 -0.27869
0.04058 0.20163 -0.28916
0.02928 0.20163 -0.29721
0.10318 0.20163 -0.27981
-0.07140 0.20163 -0.20142
-0.01349 0.20163 -0.24311
-0.14080 0.20163 -0.10061
-0.09822 0.20163 -0.26066
0.09467 0.20163 -0.34039
0.05281 0.20163 -0.36911
0.18678 0.20163 -0.38115
0.00927 0.20163 -0.29657
-0.08224 0.20163 -0.11665
-0.03524 0.20163 -0.32863
-0.02204 0.20163 -0.25622
0.00694 0.20163 -0.21854
-0.06604 0.20163 -0.29009
-0.03168 0.20163 -0.34630
0.03075 0.20163 -0.28347
-0.08982 0.20163 -0.34318
-0.11050 0.20163 -0.25480
-0.06319 0.20163 -0.22242
-0.01196 0.20163 -0.21158
-0.05807 0.20163 -0.17823
0.01121 0.20163 -0.34680
-0.07023 0.20163 -0.13631
0.12424 0.20163 -0.33152
-0.10551 0.20163 -0.10457
-0.13131 0.20163 -0.29871
-0.01937 0.20163 -0.34655
-0.12140 0.20163 -0.29296
-0.07942 0.20163 -0.32832
0.02662 0.20163 -0.36924
-0.07446 0.20163 -0.36508
-0.09873 0.20163 -0.10642
-0.03310 0.20163 -0.29172
-0.03948 0.20163 -0.29483
-0.01433 0.20163 -0.36020
-0.02336 0.20163 -0.32191
-0.14263 0.20163 -0.25096
-0.06851 0.20163 -0.23438
-0.10108 0.20163 -0.16178
0.07410 0.20163 -0.33512
-0.03059 0.20163 -0.16994
-0.03176 0.20163 -0.31901
-0.04915 0.20163 -0.20783
0.15623 0.20163 -0.37212
-0.12830 0.20163 -0.18932
-0.13725 0.20163 -0.08942
0.08633 0.20163 -0.25327
-0.09133 0.20163 -0.36764
-0.13666 0.20163 -0.18982
0.04582 0.20163 -0.37797
0.05788 0.20163 -0.28287
-0.21863 0.20149 0.32346
0.07578 0.20157 0.37537
-0.23025 0.02964 0.31068
-0.21153 -0.10388 0.31398
-0.22111 -0.01778 0.31229
-0.22503 0.17816 0.31160
-0.20842 0.17761 0.31453
-0.21706 0.12455 0.31300
-0.20738 -0.04991 0.31471
-0.20786 0.15476 0.31463
-0.24010 0.18979 0.30894
-0.20994 0.13353 0.31426
0.13904 0.17056 0.27320
0.23320 0.17946 -0.36580
0.23443 0.17957 -0.23918
0.23443 0.18523 -0.36330
0.23443 0.17184 -0.34684
-0.07274 0.16924 -0.37582
-0.10224 0.19010 -0.37582
-0.06186 0.19234 -0.37582
0.03841 0.18211 -0.37582
0.09577 0.19026 -0.37582
-0.08342 0.17927 -0.37582
0.01185 0.18036 -0.37582
0.05850 0.18045 -0.37582
-0.02869 0.19041 -0.37582
-0.14081 0.20163 0.33368
-0.15625 0.20163 0.33024
-0.06464 0.20163 0.26538
0.06975 0.20163 0.20267
0.11500 0.20163 0.27566
0.10106 0.20163 0.36551
-0.07629 0.20163 0.25598
0.14549 0.20163 0.19932
0.13892 0.20163 0.36652
0.15047 0.20163 0.25836
0.12178 0.20163 0.25759
0.08730 0.20163 0.23987
0.07770 0.20163 0.33102
-0.06050 0.20163 0.31505
0.10405 0.20163 0.31691
0.01675 0.20163 0.25419
0.01752 0.20163 0.30883
0.04848 0.20163 0.37004
0.06326 0.20163 0.28797
0.06822 0.20163 0.15804
0.10120 0.20163 0.15862
-0.14101 0.20163 0.25903
-0.23585 0.20163 0.31730
-0.15537 0.20163 0.27281
0.12806 0.20163 0.34197
0.02364 0.20163 0.19515
-0.00247 0.20163 0.24749
0.01777 0.20163 0.28347
0.08756 0.20163 0.20911
-0.13562 0.20163 0.30118
-0.00016 0.20163 0.16767
0.12525 0.20163 0.36478
-0.12712 0.20163 0.26643
0.07359 0.20163 0.28882
0.08567 0.20163 0.18288
-0.08001 0.20163 0.26888
-0.02002 0.20163 0.35770
0.14002 0.20163 0.12352
0.12228 0.20163 0.09898
0.12081 0.20163 0.33639
-0.01525 0.20163 0.20205
-0.01818 0.20163 0.19706
-0.19684 0.20163 0.29397
-0.01547 0.20163 0.22618
0.06611 0.20163 0.16589
0.20341 0.20163 0.00935
-0.03905 0.20163 0.27157
0.10687 0.20163 0.32443
0.08158 0.20163 0.10755
0.15707 0.20163 0.20785
0.07733 0.20163 0.27782
-0.14210 0.20163 0.31207
0.10581 0.20163 0.27279
0.08705 0.20163 0.15172
-0.02626 0.20163 0.20090
-0.10596 0.20163 0.31944
-0.03004 0.20163 0.34866
-0.03503 0.20163 0.33897
0.03524 0.20163 0.22478
0.10525 0.20163 0.28344
0.09168 0.20163 0.23306
0.14918 0.20163 0.24704
0.12493 0.20163 0.32542
-0.21364 0.20163 0.29964
0.12469 0.20163 0.06801
0.15665 0.20163 0.06464
0.11391 0.20163 0.18487
0.15686 0.20163 0.15085
0.15839 0.20163 0.04633
0.13181 0.20163 0.30119
0.10533 0.20163 0.22266
0.07448 0.20163 0.35253
0.14688 0.20163 0.33687
0.10362 0.20163 0.09793
-0.06457 0.20163 0.28273
0.15775 0.20163 0.13071
-0.00506 0.20163 0.19167
0.15327 0.20163 0.04170
0.00267 0.20163 0.29679
0.05038 0.20163 0.30264
-0.02490 0.20163 0.33697
0.02733 0.20163 0.30284
-0.00589 0.20163 0.25655
0.01649 0.20163 0.34170
0.16830 0.20163 0.14923
0.02012 0.20163 0.33154
-0.03630 0.20163 0.31272
0.06203 0.20163 0.21097
0.13323 0.20163 0.06286
0.17546 0.20163 0.10354
0.06706 0.20163 0.31617
0.00417 0.20163 0.36095
0.04801 0.20163 0.35175
0.07019 0.20163 0.11266
-0.00600 0.20163 0.21071
-0.03540 0.20163 0.17270
-0.23742 -0.16820 0.32014
-0.22249 -0.06496 0.32278
-0.20951 -0.08012 0.32507
-0.21297 0.04016 0.32446
-0.20161 0.12931 0.32646
-0.21929 -0.02827 0.32334
-0.21627 0.02136 0.32388
-0.20452 0.07483 0.32595
0.18137 0.19627 0.14299
-0.19480 0.19329 0.31195
-0.06862 0.19329 0.33545
-0.12464 0.18066 -0.22521
-0.12312 0.19329 0.32223
-0.11302 0.19329 -0.37666
0.20550 0.15435 -0.37044
0.24316 -0.03921 -0.37582
0.24088 -0.17923 -0.37582
-0.13488 0.04016 -0.38639
-0.13791 -0.15189 -0.38640
-0.13259 0.19329 -0.28632
0.22386 0.18056 -0.30135
0.22386 0.16664 -0.30694
0.22386 0.17787 -0.26764
0.17676 0.19768 -0.38638
0.23698 0.19928 -0.38638
0.10011 -0.20163 0.37312
0.13509 0.18333 0.28376
0.12226 0.15555 0.35652
0.14100 0.18066 0.25023
0.12323 0.18364 0.35104
0.23443 -0.17081 -0.37117
0.23443 -0.12713 -0.35201
0.23443 -0.03161 -0.35401
0.23443 -0.15160 -0.35927
0.23443 0.08688 -0.33465
0.23443 -0.06191 -0.35075
0.23443 -0.14899 -0.36738
0.23443 -0.16169 -0.35881
0.24500 0.07873 -0.34440
0.24500 0.07394 -0.37525
0.24500 0.17562 -0.33803
0.24500 0.17043 -0.34366
0.24500 0.14416 -0.37209
0.24500 0.13778 -0.37133
0.24500 -0.02725 -0.37027
0.24500 0.19141 -0.34049
0.24500 0.16233 -0.37506
0.24500 -0.04660 -0.35905
0.24500 0.17884 -0.35159
0.24500 0.07529 -0.35998
0.13827 0.16117 0.32659
-0.13071 0.01957 -0.37582
-0.11816 -0.14750 -0.37582
-0.12032 -0.13747 -0.37582
-0.13327 -0.17360 -0.37582
-0.13161 0.16144 -0.37582
-0.12231 -0.00109 -0.37582
-0.11456 -0.15653 -0.37582
0.24500 -0.16617 -0.37598
0.24500 0.12831 -0.37939
0.09173 -0.06253 0.37518
0.09275 -0.09014 0.37719
0.08630 0.04726 0.37496
0.08626 0.06207 0.37096
0.09380 -0.11473 0.37821
-0.07531 0.19329 -0.02875
-0.04762 0.19329 0.04993
0.06582 0.19329 0.00423
-0.11307 0.19329 0.11230
-0.07629 0.19329 0.04573
-0.12883 0.19329 0.13639
-0.12212 0.19329 0.02479
-0.04146 0.19329 -0.01937
-0.11510 0.19329 -0.02519
-0.11745 0.19329 0.08101
-0.11522 0.19329 0.07229
-0.15747 0.19329 0.06938
0.10441 0.19329 -0.00445
0.00969 0.19329 0.02729
0.06142 0.19329 0.01364
-0.06753 0.19329 0.02186
-0.02244 0.19329 0.09541
-0.12627 0.19329 0.07581
-0.13102 0.19329 -0.05623
-0.00042 0.19329 0.07112
-0.09568 0.19329 0.07422
0.00342 0.19329 0.03214
0.05695 0.19329 0.00276
0.08326 0.19329 0.05468
0.08038 0.19329 0.02729
-0.09276 0.19329 0.00384
-0.07207 0.19329 -0.01947
-0.13684 0.19329 0.09483
-0.07905 0.19329 0.10503
-0.17656 0.19329 0.15071
-0.06046 0.19329 0.08400
0.02671 0.19329 -0.02029
-0.12194 0.19329 -0.02416
-0.06091 0.19329 0.07056
-0.21189 0.19329 0.17670
0.06998 0.19329 0.02893
-0.18486 0.19329 0.11667
-0.15633 0.19329 0.11874
-0.19951 0.19329 0.13201
-0.15530 0.19329 0.10180
0.03232 0.19329 -0.01630
-0.01322 0.19329 0.00112
0.07277 0.19329 -0.00947
-0.14387 0.19329 0.12334
-0.13162 0.19329 0.08164
-0.14810 0.19329 -0.02615
-0.04021 0.19329 0.09341
-0.05822 0.19329 -0.00423
-0.16507 0.19329 0.07733
-0.23201 -0.20162 0.29032
0.22979 0.17526 -0.24839
-0.08802 0.20163 0.06697
-0.11100 0.20163 0.14969
-0.02344 0.20163 0.12399
-0.14989 0.20163 0.13339
0.01813 0.20163 0.04511
-0.17531 0.20163 0.08778
0.03565 0.20163 0.00217
-0.17942 0.20163 0.13109
-0.05239 0.20163 0.17453
-0.12767 0.20163 0.23111
-0.11654 0.20163 0.15453
0.08536 0.20163 0.02709
0.00827 0.20163 0.02341
-0.00791 0.20163 0.00354
-0.06174 0.20163 -0.00887
-0.15095 0.20163 0.07621
-0.12561 0.20163 0.08558
-0.03177 0.20163 -0.00199
-0.08398 0.20163 0.11937
-0.00681 0.20163 0.13432
0.02287 0.20163 0.01385
-0.04658 0.20163 0.07145
-0.07156 0.20163 0.18088
0.01966 0.20163 -0.01610
-0.09171 0.20163 0.17803
-0.09839 0.20163 0.19293
-0.04115 0.20163 -0.01521
0.15552 0.20163 0.02673
-0.21500 0.20163 0.27681
0.02951 0.20163 0.06570
0.04657 0.20163 -0.02369
-0.18762 0.20163 0.22874
-0.11134 0.20163 0.03069
-0.14281 0.20163 0.18242
-0.15613 0.20163 0.13553
-0.00392 0.20163 0.04756
-0.14470 0.20163 0.24632
-0.08200 0.20163 0.05642
0.01241 0.20163 -0.02385
-0.08417 0.20163 0.15161
-0.06415 0.20163 0.10468
0.18172 0.20163 0.00803
0.05598 0.20163 0.05070
-0.09130 0.20163 0.11436
-0.00930 0.20163 0.04492
0.09073 0.20163 0.00339
0.07626 0.20163 0.04437
-0.05275 0.20163 0.09667
0.10644 0.20163 0.06282
0.00682 0.20163 0.03006
-0.05266 0.20163 -0.01917
-0.07140 0.20163 0.02129
-0.18663 0.20163 0.20790
-0.08930 0.20163 0.05154
-0.04004 0.20163 -0.03094
0.11776 0.20163 0.04873
-0.12410 0.20163 -0.01952
-0.05656 0.20163 0.03833
-0.01128 0.20163 0.05032
0.04956 0.20163 0.11147
-0.13159 0.20163 -0.04379
-0.07268 0.20163 0.09368
0.13110 0.20163 0.01442
-0.07197 0.20163 0.04983
-0.05695 0.20163 0.13776
-0.13186 0.20163 -0.02604
-0.04671 0.20163 0.04020
0.06902 0.20163 0.01935
-0.14632 0.20163 -0.00860
-0.04440 0.20163 0.13410
0.10576 0.20163 0.02510
-0.05648 0.20163 -0.02904
-0.03293 0.20163 0.10053
-0.00185 0.20163 -0.01931
0.04703 0.20163 0.03575
-0.20755 0.20163 0.18952
0.01619 0.20163 0.01866
-0.20076 0.20163 0.28775
-0.09150 0.20163 0.14348
-0.03529 0.20163 0.02893
-0.00216 0.20163 0.09056
-0.12768 0.20163 0.04283
-0.11266 0.20163 0.00200
-0.15399 0.20163 0.09964
0.01430 0.20163 0.07903
-0.12574 0.17586 -0.24500
0.18486 0.20163 -0.00405
0.09446 0.20163 -0.02015
-0.12156 0.13386 -0.38638
-0.10713 0.03484 -0.38638
-0.10619 -0.07473 -0.38638
-0.09583 0.08489 -0.38638
-0.11105 0.15587 -0.38638
-0.11003 0.13864 -0.38638
-0.09566 0.12641 -0.38638
-0.10761 0.05604 -0.38638
-0.10905 -0.06091 -0.38638
-0.09886 -0.09967 -0.38638
-0.23425 0.19570 0.25790
0.10972 0.13374 0.37070
0.10228 0.09581 0.36941
0.09263 0.03251 0.36775
0.10215 0.11813 0.36939
0.11285 0.10313 0.37124
0.10382 0.17587 0.36968
0.09566 0.13176 0.36827
0.09306 -0.03565 0.36782
0.10702 -0.08236 0.37023
0.08357 0.14577 0.36618
-0.23345 0.16638 0.31011
-0.23391 0.00803 0.31003
-0.23967 0.17519 0.30902
0.15213 0.18571 0.24800
-0.23221 -0.14385 0.30715
-0.22733 0.17222 0.27950
-0.23273 -0.13445 0.31011
-0.22693 0.12481 0.27719
-0.23086 0.07738 0.29947
-0.23256 -0.12649 0.30916
-0.22698 0.08381 0.27750
-0.23115 0.10788 0.30117
-0.23033 0.19230 0.29649
-0.22885 0.05058 0.28809
-0.22965 0.00458 0.29267
0.23150 -0.20163 -0.38377
-0.05778 0.20163 -0.05391
0.20671 0.20163 -0.02106
0.13024 0.20163 -0.15878
0.22729 0.20163 -0.36995
-0.07152 0.20163 -0.05448
0.18259 0.20163 -0.14877
-0.05102 0.20163 -0.04943
0.00147 0.20163 -0.08008
0.18283 0.20163 -0.16999
0.24265 0.20163 -0.30751
0.06911 0.20163 -0.05098
0.15632 0.20163 -0.25969
0.08148 0.20163 -0.14643
0.08750 0.20163 -0.12459
-0.07742 0.20163 -0.08743
0.01689 0.20163 -0.03733
0.02489 0.20163 -0.07194
0.18480 0.20163 -0.23944
0.00570 0.20163 -0.12051
-0.06945 0.20163 -0.10854
0.23986 0.20163 -0.15587
0.11633 0.20163 -0.04682
-0.00718 0.20163 -0.04260
0.24222 0.20163 -0.06033
0.21971 0.20163 -0.10465
0.23802 0.20163 -0.04348
0.10183 0.20163 -0.24165
0.15492 0.20163 -0.14192
0.09105 0.20163 -0.17062
0.00791 0.20163 -0.15794
0.04306 0.20163 -0.14381
0.18150 0.20163 -0.33234
0.22771 0.20163 -0.15750
0.02022 0.20163 -0.16669
0.23851 0.20163 -0.16461
0.24193 0.20163 -0.07664
0.00049 0.20163 -0.04839
0.13884 0.20163 -0.09600
0.04624 0.20163 -0.21669
0.17274 0.20163 -0.15007
0.20306 0.20163 -0.28871
0.14370 0.20163 -0.13112
0.04132 0.20163 -0.13382
0.13213 0.20163 -0.05817
0.03848 0.20163 -0.21210
0.24285 0.20163 -0.36216
0.05651 0.20163 -0.12645
0.20324 0.20163 -0.25338
0.17451 0.20163 -0.29890
0.22481 0.20163 -0.17229
0.23336 0.20163 -0.07640
0.10586 0.20163 -0.13193
0.19016 0.20163 -0.24979
0.13771 0.20163 -0.04917
0.00450 0.20163 -0.14303
0.22170 0.20163 -0.31466
0.13144 0.20163 -0.12469
-0.01762 0.20163 -0.11044
0.07980 0.20163 -0.23114
0.10862 0.20163 -0.11918
-0.03089 0.20163 -0.05561
0.14961 0.20163 -0.12499
0.06244 0.20163 -0.09850
0.03666 0.20163 -0.07024
0.16221 0.20163 -0.04665
0.08110 0.20163 -0.06621
0.16586 0.20163 -0.20364
0.12322 0.20163 -0.22583
0.16667 0.20163 -0.08119
0.09171 0.20163 -0.03982
0.20474 0.20163 -0.09022
0.19627 0.20163 -0.12650
0.11688 0.20163 -0.08001
0.05699 0.20163 -0.11965
-0.07936 0.20163 -0.11050
0.20015 0.20163 -0.06407
0.02092 0.20163 -0.14642
0.09950 0.20163 -0.05718
0.19126 0.20163 -0.16741
0.17009 0.20163 -0.17547
-0.04853 0.20163 -0.08025
0.19454 0.20163 -0.23202
0.06166 0.20163 -0.19941
0.20344 0.20163 -0.24287
-0.06513 0.20163 -0.04713
0.23822 0.20163 -0.24827
0.14259 0.20163 -0.29922
-0.04637 0.20163 -0.10641
-0.12921 0.18518 0.16077
0.12066 0.16886 -0.22592
0.16437 0.16020 -0.29356
-0.10272 0.19107 0.11977
0.02426 0.18695 -0.07674
-0.00037 0.18094 -0.03862
0.16564 0.18194 -0.29552
-0.09267 0.18864 0.10422
0.15415 0.19011 -0.27774
0.14111 0.18707 -0.25756
0.15328 0.18462 -0.27639
0.21079 0.16645 -0.36540
0.01077 0.17560 -0.05586
0.20017 0.17066 -0.34897
-0.05310 0.18590 0.04298
-0.18644 0.19329 0.00567
-0.16595 0.19329 -0.06039
-0.18140 0.19329 0.05282
-0.18041 0.19329 -0.01508
-0.20318 0.19329 0.08306
-0.17328 0.19329 -0.04728
-0.14436 0.19613 -0.36539
0.23047 0.19329 -0.33355
0.02705 0.15435 0.35123
0.07081 0.15435 0.36068
-0.21912 0.17647 0.23294
-0.22984 0.18284 0.29373
0.24045 0.15055 -0.37581
0.23524 0.14221 -0.37581
-0.23809 0.14833 0.32003
-0.23676 0.04456 0.32026
-0.22607 0.15318 0.32215
-0.24308 -0.13087 0.31915
-0.20048 0.19200 0.32666
-0.23867 0.19186 0.31993
-0.24341 -0.18787 0.31909
-0.23659 -0.04669 0.32029
-0.24265 0.18490 0.31922
-0.24456 -0.05155 0.31889
0.09234 -0.05437 0.36929
0.09385 -0.08281 0.36875
-0.14022 0.19329 -0.38491
0.23443 0.01854 -0.37331
0.23443 0.02281 -0.36748
0.23443 -0.00138 -0.36446
0.23443 0.12140 -0.35656
0.23443 0.05532 -0.36059
0.23443 0.03756 -0.36288
0.23443 0.14261 -0.35779
0.23443 -0.03722 -0.36850
0.23443 0.08884 -0.35295
0.23443 0.07606 -0.34607
0.23443 0.01342 -0.36588
-0.23655 -0.07599 0.30957
-0.22884 -0.07159 0.31093
-0.22314 -0.07164 0.31193
-0.23467 0.05152 0.30990
-0.22412 -0.09124 0.31176
-0.22739 -0.16794 0.31118
-0.21632 0.18611 0.21704
-0.13383 0.09635 -0.37544
-0.13390 0.14599 -0.35641
-0.13380 0.12190 -0.38584
-0.13380 -0.02639 -0.38417
-0.13380 -0.13282 -0.38385
-0.13380 0.00775 -0.38475
-0.13380 0.11015 -0.38476
-0.13387 0.10893 -0.36433
-0.13383 0.12225 -0.37712
-0.13392 0.12736 -0.35228
-0.13388 -0.00446 -0.36385
0.12885 -0.15138 0.37987
-0.20038 0.09747 0.32626
-0.20792 -0.08242 0.31819
0.20696 0.08892 -0.37581
0.20356 0.12177 -0.37581
0.22784 -0.08253 -0.37581
0.20522 0.04819 -0.37581
0.21470 -0.13591 -0.37581
0.21278 -0.11693 -0.37581
0.23176 -0.20027 -0.37581
0.23792 -0.18793 -0.37581
-0.20287 0.17634 0.17994
0.24500 0.19939 -0.02119
0.24500 0.19769 -0.10567
0.15196 0.20139 -0.38638
0.06475 0.20139 -0.38638
-0.12323 0.17248 -0.35394
-0.12323 0.17181 -0.29132
0.12467 -0.20163 0.37671
-0.13379 0.05682 -0.37981
-0.13379 0.16385 -0.33610
-0.13379 0.16252 -0.35871
-0.13379 0.18770 -0.33204
-0.21373 0.18754 0.30342
-0.23214 -0.19322 0.30675
-0.22843 -0.14010 0.28574
-0.22739 -0.05202 0.27984
-0.22646 -0.02286 0.27457
-0.22819 -0.12712 0.28434
-0.22764 -0.03529 0.28127
-0.22973 -0.15790 0.29306
-0.22587 -0.00255 0.27118
-0.19756 0.20016 0.04978
-0.18841 0.20142 -0.00210
-0.21938 0.14123 0.31260
-0.21740 -0.10338 0.31294
-0.22512 0.07291 0.31158
-0.21341 -0.02718 0.31365
-0.21968 0.01771 0.31254
-0.23164 0.10171 0.31043
-0.21633 0.03201 0.31313
-0.21473 -0.00962 0.31341
-0.22040 -0.08343 0.31241
-0.21682 0.00371 0.31305
-0.20963 0.00584 0.31431
-0.12458 0.16200 -0.32286
-0.13708 0.08155 -0.38639
0.23443 -0.01088 -0.33671
0.23443 -0.16894 -0.35717
0.23443 0.13145 -0.33305
0.23443 0.02759 -0.33480
0.23443 0.04352 -0.34206
0.23443 -0.01370 -0.34225
0.23443 -0.15661 -0.35498
-0.09446 -0.02283 -0.38336
-0.09416 -0.01664 -0.38545
-0.08459 0.17843 -0.38243
-0.22579 0.04609 0.27075
-0.22758 -0.14578 0.28091
-0.22642 -0.05866 0.27434
-0.22893 -0.07356 0.28856
-0.22585 0.11116 0.27108
-0.22985 -0.17090 0.29377
-0.22764 -0.04571 0.28124
-0.22690 0.01602 0.27701
0.23443 -0.03423 -0.36123
0.23443 0.14951 -0.35099
0.23443 0.13120 -0.36260
0.23443 0.05832 -0.36886
0.23443 0.19248 -0.36596
0.23443 0.14998 -0.33615
0.23443 0.06336 -0.35243
0.23443 -0.01717 -0.36823
0.23443 0.06582 -0.35791
0.23443 0.04410 -0.37116
0.14282 0.19873 0.36164
0.13940 -0.16852 0.38101
0.14617 0.12457 0.34262
0.14401 -0.01109 0.35487
0.14022 -0.14336 0.37635
0.14297 -0.15429 0.36078
0.14437 0.05983 0.35281
0.14285 -0.18901 0.36148
-0.23157 0.16015 0.30352
0.24364 -0.00761 -0.37582
0.24303 0.09179 -0.37581
0.24102 0.01348 -0.37581
-0.13440 0.11175 -0.34043
-0.13810 0.18123 -0.33705
-0.24363 0.15344 0.31106
0.24500 0.19863 -0.20441
0.24500 0.20116 -0.28690
-0.13765 -0.20162 -0.36361
0.20912 -0.09336 -0.38588
0.19872 0.11880 -0.38429
0.20907 -0.09231 -0.37779
0.13787 -0.16208 0.35320
0.14351 -0.19102 0.35562
0.14208 -0.19701 0.35567
-0.23712 0.01626 0.27413
-0.23639 0.06682 0.26999
-0.24074 -0.19715 0.29465
-0.23624 0.08659 0.26916
-0.23885 -0.16524 0.28395
-0.23785 -0.18408 0.27829
-0.23506 0.13025 0.26245
-0.23108 0.16813 0.30074
0.14334 0.19329 0.27081
0.00666 0.19329 0.18597
-0.01201 0.19329 0.29123
0.01016 0.19329 0.19315
0.13899 0.19329 0.10221
-0.09377 0.19329 0.17082
0.09923 0.19329 0.32400
-0.03692 0.19329 0.17137
0.07041 0.19329 0.14841
-0.13977 0.19329 0.15965
0.06113 0.19329 0.32679
-0.02737 0.19329 0.24419
0.14298 0.19329 0.21902
0.10690 0.19329 0.14653
0.15131 0.19329 0.08819
0.08398 0.19329 0.09617
0.15136 0.19329 0.11463
0.14772 0.19329 0.03115
0.16776 0.19329 0.06350
-0.05343 0.19329 0.27072
0.07530 0.19329 0.25027
0.15458 0.19329 0.10162
0.14667 0.19329 0.29578
0.12810 0.19329 0.14116
0.11543 0.19329 0.15907
-0.12786 0.19329 0.18076
0.05786 0.19329 0.16322
-0.13908 0.19329 0.19232
0.10677 0.19329 0.22861
0.01283 0.19329 0.09937
-0.11944 0.19329 0.15784
0.14603 0.19329 0.07582
-0.11059 0.19329 0.22858
-0.00037 0.19329 0.22753
-0.08519 0.19329 0.21821
-0.15820 0.19329 0.18855
-0.18180 0.19329 0.20756
0.07670 0.19329 0.29236
0.00903 0.19329 0.23596
0.13234 0.19329 0.15116
0.11779 0.19329 0.34574
0.02847 0.19329 0.30620
0.14593 0.19329 0.09343
0.03258 0.19329 0.17594
-0.00750 0.19329 0.29705
0.09501 0.19329 0.08699
-0.19400 0.19329 0.17913
-0.09720 0.19329 0.22024
-0.13300 0.19329 0.15589
0.05507 0.19329 0.33297
0.07241 0.19329 0.23649
0.13936 0.19329 0.20108
-0.03822 0.19329 0.19431
-0.04207 0.19329 0.12886
0.03112 0.19329 0.08351
0.10240 0.19329 0.18699
0.05519 0.19329 0.12212
-0.02849 0.19329 0.17339
-0.10930 0.19329 0.23510
0.17348 0.19329 0.15369
0.06307 0.19329 0.11669
-0.02172 0.19329 0.28058
-0.06023 0.19329 0.20709
0.08903 0.19329 0.23172
0.12015 0.19329 0.18329
0.01271 0.19329 0.20513
0.17682 0.19329 0.11225
-0.00452 0.19329 0.15628
0.14610 0.19329 0.31226
0.06254 0.19329 0.34193
0.16059 0.19329 0.16846
0.01919 0.19329 0.18909
-0.03452 0.19329 0.21628
0.03284 0.19329 0.29697
0.09576 0.19329 0.18057
-0.05682 0.19329 0.15690
0.08411 0.19329 0.29418
-0.12744 0.19329 0.15778
0.15103 0.19329 0.25917
0.00796 0.19329 0.17236
-0.06700 0.19329 0.26854
0.09450 0.19329 0.06494
-0.00937 0.19329 0.11706
-0.19831 0.18862 0.16338
0.14479 0.04479 0.35044
0.14411 -0.07778 0.35429
0.14417 -0.09543 0.35396
0.14281 -0.12929 0.36169
0.14409 -0.11862 0.35443
0.14291 -0.04264 0.36111
0.14118 -0.11966 0.37091
-0.13390 0.03967 -0.35731
-0.13385 0.15811 -0.37003
-0.13389 0.08729 -0.36131
-0.13383 0.04965 -0.37785
-0.13380 0.02344 -0.38375
-0.13393 0.11824 -0.34976
-0.13391 0.05727 -0.35439
-0.13383 0.04113 -0.37720
-0.13390 0.17614 -0.35730
-0.13381 -0.08583 -0.38166
-0.12226 0.12984 -0.37582
-0.10073 0.18428 -0.37582
-0.10349 -0.09302 -0.37582
-0.11376 0.15871 -0.37582
-0.12653 0.10970 -0.37582
-0.09792 0.02567 -0.37582
-0.10855 0.00803 -0.37582
-0.09786 0.08738 -0.37582
-0.10500 0.02740 -0.37582
0.20662 0.05867 -0.38638
0.23910 0.15750 -0.38638
0.22426 0.00069 -0.38638
0.20732 0.19192 -0.38638
0.21145 -0.11777 -0.38638
0.22712 0.06031 -0.38638
0.23212 0.16236 -0.38638
0.22026 0.11985 -0.38638
0.22306 -0.04247 -0.38638
0.21769 0.15253 -0.38638
0.01092 0.17260 0.34304
0.10003 0.16227 0.35875
0.05223 0.18347 0.35032
0.06054 0.17825 0.35179
0.10555 0.17290 0.35972
-0.07206 0.16875 0.32840
0.11755 0.18969 0.36184
0.00433 0.15443 0.34187
-0.14045 -0.14311 -0.35286
-0.13729 -0.19492 -0.35538
-0.20067 0.18963 0.18916
0.23443 0.18357 -0.28958
0.23443 0.18405 -0.35360
0.23443 0.17996 -0.27479
0.10530 0.15435 -0.18508
0.04610 0.15435 -0.09719
-0.02782 0.15435 0.02185
0.14392 0.15435 -0.25536
-0.13883 0.19238 0.32680
-0.00642 0.18951 0.35014
0.00399 0.17276 0.35198
0.04973 0.17491 0.36005
0.12651 0.17652 0.37358
0.06280 0.18611 0.36235
0.05526 0.17953 0.36102
0.03337 0.17572 0.35716
-0.14604 0.16356 0.31536
-0.20356 0.16954 0.30522
-0.03256 0.17577 0.33537
-0.22541 0.15538 0.30136
-0.08112 0.17344 0.32681
-0.20876 0.16583 0.30430
-0.10067 0.17116 0.32336
-0.18905 0.18695 0.30778
-0.14135 0.01059 -0.38641
-0.13894 0.17690 -0.38640
-0.13747 0.09415 -0.38640
-0.21034 0.19212 0.24397
-0.23864 -0.15122 0.30920
-0.24225 -0.00505 0.30856
-0.23680 -0.19851 0.30952
0.12843 0.15708 -0.23794
-0.15324 0.15935 0.19797
-0.20079 0.15996 0.27154
-0.06417 0.16822 0.06012
0.08633 0.15859 -0.17279
-0.04844 0.15442 0.03578
-0.14403 0.17008 0.18371
0.07727 0.16148 -0.15877
-0.11844 0.17028 0.14411
-0.02302 0.15743 -0.00356
0.13578 0.15839 -0.24932
-0.12039 0.18172 0.14712
-0.05520 0.15709 0.04624
-0.10256 0.17824 0.11953
-0.10630 0.16260 0.12531
0.24500 -0.19596 -0.35844
0.24500 0.05013 -0.33868
0.24500 -0.16956 -0.35510
0.24500 0.01775 -0.34546
0.24500 -0.14276 -0.35470
0.24500 -0.01307 -0.33868
0.24500 0.00270 -0.34987
0.21121 0.19329 -0.37365
-0.20229 0.19329 0.19539
0.12966 0.18767 0.37522
0.12924 0.12272 0.37763
0.12805 0.14904 0.38454
-0.23822 0.00970 0.28041
-0.23975 -0.19462 0.28907
-0.24281 -0.19352 0.30641
-0.24050 -0.08698 0.29333
-0.23940 -0.06829 0.28710
-0.24110 -0.14887 0.29672
-0.23992 -0.11166 0.29004
-0.23937 -0.17605 0.28691
-0.22803 -0.04262 0.27204
-0.23386 -0.14118 0.27589
-0.23424 -0.12238 0.27489
-0.24471 0.02613 0.31720
-0.24427 0.00375 0.31467
-0.24463 -0.17422 0.31675
0.19314 0.19375 -0.38638
0.23556 -0.06746 -0.33859
0.24393 -0.16789 -0.34348
0.20716 0.19329 -0.34136
-0.00360 0.19329 -0.01706
-0.02720 0.19329 0.01552
0.14489 0.19329 -0.25786
-0.13601 0.19679 0.33803
0.24500 -0.04367 -0.36614
0.24500 0.07022 -0.36650
0.24500 0.07148 -0.35399
0.24500 0.05067 -0.34919
0.24500 0.08267 -0.37571
0.24500 0.10635 -0.34537
0.24500 0.08770 -0.33961
0.24500 0.19329 -0.35331
0.24500 -0.01353 -0.37454
0.24500 0.16556 -0.35981
0.24500 0.13158 -0.34337
0.24500 0.06226 -0.37555
0.24500 0.14031 -0.38454
0.24500 0.18661 -0.37896
-0.12610 0.19329 -0.24798
-0.21335 0.19440 0.13935
-0.18545 0.19902 -0.01889
-0.05235 0.19329 -0.04263
0.14376 0.19329 0.34713
0.24500 0.19716 -0.38322
0.24500 0.19773 -0.25618
0.22405 0.15435 -0.37190
0.19830 0.12730 -0.37917
0.19660 0.16199 -0.38408
0.20560 -0.02142 -0.38395
0.21976 -0.13877 -0.38638
0.23392 -0.13526 -0.38638
0.22130 -0.17860 -0.38638
0.23683 -0.14313 -0.38638
0.23886 -0.04476 -0.38638
0.24130 0.11222 -0.38638
0.22474 -0.07752 -0.38638
0.24400 -0.08492 -0.38638
-0.19786 0.13144 0.32153
-0.19667 0.15747 0.32214
-0.20528 -0.03339 0.31709
-0.14436 0.19561 -0.18626
-0.14436 0.19675 -0.15504
-0.21659 0.19329 0.26101
-0.04603 0.17137 0.34316
-0.06241 0.16258 0.34027
-0.21525 0.18541 0.31332
-0.18397 0.18643 0.31884
-0.18213 0.16378 0.31916
-0.18645 0.17919 0.31840
-0.16503 0.18012 0.32218
-0.11855 0.15690 0.33037
-0.16731 0.18624 0.32177
0.11967 -0.14773 0.38314
0.11237 -0.07293 0.38188
0.12382 0.03174 0.38386
0.12219 0.05915 0.38358
0.11525 -0.15805 0.38238
0.11361 -0.13940 0.38209
0.13633 0.18381 -0.37582
-0.09241 0.17614 -0.37582
-0.06666 0.16334 -0.37582
-0.12085 0.15921 -0.37582
-0.05491 0.16432 -0.37582
