-0.06999 0.11582 -0.30218
0.01812 0.12262 -0.28935
-0.03223 0.11660 -0.29746
-0.01764 0.12249 -0.29359
0.08391 -0.05112 0.34524
-0.02720 0.13509 0.11589
-0.01959 0.13509 0.11296
-0.06123 0.13509 0.10959
-0.09601 0.13509 0.12210
0.07673 0.05492 -0.29226
0.03998 0.08524 -0.30810
-0.07226 -0.07033 0.35513
0.09071 -0.04630 -0.33890
0.09290 -0.07456 -0.34081
0.07826 0.13151 0.14124
0.09540 0.12596 0.27032
0.12427 0.14178 0.34494
0.09687 -0.09189 -0.35862
-0.09008 0.11558 -0.29391
-0.07064 -0.02763 0.34146
0.03266 0.14222 0.15599
0.02857 0.14222 0.13823
0.04660 0.14222 0.17602
-0.02971 0.14222 0.16762
0.08382 0.14222 0.17662
0.06364 0.14222 0.18776
-0.03554 0.14222 0.15592
0.04785 0.14222 0.16195
0.08949 0.14222 0.17378
-0.10191 0.14222 0.14971
0.01781 0.14222 0.17588
0.02313 0.14222 0.15538
0.06767 0.14222 0.16901
-0.02163 0.14222 0.14344
0.04568 0.14222 0.13698
0.09992 0.14222 0.15099
-0.12153 0.13509 0.03184
-0.12311 0.13509 0.01860
-0.01890 0.14222 0.21018
-0.07088 0.14222 0.21434
-0.01216 0.14222 0.20990
-0.10315 0.14222 0.18487
-0.11875 0.14222 0.16949
-0.10527 0.14222 0.21031
-0.04553 0.14222 0.20666
-0.02446 0.14222 0.21320
-0.04051 0.14222 0.19838
-0.09575 0.14222 0.18097
-0.08448 0.14222 0.17753
-0.12315 0.14222 0.21580
0.05365 0.14222 0.20216
-0.09758 0.14222 0.21525
-0.09404 0.14222 0.16552
0.03322 0.14222 0.42839
0.01285 0.14222 0.41318
0.05943 0.14222 0.41958
-0.04387 0.14222 0.42596
0.08777 0.14222 0.43138
0.04628 0.14222 0.41821
-0.06446 0.14222 0.40938
-0.07037 0.14222 0.37793
0.05232 0.14222 0.42430
-0.08498 0.14222 0.43262
0.03367 0.14222 0.42114
0.00139 0.14222 0.43201
-0.02840 0.14222 0.40558
-0.11180 0.13289 0.03048
-0.11220 0.12151 0.01052
0.09655 0.10067 0.28867
0.01646 0.14222 0.29862
0.05180 0.14222 0.28776
-0.02094 0.14222 0.28979
0.02714 0.14222 0.27639
-0.00269 0.14222 0.30086
0.05935 0.14222 0.30935
-0.03807 0.14222 0.30011
0.04710 0.14222 0.30092
-0.07914 0.14222 0.29426
0.08696 0.14222 0.27002
0.03269 0.14222 0.30618
0.01051 0.14222 -0.43190
-0.12710 0.13855 -0.16640
0.09886 0.13509 0.34302
-0.01993 0.14222 -0.42655
0.06352 0.06470 -0.30522
0.08377 0.13509 -0.36594
0.09387 0.13509 -0.36953
0.07866 0.13509 -0.33871
-0.03841 0.13509 -0.34972
0.07058 0.13509 -0.33861
0.09980 0.13509 -0.36339
0.07811 0.13509 -0.36128
0.06202 0.13509 -0.37444
0.03214 0.13509 -0.35585
0.05029 0.13509 -0.35523
0.04733 0.13509 -0.34055
0.12341 0.13509 -0.39293
0.10144 -0.10943 0.36454
0.09631 0.02057 0.31751
-0.11657 0.14222 0.11083
0.06208 0.13509 0.08869
-0.03306 0.13509 0.07964
-0.02579 0.13509 0.08241
0.07549 0.13509 0.09777
-0.02080 0.13509 0.07187
-0.02825 0.13509 0.07322
0.02806 0.13509 0.07657
0.07691 0.12675 -0.11979
0.07869 0.12157 -0.14986
-0.04495 0.14222 0.12934
-0.06197 0.14222 0.13291
-0.09674 0.14222 0.14133
0.00296 0.14222 0.13665
-0.01314 0.14222 0.13592
-0.07671 0.04138 -0.33021
-0.06152 0.02582 -0.33413
0.09298 0.11550 -0.24972
0.07131 0.05494 0.30019
-0.07354 0.07547 -0.31478
0.08147 0.14117 -0.00655
-0.08729 0.11600 0.31953
0.09964 -0.11862 0.37575
-0.01812 0.07531 -0.31092
-0.01566 0.06955 -0.31274
0.01727 0.07846 -0.30561
0.03313 0.06687 -0.30799
-0.04270 0.07434 -0.31416
0.01155 0.06087 -0.31272
0.08229 -0.04707 -0.35156
0.06516 0.14222 -0.10647
-0.04312 0.14222 -0.10406
0.07352 0.14222 -0.10886
-0.06516 0.09342 -0.31450
0.06952 0.14222 -0.30066
0.09654 0.14222 -0.31112
-0.06444 0.14222 -0.29080
0.08386 0.14222 -0.31151
0.07757 0.14222 -0.28466
0.09524 0.14222 -0.30481
0.00295 0.14222 -0.29195
-0.08686 0.14222 -0.29359
0.09691 0.14222 -0.29596
0.10589 0.14222 -0.27339
0.07747 0.12304 0.12861
0.07397 0.10114 -0.29185
0.09021 0.02441 -0.32447
-0.10676 0.13063 0.11636
0.09596 0.10144 -0.27996
0.01756 0.13509 0.38959
0.09448 0.14222 0.01490
0.10196 0.14222 0.05785
-0.07010 0.14222 0.43959
0.04515 0.03427 -0.31851
-0.06095 -0.11989 0.39404
-0.09812 0.14222 0.10856
-0.05802 0.14222 0.11294
-0.01352 0.14222 0.11700
0.09592 0.13301 -0.27957
-0.11002 0.13509 0.22467
-0.07500 0.13509 -0.29903
-0.01568 0.13509 -0.32209
-0.08155 0.13509 -0.31257
-0.02643 0.13509 -0.30410
-0.03427 0.13509 -0.32397
0.04820 0.13509 -0.31046
0.04486 0.13509 -0.31829
-0.02891 0.13509 -0.32161
-0.10655 0.13509 -0.30089
-0.06175 -0.04643 0.36829
0.08584 -0.00784 -0.33678
0.04415 0.14222 -0.33085
0.07602 0.14222 -0.31935
-0.03260 0.14222 -0.33302
-0.09483 0.12164 0.30298
0.08972 0.10393 0.28528
0.06059 0.14222 0.40736
-0.04505 0.13509 -0.36864
-0.00566 0.13509 -0.37616
-0.09483 0.11254 0.31582
-0.06185 0.14222 -0.10311
-0.09645 0.14222 -0.09684
-0.05368 0.14222 -0.08563
-0.07578 0.14222 -0.10488
-0.01801 0.14222 -0.09980
-0.09913 0.14222 -0.08164
-0.04065 0.14222 -0.08557
-0.06422 0.10047 0.31475
0.03389 0.05715 0.31908
0.09758 0.11693 0.33416
0.09415 -0.13986 -0.35089
-0.03604 0.14222 -0.01045
-0.04802 0.14222 -0.02261
-0.00400 0.14222 -0.01080
0.03575 0.14222 -0.03641
-0.01839 0.14222 -0.01754
0.09152 0.14222 -0.05690
0.02271 0.14222 -0.01124
0.07888 0.14222 -0.05312
0.04617 0.14222 -0.02012
0.04333 0.14222 -0.01086
-0.07603 0.00939 0.34188
-0.06232 0.02786 0.33350
-0.06293 0.01514 0.33823
-0.07949 0.01563 0.34764
-0.07105 0.14222 -0.22383
0.04458 0.14222 -0.22786
-0.06000 0.14222 -0.22486
-0.04795 0.14222 -0.23383
0.09240 0.13509 0.26171
-0.08707 0.10434 0.33891
-0.03878 0.05745 0.31989
0.08423 -0.05681 -0.35489
0.09363 -0.08596 -0.36446
-0.08545 0.11933 -0.35915
0.08023 0.11674 -0.10905
-0.07699 -0.08860 -0.38545
-0.06923 0.07351 0.30257
-0.12432 0.13509 -0.13970
-0.09820 0.12013 -0.19748
-0.10098 0.13034 -0.15032
0.05869 0.00144 -0.33657
0.08709 0.13509 0.24070
0.10423 0.14222 0.43104
0.09260 0.12345 0.24185
-0.11382 0.14222 0.31129
-0.07424 -0.09303 -0.35776
0.01118 0.13509 -0.42267
0.06882 0.13509 0.39806
-0.10483 0.11530 0.03888
0.08781 0.11530 -0.22479
0.09327 0.13403 0.24871
-0.10888 0.11530 0.02539
-0.06877 -0.00274 -0.34583
-0.07194 -0.09913 -0.38871
0.01785 0.05333 0.32237
0.07779 -0.02984 -0.33815
-0.10738 0.11790 0.16307
-0.10669 0.12101 0.17487
0.07622 0.01508 0.30637
-0.11701 0.13509 -0.02514
-0.01994 0.08135 0.31655
-0.02055 0.07631 0.31847
-0.04990 0.08060 0.32035
-0.00568 0.07110 0.31863
0.04173 0.07502 0.31161
0.01929 0.08046 0.31226
0.10724 0.13883 0.15900
-0.00700 0.14222 -0.21078
-0.07421 -0.11687 0.36812
-0.09867 0.11727 -0.27932
-0.05059 0.14222 -0.43413
0.07012 0.14222 0.00452
0.00370 0.14222 -0.00080
0.04991 0.14222 -0.00354
-0.06356 0.00031 0.35138
0.12182 0.14222 -0.41674
0.08379 0.12888 0.11556
-0.03574 0.14222 -0.29122
0.04542 0.14222 -0.30593
-0.04974 0.14222 -0.29587
-0.05868 0.14222 -0.29745
0.05426 0.14222 -0.27816
0.10471 0.14222 -0.29636
0.08070 0.14222 -0.30607
0.03157 0.14222 -0.29165
0.05916 0.14222 -0.29474
-0.10594 0.13423 -0.18734
-0.10417 0.12690 -0.21736
-0.11062 0.13972 0.00003
-0.06474 0.12196 0.29591
0.05976 0.14222 -0.42343
-0.09784 0.14222 0.23583
0.02888 0.06265 -0.31004
0.00621 0.05762 -0.31454
0.02025 0.06097 -0.31167
0.04762 0.07082 -0.30485
-0.00553 0.13509 0.38070
-0.01605 0.13509 0.29925
0.06324 0.13509 0.29751
0.00531 0.13509 0.30494
-0.02098 0.13509 0.30172
0.00517 0.13509 0.28608
0.05283 0.13509 0.30154
0.06310 0.13509 0.28923
-0.07151 0.13509 0.28800
0.08922 0.13509 0.29431
0.09779 0.13509 0.27345
0.09662 0.13509 0.29567
-0.06634 -0.09465 -0.37878
0.02467 0.13509 0.29979
0.04294 0.13509 0.30589
-0.07943 0.13509 0.28962
0.02057 0.13509 0.28193
0.11028 0.13509 0.27408
-0.10870 0.13509 0.29017
-0.02742 0.13509 0.28306
0.09475 0.13509 0.31033
0.08921 0.13509 0.30452
-0.01118 0.13509 0.29235
0.01214 0.13509 0.22179
0.06377 0.13509 0.22346
0.05089 0.13509 0.21941
0.03539 0.13509 0.22399
0.09113 0.09196 0.29965
0.08153 0.13281 0.01299
0.08136 0.12178 0.00450
-0.00893 0.14222 0.30389
0.01461 0.08110 0.30494
-0.04995 0.07072 0.31634
-0.01769 0.07697 0.31026
0.02514 0.06246 0.31053
-0.04269 0.08054 0.31189
-0.00603 0.05709 0.31617
-0.06524 0.14222 0.22743
-0.07744 0.14222 0.23191
-0.04914 0.14222 0.23082
0.06113 0.14222 0.43844
-0.07984 -0.12396 0.38984
0.07616 0.12740 0.10463
-0.09202 -0.10984 -0.39070
-0.09027 -0.04380 -0.36683
0.03988 0.05060 0.32078
0.09591 0.12805 0.27551
-0.11407 0.13509 -0.01923
0.08560 -0.00330 0.33515
0.05668 0.14222 -0.08731
0.02429 0.14222 -0.08414
0.06382 0.14222 -0.07091
0.03291 0.14222 -0.07304
-0.02780 0.14222 -0.07171
0.01028 0.14222 -0.08046
0.07431 0.14222 -0.08121
0.08851 0.14222 -0.08079
-0.07025 -0.12384 0.39002
-0.08610 0.04150 0.33894
-0.08509 0.02417 0.34517
-0.08498 -0.09961 0.39051
-0.10269 0.13630 0.11898
0.10286 0.13928 -0.03430
-0.06531 -0.05817 0.37301
0.08826 0.12367 -0.28073
0.07758 0.11967 -0.28345
-0.05349 0.05405 -0.33048
-0.10194 0.13404 0.13408
-0.10010 0.13462 0.16547
-0.08391 0.09474 -0.31153
-0.08877 0.02798 -0.33673
0.11343 0.13509 0.25383
0.10371 0.13509 0.22941
0.09774 0.11884 0.29401
0.10537 0.14181 -0.12490
-0.12871 0.13786 -0.13624
-0.05041 -0.01249 -0.34765
0.10329 0.13509 0.07153
-0.05118 -0.01682 0.35258
-0.09375 0.10458 0.31672
0.09371 0.12478 -0.25706
-0.08127 0.14222 0.37218
0.12324 0.13599 -0.33730
0.06781 0.14222 0.41540
-0.09682 0.13509 -0.32849
-0.07906 -0.06723 0.35693
-0.07946 -0.07805 0.36048
0.08131 -0.10661 0.37120
0.00252 0.13509 0.24997
0.01731 0.13509 0.23758
-0.04223 0.13509 0.24018
0.00114 0.13509 0.23629
0.08487 0.13509 0.26307
0.03693 0.13509 0.24819
0.09748 0.13509 0.25795
0.10485 0.14222 0.13193
0.09987 0.14222 0.09120
0.01077 0.14222 0.24921
0.02144 0.14222 0.24192
-0.06107 0.14222 0.23948
-0.02802 0.14222 0.24038
0.03171 0.14222 0.23613
0.07332 0.14222 0.24952
0.06576 0.14222 0.23400
0.04758 0.14222 0.24069
-0.07870 -0.03778 -0.34182
-0.09191 0.14222 -0.41582
-0.03139 0.14222 -0.39272
-0.06088 0.14222 -0.40322
0.10745 0.14222 -0.40127
-0.03384 0.14222 -0.41969
-0.01286 0.14222 -0.39856
-0.08090 0.14222 -0.37084
0.01373 0.14222 -0.39985
-0.08531 0.14222 -0.39791
-0.07853 0.14222 -0.42970
0.02773 0.14222 -0.38926
-0.07371 0.14222 -0.37706
-0.05160 0.14222 -0.42216
-0.04785 0.14222 -0.38742
-0.08855 0.14222 -0.39248
-0.00734 0.14222 -0.41310
-0.10124 0.14222 -0.38981
0.07862 0.14222 -0.12222
0.06468 0.14222 -0.12155
0.04585 0.14222 -0.13088
-0.07172 0.13509 -0.02975
-0.01554 0.13509 -0.02478
-0.01992 0.13509 -0.01133
-0.10026 0.13509 -0.01728
-0.08910 0.13509 -0.04146
-0.05029 0.13509 -0.02844
-0.08433 0.13509 -0.02401
-0.05350 0.13509 -0.04250
-0.09392 0.13509 -0.03088
-0.09322 0.13509 -0.05485
0.01164 0.13509 -0.01153
-0.05981 -0.09271 0.38497
-0.09804 0.12459 0.28436
0.08148 0.13671 -0.43723
0.09272 0.14068 -0.43546
0.07772 -0.00948 -0.31602
-0.09460 0.09203 -0.32071
-0.08708 0.07118 0.32462
-0.08897 0.00185 0.34898
-0.07957 -0.06528 -0.35244
0.10288 0.13619 0.03536
-0.01304 0.14222 -0.42288
0.03327 0.13509 0.15830
0.07572 0.13509 0.19113
0.04596 0.13509 0.15801
-0.00160 0.13509 0.14307
0.04552 0.13509 0.17012
-0.07028 0.13509 0.15879
0.10315 0.13509 0.14338
0.06173 0.13509 0.15146
0.06627 0.13509 0.18428
0.09371 0.13509 0.15030
0.09248 0.13509 0.19052
0.00370 0.13509 0.14839
0.05539 0.09512 -0.30267
0.03021 0.10888 -0.30059
0.01900 0.10949 -0.30169
0.11507 0.14222 -0.34720
0.12299 0.14222 -0.37201
-0.00013 0.11081 -0.30345
-0.07908 0.14222 -0.45480
0.09883 0.14222 -0.11685
0.09035 0.14222 -0.10126
-0.07430 0.04215 0.32839
-0.07530 0.02266 0.33179
-0.07107 0.11035 -0.30952
0.02667 0.11980 -0.28938
-0.05101 0.11963 -0.29856
-0.04505 0.11440 -0.29977
0.07488 0.03267 -0.31559
0.09633 0.03668 0.31672
0.09537 0.04179 0.31209
0.08549 0.12361 -0.14415
0.08660 0.12089 -0.16307
0.04952 0.03212 0.31878
-0.11257 0.14222 -0.26239
-0.09227 0.12694 -0.34431
-0.09294 0.12194 -0.33758
-0.10303 0.13162 -0.11449
-0.08745 -0.01863 -0.35344
-0.08799 -0.12081 -0.39090
-0.08719 0.03626 -0.33332
-0.09513 0.13509 0.28802
-0.05744 0.13509 0.27138
-0.04624 0.13509 0.27607
-0.03965 0.13509 0.25623
0.04295 0.13509 0.26577
0.00524 0.13509 0.27699
-0.10741 0.13509 0.28409
-0.02701 0.13509 0.26390
-0.01354 0.13509 0.27417
0.07421 0.13509 0.26451
0.09398 0.13509 0.26705
-0.01994 0.14222 0.12915
0.07385 0.09255 -0.28700
-0.07659 -0.00051 0.34558
0.01433 0.09931 -0.30596
0.03599 0.09649 -0.30445
0.08091 -0.02190 -0.33488
0.08207 0.12783 -0.04041
0.08324 0.11588 -0.10039
-0.10048 0.14222 0.31878
-0.10632 0.11530 -0.00181
-0.07517 -0.05301 0.37228
-0.06378 -0.12289 0.38892
0.08873 0.10651 -0.28696
-0.05155 -0.00246 0.35098
-0.11095 0.12706 0.07363
-0.11174 0.12111 0.03342
0.07619 0.12140 0.10622
-0.12333 0.14222 -0.00602
0.05860 0.03028 0.32602
0.06236 0.14222 0.33962
-0.03724 0.14222 0.34699
-0.05096 0.14222 0.34608
-0.04820 0.14222 0.33887
-0.07874 -0.08233 0.37126
-0.07995 -0.09392 0.36679
-0.08678 0.14222 -0.01569
0.03624 0.03854 0.31799
0.07688 0.06171 -0.29357
-0.07525 -0.13110 -0.36973
0.08325 0.12467 -0.10068
0.08198 0.13369 -0.03584
0.00347 0.09605 -0.30080
0.04727 0.09913 -0.29452
0.05902 0.09558 -0.29445
0.07995 0.11530 -0.15873
0.02086 0.12874 -0.28990
0.03162 0.13509 0.19223
0.01957 0.14222 -0.06089
-0.11176 0.14222 -0.05693
-0.08276 0.14222 -0.03499
-0.06683 0.14222 -0.02966
-0.05123 0.14222 -0.04916
-0.01361 0.14222 -0.05090
-0.06458 0.14222 -0.05767
-0.00017 0.14222 -0.04226
-0.08318 0.14222 -0.04724
-0.05422 0.14222 -0.04431
-0.04816 0.14222 -0.03499
-0.08654 0.14222 -0.04143
0.00480 0.14222 -0.05299
-0.07914 0.14222 -0.01968
-0.06433 0.03605 -0.33071
-0.08066 0.06259 -0.32291
-0.07814 0.05272 -0.32623
0.08873 0.11582 -0.27927
0.08422 0.11588 0.12241
0.08927 0.12294 0.20289
0.07108 0.05721 -0.30707
-0.06677 0.06752 -0.31618
-0.06754 0.05448 -0.31742
-0.06556 -0.01625 -0.35000
0.09774 0.13509 -0.03998
0.08263 0.12498 -0.21663
-0.08453 0.13106 0.34664
0.07613 -0.05643 0.35573
-0.11928 0.14222 -0.10654
0.08287 0.14222 0.22835
0.08071 0.14222 0.25807
0.00024 0.14222 0.23553
-0.01859 0.14222 0.24259
0.02487 0.14222 0.24802
0.10691 0.14222 0.26589
-0.09267 0.13647 -0.34033
0.00951 0.13999 -0.44858
0.08244 0.13832 0.21215
0.08943 0.13509 0.09100
0.07792 0.11804 0.13571
-0.08097 -0.10113 -0.36348
-0.10276 0.13946 -0.23779
0.02407 0.04493 0.31708
-0.09676 0.12078 0.22242
-0.09831 0.12529 0.19593
-0.10769 0.13669 0.37852
-0.11012 0.13993 -0.11608
-0.06885 0.09298 0.29512
-0.01403 0.14222 -0.21287
0.07636 0.13510 0.10608
-0.06081 0.12871 -0.30402
-0.06176 -0.13716 -0.39981
0.00878 0.14222 0.39683
-0.09290 0.11567 -0.26525
0.11570 0.13509 -0.35977
0.08200 0.13394 0.10896
-0.08147 -0.11920 -0.37129
-0.07281 0.11813 0.28905
0.04615 0.13509 -0.32775
0.09090 0.13509 -0.32986
0.05461 0.13509 -0.33398
0.10277 -0.12300 -0.36931
0.11066 -0.10334 -0.36119
0.09838 -0.02491 -0.33393
-0.02716 0.11540 -0.30494
0.03882 0.11414 -0.29766
0.01102 0.13509 0.39389
-0.04365 0.03137 -0.33763
0.08456 -0.09379 -0.36076
0.10576 -0.14158 -0.37576
-0.07855 0.07361 0.32628
0.06942 0.07463 -0.29801
0.07625 0.01410 -0.31700
-0.12459 0.13901 -0.20758
0.06580 0.02036 -0.32118
-0.07428 -0.12917 0.37629
-0.08162 -0.13789 -0.38335
-0.13078 0.13554 0.07981
0.09530 0.13081 -0.34597
-0.06807 0.05171 0.31123
-0.09998 0.13383 -0.26606
0.09881 -0.13133 0.37287
-0.05499 -0.03766 0.36314
0.07467 0.13118 -0.02654
0.07437 0.13003 -0.01117
0.07421 0.13479 0.00342
-0.08813 0.02851 -0.34317
0.04050 0.14222 -0.41774
-0.03986 0.03656 -0.32765
0.03739 0.14222 -0.34449
0.02122 0.14222 -0.35161
0.06178 0.14222 -0.34551
0.01535 0.14222 -0.36008
0.07690 0.14222 -0.33879
-0.00859 0.14222 -0.35781
0.07167 0.14222 -0.37231
0.04252 0.14222 -0.36572
0.08480 0.14222 -0.37285
0.08886 0.14222 -0.34757
-0.02179 0.14222 -0.35192
-0.05784 0.05178 0.33185
-0.00821 0.05021 0.31895
0.06518 0.13509 -0.36869
-0.00459 0.13509 -0.34615
0.01357 0.13509 -0.34819
0.10263 0.13509 -0.38717
0.04010 0.13509 -0.34046
0.02093 0.13509 -0.34518
0.05434 0.13509 -0.36423
-0.02893 0.13509 -0.34057
0.01672 0.13509 -0.33939
-0.00918 0.13509 -0.35391
0.06415 0.07047 0.30301
-0.07659 -0.02341 0.35154
-0.08333 0.10090 -0.30920
0.08675 0.14222 -0.00277
0.02946 0.04099 -0.32315
0.03687 0.08375 0.30899
-0.03712 0.13509 -0.20655
-0.06752 0.13509 -0.18309
-0.11442 0.13509 -0.21494
-0.11630 0.13509 -0.19945
-0.11278 0.13509 -0.18853
-0.06258 0.13509 -0.21026
-0.06495 0.13509 -0.16256
-0.09832 0.13509 -0.21262
0.03987 0.13509 -0.20539
0.02633 0.13509 -0.19462
-0.03504 0.13509 -0.19175
0.02434 0.13509 -0.18690
-0.02477 0.13509 -0.18819
-0.12043 0.13509 -0.18844
0.00802 0.13509 -0.18706
-0.01490 0.13509 -0.19162
-0.07286 -0.09770 0.36863
-0.07224 -0.09264 0.37162
-0.07983 -0.09360 -0.37027
-0.07996 -0.09943 -0.37317
0.05688 0.06534 -0.31340
0.08969 0.13529 0.21341
0.09078 0.14222 -0.20998
0.09053 -0.09038 -0.33759
-0.06484 -0.09819 0.37999
-0.07030 -0.04944 0.36277
-0.04593 0.02177 0.33381
0.06946 0.14222 0.02859
-0.04400 0.14222 0.02344
0.06646 0.14222 0.03985
0.01928 0.14222 0.01394
0.08810 0.14222 0.05425
-0.01274 0.14222 0.01654
0.07391 0.14222 0.03496
0.03890 0.14222 0.02415
0.09731 0.14222 0.06381
-0.03416 0.04267 -0.33238
-0.08035 -0.09019 0.37888
0.11380 0.14222 -0.27611
-0.05963 -0.07966 0.37355
-0.03519 0.07547 0.32050
-0.01363 0.06047 0.32346
0.00319 0.06601 0.31945
-0.01196 0.07856 0.31663
-0.01492 0.07169 0.31950
-0.09247 0.14091 0.45118
0.02303 0.14222 0.38798
-0.08928 -0.01301 -0.35757
-0.08956 -0.02079 -0.35961
0.08915 0.13509 -0.10518
0.09391 0.13509 -0.23664
0.09165 0.10632 -0.30887
0.09416 0.10161 0.31367
0.08658 -0.01422 0.33839
-0.06904 0.14222 -0.45673
0.05923 0.14222 -0.43516
0.04566 0.14222 -0.44080
0.08612 0.11715 -0.25271
-0.07359 0.14222 -0.00876
-0.01667 0.14222 -0.00915
-0.08133 0.14222 0.00607
0.07590 0.13509 -0.22710
0.08007 0.13509 -0.20978
0.04881 0.13509 -0.21039
-0.05731 0.13509 -0.21527
0.06997 0.00201 0.32741
0.03293 0.13509 0.40397
-0.07585 0.12402 0.29986
0.00646 0.12196 0.29093
0.03192 0.11509 0.29045
-0.10842 0.14222 0.12397
0.06673 0.09125 -0.28703
-0.02153 0.13509 0.39301
0.02075 0.13509 0.41519
0.01544 0.13509 0.41239
0.02935 0.13509 0.41159
-0.04489 0.13509 0.39864
0.06268 0.13509 0.42008
-0.06940 0.13509 0.39891
0.10228 0.13509 0.43203
-0.02319 0.13509 0.42103
0.04522 0.13509 0.43242
-0.06495 0.13509 0.42260
-0.04289 0.13509 0.41505
-0.10210 0.13509 0.39010
-0.05593 0.13509 0.42371
0.06758 0.13509 0.42281
0.04284 0.13509 0.33038
-0.00726 0.13509 0.32147
-0.02479 0.13509 0.32392
-0.01311 0.13509 0.33677
-0.08514 0.13509 0.32915
0.07442 0.13509 0.33240
-0.09493 0.13509 0.31205
-0.03221 0.13509 0.31622
-0.02765 0.13509 0.33530
-0.12968 0.14053 0.10971
-0.10116 0.13509 0.31485
-0.08288 0.13509 0.33550
-0.07874 0.13509 0.32661
-0.02114 0.13509 0.32811
-0.08190 0.13509 0.30621
-0.08769 0.13509 0.31664
0.06414 0.13509 0.33451
-0.00984 0.13509 0.34697
0.04544 0.13509 0.33750
0.08319 0.00293 0.32883
0.07590 0.13218 -0.08925
0.07607 0.12005 -0.09804
-0.11494 0.13509 0.10774
0.07222 0.01714 -0.32160
0.07985 0.04274 -0.31134
0.07607 0.12001 0.09998
0.07604 0.12605 0.09819
0.07492 0.11603 0.03980
-0.10983 0.13509 0.14175
-0.03914 0.13509 0.13961
-0.03622 0.13509 0.13484
-0.00046 0.13509 0.13684
0.07036 0.12901 0.28846
-0.08022 -0.13912 0.39677
0.08475 0.13509 -0.12663
0.05007 0.13509 -0.12178
0.08845 -0.10780 -0.34435
-0.09588 0.11277 0.30663
0.03544 0.14222 -0.20661
0.04233 0.14222 -0.20772
0.01518 0.14203 -0.44768
-0.12226 0.13509 0.22256
-0.11718 0.13509 0.27212
-0.06963 0.12709 -0.28947
-0.09272 0.12799 -0.26713
-0.07184 -0.11255 0.39037
0.04159 0.13509 -0.38098
-0.01185 0.13509 -0.36580
-0.05415 0.13509 -0.35515
0.05065 0.13509 -0.38241
-0.08417 0.10971 0.30608
-0.08068 -0.11566 0.37476
-0.02391 0.05003 -0.32085
-0.06822 -0.11599 -0.38681
-0.00886 0.10887 -0.30518
0.00546 0.11004 -0.30307
0.08395 -0.05971 -0.33571
-0.12471 0.13509 -0.07422
-0.08338 0.13509 -0.09807
0.00606 0.13509 -0.09282
-0.00576 0.13509 -0.09947
-0.05121 0.13509 -0.09977
-0.09661 0.13509 -0.09791
-0.07809 -0.05813 -0.36312
-0.07802 -0.04585 -0.35497
-0.07385 0.02111 -0.33732
0.09395 -0.07350 0.34703
0.09206 -0.05680 0.34177
-0.07299 -0.09405 -0.36706
-0.07108 -0.06882 -0.36917
-0.07711 -0.06304 0.34934
-0.09075 -0.08057 0.38280
0.08507 0.11530 0.22588
-0.07593 -0.00445 -0.34728
0.03771 0.12824 -0.28654
0.00428 0.12778 -0.28917
-0.12917 0.13509 -0.09733
0.08400 0.13596 -0.21817
0.10293 -0.02782 0.33567
-0.07013 -0.10501 0.39075
-0.11381 0.14011 -0.32633
-0.08121 0.14222 0.15829
0.01409 0.14222 0.18323
0.06214 0.14222 0.19426
0.09507 0.02380 -0.31649
0.10450 -0.08991 -0.35700
0.10442 -0.05039 -0.34254
-0.04013 0.13509 -0.23452
-0.09167 0.13509 -0.23379
-0.08052 0.13509 -0.23709
-0.03137 0.13509 -0.22590
0.07599 0.13509 0.07389
0.00646 0.13509 0.05000
-0.08840 0.13509 0.02061
-0.06467 0.13509 0.03241
-0.08499 0.13509 0.05088
-0.05529 0.13509 0.06276
-0.11590 0.13509 0.06390
0.02372 0.13509 0.06112
0.00399 0.13509 0.05804
0.01390 0.13509 0.05703
-0.10633 0.13509 0.02397
0.04647 0.13509 0.05687
-0.00293 0.13509 0.05235
-0.07813 0.13509 0.03170
0.10490 0.13509 -0.24456
-0.05837 -0.04938 -0.36891
0.04267 0.13509 0.38009
-0.00899 0.13509 0.35909
0.02451 0.13509 0.35211
0.07452 0.13509 0.35469
0.10675 0.13509 0.38004
-0.04081 0.13509 0.36206
0.07450 0.13509 0.36540
-0.03524 0.13509 0.36131
0.09654 0.13509 0.38120
0.07601 0.13509 0.38795
0.12008 0.13509 0.36480
0.01649 0.13509 0.35350
-0.00414 0.13509 0.35326
0.09337 0.13509 0.35095
0.11137 0.14222 0.40077
0.08671 0.10138 -0.28907
-0.10789 0.14222 -0.31557
-0.06104 -0.11283 0.38798
-0.06379 -0.00273 -0.35247
-0.07508 0.03085 0.32820
0.11708 0.13509 0.32553
0.06346 0.12622 -0.27108
-0.08089 0.07498 0.31842
-0.00356 0.13509 -0.14255
0.10198 0.13509 -0.14674
-0.03185 0.13509 -0.16202
0.06843 0.13509 -0.16024
0.05248 0.13509 -0.15891
0.07111 0.13509 -0.14304
-0.04282 0.13509 -0.15639
-0.08971 0.13509 -0.14711
-0.05849 0.13509 -0.15627
-0.03551 0.13509 -0.15768
0.04090 0.13509 -0.14374
-0.01961 0.13509 -0.14195
0.01424 0.13509 -0.17218
0.01915 0.13509 -0.16854
-0.09498 0.13509 0.39374
-0.09570 0.13509 0.41312
-0.07375 0.13509 0.42626
-0.02849 0.13509 0.40698
-0.00083 0.13509 0.43195
-0.08776 0.13509 0.37048
-0.06021 0.13509 0.38423
0.01279 0.13509 0.40621
-0.00934 0.13509 0.43205
-0.05653 0.13509 0.40499
-0.10213 0.13509 0.37648
0.09428 0.13509 0.43041
-0.05393 0.13509 -0.41983
-0.06588 0.13509 -0.40703
-0.08980 0.13509 -0.39120
-0.02903 0.13509 -0.40586
-0.08902 0.13509 -0.38190
0.08350 0.13509 -0.40520
0.05287 0.13509 -0.40427
-0.06911 0.13509 -0.37310
-0.00385 0.13509 -0.38739
-0.10163 0.13509 -0.40238
0.06630 0.13509 -0.39712
-0.04840 0.13509 -0.40271
-0.04299 0.13509 -0.40785
-0.07905 0.13509 -0.40461
-0.01087 0.13509 -0.40531
0.00243 0.13509 -0.41461
0.02527 0.13509 -0.40095
0.06112 -0.00220 -0.32999
-0.08147 0.05912 -0.33191
-0.06356 0.02784 -0.34126
-0.06133 0.02024 -0.34378
-0.10896 0.13509 -0.07331
-0.07771 -0.03449 0.35816
-0.08275 0.01351 0.34116
0.03202 0.13509 -0.31854
0.01455 0.13509 -0.31140
0.01512 0.13509 -0.31791
-0.01415 0.13509 -0.30852
-0.00071 0.13509 -0.32697
-0.04335 0.13509 -0.32794
-0.05142 0.13509 -0.31932
-0.11876 0.13509 -0.23373
-0.10814 0.13509 -0.24064
-0.10994 0.12706 -0.11952
-0.11771 0.13509 0.07799
-0.06103 0.13509 0.10330
0.00502 0.13509 0.09140
-0.06401 0.13509 0.08373
-0.09724 0.13509 0.09543
-0.05126 0.13509 0.10167
0.08225 0.14222 -0.02343
0.09206 0.13509 0.01566
-0.10330 0.13509 -0.14584
0.08633 0.05628 -0.31326
0.08058 0.04789 -0.31700
0.07966 0.03343 -0.32240
0.05669 0.13509 -0.41997
0.01070 0.14222 -0.42020
0.09477 -0.09847 0.34085
-0.10015 0.13385 0.26359
-0.05413 0.14222 -0.09170
-0.08387 0.14222 -0.08785
0.06512 0.14222 -0.09811
-0.06303 0.14222 -0.09585
0.02190 0.14222 -0.09947
-0.10685 0.14222 -0.08843
-0.09578 0.11530 0.27529
-0.08952 0.13509 -0.43410
-0.09432 0.09423 0.32090
0.05726 0.06384 0.30624
-0.10862 0.14128 -0.37162
0.12708 0.13847 -0.42004
-0.10162 0.12997 0.24923
-0.10526 0.13478 0.19917
-0.10741 0.12982 0.16247
0.05469 0.00635 -0.33222
0.02286 0.14222 -0.42592
0.09372 -0.09388 0.33821
-0.11094 0.13509 0.30356
-0.07263 0.07710 -0.30164
0.09991 -0.11469 -0.37075
0.07703 0.11530 0.08667
-0.07230 -0.06211 -0.35118
0.04698 0.01843 -0.32410
-0.07400 0.14222 0.07669
0.05268 0.14222 0.08685
0.05210 0.14222 0.07505
0.01285 0.14222 0.08031
0.03636 0.14222 0.09110
0.06331 0.14222 0.08881
-0.07073 0.10174 0.31505
0.07567 0.13509 -0.42452
-0.01961 0.10583 -0.29992
-0.04579 0.09325 -0.30760
0.06931 0.13509 -0.01151
-0.12183 0.13998 -0.24291
-0.07518 0.04015 -0.32285
-0.12129 0.13509 -0.00118
-0.05481 0.13710 0.45872
-0.03406 0.13849 0.45545
0.06713 0.09180 0.28846
-0.02835 0.03434 -0.33343
0.07477 0.08545 -0.30394
0.00807 0.13509 0.21333
-0.06924 -0.01102 -0.34685
-0.10219 0.13509 -0.13202
-0.05761 0.13509 -0.13117
-0.04450 0.13509 -0.13072
-0.07604 0.13509 -0.13252
-0.13176 0.13745 0.01280
-0.08412 0.12430 0.35065
0.12767 0.14222 -0.39170
0.08785 -0.03203 -0.32573
-0.00868 0.13509 -0.07954
0.07615 0.13509 -0.07568
-0.03089 0.13509 -0.07049
-0.01503 0.13509 -0.07464
0.05271 0.13509 -0.08731
0.00366 0.13509 -0.08007
-0.06125 0.13509 -0.07265
0.09957 0.11178 -0.31656
0.09912 0.12042 -0.31198
-0.06419 -0.05085 0.37020
-0.08110 -0.13033 -0.38334
0.02583 0.14222 0.43799
-0.08083 0.14222 0.44806
-0.10372 0.11915 -0.07895
-0.10327 0.11530 -0.10198
-0.02212 0.10832 0.29929
0.09209 0.12452 -0.31330
0.07650 -0.05294 0.34677
-0.09393 0.10262 0.32469
0.08138 0.13537 0.00530
-0.06971 0.00737 -0.32842
-0.08627 0.12171 0.32960
0.08197 0.13509 0.16783
-0.02360 0.13509 0.35212
-0.10690 0.13509 0.33215
-0.07749 -0.02682 0.34433
0.07197 0.11731 0.28403
0.08546 0.11530 0.14276
-0.05788 0.13509 -0.25089
-0.04256 0.13509 -0.28202
-0.06467 0.13509 -0.27471
-0.08186 0.13509 -0.27946
0.00602 0.13509 -0.26837
0.01354 0.13509 -0.26437
-0.07172 0.13509 -0.27623
-0.08668 0.13509 -0.28253
-0.05022 0.13509 -0.27354
0.02117 0.13509 -0.26023
-0.07164 0.13509 -0.28481
-0.06064 -0.02300 -0.35952
0.04418 0.04523 -0.32225
0.06257 0.02120 -0.32888
-0.05768 -0.05712 0.36624
-0.06346 0.13509 0.37042
0.10308 0.13772 -0.05231
0.06657 0.14222 -0.21264
-0.00453 0.14222 -0.21635
0.05319 0.14222 -0.22095
0.09435 0.14222 -0.23826
-0.10316 0.12054 0.10765
-0.06643 -0.01764 -0.35824
0.12018 0.14089 -0.31031
0.12333 0.14222 0.35167
0.01881 0.14222 0.35807
-0.02519 0.14222 0.37237
0.05514 0.14222 0.36726
0.10181 0.14222 0.35294
0.00691 0.14222 0.36617
0.11444 0.14222 0.37732
0.06214 0.14222 0.38073
0.10852 0.14222 0.39487
0.00131 0.14222 0.37497
0.04257 0.14222 0.37751
0.11167 0.14222 0.38967
0.04179 0.14222 0.38539
0.05682 0.14222 0.37405
0.06022 0.14222 0.34917
-0.07715 -0.01787 0.34145
-0.08730 0.10808 0.31945
-0.10163 0.14097 -0.42339
0.02189 0.09471 -0.29912
0.01816 0.09960 -0.29777
0.08979 -0.09217 0.35948
0.08291 -0.03672 0.33775
-0.04849 0.14222 -0.20539
-0.11294 0.14222 -0.15058
-0.12104 0.14222 -0.18435
0.05671 0.14222 -0.19985
-0.03592 0.14222 -0.18847
-0.08562 0.14222 -0.18291
-0.10491 0.14222 -0.16883
-0.07513 0.14222 -0.20946
0.04158 0.14222 -0.19091
-0.00751 0.14222 -0.17578
-0.10677 0.14222 -0.21406
-0.09893 0.14222 -0.18014
-0.11907 0.14222 -0.19207
-0.01823 0.14222 -0.18812
-0.05294 0.14222 -0.17406
-0.12073 0.14222 -0.03202
-0.12992 0.14222 -0.04324
-0.08799 0.12457 -0.31508
0.08027 0.12511 0.17319
0.08221 0.12047 0.20409
-0.10797 0.13509 -0.23361
0.11455 0.14116 0.25667
-0.08100 -0.10624 0.36446
-0.08424 0.13509 0.45238
0.00907 0.11128 0.30217
0.07536 0.11665 0.29240
0.03216 0.11361 0.29860
0.06107 0.13509 0.21329
-0.01701 0.13509 0.22292
-0.04936 0.13509 0.22032
-0.01524 0.13509 -0.11905
0.06044 0.13509 -0.11871
-0.10019 0.13509 -0.11146
-0.05616 0.13509 -0.11002
-0.04917 0.14222 -0.12087
-0.05999 0.14222 -0.12255
-0.09246 0.14222 -0.12473
0.00794 0.14222 -0.11649
-0.07730 -0.03033 -0.33933
-0.02039 0.13509 0.25827
-0.05251 0.13509 0.25064
0.00961 0.13509 0.27339
0.05781 0.13509 0.26371
-0.00417 0.13509 0.26503
-0.11063 0.13509 0.27227
-0.06574 0.13509 0.26632
-0.09713 0.13509 0.24431
0.09046 0.14222 0.41243
0.08445 0.11530 -0.14807
0.09103 0.11221 -0.29212
-0.03895 0.14222 -0.12272
0.02263 0.14222 -0.11569
-0.07348 0.07809 0.31103
-0.06869 -0.00793 0.34810
0.12572 0.14222 0.41553
-0.10513 0.11903 0.00739
-0.06920 0.05212 0.33306
0.07586 0.09350 0.29990
0.02682 0.14222 -0.00069
0.03348 0.13509 -0.42368
-0.08036 -0.11807 -0.38247
0.08411 -0.06380 0.33323
-0.10900 0.14222 0.23241
0.09878 0.09874 0.30461
-0.07085 -0.01837 0.35908
0.04982 0.11712 -0.29528
0.09105 0.12782 -0.28652
-0.09965 0.13889 -0.24245
-0.07167 -0.05554 0.35076
0.08841 0.12796 0.27199
-0.08027 0.03630 0.33252
-0.06898 0.04347 0.32857
-0.06619 0.03401 0.33171
-0.01110 0.13509 -0.13289
-0.02169 0.13509 -0.13601
-0.04226 0.13509 -0.14001
0.02924 0.13509 -0.13539
0.03529 0.14222 -0.22334
0.08177 0.14222 -0.22539
-0.08700 0.14222 -0.21814
-0.00051 0.14222 -0.22036
0.08172 0.14222 -0.21782
-0.11937 0.13729 -0.27162
-0.10246 0.13012 -0.24091
-0.08493 0.12276 0.34276
0.01155 0.13509 -0.14155
-0.08266 0.13509 -0.14582
-0.01165 0.13509 -0.14478
-0.00332 0.13509 -0.17307
-0.02566 0.13509 -0.14930
0.08348 0.13509 -0.13611
0.06091 0.13509 -0.14708
0.03804 0.13509 -0.16599
0.03385 0.13509 -0.14370
0.07522 0.13509 -0.17222
-0.01528 0.13509 -0.16922
0.09406 0.13509 -0.15009
0.04708 0.13509 -0.17279
-0.01507 0.13509 -0.16143
-0.03628 0.04846 -0.33051
0.12112 0.13509 -0.36442
0.08579 0.11530 -0.23043
0.09578 0.13509 -0.31046
0.12688 0.13560 0.36442
0.08134 0.13023 -0.00315
-0.07711 -0.11805 -0.39634
0.07255 0.03836 -0.30264
-0.07880 0.00763 -0.34281
-0.04851 0.13509 0.37745
-0.07456 -0.14197 0.38264
-0.06670 0.14222 0.27243
-0.10127 0.14222 0.28740
0.04760 0.14222 0.26094
-0.07116 0.14222 0.25340
-0.06205 0.14222 0.27993
0.07634 0.14222 0.26258
-0.06568 0.14222 0.25986
-0.04580 0.14222 0.26017
-0.04012 0.14222 0.28006
-0.08690 0.14222 0.25961
0.08145 0.01779 0.32791
0.06642 0.02588 0.32671
0.09634 0.10238 -0.28757
0.09258 0.05568 -0.31274
-0.02877 0.14222 0.11556
-0.08155 0.14222 0.12257
-0.04188 0.14222 0.11163
0.08104 0.11530 0.03865
-0.08051 0.09405 -0.31901
-0.08834 0.13509 0.33829
-0.13104 0.13892 -0.07196
-0.02081 0.13509 0.44945
0.05857 0.14222 0.38891
0.09741 -0.06603 0.35674
0.09293 0.00529 0.33114
0.08384 0.08675 0.29473
0.10778 0.13509 0.41305
0.07690 0.02070 0.30434
0.06953 0.07110 0.29543
0.08257 0.12628 0.06707
0.08293 0.12180 0.08579
0.08298 0.13509 -0.00825
0.06061 0.01506 -0.32373
0.08652 0.13509 -0.40972
0.04971 0.13509 0.13096
0.08254 0.13509 0.12355
0.05655 0.13509 0.13079
0.08768 0.13509 -0.42498
0.01158 0.12621 -0.29644
0.07595 0.11338 -0.29358
0.01459 0.11748 -0.29928
0.00301 0.14222 0.17710
0.03999 0.14222 0.18965
0.06858 0.14222 0.20132
-0.08373 0.13385 -0.35835
-0.04036 0.14222 -0.27127
0.00435 0.14222 -0.26554
-0.03283 0.14222 -0.27411
-0.08807 0.14222 -0.24708
-0.02187 0.14222 -0.26148
-0.03661 0.14222 -0.25641
0.02055 0.14222 -0.27399
-0.06587 0.14222 -0.26573
0.00695 0.14222 -0.27319
0.08021 0.11825 -0.00008
0.02500 0.14222 -0.42098
0.10193 -0.01486 -0.33747
0.09358 0.04089 -0.31804
0.10268 -0.05256 -0.35118
-0.10214 0.11530 0.15694
0.02706 0.06026 0.31875
0.02485 0.04475 0.32261
-0.07381 -0.05463 -0.36501
-0.07483 -0.03548 -0.35813
-0.02306 0.14222 0.10296
-0.04573 0.14222 0.09876
0.06085 0.14222 0.09890
0.01522 0.14222 0.09631
-0.05857 0.14222 0.09643
-0.08757 0.14222 0.09870
-0.13166 0.13929 -0.02150
-0.07278 0.01801 0.33834
0.08936 0.11936 -0.20982
-0.00864 0.13509 -0.41924
-0.06939 0.13509 -0.39978
-0.07868 0.13509 -0.42809
-0.01668 0.13509 -0.41997
-0.09287 0.13509 -0.40480
-0.03706 0.13509 -0.42356
-0.07453 0.13509 -0.38224
-0.06265 0.13509 -0.38854
-0.08698 0.13509 -0.40411
-0.00995 0.13509 -0.39857
-0.09730 0.13509 -0.40871
0.01746 0.13509 -0.38962
0.00770 0.13509 0.01979
-0.02524 0.13509 0.03148
-0.10680 0.13509 0.01087
0.06279 0.13509 0.04145
0.03720 0.13509 0.04768
0.08307 0.13509 0.03476
0.01703 0.13509 0.04182
-0.01897 0.13509 0.03179
-0.00668 0.13509 0.02110
0.08658 0.13509 0.05102
0.02655 0.13509 0.03526
0.12769 0.13543 0.41909
0.08694 -0.02678 -0.33596
0.09962 0.13509 -0.13211
0.01733 0.13509 -0.12227
0.07635 0.13335 -0.11021
0.09933 0.14222 0.03795
0.08551 -0.00579 0.32021
-0.10454 0.13145 0.21154
-0.10455 0.11840 0.21130
-0.09135 0.12585 -0.35369
-0.09293 0.11099 -0.33760
-0.06605 0.11180 0.28925
-0.07563 -0.02125 -0.35306
0.09346 0.11198 0.27072
0.04862 0.11614 0.29573
0.06975 0.11822 0.29248
0.08672 0.11076 0.29322
0.06144 0.13509 -0.22494
0.07361 0.13509 -0.22155
0.04352 0.13509 -0.21552
-0.09446 0.13509 -0.21792
0.08136 -0.03081 0.32975
0.08063 -0.03125 0.32437
-0.06123 -0.05583 -0.37161
-0.04062 0.04778 0.32365
-0.06765 0.04606 -0.32240
-0.07623 -0.08715 0.35629
0.07028 0.08783 0.29592
-0.09926 0.12301 -0.27334
0.09736 -0.10177 0.35742
0.09553 -0.08715 0.35155
0.09038 -0.01173 0.33004
0.07212 -0.03076 0.33916
-0.10434 0.11817 0.04766
-0.10326 0.12011 0.10228
-0.03758 0.13509 0.37771
0.02918 0.04949 -0.31482
0.08186 0.14222 -0.38490
0.06598 0.14222 -0.35442
0.05182 0.14222 -0.34852
0.10493 0.14222 -0.37271
-0.03204 0.14222 -0.34366
0.03393 0.14222 -0.34947
0.08372 0.14222 -0.34283
0.09031 0.14222 -0.33908
0.02842 0.14222 -0.36167
-0.00571 0.14222 -0.37463
0.00037 0.14222 -0.37760
-0.12733 0.14222 0.13925
0.03753 0.09520 0.29708
0.06062 0.09855 0.29313
0.04827 0.09735 0.29503
0.08732 -0.10609 -0.37257
-0.04934 0.05215 0.33071
0.11810 0.14222 -0.30522
-0.06639 0.10565 0.29004
0.10067 -0.12639 0.37085
-0.09440 0.14222 0.33493
-0.12424 0.13509 -0.12428
-0.09479 0.11623 0.24598
-0.06045 -0.09503 -0.38254
0.08044 0.03354 0.30338
-0.07311 0.06477 -0.30627
0.08731 -0.12688 0.38023
0.07070 0.14222 0.21369
0.04905 0.14222 0.22582
-0.05245 0.14222 0.22050
-0.07572 0.03126 0.32108
0.08305 0.14222 -0.42653
-0.07263 -0.10330 0.37522
-0.09719 0.14222 0.30062
-0.09784 0.14222 0.30726
-0.01354 0.14222 0.33672
-0.02818 0.14222 0.32382
0.00699 0.14222 0.32469
0.09263 0.13509 -0.22506
-0.10342 0.11530 0.14591
-0.05700 0.06084 0.32079
-0.08568 0.01759 -0.34761
-0.08784 -0.10181 -0.39156
-0.08121 -0.07563 -0.38120
-0.08920 -0.06316 -0.37758
-0.07366 0.01302 0.32470
-0.00155 0.14222 -0.11246
0.01099 0.14222 -0.11173
0.03591 0.14222 -0.10503
-0.00195 0.08358 -0.30600
-0.06921 0.14222 -0.01920
-0.02443 0.14222 -0.01660
0.01864 0.14222 -0.04016
0.06824 0.14222 -0.03808
0.09011 0.14222 -0.04442
-0.00830 0.14222 -0.01448
0.07561 0.14222 -0.04152
0.06045 0.14222 -0.04743
0.01369 0.14222 -0.01685
0.07196 0.13509 -0.32975
-0.02900 0.13509 -0.33291
0.09215 -0.05435 -0.35307
0.08593 -0.08989 -0.36680
0.02219 0.13509 0.35740
0.02219 0.13509 0.38052
0.03047 0.13509 0.35570
-0.07560 0.13509 0.36124
0.02233 0.13509 0.36891
0.07292 0.13509 0.37080
0.08634 0.13509 0.34205
0.00351 0.13509 0.36616
0.09691 0.13509 0.36353
0.08560 0.13509 0.38076
0.09601 0.13509 0.35664
-0.11173 0.12550 -0.03449
-0.11171 0.11983 -0.03530
0.08626 -0.00587 -0.32701
0.08718 0.12602 0.27994
0.04984 0.06037 0.31603
-0.02656 0.14222 0.04965
-0.07283 0.14222 0.04263
0.04107 0.14222 0.06032
-0.12273 0.14222 0.07128
-0.01455 0.14222 0.06148
0.00728 0.14222 0.06323
0.05557 0.14222 0.05813
-0.11188 0.14222 0.06500
0.06937 0.14222 0.05952
-0.01908 0.14222 0.03978
-0.08580 0.14222 0.04740
-0.08093 0.14222 0.05456
-0.05820 0.14222 0.04565
-0.01045 0.14222 0.06839
-0.07004 0.14222 0.02441
0.08450 -0.06711 0.35866
0.08185 -0.08241 0.36458
0.07432 0.12231 -0.00862
-0.08294 -0.04837 0.36386
-0.08769 0.04202 0.33130
-0.08659 0.04805 0.32896
0.07510 0.12743 0.04937
0.07453 0.12802 0.01955
-0.06552 0.11755 0.29069
-0.10650 0.11530 -0.09616
0.04971 0.04472 -0.31415
-0.10527 0.11918 -0.19871
-0.10952 0.12814 -0.12651
-0.10888 0.13089 -0.13735
-0.08576 -0.03650 -0.36741
-0.08568 0.00652 -0.35166
-0.08239 -0.11629 -0.39622
-0.08154 -0.04817 0.37126
0.00156 0.14222 0.34014
-0.08489 0.14222 0.33969
-0.06651 0.14222 0.34904
0.03627 0.14222 0.34201
-0.07820 0.13509 0.22364
-0.06034 0.13509 0.22611
-0.02385 0.13509 0.22679
-0.04152 0.13509 0.22518
0.08518 -0.12831 -0.37332
0.08338 0.13258 -0.22493
0.12094 0.14222 0.40312
-0.07356 0.08757 0.30328
-0.11374 0.13509 0.12154
-0.03287 0.03548 0.33488
-0.08951 0.13509 -0.24125
0.03191 0.13509 -0.23046
-0.05600 0.13509 -0.23473
-0.06136 0.13509 -0.23129
-0.00816 0.13509 0.30959
-0.06718 0.13509 0.30121
0.03854 0.13509 0.31509
0.01769 0.13509 0.31653
-0.06355 0.04434 -0.33522
-0.08768 0.10681 -0.31519
0.08306 0.02399 0.31781
0.07619 0.12171 -0.10390
0.07512 0.12845 -0.04983
-0.08808 0.13131 0.31183
-0.09149 0.13659 -0.34998
0.08322 0.12058 0.21934
-0.11231 0.13326 -0.00496
0.08808 0.13509 0.40686
0.07323 0.13509 -0.41565
0.09531 0.14222 0.07222
0.05183 0.14222 0.06904
0.02185 0.14222 0.08791
-0.01939 0.14222 0.08240
-0.00885 0.14222 0.07562
0.07785 0.14222 0.08674
0.08604 0.12954 -0.25195
0.01925 0.13509 -0.08696
0.06512 0.13509 -0.08881
0.00484 0.13509 -0.07407
-0.05345 0.13509 -0.07936
0.09630 0.13509 -0.07402
-0.03458 0.13509 -0.07949
0.07532 0.12719 0.06093
0.07179 0.10687 0.29640
-0.06841 0.13509 -0.24473
0.04517 0.13509 -0.25663
0.09038 0.13509 -0.26389
0.00487 0.13509 -0.23738
0.06574 0.13509 -0.24570
0.07078 0.13509 -0.23446
0.11866 0.13719 0.42857
0.04797 0.10626 0.29180
0.05410 0.09272 0.29604
0.01214 0.09824 0.29895
-0.02832 0.11755 0.29664
0.01199 0.11381 0.29326
0.05169 0.13528 -0.44193
-0.00504 0.13682 -0.45087
-0.10267 0.11536 -0.23878
0.07223 0.10948 -0.28377
-0.01057 0.13509 -0.17416
-0.11180 0.13509 -0.15453
-0.05120 0.13509 -0.17649
0.02030 0.13509 -0.20290
-0.10164 0.13509 -0.20503
-0.02222 0.13509 -0.20704
-0.10866 0.13509 -0.21542
-0.02378 0.13509 -0.19366
0.06591 0.13509 -0.19174
-0.12355 0.13509 -0.17799
-0.08691 0.13509 -0.19676
-0.05572 0.13509 -0.17015
-0.05765 0.03316 0.33101
0.08821 0.13509 -0.20260
0.11179 0.14222 0.40961
-0.09696 0.13891 -0.23227
0.09541 0.12595 0.28663
-0.07549 -0.03768 0.34141
0.08070 0.03075 -0.30552
0.08131 0.03287 -0.31085
-0.05989 -0.08914 0.38063
0.08793 0.12521 0.18154
0.08741 0.12476 0.17322
-0.08818 0.11415 -0.31317
0.10773 0.13906 0.16721
-0.06376 0.13509 0.13299
-0.05390 0.13509 0.13694
-0.00492 0.13509 0.13073
-0.05681 0.08717 0.31876
0.09326 0.13509 -0.31631
-0.09400 0.12751 -0.30072
0.06579 0.06073 -0.31404
0.08061 0.13509 -0.02961
0.03394 0.05559 0.31201
0.06946 -0.03974 0.34289
-0.08440 0.12390 -0.36504
0.10443 -0.03632 -0.34438
0.11536 0.13539 -0.26617
0.02080 0.05146 0.31507
-0.07731 -0.00107 -0.33000
-0.02014 0.14222 0.30899
0.01967 0.14222 0.31287
0.06640 0.14222 0.31393
-0.07297 0.14222 0.30034
-0.00755 0.14222 0.31067
0.07410 0.02655 0.30265
0.07728 0.11530 0.10580
-0.06941 0.11953 0.30074
-0.04356 0.11811 0.29822
0.09165 -0.10904 0.36449
0.07929 0.00486 -0.32527
0.07434 0.13948 -0.00354
-0.11803 0.14222 -0.26929
-0.10105 0.13517 0.42769
0.07551 0.09452 -0.29958
0.12526 0.14117 -0.35231
0.09061 -0.11633 -0.34480
-0.11694 0.14014 -0.29800
-0.05067 0.13509 -0.44019
-0.03285 0.13509 -0.44377
0.01457 0.13509 -0.44494
-0.05934 0.13509 -0.45050
0.03024 0.14222 -0.22574
-0.10801 0.13509 0.08277
0.08159 0.01712 0.32050
0.08466 0.03369 0.31407
0.08768 0.06587 0.30192
-0.05371 -0.02538 0.35200
0.12243 0.13509 0.39843
-0.09241 0.11913 -0.31128
-0.00266 0.14222 0.44506
0.09123 0.12082 -0.30465
-0.10044 0.11586 0.23257
-0.07147 0.11309 -0.28757
-0.09503 0.10218 0.31012
0.08412 0.12295 -0.23241
0.09952 0.12070 0.31213
0.04889 0.13509 0.24222
0.06045 0.13509 0.24102
-0.01998 0.13509 0.24606
-0.04659 0.13509 0.24764
-0.00744 0.13509 0.24865
-0.02963 0.13509 0.23937
0.08185 0.14222 -0.16398
-0.04530 0.14222 -0.14583
0.08988 0.14222 -0.14543
0.09795 0.14222 -0.18205
0.08208 0.14222 -0.14293
0.09556 0.14222 -0.15453
0.04756 0.14222 -0.14899
0.10093 0.14222 -0.13810
-0.04058 0.14222 -0.15645
-0.07115 0.14222 -0.15810
0.07161 0.14222 -0.16206
0.03815 0.14222 -0.14144
-0.03879 0.14222 -0.14693
0.03561 0.14222 -0.16815
-0.06344 0.14222 -0.14897
-0.04286 0.13509 -0.10614
0.06993 0.13509 -0.10644
0.05541 0.13509 -0.10888
-0.08138 0.13509 -0.10617
-0.01067 0.12958 -0.29592
0.06573 0.10225 0.28364
0.08374 0.08041 -0.30473
-0.06803 0.06467 0.32832
0.08453 0.00376 -0.31952
-0.06812 0.01797 0.33529
-0.07666 -0.07521 0.37296
-0.10062 0.13485 0.15654
-0.10239 0.12308 0.12646
-0.01345 0.09304 0.31150
0.06362 0.09415 0.30203
-0.02690 0.09241 0.31332
-0.06317 0.13509 -0.24661
0.10026 0.12872 0.31966
0.08469 0.13509 0.20173
0.08818 -0.01349 -0.33094
-0.08580 0.11365 -0.30483
0.06068 0.04024 -0.31450
-0.08679 0.03093 0.33526
-0.08187 -0.06930 0.37141
-0.08521 -0.12123 0.39083
0.10064 0.14222 0.32238
-0.12895 0.14222 -0.09949
0.08245 -0.11626 -0.37616
0.04733 0.13509 0.31659
-0.08374 0.13509 0.29547
0.06389 0.13509 0.31623
-0.04414 0.13509 0.30458
-0.10845 0.12878 0.14487
-0.10566 0.13378 0.19236
0.08146 0.11530 -0.19167
0.07851 0.10826 0.28747
-0.07041 -0.00877 -0.33261
0.08469 0.14222 -0.32083
0.07523 0.14222 -0.32529
0.08022 0.14222 -0.32858
0.03632 0.13509 0.20761
-0.09076 0.13509 0.17022
-0.11884 0.13509 0.21074
-0.05517 0.13509 0.21358
0.01428 0.13509 0.20908
-0.04952 0.13509 0.20697
-0.09424 0.13509 0.21506
-0.11965 0.13509 0.19085
0.02775 0.13509 0.20442
-0.11310 0.13509 0.15929
0.08952 -0.05366 -0.32713
0.09745 -0.11224 -0.35469
0.08227 0.14222 0.40465
0.07751 0.12565 -0.00004
-0.06550 0.13509 -0.00018
-0.05812 0.13509 0.00869
-0.10016 0.13509 0.00683
0.00097 0.13509 0.00500
-0.03012 0.13509 0.21489
-0.10041 0.13824 -0.43243
0.06202 0.02901 -0.32609
-0.07925 -0.09698 -0.35943
-0.09132 0.11251 0.35035
0.09662 0.14222 0.20751
-0.07739 0.08213 0.31539
0.08885 -0.04378 0.34196
-0.09623 0.13509 0.27347
0.09870 0.14222 -0.02056
-0.07189 -0.00048 0.32901
-0.10700 0.11530 -0.14960
0.11781 0.13509 -0.40379
0.07398 0.03803 -0.31244
-0.07871 -0.05621 0.35262
0.11043 -0.09399 0.36034
0.11294 -0.11796 0.36784
0.09003 -0.10910 -0.35479
0.06794 0.13509 -0.00345
0.03368 0.13509 -0.00374
-0.05825 -0.06266 0.36792
-0.05544 -0.03798 -0.36023
0.05111 0.14222 0.10263
0.03585 0.14222 0.11415
0.07929 0.04183 -0.30098
-0.04463 0.09828 -0.30562
-0.03324 0.10089 -0.30333
-0.03580 0.12567 0.30218
-0.00603 0.12345 0.29949
-0.01147 0.12014 0.30134
0.10577 0.13509 0.20362
0.10963 -0.08899 0.36372
0.10412 -0.06386 0.35516
-0.08288 0.09414 0.31927
0.05841 0.13509 -0.43936
-0.07586 0.13509 -0.44661
-0.01835 0.13509 -0.43699
0.01986 0.13509 -0.44172
-0.10705 0.12314 0.11638
-0.13034 0.13974 0.09166
0.00329 0.12739 0.28931
0.09040 -0.06275 0.34873
0.09238 -0.13339 -0.38197
0.02356 0.13509 0.44102
-0.12795 0.14222 0.01819
-0.11804 0.14222 0.25045
-0.11253 0.14222 0.24914
-0.01439 0.14222 0.44969
0.08813 0.11530 0.24417
0.00281 0.14222 -0.20404
-0.06905 0.14222 -0.18547
0.00267 0.14222 -0.19799
-0.00482 0.14222 -0.18202
-0.07733 0.14222 -0.20162
-0.05263 0.14222 -0.21154
-0.07887 0.14222 -0.18571
0.01010 0.14222 -0.19275
-0.11199 0.14222 -0.19573
-0.04749 0.14222 -0.16567
0.07613 0.13283 -0.10105
-0.07576 0.12245 -0.30806
0.10447 0.13751 -0.09998
0.00108 0.12918 0.29655
-0.07646 0.13509 -0.34190
-0.04292 0.13509 -0.36171
0.05622 0.13509 -0.38068
0.02181 0.13509 -0.37624
-0.03466 0.02430 0.33185
0.08352 0.11921 0.11123
0.08558 0.13213 0.14410
0.08346 0.11715 -0.29132
-0.01741 0.05691 -0.31757
0.04156 0.05138 -0.32031
0.10963 0.13509 -0.21455
-0.00941 0.13509 -0.12035
-0.04116 0.13509 -0.12022
-0.07090 0.13509 -0.11771
0.08672 0.12483 -0.25882
0.01912 0.14222 -0.13158
-0.08612 0.14222 -0.12867
-0.04760 0.14222 -0.13010
-0.06600 0.14222 -0.13099
0.09736 -0.11032 0.35339
0.08299 0.11566 0.08904
0.08230 0.11628 0.05341
-0.10851 0.13462 -0.14365
-0.10631 0.13125 -0.18094
-0.01006 0.14222 0.03045
0.00324 0.14222 0.02854
0.03341 0.14222 0.01740
0.08718 0.14222 0.06040
-0.09958 0.14222 0.01253
0.09725 0.14222 0.05362
0.05302 0.14222 0.04073
0.09151 0.14222 0.04551
0.09231 0.11530 0.25047
0.10312 -0.02971 -0.33790
0.09610 0.03443 -0.31574
-0.09288 0.13509 0.32525
-0.12864 0.13522 0.13807
0.09028 0.12123 -0.29497
-0.07834 0.14222 0.43845
-0.11842 0.14222 0.22931
0.11480 0.14222 0.32490
0.11551 0.14222 0.28543
0.08122 -0.01531 -0.31586
-0.09521 0.12703 0.30103
0.05167 0.14222 -0.25539
0.04395 0.14222 -0.23909
0.04679 0.14222 -0.24452
0.03556 0.14222 -0.23616
0.07886 0.14222 -0.24144
-0.03417 0.14222 -0.23968
-0.08762 0.13509 0.36003
0.10142 0.14028 0.33211
0.06198 0.14222 0.20278
0.00517 0.14222 0.20178
0.01765 0.14222 0.19638
-0.09250 0.14222 0.19931
-0.10614 0.14222 0.17729
-0.04160 0.14222 0.17654
-0.04856 0.14222 0.19432
-0.03162 0.14222 0.19028
-0.12137 0.14222 0.15022
-0.04767 0.14222 0.18838
0.02438 0.13509 0.00370
-0.00743 0.13509 -0.00318
0.01264 0.13509 0.00092
-0.07181 0.14222 0.45756
-0.07702 0.13509 -0.08523
-0.08607 0.13509 -0.08517
-0.11237 0.13509 -0.09753
-0.02523 0.13509 -0.09164
-0.03626 0.13509 -0.09258
0.05986 0.13509 -0.09839
0.09685 -0.10287 -0.36854
0.06086 0.03628 0.31592
-0.11707 0.13963 0.29675
-0.09264 0.12133 0.33730
0.09980 0.13199 0.31491
-0.07952 0.14222 -0.35787
-0.03988 0.14222 -0.35478
-0.01813 0.14222 -0.36368
0.05009 0.14222 -0.37785
-0.07208 0.00296 0.34720
-0.06936 0.07028 0.32642
0.08306 0.11556 -0.09128
0.08277 0.11932 -0.07613
0.00758 0.13509 0.40068
0.08108 -0.10581 -0.37173
-0.09401 0.12069 -0.25393
0.07729 0.02662 -0.30224
0.09694 0.14222 -0.06741
0.04535 0.14222 -0.06975
0.08159 0.14222 -0.08553
0.01230 0.14222 -0.08750
0.07440 0.14222 -0.09626
0.04192 0.14222 -0.08860
0.07797 0.05886 0.29817
-0.05846 -0.02475 -0.35228
0.05423 0.04872 -0.31979
-0.09749 0.12649 -0.20947
0.09100 0.13509 -0.12575
0.11523 0.13509 -0.29746
-0.13160 0.13930 0.02649
-0.06346 0.13509 0.17315
-0.04999 0.13509 0.18124
0.07722 0.13509 0.20735
-0.03368 0.13509 0.18469
-0.04412 0.13509 0.21363
0.03918 0.13509 0.20050
-0.08281 0.13509 0.16188
-0.03341 0.13509 0.19183
0.00535 0.13509 0.19816
-0.09918 0.13509 0.20028
0.01387 0.13509 0.18947
-0.00070 0.13509 0.19435
-0.11542 0.13509 0.18186
-0.06008 0.14222 0.45867
0.08124 0.12892 -0.19317
0.08097 0.13191 -0.18850
0.05985 0.12532 0.29105
-0.07189 0.11594 0.30999
-0.07947 0.12741 0.30668
0.08260 -0.02524 0.34354
0.03975 0.05682 0.31851
-0.07669 0.11073 -0.30483
0.06919 0.06133 0.30576
-0.11175 0.13210 -0.03309
-0.11086 0.12341 -0.07861
0.09144 -0.10411 0.37140
0.08389 0.13509 0.15717
-0.11315 0.13720 -0.33241
-0.08698 0.08234 0.31879
-0.08658 -0.04112 0.36927
-0.08422 -0.08173 0.38387
-0.08395 -0.11919 0.39757
0.04321 0.03596 -0.32576
-0.05469 0.09786 0.30695
-0.04117 0.10295 0.30350
-0.02202 0.09057 0.30578
-0.01825 0.09685 0.31067
-0.03606 0.09331 0.31406
0.06081 0.09889 0.30062
-0.07290 0.11966 -0.28943
0.08424 0.11530 -0.16816
-0.03280 0.14222 0.17395
-0.09500 0.11869 -0.31659
0.09207 -0.05808 -0.34286
0.00348 0.13509 0.39161
0.09292 -0.13109 0.36292
-0.04853 0.14222 0.30066
-0.10777 0.14222 0.29239
-0.06366 0.14222 0.30096
0.07587 -0.02424 0.33633
0.09889 0.13087 0.30574
-0.05810 -0.06300 -0.37362
-0.07834 0.07051 -0.32738
0.09323 -0.12915 0.34788
0.04054 0.14222 0.16547
0.07067 0.14222 0.14028
-0.04380 0.14222 0.15795
-0.00590 0.14222 0.14747
0.07545 0.14222 0.14657
-0.05602 0.14222 0.15515
0.08960 0.14222 0.13987
0.04553 0.14222 0.18274
0.05014 0.14222 0.15440
0.08652 0.14222 0.13490
0.09235 0.14222 0.42566
0.08834 0.04616 0.30907
0.08107 0.01120 0.32274
0.10686 0.13868 0.15285
-0.06579 0.14222 0.26645
-0.04696 0.14222 0.27520
0.01177 0.14222 0.26948
0.05134 0.14222 0.26627
0.04000 0.14222 0.26747
-0.10703 0.14222 0.28437
-0.02639 0.14222 0.26299
-0.09610 0.14222 0.25673
-0.08143 -0.13480 0.38059
0.08314 0.12143 -0.09491
0.08269 0.12861 -0.07194
0.09621 0.14222 -0.03384
0.09327 -0.12348 -0.37065
0.08812 0.11479 0.28395
0.09539 0.10377 -0.31655
0.09566 -0.06065 -0.35496
-0.07306 0.14160 -0.46071
-0.10430 0.13509 -0.10150
-0.07669 0.00897 -0.32929
-0.03421 0.13509 0.11560
-0.09762 0.13509 0.11498
-0.10998 0.13509 -0.31123
-0.10443 0.13509 -0.34584
0.09449 0.08932 -0.28821
0.07530 0.02208 0.31248
0.07379 0.03832 0.30967
0.10434 0.14184 0.09646
-0.02637 0.14222 -0.42804
0.08246 -0.09216 0.36808
0.08738 -0.08194 0.36376
0.03874 0.14222 0.12669
-0.00519 0.14222 0.12652
-0.13144 0.13559 -0.03910
0.09734 -0.12165 0.34784
0.10346 0.14075 -0.07245
0.07443 0.13509 -0.27214
-0.02006 0.13509 -0.30068
-0.06420 0.13509 -0.28564
0.09611 0.13509 -0.26895
0.06770 0.13509 -0.30126
0.06008 0.13509 -0.30968
0.06172 0.13509 -0.29127
-0.05645 0.13509 -0.28874
0.09073 0.13509 -0.29547
0.08260 0.11667 -0.21617
0.07999 0.12831 -0.17192
0.09152 0.13509 0.42467
-0.02875 0.09314 0.30563
-0.07414 -0.14090 -0.38882
0.03547 0.14222 0.22057
0.05482 0.14222 0.22534
-0.02692 0.14222 0.22431
0.01284 0.14222 0.21602
